# .PCD v.7 - Point Cloud Data file format
VERSION .7
FIELDS x y z rgb u v vx vy vz normal_x normal_y normal_z curvature
SIZE 4 4 4 4 4 4 4 4 4 4 4 4 4
TYPE F F F F F F F F F F F F F
COUNT 1 1 1 1 1 1 1 1 1 1 1 1 1
WIDTH 557
HEIGHT 1
VIEWPOINT 0 0 0 1 0 0 0
POINTS 557
DATA ascii
0.25902 0.10883 0.97858 8.7586e-39 186 260 0 0 0 -0.25244 0.43683 -0.8634 0.0044326
0.26074 0.10883 0.97858 8.482e-39 187.5 260 0 0 0 -0.24878 0.43698 -0.86438 0.0042241
0.26302 0.10883 0.97858 8.8969e-39 189.5 260 0 0 0 -0.24274 0.4412 -0.86396 0.0039821
0.26703 0.10997 0.97858 7.56e-39 394 260 0 0 0 -0.22999 0.44186 -0.8671 0.0030701
0.26875 0.10997 0.97858 7.0069e-39 395.5 260 0 0 0 -0.22311 0.44074 -0.86947 0.0029182
0.27104 0.1094 0.97858 8.2515e-39 297 260 0 0 0 -0.22163 0.441 -0.86971 0.0028089
0.25693 0.11006 0.97936 7.2835e-39 385 260 0 0 0 -0.25007 0.43455 -0.86523 0.0048636
0.25808 0.11006 0.97936 7.0069e-39 386 260 0 0 0 -0.25095 0.43416 -0.86518 0.004587
0.26151 0.11006 0.97936 6.3615e-39 389 260 0 0 0 -0.24561 0.43453 -0.86652 0.0042529
0.26324 0.11006 0.97936 6.6381e-39 390.5 260 0 0 0 -0.241 0.43697 -0.86659 0.0038117
0.26495 0.11063 0.97936 7.4218e-39 272 260.5 0 0 0 -0.23557 0.43708 -0.86802 0.0033627
0.26641 0.1108 0.9791 7.3757e-39 233.33 260.67 0 0 0 -0.23121 0.43842 -0.86852 0.003019
0.26886 0.11117 0.97897 6.9608e-39 155.5 261 0 0 0 -0.22329 0.43667 -0.87147 0.0028629
0.27138 0.1108 0.9791 7.4986e-39 237.67 260.67 0 0 0 -0.22128 0.43635 -0.87214 0.0026762
0.26724 0.11235 0.97936 9.3118e-39 258 261 0 0 0 -0.22959 0.43482 -0.87076 0.0028274
0.26896 0.11235 0.97936 8.943e-39 259.5 261 0 0 0 -0.22511 0.43627 -0.8712 0.0027552
0.27068 0.11235 0.97936 8.943e-39 261 261 0 0 0 -0.22245 0.43636 -0.87184 0.0027387
0.27314 0.11303 0.97858 7.9596e-39 435 261 0 0 0 -0.2155 0.43345 -0.87503 0.0023573
0.27505 0.11284 0.97858 9.0814e-39 418.5 261 0 0 0 -0.2106 0.43322 -0.87634 0.0022531
0.27676 0.11341 0.97858 8.1132e-39 474.5 261 0 0 0 -0.20788 0.43069 -0.87823 0.0019603
0.27297 0.11522 0.97936 8.3898e-39 331 262 0 0 0 -0.21874 0.43039 -0.87574 0.0023484
0.27469 0.11522 0.97936 8.1363e-39 332.5 262 0 0 0 -0.21396 0.42939 -0.87741 0.0021567
0.2771 0.115 0.9791 7.7137e-39 299.67 262 0 0 0 -0.20792 0.42886 -0.87912 0.0019313
0.27886 0.11532 0.97858 7.8981e-39 371.33 262 0 0 0 -0.2094 0.42651 -0.87991 0.0019101
0.27928 0.11694 0.97936 8.5281e-39 193.5 263 0 0 0 -0.21218 0.42106 -0.88187 0.0019367
0.28153 0.11722 0.97858 9.1275e-39 264.33 263 0 0 0 -0.20936 0.41868 -0.88367 0.0020297
0.28306 0.11684 0.97858 8.7586e-39 197 263 0 0 0 -0.21217 0.41904 -0.88283 0.0020999
0.2842 0.11799 0.97858 9.6805e-39 404 263 0 0 0 -0.21351 0.41518 -0.88433 0.0020815
0.27928 0.11808 0.97936 1.0879e-38 399.5 263 0 0 0 -0.21251 0.41841 -0.88305 0.0019436
0.28099 0.11865 0.97936 8.989e-39 273 263.5 0 0 0 -0.21159 0.41218 -0.88619 0.0018683
0.2829 0.11885 0.97936 8.144e-39 232 263.67 0 0 0 -0.21098 0.40974 -0.88747 0.0018744
0.28443 0.11923 0.97936 6.9147e-39 148 264 0 0 0 -0.2119 0.41036 -0.88696 0.0018493
0.28214 0.12037 0.97936 7.6522e-39 247 264 0 0 0 -0.21161 0.40898 -0.88767 0.0017925
0.28504 0.12069 0.97884 6.9147e-39 318 264 0 0 0 -0.21172 0.40896 -0.88765 0.0018637
0.28764 0.12142 0.97858 6.7303e-39 457 264 0 0 0 -0.21596 0.41203 -0.88521 0.0019706
0.28916 0.12104 0.97858 7.2527e-39 390 264 0 0 0 -0.22064 0.4162 -0.8821 0.0020516
0.28558 0.12267 0.97936 8.482e-39 196 265 0 0 0 -0.2102 0.40953 -0.88775 0.0019207
0.28718 0.12319 0.97897 9.0813e-39 301.5 265 0 0 0 -0.20994 0.41237 -0.8865 0.0019362
0.28901 0.12267 0.97936 8.8508e-39 199 265 0 0 0 -0.21518 0.41554 -0.88376 0.002018
0.29046 0.1234 0.9791 9.6498e-39 339 265 0 0 0 -0.21647 0.41872 -0.88194 0.0021506
0.29336 0.12314 0.97858 9.8188e-39 307 265 0 0 0 -0.22653 0.42538 -0.87621 0.0024623
0.2913 0.12496 0.97936 6.8225e-39 148 266 0 0 0 -0.21456 0.42463 -0.87958 0.0023428
0.29291 0.12491 0.97897 6.8686e-39 149.5 266 0 0 0 -0.22027 0.42877 -0.87615 0.0025202
0.29451 0.12486 0.97858 7.2835e-39 151 266 0 0 0 -0.22185 0.43396 -0.87319 0.0027653
0.29794 0.126 0.97858 9.1274e-39 257 266 0 0 0 -0.21822 0.44582 -0.86812 0.0032705
0.29909 0.126 0.97858 9.1274e-39 258 266 0 0 0 -0.21866 0.44704 -0.86738 0.0035071
0.2913 0.1261 0.97936 7.4678e-39 251 266 0 0 0 -0.2135 0.42713 -0.87862 0.0024239
0.29303 0.1261 0.97936 7.2374e-39 252.5 266 0 0 0 -0.21575 0.43161 -0.87588 0.0026136
0.29474 0.12668 0.97936 7.1913e-39 359 266 0 0 0 -0.21608 0.43718 -0.87303 0.002862
0.29737 0.12715 0.97858 7.1913e-39 466.5 266 0 0 0 -0.21715 0.44459 -0.86902 0.0032571
0.29909 0.12715 0.97858 6.8225e-39 468 266 0 0 0 -0.21596 0.44966 -0.8667 0.0034553
0.30138 0.12715 0.97858 6.8225e-39 470 266 0 0 0 -0.21387 0.45177 -0.86612 0.0035725
0.29577 0.12891 0.97897 9.7725e-39 307 267 0 0 0 -0.21241 0.4431 -0.87095 0.0029907
0.29691 0.12891 0.97897 9.5884e-39 308 267 0 0 0 -0.21332 0.44643 -0.86902 0.0031292
0.29875 0.12839 0.97936 8.7586e-39 205.5 267 0 0 0 -0.21274 0.44989 -0.86738 0.0032795
0.30093 0.12891 0.97897 9.1274e-39 311.5 267 0 0 0 -0.21138 0.4542 -0.86546 0.0034157
0.30309 0.12944 0.97858 9.5884e-39 417.5 267 0 0 0 -0.20691 0.45551 -0.86585 0.0036338
0.30596 0.12944 0.97858 1.0142e-38 420 267 0 0 0 -0.19866 0.45483 -0.86814 0.0038013
0.31054 0.12944 0.97858 8.2054e-39 424 267 0 0 0 -0.18192 0.4495 -0.87456 0.0043209
0.35203 0.12954 0.97936 6.9147e-39 462 267 0 0 0 0.21806 0.50848 -0.833 0.011557
0.30105 0.13069 0.97936 7.3296e-39 158.5 268 0 0 0 -0.20824 0.45489 -0.86586 0.0033782
0.30321 0.1312 0.97897 8.4128e-39 211.5 268 0 0 0 -0.20588 0.45528 -0.86622 0.0035337
0.30519 0.13096 0.97858 7.4371e-39 232 268 0 0 0 -0.20043 0.45488 -0.86771 0.0036025
0.30665 0.13178 0.97897 7.4679e-39 372.5 268 0 0 0 -0.19807 0.45339 -0.86903 0.0037174
0.31054 0.13115 0.97858 8.3437e-39 271.5 268 0 0 0 -0.18378 0.45219 -0.87278 0.00422
0.35075 0.1312 0.97897 1.0141e-38 306.5 268 0 0 0 0.20366 0.50625 -0.83799 0.010886
0.35203 0.13069 0.97936 9.2196e-39 203 268 0 0 0 0.2189 0.50539 -0.83466 0.011568
0.30505 0.13298 0.97936 6.7303e-39 471 268 0 0 0 -0.20338 0.4555 -0.86669 0.0034093
0.30735 0.13298 0.97936 6.6381e-39 473 268 0 0 0 -0.19582 0.45494 -0.86872 0.0036298
0.30882 0.13287 0.97858 6.7764e-39 474.5 268 0 0 0 -0.19008 0.45433 -0.87032 0.0038777
0.31123 0.13293 0.97897 6.6381e-39 480 268 0 0 0 -0.18268 0.45328 -0.87245 0.0041584
0.35089 0.13298 0.97936 6.8225e-39 148 269 0 0 0 0.20553 0.50487 -0.83837 0.010692
0.30917 0.13447 0.9791 9.6805e-39 279.67 269 0 0 0 -0.18999 0.45834 -0.86823 0.0038118
0.31146 0.13447 0.9791 9.6498e-39 281.67 269 0 0 0 -0.18608 0.45561 -0.87051 0.0040256
0.31295 0.13465 0.97897 8.7585e-39 317.5 269 0 0 0 -0.18538 0.45229 -0.87239 0.0042521
0.31512 0.13516 0.97858 6.9147e-39 423 269 0 0 0 -0.17996 0.44525 -0.87714 0.0043773
0.31703 0.13478 0.97858 7.222e-39 355.67 269 0 0 0 -0.17547 0.44152 -0.87992 0.004339
0.3197 0.13516 0.97858 6.6381e-39 427 269 0 0 0 -0.15974 0.43964 -0.88385 0.0044276
0.32084 0.13516 0.97858 7.0069e-39 428 269 0 0 0 -0.15099 0.43687 -0.88676 0.0047122
0.3466 0.13516 0.97858 6.9147e-39 450.5 269 0 0 0 0.16225 0.50364 -0.84854 0.0097894
0.34832 0.13516 0.97858 6.8225e-39 452 269 0 0 0 0.17631 0.50262 -0.84634 0.01011
0.3149 0.13676 0.9791 7.4678e-39 195 270 0 0 0 -0.18238 0.44989 -0.87426 0.0044202
0.31708 0.13699 0.97936 7.7214e-39 213 270 0 0 0 -0.17794 0.44866 -0.87581 0.0045681
0.31919 0.13691 0.97878 8.1593e-39 242 270 0 0 0 -0.16542 0.44467 -0.88029 0.0046007
0.32131 0.13711 0.97884 9.5269e-39 305 270 0 0 0 -0.148 0.44592 -0.88275 0.0051369
0.32313 0.13745 0.97858 1.1248e-38 375 270 0 0 0 -0.12566 0.44382 -0.88726 0.0052423
0.32428 0.13745 0.97858 1.0971e-38 376 270 0 0 0 -0.11481 0.44346 -0.88891 0.0053032
0.32886 0.13745 0.97858 1.0326e-38 380 270 0 0 0 -0.057097 0.46083 -0.88565 0.0069973
0.34087 0.13745 0.97858 9.3118e-39 390.5 270 0 0 0 0.092496 0.4937 -0.8647 0.010248
0.34316 0.13745 0.97858 8.4359e-39 392.5 270 0 0 0 0.12139 0.49446 -0.86068 0.010304
0.34502 0.13693 0.97897 7.56e-39 291.5 270 0 0 0 0.14665 0.49734 -0.85507 0.0099345
0.34916 0.13642 0.97936 7.6522e-39 192.5 270 0 0 0 0.20088 0.49519 -0.84524 0.0097899
0.31938 0.13871 0.97936 6.7303e-39 460.5 270 0 0 0 -0.16832 0.45643 -0.8737 0.0049173
0.3211 0.13871 0.97936 7.2835e-39 462 270 0 0 0 -0.15171 0.457 -0.87643 0.005411
0.32275 0.13925 0.97916 7.3757e-39 325 270.5 0 0 0 -0.1355 0.45334 -0.88098 0.0055159
0.32498 0.13923 0.97897 7.1912e-39 327 270.5 0 0 0 -0.10344 0.45407 -0.88494 0.0057745
0.3272 0.1392 0.97878 7.0299e-39 329 270.5 0 0 0 -0.08015 0.45759 -0.88554 0.0061438
0.32899 0.13923 0.97897 7.0068e-39 330.5 270.5 0 0 0 -0.047139 0.46636 -0.88334 0.007201
0.33 0.13974 0.97858 7.9288e-39 193 271 0 0 0 -0.032626 0.47102 -0.88152 0.0073684
0.33343 0.13974 0.97858 6.8225e-39 196 271 0 0 0 0.011366 0.4793 -0.87758 0.0079212
0.33472 0.13923 0.97897 6.5459e-39 335.5 270.5 0 0 0 0.036933 0.48305 -0.87482 0.0092093
0.33878 0.13936 0.97858 7.2527e-39 294 270.67 0 0 0 0.072586 0.49391 -0.86648 0.010192
0.34101 0.13923 0.97897 7.0991e-39 342.5 270.5 0 0 0 0.09947 0.49131 -0.86528 0.010115
0.34287 0.13871 0.97936 6.7303e-39 484 270 0 0 0 0.12586 0.49247 -0.86118 0.010032
0.34459 0.13871 0.97936 6.7764e-39 485.5 270 0 0 0 0.14588 0.49171 -0.85845 0.0098689
0.32739 0.141 0.97936 1.0602e-38 382.5 271 0 0 0 -0.07417 0.46839 -0.8804 0.0070494
0.32912 0.141 0.97936 1.1432e-38 384 271 0 0 0 -0.048036 0.47586 -0.87821 0.0075329
0.33026 0.141 0.97936 1.1248e-38 385 271 0 0 0 -0.025365 0.47802 -0.87798 0.007702
0.33299 0.14095 0.97897 1.051e-38 387.5 271 0 0 0 0.011471 0.47892 -0.87778 0.0077417
0.33572 0.14089 0.97858 9.7727e-39 390 271 0 0 0 0.046801 0.4861 -0.87265 0.0092527
0.33687 0.14089 0.97858 9.0352e-39 391 271 0 0 0 0.055633 0.48531 -0.87257 0.0093471
0.33885 0.141 0.97936 8.2515e-39 392.5 271 0 0 0 0.081559 0.49163 -0.86698 0.010305
0.34057 0.141 0.97936 8.2976e-39 394 271 0 0 0 0.097547 0.49474 -0.86355 0.010245
0.33128 0.14266 0.97897 6.8686e-39 302 271.5 0 0 0 -0.011417 0.48805 -0.87274 0.008141
0.33255 0.14214 0.97936 7.6522e-39 456 271 0 0 0 0.0038318 0.48673 -0.87354 0.007967
0.31382 0.014996 0.98169 7.2835e-39 361 234 0 0 0 -0.018766 -0.92218 -0.3863 0.0058578
0.31701 0.014984 0.98091 6.1771e-39 364 234 0 0 0 -0.014336 -0.91668 -0.39936 0.0075799
0.26099 0.017293 0.98169 6.5459e-39 166 235 0 0 0 -0.042167 -0.94647 -0.32002 0.0050628
0.26214 0.017293 0.98169 6.7303e-39 167 235 0 0 0 -0.040567 -0.94569 -0.32254 0.0049637
0.2648 0.017279 0.98091 6.9147e-39 169.5 235 0 0 0 -0.029547 -0.94591 -0.32308 0.0045239
0.26631 0.017265 0.98014 6.9147e-39 171 235 0 0 0 -0.015038 -0.94523 -0.32605 0.0035646
0.26881 0.016132 0.98091 8.7586e-39 395 234 0 0 0 -0.02058 -0.94576 -0.32422 0.002501
0.27018 0.016144 0.98169 8.943e-39 396 234 0 0 0 -0.017767 -0.94551 -0.32512 0.0025145
0.27272 0.017272 0.98053 6.2693e-39 176.5 235 0 0 0 -0.0046309 -0.9441 -0.32963 0.0025546
0.27477 0.017293 0.98169 6.2693e-39 178 235 0 0 0 -0.00051042 -0.94371 -0.33078 0.00226
0.27685 0.017279 0.98091 6.8225e-39 180 235 0 0 0 0.0038678 -0.94182 -0.33608 0.0024939
0.27914 0.017279 0.98091 6.2693e-39 182 235 0 0 0 0.00393 -0.94018 -0.34065 0.0025885
0.28097 0.017286 0.9813 6.4076e-39 183.5 235 0 0 0 0.00085799 -0.94093 -0.3386 0.0025145
0.28339 0.017293 0.98169 6.4076e-39 185.5 235 0 0 0 0.00010264 -0.93898 -0.34398 0.0027744
0.28488 0.017279 0.98091 6.5459e-39 187 235 0 0 0 0.0032678 -0.93717 -0.34885 0.0030334
0.28672 0.017286 0.9813 6.6381e-39 189 235 0 0 0 -0.0014995 -0.93739 -0.34827 0.0030543
0.2889 0.016704 0.98091 7.2374e-39 308 234.5 0 0 0 -0.0080469 -0.937 -0.34925 0.0031733
0.29039 0.017265 0.98014 6.6381e-39 205 235 0 0 0 -0.014452 -0.93456 -0.35552 0.003487
0.29291 0.017279 0.98091 6.1771e-39 207 235 0 0 0 -0.016993 -0.93228 -0.36134 0.0030682
0.29475 0.017286 0.9813 5.9466e-39 208.5 235 0 0 0 -0.016389 -0.93262 -0.36049 0.0028283
0.29751 0.017279 0.98091 6.3615e-39 211 235 0 0 0 -0.018266 -0.92915 -0.36924 0.003042
0.30095 0.017279 0.98091 6.3615e-39 214 235 0 0 0 -0.022063 -0.92561 -0.37784 0.0034103
0.30669 0.017279 0.98091 8.7586e-39 218 235 0 0 0 -0.013773 -0.92108 -0.38912 0.0045464
0.30808 0.017293 0.98169 9.3118e-39 219 235 0 0 0 -0.013516 -0.92174 -0.38756 0.0046173
0.31128 0.017279 0.98091 9.6805e-39 222 235 0 0 0 -0.011411 -0.91758 -0.39739 0.0062623
0.31332 0.016119 0.98014 7.1913e-39 434 234 0 0 0 -0.012438 -0.9164 -0.40007 0.0070728
0.31472 0.016132 0.98091 7.3757e-39 437 234 0 0 0 -0.011308 -0.91833 -0.39567 0.007095
0.31676 0.016119 0.98014 8.021e-39 439 234 0 0 0 -0.0046946 -0.91478 -0.40392 0.0091178
0.25025 0.018412 0.98014 6.9147e-39 249 235 0 0 0 -0.073529 -0.94707 -0.3125 0.0080018
0.25696 0.018441 0.98169 7.0991e-39 254.5 235 0 0 0 -0.062543 -0.94628 -0.31725 0.0055131
0.29842 0.018412 0.98014 8.8508e-39 291 235 0 0 0 -0.015865 -0.92434 -0.38125 0.0036775
0.30874 0.018412 0.98014 8.8508e-39 298 235 0 0 0 -0.0070299 -0.91429 -0.40501 0.006433
0.34139 0.018441 0.98169 6.0849e-39 321 235 0 0 0 0.12037 -0.90106 -0.41665 0.005534
0.34314 0.019559 0.98014 7.9288e-39 411 235 0 0 0 0.12272 -0.89707 -0.42451 0.0065869
0.34499 0.019566 0.98053 7.8366e-39 412.5 235 0 0 0 0.10937 -0.90295 -0.41561 0.0064321
0.34756 0.019582 0.9813 7.2374e-39 414.5 235 0 0 0 0.099438 -0.91027 -0.4019 0.0054762
0.34943 0.018441 0.98169 6.4537e-39 327 235 0 0 0 0.10114 -0.91726 -0.38524 0.0036193
0.24654 0.02073 0.9813 7.8827e-39 419.5 235 0 0 0 -0.055909 -0.94795 -0.31348 0.010785
0.23764 0.075748 0.98014 7.2835e-39 202 249 0 0 0 -0.57806 0.29092 -0.76237 0.05602
0.23993 0.075748 0.98014 7.6522e-39 204 249 0 0 0 -0.55086 0.3106 -0.77465 0.048713
0.24012 0.07466 0.98091 1.0234e-38 451 248 0 0 0 -0.56585 0.32099 -0.75946 0.049178
0.23706 0.076895 0.98014 2.1297e-38 333.5 249 0 0 0 -0.57415 0.28093 -0.76904 0.057835
0.23993 0.076895 0.98014 1.4751e-38 338 249 0 0 0 -0.54547 0.30934 -0.77896 0.048233
0.23706 0.078614 0.98014 8.4822e-39 317.5 249.5 0 0 0 -0.56968 0.23955 -0.78618 0.054929
0.23993 0.078615 0.98014 8.3898e-39 320 249.5 0 0 0 -0.53751 0.26928 -0.7991 0.047168
0.23553 0.080973 0.98091 1.4475e-38 393 250 0 0 0 -0.55466 0.16812 -0.81492 0.057706
0.23706 0.080908 0.98014 1.2516e-38 394.5 250 0 0 0 -0.53448 0.21319 -0.81785 0.052504
0.23491 0.083251 0.98072 7.3757e-39 278.5 251 0 0 0 -0.51773 0.13874 -0.84422 0.049251
0.23706 0.083201 0.98014 8.2976e-39 280.5 251 0 0 0 -0.51023 0.18995 -0.8388 0.046754
0.23505 0.085023 0.9813 7.5601e-39 475.5 251 0 0 0 -0.4844 0.13257 -0.86475 0.044661
0.23706 0.084922 0.98014 6.9147e-39 477.5 251 0 0 0 -0.49128 0.17807 -0.85261 0.042985
0.23477 0.086519 0.98091 6.9454e-39 279.33 252 0 0 0 -0.46152 0.14609 -0.87502 0.042148
0.23649 0.086641 0.98014 6.8225e-39 308 252 0 0 0 -0.4743 0.18126 -0.8615 0.039956
0.24337 0.099829 0.98014 9.1274e-39 456 256 0 0 0 -0.33214 0.37822 -0.86408 0.02215
0.24452 0.099829 0.98014 9.2196e-39 457 256 0 0 0 -0.32186 0.38306 -0.86583 0.020675
0.2429 0.10102 0.98053 9.7266e-39 206.5 257 0 0 0 -0.3266 0.39352 -0.85934 0.021428
0.24509 0.10098 0.98014 8.8508e-39 208.5 257 0 0 0 -0.298 0.40334 -0.86517 0.017616
0.23783 0.10335 0.98091 7.3757e-39 148 258 0 0 0 -0.34806 0.41154 -0.84231 0.025268
0.23879 0.10212 0.98014 7.7444e-39 392 257 0 0 0 -0.35603 0.39251 -0.84804 0.025469
0.2406 0.10216 0.98053 7.3296e-39 393.5 257 0 0 0 -0.34083 0.39624 -0.85254 0.022493
0.24309 0.10224 0.9813 7.0069e-39 395.5 257 0 0 0 -0.30242 0.40903 -0.86095 0.01807
0.24538 0.10224 0.9813 7.8366e-39 397.5 257 0 0 0 -0.27619 0.42112 -0.86393 0.013937
0.24663 0.10297 0.98091 7.4371e-39 236.67 257.67 0 0 0 -0.25943 0.43104 -0.86423 0.010869
0.24816 0.10335 0.98091 7.1913e-39 157 258 0 0 0 -0.24745 0.43787 -0.86432 0.0091488
0.24892 0.10488 0.98091 8.2361e-39 328.33 258 0 0 0 -0.24076 0.44629 -0.8619 0.0079312
0.25025 0.10556 0.98014 7.0991e-39 461 258 0 0 0 -0.23779 0.44677 -0.86247 0.0074385
0.25255 0.10556 0.98014 7.0991e-39 463 258 0 0 0 -0.23689 0.44255 -0.86489 0.0068555
0.2495 0.10688 0.98169 9.4961e-39 213 259 0 0 0 -0.23996 0.44959 -0.8604 0.0075483
0.25115 0.10715 0.98065 9.4039e-39 281.33 259 0 0 0 -0.23969 0.44459 -0.86307 0.0071407
0.25306 0.10753 0.98065 9.5269e-39 349.67 259 0 0 0 -0.24168 0.44149 -0.86411 0.0061516
0.25122 0.1086 0.98169 8.1133e-39 296.5 259.5 0 0 0 -0.24302 0.4417 -0.86362 0.0070577
0.25332 0.10909 0.98091 6.9608e-39 180.5 260 0 0 0 -0.24189 0.43943 -0.8651 0.006101
0.25457 0.11028 0.9813 7.3296e-39 382.5 260 0 0 0 -0.24317 0.43596 -0.86649 0.0058794
0.25664 0.11103 0.98117 7.3449e-39 224.33 260.67 0 0 0 -0.24875 0.42901 -0.86838 0.0051072
0.25911 0.11094 0.9804 7.3142e-39 226.67 260.67 0 0 0 -0.25155 0.4289 -0.86762 0.0046629
0.26102 0.11094 0.9804 7.3756e-39 228.33 260.67 0 0 0 -0.24851 0.43022 -0.86785 0.0044482
0.26287 0.1113 0.98014 7.0991e-39 150 261 0 0 0 -0.2423 0.43076 -0.86933 0.0040508
0.26401 0.1113 0.98014 7.1913e-39 151 261 0 0 0 -0.23583 0.43369 -0.86965 0.0036425
0.25754 0.11262 0.98169 7.4678e-39 249 261 0 0 0 -0.24997 0.42161 -0.87164 0.005219
0.25927 0.11262 0.98169 8.8508e-39 250.5 261 0 0 0 -0.25135 0.42368 -0.87024 0.0049635
0.26146 0.11258 0.9813 9.0352e-39 252.5 261 0 0 0 -0.24543 0.42534 -0.87112 0.0045341
0.26318 0.11315 0.9813 8.2055e-39 358 261 0 0 0 -0.24026 0.42616 -0.87216 0.0041372
0.2648 0.1131 0.98091 8.4819e-39 359.5 261 0 0 0 -0.23338 0.42896 -0.87266 0.0034664
0.26676 0.11324 0.9804 8.2976e-39 396 261 0 0 0 -0.22931 0.43079 -0.87283 0.0028675
0.26917 0.11359 0.98014 7.1913e-39 467.5 261 0 0 0 -0.22377 0.43274 -0.87331 0.002686
0.27089 0.11359 0.98014 6.9147e-39 469 261 0 0 0 -0.22317 0.43221 -0.87373 0.0026414
0.27204 0.11301 0.98014 8.1594e-39 366 261 0 0 0 -0.22103 0.43344 -0.87366 0.0025563
0.26329 0.11492 0.98169 9.1274e-39 217 262 0 0 0 -0.2369 0.42278 -0.87472 0.0040725
0.26506 0.11524 0.98117 9.4962e-39 288.33 262 0 0 0 -0.23095 0.4255 -0.87499 0.0033567
0.26698 0.11535 0.98053 9.3348e-39 325 262 0 0 0 -0.22711 0.42766 -0.87495 0.002814
0.26917 0.11531 0.98014 9.404e-39 327 262 0 0 0 -0.22489 0.42937 -0.87468 0.0025418
0.27111 0.1154 0.98091 9.0813e-39 328.5 262 0 0 0 -0.2221 0.42945 -0.87535 0.0024925
0.27226 0.1154 0.98091 8.8508e-39 330 262 0 0 0 -0.22107 0.42962 -0.87553 0.002402
0.27663 0.11588 0.98014 9.3118e-39 439 262 0 0 0 -0.20989 0.42728 -0.87942 0.0018854
0.26329 0.11607 0.98169 1.0326e-38 426 262 0 0 0 -0.23471 0.42097 -0.87618 0.0040788
0.265 0.11665 0.98169 8.9431e-39 304 262.5 0 0 0 -0.22745 0.42319 -0.87703 0.0034396
0.26709 0.11712 0.98091 8.482e-39 182.5 263 0 0 0 -0.225 0.42515 -0.87671 0.0027955
0.26938 0.11712 0.98091 9.0352e-39 184.5 263 0 0 0 -0.22282 0.42549 -0.8771 0.0025527
0.27111 0.11712 0.98091 8.6664e-39 186 263 0 0 0 -0.22209 0.42631 -0.87689 0.0024289
0.27283 0.11713 0.98091 8.6203e-39 187.5 263 0 0 0 -0.22063 0.42693 -0.87696 0.002262
0.27491 0.11703 0.98014 8.943e-39 189.5 263 0 0 0 -0.21567 0.42742 -0.87795 0.0020389
0.2772 0.11703 0.98014 8.7125e-39 191.5 263 0 0 0 -0.21308 0.4238 -0.88033 0.0018378
0.26788 0.11836 0.98169 7.6522e-39 389 263 0 0 0 -0.2229 0.42299 -0.87829 0.0028246
0.26927 0.11868 0.98117 7.56e-39 428 263 0 0 0 -0.22183 0.42398 -0.87808 0.002581
0.27075 0.11894 0.98169 7.9288e-39 448 263 0 0 0 -0.22227 0.4235 -0.87821 0.0024392
0.27317 0.11871 0.98143 8.9736e-39 308.33 263.33 0 0 0 -0.22154 0.42253 -0.87886 0.0021105
0.27512 0.11885 0.98091 8.3207e-39 267.5 263.5 0 0 0 -0.2177 0.42102 -0.88054 0.0018462
0.27731 0.11868 0.98117 9.3118e-39 312 263.33 0 0 0 -0.21569 0.41754 -0.88269 0.0017238
0.27857 0.11942 0.98091 7.0991e-39 142.5 264 0 0 0 -0.21649 0.41383 -0.88424 0.0017547
0.28007 0.11932 0.98014 7.4678e-39 144 264 0 0 0 -0.21468 0.4117 -0.88567 0.0017912
0.27529 0.12121 0.98149 7.1452e-39 343 264 0 0 0 -0.22202 0.41454 -0.88253 0.0016983
0.27707 0.12066 0.98169 7.2835e-39 242 264 0 0 0 -0.22044 0.41274 -0.88377 0.001647
0.27883 0.12098 0.98117 7.5601e-39 312 264 0 0 0 -0.21955 0.41005 -0.88524 0.0016933
0.28081 0.12111 0.98072 7.3757e-39 348 264 0 0 0 -0.21623 0.40867 -0.8867 0.0017309
0.2832 0.12127 0.9804 7.1605e-39 384.33 264 0 0 0 -0.21131 0.40809 -0.88815 0.0017827
0.28466 0.12162 0.98014 7.2835e-39 454 264 0 0 0 -0.21174 0.40694 -0.88857 0.0018033
0.27592 0.12296 0.98169 7.7444e-39 187 265 0 0 0 -0.2229 0.4127 -0.88317 0.001617
0.27937 0.12296 0.98169 8.943e-39 190 265 0 0 0 -0.21988 0.41005 -0.88516 0.0016583
0.28097 0.12291 0.9813 9.2657e-39 191.5 265 0 0 0 -0.21641 0.40943 -0.8863 0.0017299
0.28328 0.12291 0.9813 8.9891e-39 193.5 265 0 0 0 -0.21075 0.40982 -0.88749 0.0018068
0.28534 0.12338 0.98053 9.2196e-39 299.5 265 0 0 0 -0.20868 0.41196 -0.88698 0.0019189
0.28924 0.12391 0.98014 9.5883e-39 407 265 0 0 0 -0.21172 0.41915 -0.88288 0.0021256
0.28109 0.12411 0.98169 1.0141e-38 399.5 265 0 0 0 -0.21611 0.41142 -0.88545 0.0017288
0.28281 0.12411 0.98169 9.8649e-39 401 265 0 0 0 -0.21045 0.41355 -0.88583 0.0018311
0.28511 0.12411 0.98169 9.3118e-39 403 265 0 0 0 -0.20865 0.41441 -0.88585 0.0019883
0.28649 0.12511 0.98053 6.9608e-39 143.5 266 0 0 0 -0.20671 0.41679 -0.88519 0.0020558
0.28867 0.12506 0.98014 7.56e-39 145.5 266 0 0 0 -0.20926 0.42021 -0.88297 0.0021727
0.29039 0.12506 0.98014 7.0991e-39 147 266 0 0 0 -0.21107 0.42278 -0.88131 0.0022859
0.28729 0.12693 0.9813 7.6522e-39 351 266 0 0 0 -0.20415 0.42333 -0.88267 0.0022621
0.28901 0.12693 0.9813 7.1912e-39 353 266 0 0 0 -0.20522 0.42514 -0.88156 0.0023742
0.291 0.12707 0.98091 6.5459e-39 390.33 266 0 0 0 -0.20824 0.42864 -0.87915 0.0025301
0.29326 0.12735 0.98014 6.8225e-39 462.5 266 0 0 0 -0.21043 0.43464 -0.87567 0.0027074
0.29177 0.12918 0.98091 9.45e-39 303 267 0 0 0 -0.20301 0.43484 -0.87733 0.0028089
0.2928 0.12912 0.98053 9.8648e-39 304 267 0 0 0 -0.2061 0.43743 -0.87532 0.0028789
0.29464 0.12917 0.98091 1.0095e-38 305.5 267 0 0 0 -0.20698 0.44096 -0.87334 0.0029623
0.29899 0.12964 0.98014 9.8188e-39 413.5 267 0 0 0 -0.2092 0.45349 -0.86636 0.0032668
0.292 0.131 0.98169 6.9147e-39 150 268 0 0 0 -0.2001 0.4436 -0.8736 0.0030391
0.29315 0.131 0.98169 7.2835e-39 151 268 0 0 0 -0.20067 0.44499 -0.87276 0.0030387
0.29475 0.13094 0.9813 8.1132e-39 152.5 268 0 0 0 -0.20453 0.44892 -0.86985 0.0031779
0.2965 0.13117 0.98014 7.56e-39 188 268 0 0 0 -0.20605 0.45034 -0.86876 0.0032268
0.29899 0.13079 0.98014 7.6061e-39 156.5 268 0 0 0 -0.20671 0.45331 -0.86705 0.0032824
0.30128 0.13194 0.98014 8.943e-39 260.5 268 0 0 0 -0.20859 0.45532 -0.86555 0.0033236
0.292 0.13215 0.98169 7.1913e-39 251 268 0 0 0 -0.199 0.44694 -0.87215 0.0030533
0.29315 0.13215 0.98169 7.0991e-39 252 268 0 0 0 -0.19888 0.44999 -0.87061 0.0031828
0.29544 0.13215 0.98169 6.9147e-39 254 268 0 0 0 -0.20374 0.45396 -0.86741 0.0032843
0.2972 0.13284 0.98117 7.3142e-39 394.33 268 0 0 0 -0.20563 0.45676 -0.8655 0.0034024
0.29911 0.13246 0.98117 8.021e-39 327.33 268 0 0 0 -0.20663 0.45523 -0.86607 0.0033475
0.30049 0.13325 0.9813 6.7764e-39 466.5 268 0 0 0 -0.20841 0.45736 -0.86452 0.0034863
0.30255 0.13314 0.98053 6.3615e-39 468.5 268 0 0 0 -0.20874 0.45681 -0.86473 0.0033527
0.30415 0.13308 0.98014 6.4537e-39 470 268 0 0 0 -0.20465 0.45548 -0.86641 0.0033391
0.30644 0.13308 0.98014 6.6381e-39 472 268 0 0 0 -0.19864 0.45611 -0.86747 0.0035324
0.30302 0.13479 0.98143 9.3425e-39 273.67 269 0 0 0 -0.20745 0.46184 -0.86236 0.0034695
0.30508 0.13468 0.98065 9.0352e-39 275.67 269 0 0 0 -0.20236 0.46014 -0.86448 0.0033693
0.30714 0.13486 0.98053 9.0121e-39 312 269 0 0 0 -0.19643 0.46115 -0.86531 0.0034572
0.30874 0.13538 0.98014 8.6664e-39 417 269 0 0 0 -0.19359 0.46241 -0.86527 0.0037638
0.31103 0.13538 0.98014 8.8508e-39 419 269 0 0 0 -0.1881 0.45917 -0.86821 0.0039711
0.35144 0.13434 0.98091 7.56e-39 247 269 0 0 0 0.22551 0.49647 -0.83825 0.010477
0.30923 0.13674 0.98169 7.3757e-39 157 270 0 0 0 -0.19466 0.46953 -0.86119 0.0037259
0.31082 0.13668 0.9813 7.1452e-39 158.5 270 0 0 0 -0.19046 0.46545 -0.86434 0.00396
0.31287 0.13715 0.98053 7.2604e-39 208 270 0 0 0 -0.19303 0.46108 -0.86611 0.0041123
0.31447 0.13767 0.98014 6.3615e-39 259 270 0 0 0 -0.18919 0.45721 -0.869 0.0042901
0.34729 0.13715 0.98053 7.7214e-39 293 270 0 0 0 0.18295 0.49479 -0.84953 0.0096596
0.34887 0.13767 0.98014 8.021e-39 397 270 0 0 0 0.20203 0.49344 -0.84599 0.0097545
0.31324 0.13904 0.98169 7.0991e-39 454.5 270 0 0 0 -0.19867 0.4713 -0.85931 0.0039846
0.31532 0.13924 0.9804 7.3449e-39 364.33 270.33 0 0 0 -0.18808 0.46324 -0.86605 0.0043833
0.31753 0.1392 0.98014 7.0683e-39 366.33 270.33 0 0 0 -0.17881 0.46112 -0.86914 0.0046872
0.31906 0.13996 0.98014 8.5742e-39 183 271 0 0 0 -0.1708 0.46624 -0.86801 0.0050648
0.32078 0.13996 0.98014 8.3898e-39 184.5 271 0 0 0 -0.15824 0.46498 -0.87107 0.0055723
0.34314 0.13996 0.98014 8.2054e-39 204 271 0 0 0 0.13332 0.49011 -0.86141 0.010155
0.34486 0.13996 0.98014 8.8047e-39 205.5 271 0 0 0 0.15345 0.4931 -0.85633 0.010023
0.34713 0.13904 0.98169 7.2835e-39 487 270 0 0 0 0.18143 0.49588 -0.84923 0.0097763
0.34872 0.13898 0.9813 7.9288e-39 488.5 270 0 0 0 0.20458 0.49573 -0.84404 0.0097382
0.31542 0.14071 0.9813 8.2515e-39 221.5 271 0 0 0 -0.19021 0.47768 -0.85769 0.004216
0.31702 0.14064 0.98091 9.1271e-39 277 271 0 0 0 -0.18348 0.47109 -0.86279 0.0046479
0.31861 0.14117 0.98053 1.134e-38 374.5 271 0 0 0 -0.1757 0.47417 -0.86272 0.0050435
0.3209 0.14117 0.98053 1.134e-38 376.5 271 0 0 0 -0.15965 0.47216 -0.86694 0.0057302
0.32307 0.14111 0.98014 1.0741e-38 378.5 271 0 0 0 -0.13594 0.47223 -0.87093 0.0062157
0.32537 0.14111 0.98014 1.0511e-38 380.5 271 0 0 0 -0.1007 0.46854 -0.87768 0.0064676
0.33511 0.14111 0.98014 1.0049e-38 389 271 0 0 0 0.039528 0.48553 -0.87333 0.009089
0.34284 0.14122 0.98091 9.2657e-39 395.5 271 0 0 0 0.13253 0.49106 -0.86099 0.010567
0.34514 0.14122 0.98091 8.9891e-39 397.5 271 0 0 0 0.16659 0.49376 -0.85349 0.010234
0.34943 0.14019 0.98169 8.8508e-39 209 271 0 0 0 0.22493 0.49694 -0.83813 0.010326
0.31612 0.14248 0.98169 6.7303e-39 441 271 0 0 0 -0.19245 0.48934 -0.85059 0.0041762
0.31887 0.14243 0.9813 7.56e-39 443.5 271 0 0 0 -0.17499 0.48797 -0.85514 0.005202
0.32116 0.14243 0.9813 7.3296e-39 445.5 271 0 0 0 -0.15701 0.48784 -0.8587 0.0058482
0.32322 0.14279 0.98117 6.9762e-39 345.33 271.33 0 0 0 -0.13751 0.48731 -0.86233 0.0065441
0.32484 0.14321 0.98143 7.2527e-39 244.67 271.67 0 0 0 -0.11094 0.49329 -0.86276 0.0072245
0.32677 0.14294 0.98091 7.0069e-39 297.5 271.5 0 0 0 -0.077185 0.48904 -0.86884 0.0075602
0.3288 0.14283 0.98014 6.7534e-39 299.5 271.5 0 0 0 -0.048115 0.4882 -0.8714 0.0081422
0.33066 0.14289 0.98053 6.7303e-39 301 271.5 0 0 0 -0.017591 0.4919 -0.87047 0.0084377
0.33339 0.14283 0.98014 6.8686e-39 303.5 271.5 0 0 0 0.016991 0.49032 -0.87137 0.0086286
0.33508 0.14317 0.98117 7.0376e-39 253.67 271.67 0 0 0 0.040569 0.49823 -0.86609 0.0096749
0.33696 0.14289 0.98053 7.2835e-39 306.5 271.5 0 0 0 0.065964 0.49767 -0.86486 0.01044
0.33926 0.14289 0.98053 7.6522e-39 308.5 271.5 0 0 0 0.092411 0.49815 -0.86215 0.010884
0.34111 0.14294 0.98091 7.8827e-39 310 271.5 0 0 0 0.1136 0.49634 -0.86066 0.01146
0.34253 0.14248 0.98169 7.1913e-39 464 271 0 0 0 0.13744 0.49316 -0.85902 0.011214
0.34598 0.14248 0.98169 6.1771e-39 467 271 0 0 0 0.18146 0.49947 -0.84711 0.010529
0.3292 0.14472 0.9813 7.8366e-39 180.5 272 0 0 0 -0.040693 0.51044 -0.85895 0.0088255
0.33167 0.14455 0.98014 8.6664e-39 183 272 0 0 0 -0.0043161 0.50481 -0.86322 0.0090096
0.33279 0.14547 0.98117 9.4039e-39 204.33 272 0 0 0 0.014183 0.51493 -0.85712 0.0095782
0.3345 0.14478 0.98169 8.021e-39 185 272 0 0 0 0.034792 0.51457 -0.85674 0.010216
0.33679 0.14478 0.98169 7.6522e-39 187 272 0 0 0 0.064964 0.51323 -0.85579 0.011517
0.33909 0.14478 0.98169 8.7586e-39 189 272 0 0 0 0.091828 0.50693 -0.85708 0.011875
0.31637 0.013858 0.98247 9.5883e-39 292 234 0 0 0 -0.012622 -0.92745 -0.37373 0.0057815
0.31752 0.015008 0.98247 5.9005e-39 364 234 0 0 0 -0.0088857 -0.92462 -0.38079 0.0066974
0.2476 0.01732 0.98326 6.9147e-39 455 234 0 0 0 -0.058943 -0.94973 -0.30748 0.0096511
0.25105 0.01732 0.98326 7.0069e-39 458 234 0 0 0 -0.076098 -0.94796 -0.30916 0.007304
0.2591 0.01732 0.98326 6.3615e-39 164 235 0 0 0 -0.050879 -0.94626 -0.31939 0.0055796
0.26025 0.01732 0.98326 6.3615e-39 165 235 0 0 0 -0.047083 -0.94576 -0.32144 0.0054124
0.27614 0.017307 0.98247 6.6381e-39 179 235 0 0 0 0.00093424 -0.94358 -0.33114 0.0021144
0.27866 0.01732 0.98326 6.3615e-39 181 235 0 0 0 -9.7374e-05 -0.94238 -0.33454 0.0020535
0.28993 0.016157 0.98247 7.7444e-39 413 234 0 0 0 -0.018889 -0.93728 -0.34806 0.0026915
0.29131 0.01617 0.98326 7.3757e-39 414 234 0 0 0 -0.021705 -0.93948 -0.34192 0.0025045
0.29223 0.017307 0.98247 6.4537e-39 206 235 0 0 0 -0.019371 -0.93741 -0.34768 0.0026271
0.29683 0.017307 0.98247 6.0849e-39 210 235 0 0 0 -0.020679 -0.93341 -0.35821 0.0026901
0.30052 0.01732 0.98326 6.4537e-39 213 235 0 0 0 -0.026152 -0.93095 -0.36422 0.0029035
0.30627 0.01732 0.98326 7.9288e-39 217 235 0 0 0 -0.018838 -0.92703 -0.37452 0.0034642
0.31087 0.01617 0.98326 7.3757e-39 431 234 0 0 0 -0.020229 -0.92374 -0.38249 0.0045924
0.31292 0.017307 0.98247 9.404e-39 223 235 0 0 0 -0.012962 -0.92115 -0.389 0.0058722
0.34998 0.01732 0.98326 8.2976e-39 242 235 0 0 0 0.099363 -0.92052 -0.37784 0.0028169
0.24708 0.019228 0.98273 8.5127e-39 302.33 235 0 0 0 -0.060288 -0.94943 -0.30815 0.010131
0.25278 0.018471 0.98326 6.592e-39 250.5 235 0 0 0 -0.07566 -0.94692 -0.31243 0.0066695
0.25545 0.018456 0.98247 6.9147e-39 253 235 0 0 0 -0.069981 -0.94661 -0.3147 0.005894
0.2635 0.018456 0.98247 6.7303e-39 260 235 0 0 0 -0.033126 -0.9466 -0.32071 0.0047326
0.34396 0.018456 0.98247 6.3615e-39 322 235 0 0 0 0.12366 -0.90884 -0.39841 0.0042371
0.34626 0.018456 0.98247 6.6381e-39 324 235 0 0 0 0.09505 -0.91625 -0.38917 0.0036851
0.34883 0.018471 0.98326 6.4537e-39 326 235 0 0 0 0.098874 -0.91753 -0.38518 0.0034522
0.23955 0.1036 0.98326 6.8225e-39 149 258 0 0 0 -0.33078 0.41835 -0.84591 0.021271
0.24118 0.10356 0.98286 6.4537e-39 150.5 258 0 0 0 -0.31286 0.42017 -0.85181 0.017974
0.243 0.1036 0.98326 6.6381e-39 152 258 0 0 0 -0.29577 0.4273 -0.85437 0.015347
0.2453 0.1036 0.98326 7.6522e-39 154 258 0 0 0 -0.26784 0.43407 -0.86014 0.012075
0.24692 0.1047 0.98286 8.8047e-39 260.5 258 0 0 0 -0.24388 0.44724 -0.86052 0.008634
0.24875 0.1059 0.98326 7.8366e-39 459 258 0 0 0 -0.24096 0.45217 -0.85877 0.0077419
0.2498 0.10873 0.98286 8.482e-39 295 259.5 0 0 0 -0.246 0.44704 -0.86002 0.0074927
0.25085 0.10926 0.98247 7.0991e-39 178 260 0 0 0 -0.2453 0.44509 -0.86123 0.0071123
0.252 0.11041 0.98247 8.1132e-39 380 260 0 0 0 -0.24656 0.4418 -0.86257 0.0064855
0.25335 0.1105 0.98326 8.021e-39 381 260 0 0 0 -0.24663 0.43375 -0.86662 0.0064413
0.25488 0.11156 0.98247 7.6983e-39 142.5 261 0 0 0 -0.2488 0.42573 -0.86997 0.005823
0.2589 0.11386 0.98247 7.2835e-39 458 261 0 0 0 -0.24923 0.41359 -0.87569 0.0055423
0.26083 0.11395 0.98326 7.4679e-39 459.5 261 0 0 0 -0.24449 0.41777 -0.87504 0.0050436
0.26235 0.11386 0.98247 7.0069e-39 461 261 0 0 0 -0.24101 0.42178 -0.87408 0.004367
0.2591 0.1151 0.98326 8.8508e-39 213 262 0 0 0 -0.24743 0.4094 -0.87816 0.005674
0.2614 0.1151 0.98326 8.6664e-39 215 262 0 0 0 -0.24155 0.41404 -0.87763 0.0050096
0.26235 0.11501 0.98247 8.7586e-39 216 262 0 0 0 -0.23709 0.41934 -0.87633 0.0045555
0.26292 0.11673 0.98247 8.9893e-39 302 262.5 0 0 0 -0.23215 0.4152 -0.87961 0.0044444
0.26464 0.11731 0.98247 7.3757e-39 180 263 0 0 0 -0.2254 0.41981 -0.87918 0.0037842
0.26533 0.11851 0.98286 7.0991e-39 386.5 263 0 0 0 -0.22239 0.41711 -0.88123 0.003517
0.2667 0.11929 0.983 7.1298e-39 463 263 0 0 0 -0.22116 0.41705 -0.88157 0.0031033
0.26809 0.11961 0.98247 6.6381e-39 502 263 0 0 0 -0.22085 0.41962 -0.88042 0.0028599
0.27154 0.11961 0.98247 6.6381e-39 505 263 0 0 0 -0.2208 0.42161 -0.87949 0.0023388
0.27269 0.11961 0.98247 6.7303e-39 506 263 0 0 0 -0.22247 0.42019 -0.87974 0.0020932
0.26893 0.12117 0.98273 7.1298e-39 303 264 0 0 0 -0.22121 0.41632 -0.88189 0.0027217
0.27102 0.12136 0.98267 7.0991e-39 339 264 0 0 0 -0.22109 0.41557 -0.88228 0.0023452
0.27338 0.12138 0.98286 6.9378e-39 341 264 0 0 0 -0.22346 0.41584 -0.88156 0.0019332
0.27729 0.12191 0.98247 7.9288e-39 447 264 0 0 0 -0.2225 0.41143 -0.88387 0.0016593
0.27844 0.12191 0.98247 8.3898e-39 448 264 0 0 0 -0.22004 0.41101 -0.88468 0.0016374
0.26946 0.12315 0.98326 7.3757e-39 181 265 0 0 0 -0.21839 0.41177 -0.88473 0.0026194
0.27108 0.12311 0.98286 7.2835e-39 182.5 265 0 0 0 -0.22166 0.4124 -0.88362 0.0022884
0.27291 0.12315 0.98326 7.3757e-39 184 265 0 0 0 -0.22432 0.41093 -0.88364 0.0019154
0.27452 0.12311 0.98286 7.3296e-39 185.5 265 0 0 0 -0.22445 0.41297 -0.88266 0.0017264
0.27729 0.12306 0.98247 8.2976e-39 188 265 0 0 0 -0.22388 0.4107 -0.88386 0.0016616
0.27844 0.12306 0.98247 8.5742e-39 189 265 0 0 0 -0.22144 0.41006 -0.88477 0.0016384
0.27061 0.1243 0.98326 1.0602e-38 390 265 0 0 0 -0.22003 0.40959 -0.88534 0.0023178
0.27521 0.1243 0.98326 1.0142e-38 394 265 0 0 0 -0.2241 0.41163 -0.88337 0.0016657
0.27683 0.12426 0.98286 9.45e-39 395.5 265 0 0 0 -0.22483 0.41153 -0.88323 0.0016423
0.27913 0.12426 0.98286 9.957e-39 397.5 265 0 0 0 -0.21994 0.41242 -0.88404 0.0016748
0.28074 0.12535 0.98247 6.7303e-39 138 266 0 0 0 -0.21581 0.41518 -0.88377 0.001753
0.28258 0.1254 0.98286 6.6842e-39 139.5 266 0 0 0 -0.21111 0.41706 -0.88402 0.001838
0.28464 0.125 0.98273 7.6215e-39 228.33 265.67 0 0 0 -0.20887 0.41757 -0.88431 0.0019353
0.28556 0.12661 0.98326 7.56e-39 245 266 0 0 0 -0.20638 0.42244 -0.88258 0.0020974
0.28659 0.12713 0.98286 7.4679e-39 350 266 0 0 0 -0.20369 0.42433 -0.8823 0.0022065
0.28786 0.12891 0.98326 8.1132e-39 195 267 0 0 0 -0.20021 0.43123 -0.87975 0.0024548
0.28935 0.12937 0.98247 8.8278e-39 300.5 267 0 0 0 -0.20174 0.43186 -0.87909 0.0027348
0.29108 0.1288 0.98247 8.8508e-39 198 267 0 0 0 -0.20336 0.43425 -0.87754 0.0028263
0.28786 0.13006 0.98326 8.2976e-39 403 267 0 0 0 -0.19954 0.43485 -0.87812 0.0025632
0.28901 0.13121 0.98326 6.7303e-39 147 268 0 0 0 -0.19723 0.44083 -0.87565 0.0029109
0.29074 0.13063 0.98326 8.1133e-39 277 267.5 0 0 0 -0.20102 0.44095 -0.87473 0.0030057
0.29281 0.1334 0.98247 6.4998e-39 459.5 268 0 0 0 -0.19693 0.45358 -0.86919 0.0032464
0.29499 0.13305 0.98273 6.6688e-39 392 268 0 0 0 -0.20037 0.4565 -0.86687 0.0033899
0.29246 0.13466 0.98326 7.56e-39 195 269 0 0 0 -0.19611 0.45699 -0.86759 0.003407
0.29707 0.13466 0.98326 7.7444e-39 199 269 0 0 0 -0.20303 0.46311 -0.86273 0.0035096
0.29879 0.13466 0.98326 9.2657e-39 200.5 269 0 0 0 -0.20543 0.46464 -0.86134 0.0035663
0.30097 0.13461 0.98286 9.4501e-39 202.5 269 0 0 0 -0.20761 0.46331 -0.86153 0.0035939
0.30488 0.1357 0.98247 9.3118e-39 413 269 0 0 0 -0.20319 0.46745 -0.86035 0.0033663
0.30672 0.1369 0.98286 8.4359e-39 154.5 270 0 0 0 -0.19937 0.47181 -0.85887 0.0034857
0.30832 0.13685 0.98247 7.56e-39 156 270 0 0 0 -0.19615 0.47154 -0.85975 0.0035815
0.3112 0.138 0.98247 6.6381e-39 253.5 270 0 0 0 -0.19468 0.47386 -0.85881 0.0038269
0.30972 0.13811 0.98326 6.6381e-39 252 270 0 0 0 -0.19631 0.47972 -0.85518 0.0036595
0.31087 0.13926 0.98326 6.7303e-39 452 270 0 0 0 -0.19864 0.48469 -0.85183 0.0035593
0.31304 0.14093 0.98286 7.1452e-39 219 271 0 0 0 -0.20304 0.48786 -0.84898 0.0036377
0.31454 0.1411 0.98273 7.7444e-39 234.33 271 0 0 0 -0.20065 0.48725 -0.8499 0.0038311
0.34741 0.1403 0.98247 9.0352e-39 207 271 0 0 0 0.19232 0.49686 -0.84625 0.010436
0.34883 0.14041 0.98326 8.7586e-39 208 271 0 0 0 0.22156 0.50144 -0.83635 0.010058
0.31547 0.14271 0.98326 6.9147e-39 440 271 0 0 0 -0.19995 0.50002 -0.84261 0.0038344
0.3173 0.14344 0.983 6.5766e-39 486 271 0 0 0 -0.18849 0.49856 -0.84611 0.0045577
0.31924 0.14375 0.98247 6.131e-39 324 271.5 0 0 0 -0.17729 0.50233 -0.84631 0.0052182
0.32097 0.14375 0.98247 6.1771e-39 139 272 0 0 0 -0.16438 0.5024 -0.84887 0.0058783
0.32212 0.14375 0.98247 6.3615e-39 140 272 0 0 0 -0.1518 0.50006 -0.85258 0.0060729
0.34352 0.14323 0.98286 7.099e-39 311.5 271.5 0 0 0 0.15826 0.50065 -0.85106 0.011539
0.34511 0.1426 0.98247 6.1771e-39 466 271 0 0 0 0.17253 0.49707 -0.85039 0.010826
0.32352 0.14501 0.98326 8.482e-39 175 272 0 0 0 -0.13371 0.51488 -0.84677 0.0072519
0.32524 0.14501 0.98326 7.9288e-39 176.5 272 0 0 0 -0.10768 0.51487 -0.85048 0.0077049
0.32729 0.1449 0.98247 7.7444e-39 178.5 272 0 0 0 -0.07497 0.51237 -0.85549 0.0080778
0.33131 0.1449 0.98247 8.2976e-39 182 272 0 0 0 -0.004813 0.52081 -0.85366 0.01013
0.33618 0.14501 0.98326 7.56e-39 186 272 0 0 0 0.055435 0.52584 -0.84878 0.011781
0.33821 0.1449 0.98247 7.9288e-39 188 272 0 0 0 0.075714 0.51699 -0.85264 0.012049
0.34051 0.1449 0.98247 8.5742e-39 190 272 0 0 0 0.11466 0.51351 -0.85039 0.012542
0.32928 0.14616 0.98326 9.8649e-39 211 272 0 0 0 -0.043106 0.53074 -0.84644 0.0092959
0.33087 0.14611 0.98286 1.0049e-38 212.5 272 0 0 0 -0.01454 0.53269 -0.84618 0.01007
0.33388 0.14731 0.98326 8.6664e-39 240 272 0 0 0 0.029391 0.55193 -0.83337 0.01136
0.33476 0.14605 0.98247 9.9571e-39 216 272 0 0 0 0.035605 0.53149 -0.84632 0.010815
0.31482 0.013891 0.98483 9.0352e-39 290 234 0 0 0 -0.015311 -0.92975 -0.36788 0.0046032
0.31828 0.013891 0.98483 9.4961e-39 293 234 0 0 0 -0.0074326 -0.93133 -0.36409 0.0052071
0.24819 0.015056 0.98561 6.9147e-39 304 234 0 0 0 -0.051391 -0.94684 -0.31757 0.0099272
0.26989 0.015044 0.98483 6.6381e-39 322 234 0 0 0 -0.016625 -0.94133 -0.33709 0.0037978
0.28971 0.015056 0.98561 9.4961e-39 339 234 0 0 0 -0.01822 -0.93575 -0.35218 0.0028883
0.31572 0.015032 0.98404 6.9147e-39 362 234 0 0 0 -0.011448 -0.92682 -0.37534 0.0056625
0.24732 0.016766 0.98444 7.4679e-39 415.5 234 0 0 0 -0.058895 -0.94931 -0.30878 0.010172
0.25396 0.017362 0.98561 7.56e-39 460 234 0 0 0 -0.070472 -0.94525 -0.31865 0.0069346
0.25673 0.017355 0.98522 6.8225e-39 462.5 234 0 0 0 -0.059115 -0.94278 -0.32812 0.0063843
0.25894 0.016771 0.98483 8.1593e-39 274.5 234.5 0 0 0 -0.051762 -0.94307 -0.32856 0.0062932
0.26261 0.016209 0.98561 9.3578e-39 388.5 234 0 0 0 -0.036835 -0.94065 -0.33736 0.0062364
0.26491 0.016786 0.98561 7.9288e-39 279.5 234.5 0 0 0 -0.034535 -0.9405 -0.33805 0.0051962
0.26711 0.016203 0.98522 8.8047e-39 392.5 234 0 0 0 -0.019843 -0.94136 -0.33681 0.0035602
0.26852 0.016183 0.98404 8.8508e-39 394 234 0 0 0 -0.018165 -0.94431 -0.32855 0.0032685
0.27197 0.016183 0.98404 9.3118e-39 397 234 0 0 0 -0.015426 -0.94478 -0.32733 0.002954
0.27356 0.016209 0.98561 9.7727e-39 398 234 0 0 0 -0.010141 -0.9408 -0.33881 0.0029774
0.28048 0.016209 0.98561 9.4961e-39 404 234 0 0 0 -0.0052076 -0.93909 -0.34364 0.0022556
0.28313 0.016196 0.98483 7.7444e-39 406.5 234 0 0 0 -0.0062874 -0.93993 -0.34131 0.0022269
0.28487 0.016196 0.98483 6.8225e-39 408 234 0 0 0 -0.0077049 -0.9391 -0.34356 0.0023005
0.28659 0.016196 0.98483 7.1913e-39 409.5 234 0 0 0 -0.0094346 -0.9385 -0.34514 0.0024508
0.28809 0.016183 0.98404 7.7444e-39 411 234 0 0 0 -0.01181 -0.9393 -0.34291 0.0024617
0.29351 0.016196 0.98483 7.2835e-39 415.5 234 0 0 0 -0.022643 -0.93709 -0.34835 0.0028048
0.29524 0.016196 0.98483 7.4678e-39 417 234 0 0 0 -0.026084 -0.93655 -0.34957 0.002872
0.29708 0.016203 0.98522 7.3296e-39 418.5 234 0 0 0 -0.028516 -0.93436 -0.35519 0.0028564
0.29939 0.016779 0.98522 7.0529e-39 316 234.5 0 0 0 -0.028958 -0.93302 -0.35865 0.0028474
0.30124 0.016209 0.98561 7.0991e-39 422 234 0 0 0 -0.030271 -0.93234 -0.3603 0.0029376
0.30285 0.016203 0.98522 7.053e-39 423.5 234 0 0 0 -0.02883 -0.93199 -0.36135 0.0029312
0.3049 0.017341 0.98444 6.7764e-39 215.5 235 0 0 0 -0.023501 -0.92955 -0.36796 0.0031689
0.30997 0.017334 0.98404 9.6805e-39 220 235 0 0 0 -0.022298 -0.92486 -0.37965 0.0042471
0.3131 0.016196 0.98483 7.3757e-39 432.5 234 0 0 0 -0.018359 -0.92818 -0.37168 0.0046217
0.34478 0.017348 0.98483 8.2976e-39 237 235 0 0 0 0.10119 -0.91826 -0.38284 0.0025897
0.34708 0.017348 0.98483 8.6664e-39 239 235 0 0 0 0.10681 -0.91821 -0.38142 0.0024426
0.24665 0.018486 0.98404 7.2835e-39 245 235 0 0 0 -0.058303 -0.94998 -0.30682 0.010356
0.2547 0.018486 0.98404 6.5459e-39 252 235 0 0 0 -0.068534 -0.94653 -0.31525 0.0061818
0.34566 0.018486 0.98404 6.4537e-39 323 235 0 0 0 0.10476 -0.91539 -0.38871 0.0032809
0.34824 0.0185 0.98483 6.4537e-39 325 235 0 0 0 0.10705 -0.91825 -0.38125 0.0026258
0.35141 0.018486 0.98404 6.4537e-39 328 235 0 0 0 0.10716 -0.91942 -0.37839 0.0029971
0.23436 0.084243 0.98561 7.6522e-39 354 251 0 0 0 -0.46643 0.037 -0.88379 0.04338
0.23436 0.088855 0.98561 7.1913e-39 144 253 0 0 0 -0.43403 0.1433 -0.88943 0.049612
0.24434 0.10368 0.98404 7.3757e-39 153 258 0 0 0 -0.28166 0.43211 -0.85671 0.013971
0.23926 0.10487 0.98444 8.2515e-39 253.5 258 0 0 0 -0.30215 0.44204 -0.84457 0.017405
0.24108 0.10492 0.98483 9.1274e-39 255 258 0 0 0 -0.29681 0.44039 -0.84732 0.015628
0.24272 0.10487 0.98444 9.5883e-39 256.5 258 0 0 0 -0.27836 0.44278 -0.85233 0.012549
0.24512 0.10492 0.98483 8.9891e-39 258.5 258 0 0 0 -0.25359 0.45225 -0.85508 0.0099138
0.2478 0.10598 0.98404 7.7444e-39 458 258 0 0 0 -0.24178 0.45244 -0.8584 0.0082001
0.23897 0.10615 0.98561 9.4961e-39 450 258 0 0 0 -0.28331 0.45943 -0.84182 0.01672
0.24243 0.10615 0.98561 7.9288e-39 453 258 0 0 0 -0.26032 0.46101 -0.84835 0.010729
0.24742 0.10665 0.98483 8.6663e-39 334 258.5 0 0 0 -0.24266 0.45515 -0.85671 0.008278
0.24895 0.10713 0.98404 9.404e-39 212 259 0 0 0 -0.24382 0.45351 -0.85725 0.0077743
0.24872 0.10901 0.98541 9.0812e-39 293.5 259.5 0 0 0 -0.25132 0.45347 -0.8551 0.0082054
0.25077 0.11121 0.98443 7.099e-39 258.5 260.5 0 0 0 -0.2561 0.43578 -0.86285 0.0075489
0.25308 0.11179 0.98444 6.9147e-39 140.5 261 0 0 0 -0.25236 0.42855 -0.86756 0.0065639
0.2505 0.11307 0.98561 6.2693e-39 242 261 0 0 0 -0.26362 0.42585 -0.86554 0.0083865
0.25281 0.11307 0.98561 6.5459e-39 244 261 0 0 0 -0.25897 0.42137 -0.86913 0.0072632
0.25528 0.11289 0.98404 7.1913e-39 246.5 261 0 0 0 -0.2558 0.41559 -0.87284 0.0059873
0.25701 0.11289 0.98404 7.1913e-39 248 261 0 0 0 -0.25186 0.41379 -0.87484 0.0056869
0.25511 0.11422 0.98561 6.7303e-39 453 261 0 0 0 -0.25901 0.40758 -0.87566 0.0064717
0.25703 0.11461 0.98561 7.5908e-39 373.33 261.33 0 0 0 -0.25503 0.40631 -0.87743 0.0062185
0.25826 0.11467 0.98444 7.9749e-39 334 261.5 0 0 0 -0.24852 0.40757 -0.87871 0.0057579
0.26046 0.11519 0.98404 8.6664e-39 214 262 0 0 0 -0.2419 0.41097 -0.87897 0.0054741
0.25913 0.11682 0.98483 8.482e-39 339.33 262.33 0 0 0 -0.24305 0.40008 -0.88366 0.0059947
0.26114 0.11697 0.98443 8.5512e-39 300 262.5 0 0 0 -0.23539 0.40834 -0.88196 0.0053003
0.26276 0.1175 0.98404 8.021e-39 178 263 0 0 0 -0.22917 0.41118 -0.88228 0.0046947
0.25972 0.11884 0.98561 8.021e-39 381 263 0 0 0 -0.23365 0.39506 -0.88844 0.0055992
0.26088 0.11942 0.98561 7.4679e-39 438 263 0 0 0 -0.22834 0.3971 -0.88891 0.0052271
0.26302 0.11905 0.98502 7.2604e-39 412.25 263 0 0 0 -0.22426 0.40606 -0.8859 0.0044895
0.26471 0.11989 0.98483 7.1913e-39 498.5 263 0 0 0 -0.21875 0.40891 -0.88597 0.0038628
0.26491 0.12114 0.98561 8.2515e-39 230.5 264 0 0 0 -0.21497 0.40433 -0.88899 0.0037187
0.2669 0.121 0.98444 7.1452e-39 232.5 264 0 0 0 -0.21553 0.41044 -0.88605 0.0031562
0.26549 0.1223 0.98561 8.021e-39 436 264 0 0 0 -0.21169 0.40408 -0.88989 0.0035193
0.267 0.12278 0.98483 8.1823e-39 308 264.5 0 0 0 -0.21317 0.4069 -0.88825 0.0031273
0.26863 0.12273 0.98444 7.7444e-39 309.5 264.5 0 0 0 -0.21944 0.40975 -0.88541 0.0028588
0.2678 0.12518 0.98561 8.2976e-39 441 265 0 0 0 -0.21056 0.39976 -0.89211 0.0028301
0.26937 0.1251 0.98502 8.5281e-39 442.5 265 0 0 0 -0.21364 0.40352 -0.88968 0.0025113
0.27139 0.12497 0.98404 8.9892e-39 444.5 265 0 0 0 -0.22051 0.40662 -0.88659 0.0020991
0.27289 0.12523 0.98457 8.4204e-39 463.67 265 0 0 0 -0.22087 0.40931 -0.88526 0.0019371
0.27481 0.12523 0.98457 7.9901e-39 465.33 265 0 0 0 -0.22286 0.41107 -0.88394 0.0016409
0.27715 0.12555 0.98404 6.4998e-39 503.5 265 0 0 0 -0.22312 0.41266 -0.88314 0.0016131
0.27888 0.12555 0.98404 6.3615e-39 505 265 0 0 0 -0.22055 0.41498 -0.88269 0.0016735
0.28003 0.12555 0.98404 6.5459e-39 506 265 0 0 0 -0.21678 0.41664 -0.88285 0.0016983
0.27057 0.12686 0.98522 8.7125e-39 231.5 266 0 0 0 -0.21574 0.40378 -0.88905 0.0021491
0.27288 0.12686 0.98522 8.1132e-39 233.5 266 0 0 0 -0.21571 0.40915 -0.8866 0.0017489
0.27529 0.12691 0.98561 8.1593e-39 235.5 266 0 0 0 -0.22082 0.41269 -0.8837 0.0016808
0.27737 0.12681 0.98483 8.3437e-39 237.5 266 0 0 0 -0.22102 0.41502 -0.88256 0.0016305
0.2791 0.12681 0.98483 7.8366e-39 239 266 0 0 0 -0.21844 0.4176 -0.88198 0.0017208
0.28072 0.12733 0.98443 7.537e-39 344.5 266 0 0 0 -0.21422 0.42016 -0.8818 0.0017744
0.28302 0.12733 0.98443 7.1452e-39 346.5 266 0 0 0 -0.21002 0.42302 -0.88144 0.0018916
0.2851 0.12751 0.9843 7.1298e-39 383 266 0 0 0 -0.20552 0.4262 -0.88098 0.0020417
0.27087 0.12844 0.98561 7.4678e-39 353 266.33 0 0 0 -0.2122 0.4033 -0.89013 0.0020742
0.27318 0.12844 0.98561 7.1298e-39 355 266.33 0 0 0 -0.21452 0.409 -0.88696 0.0017882
0.27587 0.12806 0.98561 6.7303e-39 444 266 0 0 0 -0.21981 0.41388 -0.88339 0.0016338
0.27702 0.12863 0.98561 7.514e-39 315 266.5 0 0 0 -0.21723 0.41676 -0.88268 0.0016653
0.27894 0.12844 0.98561 7.4064e-39 360 266.33 0 0 0 -0.21658 0.42045 -0.88109 0.001802
0.28095 0.12916 0.98522 7.5601e-39 188.5 267 0 0 0 -0.2102 0.42439 -0.88074 0.0018883
0.28313 0.12911 0.98483 7.56e-39 190.5 267 0 0 0 -0.20621 0.42814 -0.87987 0.0019895
0.28533 0.12906 0.98444 7.56e-39 192.5 267 0 0 0 -0.20271 0.43098 -0.8793 0.002159
0.28694 0.12901 0.98404 8.021e-39 194 267 0 0 0 -0.20272 0.43146 -0.87906 0.0023316
0.28106 0.13037 0.98561 9.1274e-39 396.5 267 0 0 0 -0.20791 0.42753 -0.87977 0.0019795
0.28356 0.13075 0.98561 8.3284e-39 313 267.33 0 0 0 -0.20416 0.4324 -0.87826 0.0020809
0.28509 0.13037 0.98561 8.3898e-39 400 267 0 0 0 -0.20071 0.4348 -0.87788 0.0022701
0.28659 0.13084 0.98483 7.8366e-39 273 267.5 0 0 0 -0.20191 0.43643 -0.87679 0.0024658
0.28809 0.13131 0.98404 6.9147e-39 146 268 0 0 0 -0.19779 0.44073 -0.87558 0.0027646
0.29155 0.13131 0.98404 7.0069e-39 149 268 0 0 0 -0.19821 0.44855 -0.8715 0.0031296
0.28694 0.13302 0.98535 7.4679e-39 315 268 0 0 0 -0.19629 0.44402 -0.87425 0.0028289
0.28884 0.13312 0.98463 7.5139e-39 351.5 268 0 0 0 -0.19341 0.44744 -0.87315 0.0030825
0.29114 0.13312 0.98463 6.8456e-39 353.5 268 0 0 0 -0.19533 0.45184 -0.87046 0.0032819
0.28913 0.13498 0.98561 7.1913e-39 191.5 269 0 0 0 -0.19161 0.45452 -0.86988 0.003235
0.29063 0.13487 0.98483 7.6522e-39 193 269 0 0 0 -0.19402 0.45525 -0.86897 0.0034108
0.29293 0.13487 0.98483 7.4679e-39 195 269 0 0 0 -0.19362 0.45967 -0.86672 0.0034541
0.29524 0.13487 0.98483 7.0069e-39 197 269 0 0 0 -0.19784 0.46532 -0.86275 0.0036043
0.29685 0.13539 0.98444 8.3437e-39 302 269 0 0 0 -0.20212 0.46799 -0.86031 0.0035766
0.2996 0.13592 0.98404 9.7727e-39 408 269 0 0 0 -0.20457 0.47139 -0.85787 0.0035608
0.30134 0.13592 0.98404 1.0418e-38 409.5 269 0 0 0 -0.20733 0.47171 -0.85703 0.0036429
0.30306 0.13592 0.98404 1.0326e-38 411 269 0 0 0 -0.2088 0.47109 -0.85702 0.0035384
0.28971 0.13613 0.98561 7.6522e-39 399 269 0 0 0 -0.18907 0.45983 -0.86764 0.0033778
0.29086 0.13671 0.98561 7.2374e-39 270 269.5 0 0 0 -0.19174 0.46427 -0.86469 0.0036789
0.29293 0.1366 0.98483 7.7444e-39 272 269.5 0 0 0 -0.19277 0.46839 -0.86224 0.0036095
0.29462 0.13648 0.98535 8.6971e-39 316.67 269.33 0 0 0 -0.19319 0.46968 -0.86144 0.0035671
0.29708 0.13666 0.98522 8.1132e-39 275.5 269.5 0 0 0 -0.19919 0.47267 -0.85843 0.0037035
0.29915 0.13683 0.98509 7.56e-39 234 269.67 0 0 0 -0.20366 0.47457 -0.85633 0.0036747
0.301 0.13718 0.98483 6.6381e-39 149 270 0 0 0 -0.20861 0.4776 -0.85345 0.0037012
0.30285 0.13724 0.98522 6.8686e-39 150.5 270 0 0 0 -0.20694 0.48191 -0.85143 0.0035681
0.30479 0.13707 0.98404 7.9288e-39 152.5 270 0 0 0 -0.20481 0.47589 -0.85532 0.0034666
0.29316 0.13844 0.98561 7.1913e-39 237 270 0 0 0 -0.18919 0.47532 -0.85923 0.0038907
0.29778 0.13844 0.98561 8.482e-39 241 270 0 0 0 -0.20166 0.482 -0.85265 0.00377
0.30066 0.13844 0.98561 8.8047e-39 243.5 270 0 0 0 -0.20744 0.48446 -0.84986 0.0037296
0.30527 0.13844 0.98561 8.7586e-39 247.5 270 0 0 0 -0.20369 0.489 -0.84817 0.003448
0.30714 0.13871 0.98483 7.6522e-39 315.67 270 0 0 0 -0.19984 0.48936 -0.84888 0.0035597
0.30907 0.13919 0.98483 7.0069e-39 400.25 270 0 0 0 -0.19994 0.49083 -0.848 0.0036344
0.31227 0.13937 0.98404 6.7303e-39 453 270 0 0 0 -0.2018 0.48301 -0.85204 0.0036371
0.30874 0.14075 0.98561 8.2054e-39 172.5 271 0 0 0 -0.2012 0.5003 -0.84215 0.0035317
