# .PCD v.7 - Point Cloud Data file format
VERSION .7
FIELDS x y z rgb u v vx vy vz normal_x normal_y normal_z curvature
SIZE 4 4 4 4 4 4 4 4 4 4 4 4 4
TYPE F F F F F F F F F F F F F
COUNT 1 1 1 1 1 1 1 1 1 1 1 1 1
WIDTH 551
HEIGHT 1
VIEWPOINT 0 0 0 1 0 0 0
POINTS 551
DATA ascii
0.28911 0.075153 0.85584 7.56e-39 206.5 245 0 0 0 0.25626 -0.81053 -0.52666 0.017944
0.29111 0.075153 0.85584 7.3757e-39 208.5 245 0 0 0 0.2788 -0.79822 -0.53396 0.020223
0.21118 0.076822 0.85584 7.3142e-39 360.33 245 0 0 0 -0.38328 -0.31349 -0.8688 0.08011
0.21279 0.076575 0.85495 6.7995e-39 339.5 245 0 0 0 -0.35472 -0.34837 -0.86765 0.080647
0.23271 0.076049 0.85465 9.7727e-39 291.5 245 0 0 0 -0.10408 -0.80279 -0.58711 0.041479
0.23521 0.076049 0.85465 1.0142e-38 294 245 0 0 0 -0.086765 -0.82207 -0.56274 0.035888
0.23638 0.076102 0.85524 9.7727e-39 295 245 0 0 0 -0.070716 -0.83358 -0.54785 0.029662
0.23879 0.076076 0.85495 1.0511e-38 297.5 245 0 0 0 -0.046715 -0.85182 -0.52174 0.021033
0.27521 0.076049 0.85465 1.0142e-38 330 245 0 0 0 0.077744 -0.8527 -0.51659 0.0051018
0.27688 0.076382 0.85465 1.0142e-38 378.33 245 0 0 0 0.09803 -0.85199 -0.5143 0.0060699
0.27881 0.076575 0.85495 9.7497e-39 403.5 245 0 0 0 0.12695 -0.84802 -0.51453 0.0074212
0.28081 0.076575 0.85495 9.5191e-39 405.5 245 0 0 0 0.16191 -0.84142 -0.51556 0.010146
0.28274 0.076435 0.85525 8.9737e-39 384 245 0 0 0 0.18636 -0.8348 -0.51805 0.01212
0.2848 0.076076 0.85495 9.1274e-39 339.5 245 0 0 0 0.19932 -0.83249 -0.51694 0.012627
0.28621 0.076049 0.85465 9.7727e-39 341 245 0 0 0 0.22262 -0.82531 -0.51894 0.014365
0.29121 0.076049 0.85465 6.4537e-39 346 245 0 0 0 0.28531 -0.79585 -0.53406 0.021013
0.29271 0.077049 0.85465 6.4537e-39 399.5 245.25 0 0 0 0.32143 -0.77714 -0.54105 0.025724
0.21093 0.07863 0.85554 8.5282e-39 261.5 246 0 0 0 -0.42662 -0.18872 -0.88452 0.069262
0.21229 0.078576 0.85495 9.0353e-39 263 246 0 0 0 -0.40875 -0.21739 -0.88638 0.072438
0.293 0.078994 0.85406 6.2693e-39 412 246 0 0 0 0.34871 -0.76517 -0.54122 0.02801
0.29461 0.078157 0.85584 6.1771e-39 277 246 0 0 0 0.35443 -0.75198 -0.55579 0.028107
0.21086 0.080605 0.85524 9.2888e-39 354 246.5 0 0 0 -0.45923 -0.086968 -0.88405 0.057273
0.21212 0.081011 0.85426 9.3118e-39 363.33 246.67 0 0 0 -0.45999 -0.097577 -0.88255 0.058218
0.21103 0.082439 0.85524 8.6049e-39 303.67 247.33 0 0 0 -0.48336 -0.025708 -0.87504 0.048667
0.21207 0.082991 0.85406 7.4678e-39 157 248 0 0 0 -0.48873 -0.007395 -0.8724 0.045941
0.21151 0.084665 0.85584 8.1132e-39 356 248 0 0 0 -0.50015 0.047959 -0.86461 0.037806
0.21222 0.084548 0.85465 8.4359e-39 357 248 0 0 0 -0.50226 0.041693 -0.86371 0.037961
0.21151 0.086668 0.85584 1.512e-38 253 249 0 0 0 -0.51435 0.10578 -0.85103 0.027087
0.21229 0.086578 0.85495 1.5258e-38 254 249 0 0 0 -0.51737 0.099414 -0.84997 0.028166
0.21151 0.08817 0.85584 9.8649e-39 433 249 0 0 0 -0.52572 0.14701 -0.83786 0.019146
0.21265 0.088755 0.85505 8.3283e-39 279.67 249.67 0 0 0 -0.52589 0.1583 -0.83569 0.016234
0.21407 0.088986 0.85406 7.8366e-39 204 250 0 0 0 -0.53376 0.15739 -0.83086 0.016059
0.21329 0.090579 0.85495 1.6088e-38 389 250 0 0 0 -0.53755 0.19512 -0.82035 0.010113
0.2145 0.090694 0.85445 1.4106e-38 412.33 250 0 0 0 -0.53701 0.18552 -0.82292 0.011219
0.21607 0.091984 0.85406 7.0991e-39 224 251 0 0 0 -0.54172 0.20229 -0.81585 0.0085732
0.21351 0.092675 0.85584 8.9429e-39 306 251 0 0 0 -0.54656 0.24044 -0.80216 0.0044246
0.21479 0.092579 0.85495 8.7355e-39 307.5 251 0 0 0 -0.54471 0.22899 -0.80675 0.0055008
0.21656 0.093483 0.85406 8.021e-39 278 251.5 0 0 0 -0.55007 0.23427 -0.80158 0.0042524
0.21351 0.094178 0.85584 7.0069e-39 158 252 0 0 0 -0.5519 0.25939 -0.79254 0.0030581
0.21513 0.09449 0.85564 1.1494e-38 204 252 0 0 0 -0.55061 0.26061 -0.79304 0.0025313
0.21659 0.094736 0.85485 1.595e-38 250 252 0 0 0 -0.5517 0.25698 -0.79347 0.002529
0.21839 0.095648 0.85406 1.2723e-38 415.67 252 0 0 0 -0.55073 0.26382 -0.7919 0.0020726
0.21551 0.09618 0.85584 7.8366e-39 472 252 0 0 0 -0.55338 0.27208 -0.78724 0.0019928
0.21686 0.096614 0.85524 9.1043e-39 358 252.5 0 0 0 -0.55208 0.27305 -0.78781 0.0017903
0.21856 0.09698 0.85406 1.0694e-38 244.5 253 0 0 0 -0.54992 0.27168 -0.7898 0.0018009
0.22006 0.097979 0.85406 9.404e-39 442 253 0 0 0 -0.54865 0.27695 -0.78885 0.0016951
0.21752 0.098183 0.85584 9.6805e-39 439 253 0 0 0 -0.55367 0.28035 -0.78413 0.0016076
0.21887 0.098615 0.85524 9.0121e-39 327.5 253.5 0 0 0 -0.55009 0.28087 -0.78646 0.0016276
0.22083 0.099357 0.85445 8.2054e-39 282.33 254 0 0 0 -0.54792 0.28383 -0.78691 0.0016494
0.2188 0.1005 0.85564 7.2834e-39 334.33 254.33 0 0 0 -0.55067 0.28775 -0.78356 0.0016091
0.2207 0.10079 0.85524 7.7752e-39 259.33 254.67 0 0 0 -0.54622 0.29068 -0.78559 0.0015979
0.21852 0.10219 0.85584 9.2196e-39 381 255 0 0 0 -0.55094 0.2943 -0.78093 0.0015682
0.22087 0.10262 0.85524 8.1132e-39 265 255.5 0 0 0 -0.54442 0.29749 -0.78429 0.001569
0.22206 0.10348 0.85406 7.7905e-39 204.5 256 0 0 0 -0.54178 0.30088 -0.78482 0.0016125
0.22129 0.10459 0.85495 8.1132e-39 365.5 256 0 0 0 -0.54292 0.30287 -0.78327 0.0015665
0.22278 0.10533 0.85426 8.2053e-39 396 256.33 0 0 0 -0.54088 0.305 -0.78386 0.0016169
0.22137 0.10662 0.85524 8.574e-39 347 257 0 0 0 -0.54255 0.30804 -0.7815 0.0014835
0.22254 0.10672 0.85465 8.0211e-39 383.67 257 0 0 0 -0.54106 0.30796 -0.78257 0.0015296
0.22406 0.10697 0.85406 6.9147e-39 456 257 0 0 0 -0.5376 0.30986 -0.7842 0.0015257
0.22152 0.1082 0.85584 7.0991e-39 226 258 0 0 0 -0.54157 0.31371 -0.77993 0.0014479
0.22287 0.10862 0.85524 7.3526e-39 336.5 258 0 0 0 -0.54088 0.31461 -0.78004 0.0014615
0.22449 0.10902 0.85445 7.4986e-39 299.33 258.33 0 0 0 -0.53725 0.31528 -0.78228 0.0014448
0.22352 0.1107 0.85584 8.3438e-39 327.5 259 0 0 0 -0.53879 0.31914 -0.77965 0.0013977
0.22465 0.11076 0.85504 8.6664e-39 364.67 259 0 0 0 -0.53705 0.31918 -0.78083 0.0013829
0.22606 0.11197 0.85406 8.6664e-39 212 260 0 0 0 -0.53527 0.32009 -0.78168 0.001531
0.22352 0.1122 0.85584 7.6522e-39 209 260 0 0 0 -0.53902 0.32251 -0.7781 0.0013197
0.22495 0.11266 0.85554 9.2427e-39 318 260 0 0 0 -0.53767 0.32302 -0.77883 0.0013423
0.22671 0.11304 0.85465 9.9571e-39 427.5 260 0 0 0 -0.53423 0.323 -0.7812 0.0014842
0.22856 0.11397 0.85406 7.5139e-39 201.5 261 0 0 0 -0.53435 0.32451 -0.78049 0.001675
0.22553 0.1142 0.85584 7.9288e-39 198 261 0 0 0 -0.53718 0.32526 -0.77823 0.0013743
0.22687 0.11462 0.85524 9.035e-39 305.5 261 0 0 0 -0.53463 0.32512 -0.78004 0.0014749
0.22871 0.11505 0.85465 9.5884e-39 413.5 261 0 0 0 -0.53319 0.3253 -0.78095 0.0016608
0.23005 0.11497 0.85406 9.2196e-39 415 261 0 0 0 -0.53282 0.32501 -0.78132 0.0018583
0.22753 0.11621 0.85584 7.0069e-39 186 262 0 0 0 -0.53404 0.32623 -0.77999 0.0015377
0.22891 0.11665 0.85539 8.6894e-39 293.5 262 0 0 0 -0.53284 0.3257 -0.78102 0.0016887
0.23054 0.11671 0.85465 8.7279e-39 330.67 262 0 0 0 -0.53205 0.32553 -0.78164 0.001953
0.22953 0.11871 0.85584 7.6522e-39 281.5 263 0 0 0 -0.53274 0.32543 -0.78121 0.0018269
0.23087 0.11863 0.85524 8.2285e-39 283 263 0 0 0 -0.53121 0.32536 -0.78228 0.001922
0.23205 0.11896 0.85406 1.0049e-38 391 263 0 0 0 -0.53027 0.32642 -0.78247 0.0020757
0.23153 0.12021 0.85584 6.6381e-39 169 264 0 0 0 -0.5314 0.32567 -0.78202 0.0019416
0.23254 0.12071 0.85465 8.0518e-39 313.67 264 0 0 0 -0.52966 0.32623 -0.78296 0.0020512
0.23455 0.12196 0.85406 7.0991e-39 170.5 265 0 0 0 -0.52419 0.32925 -0.78538 0.0021187
0.23291 0.12265 0.85539 7.5601e-39 270.5 265 0 0 0 -0.52867 0.32819 -0.78282 0.0020293
0.23463 0.123 0.85435 7.514e-39 374.5 265 0 0 0 -0.52329 0.32962 -0.78583 0.0021484
0.23346 0.12468 0.85554 8.7125e-39 202 266 0 0 0 -0.5256 0.3318 -0.78336 0.0021932
0.2348 0.12459 0.85495 8.4358e-39 203.5 266 0 0 0 -0.52274 0.33219 -0.78511 0.0022156
0.23655 0.12546 0.85406 8.6663e-39 364 266 0 0 0 -0.51925 0.33406 -0.78663 0.0022775
0.23354 0.12622 0.85584 8.021e-39 465 266 0 0 0 -0.52601 0.33298 -0.78258 0.0022708
0.23496 0.12668 0.85554 8.1362e-39 358 266.5 0 0 0 -0.52266 0.33432 -0.78425 0.0022586
0.23654 0.12671 0.85465 9.0968e-39 323.67 266.67 0 0 0 -0.51996 0.33409 -0.78615 0.0022525
0.23546 0.12867 0.85554 7.9749e-39 353 267.5 0 0 0 -0.52169 0.33825 -0.78321 0.0024092
0.23684 0.12861 0.85509 8.1823e-39 354.5 267.5 0 0 0 -0.52073 0.33692 -0.78443 0.0023126
0.23805 0.12995 0.85406 7.8366e-39 457 268 0 0 0 -0.52363 0.33611 -0.78284 0.0023868
0.23554 0.13072 0.85584 7.7905e-39 346.5 268.5 0 0 0 -0.5229 0.33981 -0.78174 0.002359
0.23696 0.13068 0.85554 7.998e-39 348 268.5 0 0 0 -0.5226 0.33826 -0.7826 0.0023766
0.23805 0.13145 0.85406 7.4218e-39 346.5 269 0 0 0 -0.52544 0.33533 -0.78197 0.0024086
0.23554 0.13273 0.85584 8.2054e-39 339.5 269.5 0 0 0 -0.52425 0.34017 -0.78067 0.0023728
0.23704 0.13273 0.85584 7.6753e-39 341 269.5 0 0 0 -0.52471 0.3393 -0.78074 0.0023719
0.23855 0.13345 0.85406 8.1593e-39 341 270 0 0 0 -0.52806 0.33584 -0.77998 0.002508
0.27721 0.13304 0.85465 1.0326e-38 374 270 0 0 0 0.73938 0.28378 -0.61056 0.015567
0.23866 0.13477 0.85504 8.6971e-39 306 270.67 0 0 0 -0.52931 0.3363 -0.77893 0.0024222
0.24005 0.13495 0.85406 9.2196e-39 237 271 0 0 0 -0.53251 0.33389 -0.77779 0.0025516
0.27759 0.13423 0.85584 6.7303e-39 160 271 0 0 0 0.76253 0.24065 -0.60052 0.01487
0.2784 0.13414 0.85524 6.9147e-39 161 271 0 0 0 0.77271 0.23314 -0.59039 0.012302
0.23915 0.13653 0.85564 8.1747e-39 386.33 271.33 0 0 0 -0.53287 0.33789 -0.77581 0.0024922
0.2406 0.13674 0.85485 7.5601e-39 317.67 271.67 0 0 0 -0.53442 0.33567 -0.77571 0.0024911
0.24304 0.13795 0.85406 6.5459e-39 149 273 0 0 0 -0.53486 0.33547 -0.77549 0.0025227
0.24404 0.13795 0.85406 6.5459e-39 150 273 0 0 0 -0.53231 0.33527 -0.77733 0.0026036
0.24116 0.13854 0.85564 8.4511e-39 220.67 273 0 0 0 -0.53589 0.33886 -0.7733 0.0024166
0.2426 0.13874 0.85485 9.0659e-39 300.33 273 0 0 0 -0.53584 0.33784 -0.77378 0.0024207
0.24471 0.13904 0.85465 9.8649e-39 378.5 273 0 0 0 -0.53286 0.33749 -0.77599 0.0025131
0.24604 0.13995 0.85406 7.56e-39 175 274 0 0 0 -0.52703 0.34109 -0.77839 0.0026546
0.24322 0.14057 0.85584 7.6215e-39 248.33 274 0 0 0 -0.53616 0.34285 -0.77135 0.0023661
0.24492 0.14066 0.85539 7.3065e-39 288.5 274 0 0 0 -0.53237 0.34329 -0.77378 0.0024074
0.24671 0.14128 0.85406 7.7444e-39 337.67 274.33 0 0 0 -0.52459 0.34478 -0.77842 0.0026435
0.24522 0.14257 0.85584 7.8059e-39 276.33 275 0 0 0 -0.53277 0.34873 -0.77106 0.0023633
0.2466 0.14274 0.85485 7.7752e-39 354.67 275 0 0 0 -0.52741 0.34951 -0.77439 0.0025282
0.24854 0.14344 0.85406 7.1913e-39 332.5 275.5 0 0 0 -0.51275 0.3519 -0.7831 0.0032915
0.24701 0.14472 0.85569 8.7586e-39 341.5 276 0 0 0 -0.52647 0.35314 -0.77339 0.0025336
0.2486 0.14474 0.85485 9.6496e-39 380.67 276 0 0 0 -0.5132 0.35386 -0.78193 0.0034508
0.25004 0.14544 0.85406 8.7588e-39 358 276.5 0 0 0 -0.49228 0.35707 -0.79382 0.0047421
0.27502 0.14544 0.85406 7.7444e-39 269 277 0 0 0 0.64445 0.29777 -0.70429 0.035756
0.27659 0.14474 0.85584 1.5028e-38 240 276.5 0 0 0 0.69683 0.26641 -0.66592 0.026015
0.24755 0.14624 0.85584 7.1913e-39 256 277 0 0 0 -0.52237 0.35471 -0.77544 0.0029167
0.24888 0.14664 0.85524 6.7073e-39 201.5 277.5 0 0 0 -0.5103 0.35494 -0.78333 0.0038496
0.25004 0.14694 0.85406 7.0991e-39 149 278 0 0 0 -0.49022 0.35767 -0.79483 0.0049851
0.2764 0.14614 0.85524 9.3118e-39 378 277 0 0 0 0.68577 0.2807 -0.67151 0.027107
0.24911 0.14851 0.85544 1.7825e-38 254.67 278.33 0 0 0 -0.50809 0.3549 -0.78479 0.0041474
0.25054 0.14871 0.85465 1.2508e-38 199.33 278.67 0 0 0 -0.48239 0.35872 -0.79914 0.0059346
0.24956 0.15075 0.85584 1.5028e-38 222.5 279.5 0 0 0 -0.50004 0.35662 -0.78916 0.004724
0.25084 0.15062 0.8551 1.5028e-38 224.5 279.5 0 0 0 -0.4772 0.35762 -0.80274 0.0066373
0.25204 0.15094 0.85406 6.9147e-39 142 280 0 0 0 -0.44839 0.36272 -0.81693 0.0092949
0.27521 0.15104 0.85465 6.7303e-39 167 280 0 0 0 0.62591 0.32237 -0.71015 0.038481
0.25117 0.15255 0.85564 6.423e-39 218.33 280.33 0 0 0 -0.47361 0.36138 -0.80318 0.0070384
0.25255 0.15271 0.85465 1.1617e-38 191.33 280.67 0 0 0 -0.44356 0.36488 -0.8186 0.0097779
0.25404 0.15393 0.85406 6.8225e-39 258 281 0 0 0 -0.39743 0.37688 -0.83667 0.014436
0.27549 0.1527 0.85554 8.8045e-39 265.5 280.5 0 0 0 0.62732 0.3199 -0.71003 0.038656
0.27621 0.15304 0.85465 6.6381e-39 163 281 0 0 0 0.64548 0.31317 -0.69662 0.033647
0.25293 0.15468 0.85539 9.519e-39 356 281 0 0 0 -0.43822 0.36967 -0.81934 0.010571
0.25462 0.15498 0.85435 1.1801e-38 457.5 281 0 0 0 -0.39211 0.37757 -0.83886 0.014647
0.25603 0.15593 0.85406 7.0991e-39 247 282 0 0 0 -0.3539 0.38254 -0.85347 0.019084
0.2764 0.15415 0.85524 1.8347e-38 337 281 0 0 0 0.64658 0.31478 -0.69487 0.033371
0.25356 0.15676 0.85584 9.4042e-39 336.5 282 0 0 0 -0.41514 0.37756 -0.82771 0.013634
0.25485 0.15662 0.85509 1.0003e-38 338 282 0 0 0 -0.38976 0.37928 -0.83919 0.015429
0.25662 0.15698 0.85435 1.2861e-38 432.5 282 0 0 0 -0.31951 0.38975 -0.86372 0.024304
0.25517 0.15856 0.85564 9.7113e-39 274.33 283 0 0 0 -0.37414 0.38547 -0.84346 0.01851
0.25694 0.15868 0.85539 1.0119e-38 304.5 283 0 0 0 -0.31826 0.3888 -0.86461 0.025652
0.25853 0.15943 0.85406 1.0096e-38 283.5 283.5 0 0 0 -0.26583 0.39064 -0.88133 0.029366
0.26902 0.15993 0.85406 6.8225e-39 186 284 0 0 0 0.10215 0.39387 -0.91347 0.041759
0.27159 0.15926 0.85584 1.1801e-38 404 283 0 0 0 0.29326 0.38044 -0.87708 0.052426
0.27299 0.15821 0.85554 7.7444e-39 235.5 283 0 0 0 0.44217 0.35676 -0.82292 0.054958
0.25707 0.16026 0.85584 6.7764e-39 173.5 284 0 0 0 -0.32552 0.38917 -0.86173 0.025576
0.25854 0.16071 0.85465 1.7364e-38 267 284 0 0 0 -0.27031 0.38797 -0.88114 0.030389
0.26053 0.16143 0.85406 1.7194e-38 387 284 0 0 0 -0.21793 0.39138 -0.89405 0.031248
0.26253 0.16143 0.85406 1.6272e-38 389 284 0 0 0 -0.1636 0.39831 -0.90254 0.034928
0.26403 0.16193 0.85406 1.1985e-38 452 284 0 0 0 -0.10669 0.39916 -0.91065 0.036417
0.26662 0.16098 0.85435 1.6641e-38 331.5 284 0 0 0 -0.012402 0.39617 -0.91809 0.037957
0.2688 0.16109 0.85495 1.6595e-38 333.5 284 0 0 0 0.072408 0.3915 -0.91732 0.040106
0.27039 0.16065 0.85524 1.1432e-38 261 284 0 0 0 0.16048 0.38575 -0.90854 0.044656
0.25894 0.16268 0.85539 9.5883e-39 337 284.5 0 0 0 -0.27321 0.38696 -0.88069 0.031125
0.2606 0.16274 0.85485 8.9431e-39 302.33 284.67 0 0 0 -0.2241 0.3899 -0.89317 0.03333
0.26294 0.16274 0.85485 9.3425e-39 304.67 284.67 0 0 0 -0.14542 0.39568 -0.9068 0.035788
0.26488 0.16271 0.85465 9.2195e-39 306.67 284.67 0 0 0 -0.0831 0.40208 -0.91183 0.037374
0.26689 0.16265 0.85524 9.4501e-39 345 284.5 0 0 0 -0.018882 0.39709 -0.91759 0.037071
0.26899 0.16271 0.85554 9.1273e-39 347 284.5 0 0 0 0.05264 0.39592 -0.91678 0.037102
0.25907 0.16427 0.85584 1.2723e-38 370.5 285 0 0 0 -0.27491 0.38915 -0.87919 0.031848
0.26118 0.16456 0.85564 1.0848e-38 295.33 285.33 0 0 0 -0.20132 0.39454 -0.89655 0.036759
0.26294 0.16468 0.85539 9.888e-39 258.5 285.5 0 0 0 -0.14052 0.40277 -0.90445 0.038742
0.26489 0.16465 0.85524 9.4498e-39 260.5 285.5 0 0 0 -0.088897 0.40195 -0.91134 0.037318
0.26648 0.16471 0.85554 9.7267e-39 262 285.5 0 0 0 -0.039082 0.39905 -0.9161 0.036528
0.26885 0.16456 0.85564 1.048e-38 303 285.33 0 0 0 0.048199 0.396 -0.91698 0.035954
0.26157 0.16627 0.85584 6.7303e-39 236 286 0 0 0 -0.202 0.39278 -0.89717 0.036785
0.26307 0.16677 0.85584 1.3622e-38 293 286 0 0 0 -0.1419 0.39804 -0.90633 0.038972
0.26508 0.16677 0.85584 1.1571e-38 298.5 286 0 0 0 -0.08128 0.39888 -0.91339 0.037135
0.26858 0.16677 0.85584 9.6344e-39 305.5 286 0 0 0 0.023501 0.39791 -0.91712 0.035122
0.21145 0.071296 0.85762 1.0556e-38 301.5 243 0 0 0 -0.23004 -0.64631 -0.72757 0.077917
0.21338 0.071271 0.85732 9.0815e-39 303.5 243 0 0 0 -0.18161 -0.69163 -0.69905 0.071366
0.21538 0.071271 0.85732 7.1452e-39 305.5 243 0 0 0 -0.15487 -0.7184 -0.67818 0.06631
0.21739 0.071271 0.85732 7.56e-39 307.5 243 0 0 0 -0.13626 -0.74566 -0.65225 0.058944
0.21948 0.071296 0.85762 7.1452e-39 309.5 243 0 0 0 -0.12071 -0.77651 -0.61844 0.050725
0.22125 0.071222 0.85672 7.1452e-39 311.5 243 0 0 0 -0.11934 -0.78739 -0.60479 0.046951
0.22349 0.071296 0.85762 7.053e-39 313.5 243 0 0 0 -0.096183 -0.81486 -0.57162 0.035731
0.24589 0.071247 0.85702 9.4961e-39 336 243 0 0 0 -0.0010165 -0.86973 -0.49352 0.0048736
0.24707 0.071296 0.85762 9.404e-39 337 243 0 0 0 -0.0044956 -0.86636 -0.4994 0.0043744
0.24907 0.071296 0.85762 8.8508e-39 339 243 0 0 0 -0.0069454 -0.85962 -0.51088 0.00375
0.25058 0.071296 0.85762 9.5422e-39 340.5 243 0 0 0 -0.0054294 -0.85787 -0.51384 0.0035416
0.20593 0.072802 0.85762 7.4679e-39 326.5 243.5 0 0 0 -0.37708 -0.41689 -0.82705 0.076604
0.20755 0.072952 0.85742 7.9288e-39 292.33 243.67 0 0 0 -0.35612 -0.46571 -0.81012 0.081418
0.20937 0.072776 0.85732 7.6522e-39 330 243.5 0 0 0 -0.31152 -0.53668 -0.78418 0.084233
0.21103 0.07255 0.85663 8.1439e-39 367.67 243.33 0 0 0 -0.26987 -0.57608 -0.77156 0.082127
0.2128 0.072249 0.85702 8.3898e-39 441 243 0 0 0 -0.22123 -0.6473 -0.72943 0.076794
0.22318 0.072199 0.85643 9.4501e-39 451.5 243 0 0 0 -0.12516 -0.7873 -0.60374 0.045587
0.22542 0.072275 0.85732 9.9571e-39 453.5 243 0 0 0 -0.096465 -0.81606 -0.56986 0.033845
0.22734 0.072751 0.85702 9.5884e-39 348 243.5 0 0 0 -0.09721 -0.82518 -0.55645 0.030156
0.22885 0.073252 0.85702 1.0234e-38 242 244 0 0 0 -0.08358 -0.82942 -0.55234 0.028454
0.23051 0.073303 0.85762 9.9573e-39 243.5 244 0 0 0 -0.066587 -0.84393 -0.5323 0.021723
0.24105 0.073303 0.85762 7.56e-39 254 244 0 0 0 0.0087414 -0.88442 -0.46662 0.0052151
0.24339 0.073252 0.85702 7.5139e-39 256.5 244 0 0 0 0.0085807 -0.88122 -0.47262 0.005564
0.24485 0.072487 0.85688 9.0813e-39 419.25 243.25 0 0 0 0.0024746 -0.87373 -0.48641 0.0051209
0.24717 0.072566 0.85682 8.6971e-39 403.67 243.33 0 0 0 0.0017642 -0.86962 -0.49372 0.0049462
0.24873 0.072199 0.85643 8.7586e-39 477 243 0 0 0 -0.00039097 -0.86762 -0.49722 0.0046448
0.25146 0.07255 0.85663 7.1298e-39 408 243.33 0 0 0 -0.003948 -0.86344 -0.50443 0.0038504
0.25319 0.072566 0.85682 6.7303e-39 409.67 243.33 0 0 0 -0.0024172 -0.86094 -0.5087 0.0033788
0.25519 0.072901 0.85683 6.6996e-39 340.67 243.67 0 0 0 -0.0029561 -0.85495 -0.5187 0.0024051
0.25692 0.072918 0.85702 6.6996e-39 342.33 243.67 0 0 0 0.0028151 -0.85254 -0.52265 0.0021048
0.25842 0.072751 0.85703 6.9608e-39 379.5 243.5 0 0 0 0.0057252 -0.84966 -0.5273 0.0018285
0.27129 0.072918 0.85702 6.9454e-39 345.67 243.67 0 0 0 0.04273 -0.85076 -0.52381 0.0024783
0.27328 0.073201 0.85643 6.2232e-39 276.5 244 0 0 0 0.055885 -0.85191 -0.5207 0.0028578
0.27507 0.072776 0.85732 7.0299e-39 386.5 243.5 0 0 0 0.076315 -0.85166 -0.5185 0.0034258
0.27704 0.072935 0.85722 8.9737e-39 352.33 243.67 0 0 0 0.098033 -0.85057 -0.51664 0.004581
0.27917 0.073303 0.85762 9.6805e-39 282 244 0 0 0 0.12972 -0.84651 -0.51633 0.0064173
0.28018 0.073303 0.85762 9.0352e-39 283 244 0 0 0 0.14585 -0.84453 -0.51527 0.007453
0.20392 0.07531 0.85762 7.3757e-39 480 244 0 0 0 -0.46787 -0.19825 -0.86128 0.058698
0.20593 0.074808 0.85762 6.592e-39 417.5 244 0 0 0 -0.43321 -0.29318 -0.85227 0.07287
0.20736 0.074782 0.85732 6.7073e-39 419 244 0 0 0 -0.40596 -0.34486 -0.84633 0.079696
0.2093 0.074756 0.85702 6.8686e-39 421 244 0 0 0 -0.36683 -0.39057 -0.84433 0.08368
0.21065 0.074704 0.85643 6.9608e-39 422.5 244 0 0 0 -0.33264 -0.43087 -0.83887 0.082773
0.22969 0.074203 0.85643 9.3118e-39 377 244 0 0 0 -0.095788 -0.81749 -0.56792 0.033518
0.23127 0.074229 0.85672 9.3118e-39 378.5 244 0 0 0 -0.075639 -0.83031 -0.55215 0.028412
0.23347 0.074572 0.85682 8.5128e-39 304.67 244.33 0 0 0 -0.05987 -0.84498 -0.53144 0.023572
0.23528 0.07473 0.85672 8.3898e-39 268.5 244.5 0 0 0 -0.050479 -0.85781 -0.51148 0.01807
0.23691 0.074768 0.85717 8.2515e-39 270 244.5 0 0 0 -0.036309 -0.86352 -0.50301 0.015017
0.23888 0.074756 0.85702 7.9289e-39 272 244.5 0 0 0 -0.0082144 -0.87841 -0.47784 0.0077354
0.24104 0.074645 0.8569 8.353e-39 297 244.4 0 0 0 0.012352 -0.8871 -0.46142 0.0054578
0.24322 0.074203 0.85643 9.1735e-39 390.5 244 0 0 0 0.013968 -0.88308 -0.46901 0.0057851
0.27578 0.074203 0.85643 7.56e-39 410 244 0 0 0 0.085315 -0.85057 -0.5189 0.0045069
0.27729 0.074203 0.85643 7.3757e-39 411.5 244 0 0 0 0.10524 -0.84931 -0.51729 0.0055053
0.27925 0.074906 0.85682 7.7444e-39 268.67 244.67 0 0 0 0.13155 -0.84627 -0.51626 0.0068487
0.28109 0.074781 0.85732 7.3757e-39 306.5 244.5 0 0 0 0.1618 -0.8408 -0.5166 0.009478
0.28309 0.074781 0.85732 7.1452e-39 308.5 244.5 0 0 0 0.18612 -0.83523 -0.51745 0.011586
0.28526 0.074905 0.85683 7.222e-39 274.67 244.67 0 0 0 0.21094 -0.82903 -0.51789 0.013777
0.2865 0.074755 0.85703 7.3296e-39 312 244.5 0 0 0 0.22022 -0.82315 -0.52338 0.015142
0.28871 0.074306 0.85762 7.4218e-39 422.5 244 0 0 0 0.25147 -0.81229 -0.52626 0.017077
0.29072 0.074306 0.85762 8.021e-39 424.5 244 0 0 0 0.27783 -0.79636 -0.53723 0.0212
0.29262 0.074781 0.85732 7.6061e-39 318 244.5 0 0 0 0.30647 -0.78088 -0.54433 0.024286
0.20392 0.076815 0.85762 7.6983e-39 330 245 0 0 0 -0.48598 -0.13429 -0.86359 0.05676
0.20536 0.076788 0.85732 7.5601e-39 331.5 245 0 0 0 -0.47265 -0.17057 -0.86459 0.064125
0.20733 0.076775 0.85717 7.3757e-39 333.5 245 0 0 0 -0.4514 -0.20058 -0.86948 0.070108
0.20926 0.076748 0.85687 7.1221e-39 335.5 245 0 0 0 -0.40197 -0.28733 -0.8694 0.079892
0.21065 0.076207 0.85643 6.4537e-39 269 245 0 0 0 -0.37517 -0.33042 -0.86606 0.083102
0.29382 0.076207 0.85643 6.1771e-39 348 245 0 0 0 0.33508 -0.76352 -0.55206 0.026278
0.29502 0.076761 0.85703 6.5459e-39 419 245 0 0 0 0.34797 -0.7549 -0.55592 0.02754
0.20392 0.07832 0.85762 7.0069e-39 183 246 0 0 0 -0.50364 -0.068695 -0.86118 0.047503
0.20579 0.078767 0.85702 8.3898e-39 254.5 246 0 0 0 -0.49526 -0.080903 -0.86497 0.052216
0.20732 0.078781 0.85717 8.1824e-39 256 246 0 0 0 -0.48123 -0.11101 -0.86954 0.059611
0.20915 0.078712 0.85643 8.413e-39 258.75 246 0 0 0 -0.45719 -0.15488 -0.87578 0.065776
0.29482 0.079213 0.85643 6.4537e-39 413 246 0 0 0 0.3576 -0.74897 -0.55783 0.028388
0.29623 0.078821 0.85762 6.6381e-39 346 246 0 0 0 0.36886 -0.7371 -0.56624 0.02924
0.20593 0.080829 0.85762 9.819e-39 348.5 246.5 0 0 0 -0.51243 -0.024917 -0.85837 0.044956
0.20729 0.080773 0.85702 9.934e-39 350 246.5 0 0 0 -0.50382 -0.040895 -0.86284 0.049598
0.20915 0.080716 0.85643 9.6576e-39 352 246.5 0 0 0 -0.47685 -0.067394 -0.8764 0.055383
0.29482 0.080716 0.85643 1.0003e-38 263 247 0 0 0 0.3736 -0.74286 -0.5555 0.028846
0.20593 0.082835 0.85762 8.2054e-39 261 247.5 0 0 0 -0.52002 0.047147 -0.85285 0.033527
0.20743 0.082835 0.85762 8.4819e-39 262.5 247.5 0 0 0 -0.51117 0.03422 -0.8588 0.035988
0.20915 0.08272 0.85643 8.6203e-39 264.5 247.5 0 0 0 -0.49835 0.0080843 -0.86694 0.042788
0.21065 0.083221 0.85643 7.4678e-39 155 248 0 0 0 -0.48991 -0.0060033 -0.87175 0.046854
0.29523 0.082333 0.85762 9.404e-39 460 247 0 0 0 0.38713 -0.72988 -0.56339 0.030869
0.20743 0.08434 0.85762 7.7905e-39 287.5 248 0 0 0 -0.52182 0.075567 -0.8497 0.028786
0.2093 0.084783 0.85702 8.459e-39 353.5 248 0 0 0 -0.5129 0.075531 -0.85512 0.031187
0.21065 0.084724 0.85643 7.7905e-39 355 248 0 0 0 -0.49805 0.052457 -0.86556 0.036576
0.20937 0.086819 0.85732 1.3876e-38 249.25 249 0 0 0 -0.52544 0.1418 -0.83893 0.019875
0.21065 0.086728 0.85643 1.4336e-38 252 249 0 0 0 -0.51669 0.11816 -0.84798 0.025313
0.20994 0.088856 0.85762 8.6203e-39 315 249.5 0 0 0 -0.53517 0.18779 -0.82361 0.012965
0.21103 0.08892 0.85663 8.2975e-39 277.67 249.67 0 0 0 -0.53268 0.1809 -0.82676 0.014018
0.20994 0.09036 0.85762 2.351e-38 319 250 0 0 0 -0.54286 0.22543 -0.809 0.0070384
0.21134 0.090815 0.85717 1.6134e-38 386.5 250 0 0 0 -0.54238 0.2263 -0.80908 0.0070432
0.21266 0.090736 0.85643 1.5074e-38 388 250 0 0 0 -0.53869 0.20936 -0.81608 0.008563
0.21137 0.092836 0.85732 8.3667e-39 303.5 251 0 0 0 -0.54976 0.25963 -0.79395 0.0034114
0.2128 0.092804 0.85702 8.3437e-39 305 251 0 0 0 -0.54935 0.2543 -0.79596 0.003512
0.21162 0.094708 0.85762 1.1494e-38 200 252 0 0 0 -0.55192 0.27854 -0.786 0.0022799
0.21319 0.094999 0.85722 1.7886e-38 246 252 0 0 0 -0.55218 0.27361 -0.78755 0.002307
0.21466 0.095245 0.85643 2.2588e-38 292 252 0 0 0 -0.55352 0.26906 -0.78818 0.0023008
0.21195 0.096381 0.85762 6.8225e-39 468 252 0 0 0 -0.55554 0.28458 -0.78127 0.0018318
0.21381 0.096815 0.85702 8.8968e-39 354.5 252.5 0 0 0 -0.55598 0.28158 -0.78205 0.0017111
0.21504 0.096937 0.85663 9.2504e-39 317.33 252.67 0 0 0 -0.55507 0.27933 -0.7835 0.0017311
0.21396 0.098387 0.85762 9.404e-39 435 253 0 0 0 -0.55788 0.28914 -0.77793 0.0014173
0.21542 0.098872 0.85747 8.3437e-39 323.5 253.5 0 0 0 -0.55829 0.28783 -0.77812 0.0014608
0.21705 0.098942 0.85663 8.3283e-39 287.67 253.67 0 0 0 -0.55535 0.2848 -0.78133 0.0015356
0.21596 0.10039 0.85762 7.3757e-39 408 254 0 0 0 -0.55844 0.29217 -0.77639 0.001396
0.21732 0.10082 0.85702 6.8916e-39 294 254.5 0 0 0 -0.55605 0.29168 -0.77829 0.0015003
0.21967 0.10126 0.85643 6.3615e-39 181 255 0 0 0 -0.54969 0.29291 -0.78233 0.0015847
0.21739 0.10286 0.85732 8.1594e-39 261 255.5 0 0 0 -0.55612 0.29758 -0.776 0.0014427
0.21934 0.10293 0.85643 7.7445e-39 223.67 255.67 0 0 0 -0.55062 0.29897 -0.77939 0.0015347
0.21797 0.10491 0.85762 8.4359e-39 361.5 256 0 0 0 -0.55426 0.30391 -0.77487 0.0013299
0.21925 0.1048 0.85672 8.413e-39 363 256 0 0 0 -0.55031 0.30467 -0.77739 0.0014169
0.22067 0.10476 0.85643 8.2516e-39 364.5 256 0 0 0 -0.54521 0.30482 -0.78092 0.0014882
0.21797 0.10641 0.85762 8.2054e-39 237 257 0 0 0 -0.55277 0.30817 -0.77425 0.0012184
0.21936 0.10686 0.85717 8.1593e-39 344.5 257 0 0 0 -0.54888 0.31041 -0.77613 0.0013111
0.22083 0.10684 0.85702 8.3437e-39 346 257 0 0 0 -0.54598 0.31091 -0.77797 0.001349
0.21964 0.10875 0.85762 8.7586e-39 296.33 258 0 0 0 -0.54789 0.31466 -0.77512 0.0012511
0.22116 0.10901 0.85702 8.5742e-39 370.67 258 0 0 0 -0.54337 0.31621 -0.77767 0.0013138
0.22149 0.11068 0.85702 8.5127e-39 289.33 259 0 0 0 -0.54301 0.31966 -0.7765 0.0012843
0.22268 0.11078 0.85643 8.5281e-39 326.5 259 0 0 0 -0.54092 0.31957 -0.778 0.0013208
0.2219 0.1129 0.85732 8.2515e-39 314.5 260 0 0 0 -0.54216 0.32378 -0.77539 0.0012674
0.22306 0.11297 0.85663 8.82e-39 351.67 260 0 0 0 -0.53974 0.32378 -0.77707 0.0012742
0.22198 0.11444 0.85762 7.4678e-39 194 261 0 0 0 -0.54201 0.32675 -0.77425 0.0012051
0.22341 0.1149 0.85732 8.2976e-39 301.5 261 0 0 0 -0.53984 0.327 -0.77566 0.001234
0.22501 0.11495 0.85643 8.8508e-39 338.67 261 0 0 0 -0.53783 0.3256 -0.77764 0.0013074
0.22399 0.11645 0.85762 6.9147e-39 182 262 0 0 0 -0.53954 0.32752 -0.77565 0.0012426
0.22538 0.11689 0.85717 8.2516e-39 289.5 262 0 0 0 -0.53901 0.32679 -0.77632 0.0012948
0.22707 0.11698 0.85663 9.0966e-39 326.67 262 0 0 0 -0.53518 0.32618 -0.77923 0.001494
0.22549 0.11845 0.85762 7.3296e-39 170.5 263 0 0 0 -0.53964 0.3278 -0.77546 0.0012857
0.22734 0.11887 0.85702 7.076e-39 279 263 0 0 0 -0.53701 0.32776 -0.7773 0.0015284
0.22877 0.11884 0.85672 7.2835e-39 280.5 263 0 0 0 -0.53459 0.32553 -0.7799 0.0017017
0.22767 0.12079 0.85762 6.9761e-39 236.33 264 0 0 0 -0.53793 0.32945 -0.77595 0.001535
0.22935 0.12088 0.85702 7.1221e-39 274 264 0 0 0 -0.53517 0.32697 -0.7789 0.0017243
0.23102 0.12096 0.85643 7.2834e-39 311.67 264 0 0 0 -0.53208 0.32609 -0.78138 0.0019373
0.22985 0.12238 0.85702 6.6381e-39 165 265 0 0 0 -0.53479 0.32742 -0.77897 0.0018393
0.23105 0.12299 0.85702 8.1501e-39 288.6 265 0 0 0 -0.53357 0.32795 -0.77959 0.0019332
0.23068 0.12481 0.85762 7.7445e-39 176.67 266 0 0 0 -0.53556 0.33404 -0.77562 0.0019677
0.23236 0.12489 0.85703 8.4589e-39 197.5 266 0 0 0 -0.53026 0.33253 -0.7799 0.0021523
0.23101 0.12648 0.85762 7.7444e-39 462 266 0 0 0 -0.53578 0.33563 -0.77478 0.0019637
0.23269 0.12701 0.85714 8.2607e-39 333.6 266.6 0 0 0 -0.53002 0.33772 -0.77783 0.0022449
0.2334 0.12892 0.85717 7.5601e-39 350.5 267.5 0 0 0 -0.52807 0.34007 -0.77814 0.0022083
0.2347 0.12881 0.85643 7.8366e-39 352 267.5 0 0 0 -0.5242 0.33828 -0.78152 0.0023125
0.23444 0.13095 0.85732 8.021e-39 345 268.5 0 0 0 -0.52626 0.34105 -0.77893 0.0022097
0.23458 0.13277 0.85722 7.9288e-39 374.33 269.33 0 0 0 -0.52754 0.34107 -0.77806 0.002155
0.23553 0.13475 0.85702 8.0517e-39 373 270.33 0 0 0 -0.5277 0.34342 -0.77691 0.0021984
0.2372 0.13482 0.85643 7.8827e-39 339.5 270.5 0 0 0 -0.52707 0.34073 -0.77853 0.0023506
0.27779 0.13532 0.85643 9.9571e-39 380 271 0 0 0 0.76929 0.23535 -0.59397 0.014071
0.27898 0.13542 0.85702 9.6805e-39 381 271 0 0 0 0.78987 0.19912 -0.58005 0.012377
0.23587 0.13642 0.85702 7.4678e-39 453 271 0 0 0 -0.5288 0.3433 -0.77622 0.0022183
0.23707 0.13702 0.85702 8.0763e-39 327.6 271.6 0 0 0 -0.5291 0.34172 -0.77671 0.0022298
0.23871 0.13733 0.85643 8.2976e-39 245 272 0 0 0 -0.53133 0.34032 -0.7758 0.0023796
0.23787 0.13843 0.85702 6.3615e-39 140 273 0 0 0 -0.53053 0.34241 -0.77543 0.0023286
0.23911 0.13905 0.85714 8.777e-39 279.8 273 0 0 0 -0.53349 0.34318 -0.77306 0.002335
0.24071 0.13933 0.85643 1.0787e-38 374 273 0 0 0 -0.53655 0.34173 -0.77158 0.0023379
0.27698 0.13893 0.85703 6.9608e-39 296 273 0 0 0 0.74707 0.22212 -0.62653 0.020431
0.24104 0.14081 0.8569 7.9842e-39 261.2 274 0 0 0 -0.53683 0.34625 -0.76937 0.0022363
0.24272 0.14134 0.85643 9.3118e-39 401 274 0 0 0 -0.53585 0.34617 -0.77009 0.0022754
0.27717 0.14103 0.85762 7.2835e-39 320 274 0 0 0 0.74046 0.22089 -0.63477 0.020875
0.24142 0.14296 0.85717 7.1221e-39 310.5 275 0 0 0 -0.53627 0.35036 -0.76789 0.0021902
0.2433 0.14289 0.85672 7.7444e-39 312.5 275 0 0 0 -0.53639 0.35039 -0.7678 0.0022448
0.24472 0.14334 0.85643 8.482e-39 429 275 0 0 0 -0.5335 0.35146 -0.76932 0.0023117
0.27688 0.14289 0.85672 8.6203e-39 346 275 0 0 0 0.72234 0.2462 -0.64623 0.022402
0.24278 0.1449 0.85738 8.4082e-39 314.4 276 0 0 0 -0.53536 0.35346 -0.76711 0.0021465
0.24509 0.14504 0.85702 8.9061e-39 361.6 276 0 0 0 -0.53287 0.35436 -0.76842 0.0022659
0.24523 0.14675 0.85732 6.1541e-39 224.75 277.25 0 0 0 -0.53315 0.35499 -0.76794 0.002217
0.24706 0.14702 0.85643 6.6688e-39 179.33 277.67 0 0 0 -0.52744 0.35367 -0.77248 0.0025202
0.2469 0.14896 0.85702 1.5013e-38 223.5 278.5 0 0 0 -0.52949 0.35317 -0.7713 0.0025077
0.24873 0.14935 0.85643 6.4537e-39 140 279 0 0 0 -0.51317 0.35552 -0.78119 0.0037127
0.2468 0.15092 0.85738 8.8877e-39 339.4 279 0 0 0 -0.53255 0.3496 -0.77082 0.0022971
0.24851 0.15109 0.85683 8.3592e-39 287 279.33 0 0 0 -0.51943 0.35192 -0.77868 0.0033285
0.24707 0.15257 0.85762 6.2693e-39 254 280 0 0 0 -0.52712 0.3487 -0.77495 0.0027001
0.2489 0.15297 0.85702 9.5421e-39 357.5 280 0 0 0 -0.50919 0.3542 -0.78439 0.0040498
0.25073 0.15336 0.85643 1.2723e-38 461 280 0 0 0 -0.48204 0.36064 -0.79849 0.00654
0.24949 0.15503 0.85732 9.2885e-39 352 281 0 0 0 -0.50552 0.35207 -0.78772 0.0044031
0.25128 0.15489 0.85658 9.1965e-39 354 281 0 0 0 -0.47355 0.35975 -0.80395 0.0070506
0.27597 0.15447 0.85702 1.9177e-38 336 281 0 0 0 0.63882 0.31563 -0.70163 0.036411
0.27616 0.15558 0.85762 6.9147e-39 152 282 0 0 0 0.63686 0.31657 -0.70299 0.036586
0.25097 0.15701 0.85722 9.4499e-39 333.5 282 0 0 0 -0.47717 0.35874 -0.80225 0.0072845
0.25274 0.15687 0.85643 9.1273e-39 335.5 282 0 0 0 -0.43793 0.37122 -0.81878 0.010854
0.2515 0.15854 0.85732 7.6522e-39 213.5 283 0 0 0 -0.46742 0.36023 -0.80731 0.0075935
0.25308 0.15906 0.8569 1.0068e-38 317.2 283 0 0 0 -0.42472 0.37257 -0.82511 0.012877
0.25474 0.15937 0.85643 1.2631e-38 387 283 0 0 0 -0.38617 0.38031 -0.84038 0.017264
0.27296 0.15948 0.85702 1.217e-38 405 283 0 0 0 0.40807 0.36194 -0.83814 0.05569
0.2535 0.16104 0.85732 1.5281e-38 233.5 284 0 0 0 -0.41433 0.37145 -0.83087 0.013981
0.25528 0.1609 0.85658 1.4359e-38 235.5 284 0 0 0 -0.37654 0.37996 -0.8449 0.018229
0.25725 0.16138 0.85643 2.2358e-38 301.5 284 0 0 0 -0.32883 0.38386 -0.86286 0.025184
0.27215 0.1606 0.85762 6.3615e-39 188 284 0 0 0 0.33237 0.35999 -0.87175 0.055091
0.2535 0.16254 0.85732 1.2031e-38 440.5 284 0 0 0 -0.41484 0.3699 -0.83131 0.013146
0.25515 0.16311 0.85714 9.4594e-39 310.8 284.6 0 0 0 -0.3808 0.37404 -0.84563 0.017585
0.25729 0.16291 0.85658 9.427e-39 335 284.5 0 0 0 -0.33553 0.38285 -0.86073 0.024479
0.27105 0.16305 0.85732 9.1275e-39 348.5 284.5 0 0 0 0.15979 0.38587 -0.90861 0.041539
0.25486 0.16499 0.8575 1.193e-38 403.8 285 0 0 0 -0.38705 0.36714 -0.84581 0.016334
0.25716 0.16512 0.85714 1.2096e-38 425.2 285 0 0 0 -0.33461 0.3784 -0.86305 0.024344
0.25925 0.16538 0.85643 6.4076e-39 138.5 286 0 0 0 -0.27663 0.38114 -0.88216 0.031236
0.26075 0.16538 0.85643 6.7303e-39 140 286 0 0 0 -0.21702 0.38877 -0.89541 0.035788
0.26777 0.16488 0.85643 1.0188e-38 263 285.5 0 0 0 -0.006592 0.40015 -0.91642 0.036064
0.26977 0.16538 0.85643 7.1913e-39 149 286 0 0 0 0.060764 0.39554 -0.91644 0.035044
0.25509 0.16712 0.85762 1.3737e-38 284.5 286 0 0 0 -0.38059 0.36379 -0.85018 0.015895
0.25701 0.16681 0.85732 1.0787e-38 258.75 286 0 0 0 -0.33171 0.36931 -0.86809 0.024267
0.25906 0.16706 0.85679 1.5692e-38 299.8 286 0 0 0 -0.29267 0.37781 -0.87841 0.028285
0.26114 0.16709 0.85663 1.6964e-38 309.33 286 0 0 0 -0.21522 0.39065 -0.89503 0.035788
0.2674 0.16697 0.85687 9.7958e-39 304 286 0 0 0 -0.026062 0.39653 -0.91765 0.037321
0.26996 0.167 0.85702 9.4503e-39 306.5 286 0 0 0 0.057229 0.39611 -0.91642 0.035929
0.2592 0.16896 0.85726 1.0842e-38 353.2 286.4 0 0 0 -0.26974 0.37973 -0.8849 0.031093
0.26144 0.16901 0.85702 9.9112e-39 332 286.5 0 0 0 -0.20343 0.38533 -0.90007 0.037865
0.26326 0.16889 0.85643 1.0188e-38 334.25 286.5 0 0 0 -0.14929 0.39019 -0.90855 0.038163
0.26526 0.16889 0.85643 1.0464e-38 336.5 286.5 0 0 0 -0.076395 0.39193 -0.91682 0.036854
0.26704 0.16907 0.85732 1.0879e-38 338 286.5 0 0 0 -0.037439 0.39174 -0.91931 0.036846
0.26845 0.16901 0.85703 1.0257e-38 339.5 286.5 0 0 0 0.0067452 0.39294 -0.91954 0.035487
0.27014 0.16913 0.85762 9.7725e-39 341 286.5 0 0 0 0.07433 0.39002 -0.9178 0.034515
0.26078 0.17096 0.85762 1.8377e-38 343.67 287 0 0 0 -0.22709 0.37945 -0.89691 0.033879
0.26285 0.17098 0.85738 1.9472e-38 351.4 287 0 0 0 -0.16388 0.38642 -0.90765 0.036215
0.26518 0.17113 0.85714 1.6318e-38 370.6 287 0 0 0 -0.089651 0.38937 -0.91671 0.037048
0.26868 0.17088 0.85722 1.7671e-38 351.67 287 0 0 0 0.021811 0.39017 -0.92048 0.034713
0.27014 0.17113 0.85762 1.5166e-38 367 287 0 0 0 0.084572 0.38936 -0.91719 0.033514
0.26463 0.17264 0.85762 7.0991e-39 143.5 288 0 0 0 -0.12208 0.39003 -0.91267 0.035584
0.26613 0.17264 0.85762 6.7303e-39 145 288 0 0 0 -0.062671 0.3892 -0.91902 0.036675
0.26914 0.17264 0.85762 7.1913e-39 148 288 0 0 0 0.040513 0.39316 -0.91858 0.033944
0.20334 0.069434 0.85941 6.6381e-39 365 242 0 0 0 -0.30967 -0.55797 -0.76992 0.07562
0.20485 0.069434 0.85941 6.6381e-39 366.5 242 0 0 0 -0.27369 -0.6184 -0.73667 0.078763
0.20636 0.069434 0.85941 6.6381e-39 368 242 0 0 0 -0.23742 -0.65939 -0.71333 0.076181
0.20837 0.069434 0.85941 7.0069e-39 370 242 0 0 0 -0.21731 -0.68416 -0.69621 0.073881
0.21139 0.069434 0.85941 6.4537e-39 373 242 0 0 0 -0.16742 -0.7437 -0.64721 0.061868
0.24658 0.069434 0.85941 7.6522e-39 408 242 0 0 0 -0.012808 -0.86687 -0.49838 0.0038093
0.201 0.07111 0.85941 9.2195e-39 240 243 0 0 0 -0.39337 -0.40523 -0.82526 0.072991
0.20273 0.070905 0.85896 8.3899e-39 216.5 243 0 0 0 -0.36999 -0.45585 -0.80951 0.075914
0.20467 0.070881 0.85866 8.7356e-39 218.5 243 0 0 0 -0.33624 -0.51183 -0.79055 0.08066
0.20672 0.070893 0.85881 8.3206e-39 220.5 243 0 0 0 -0.28726 -0.58847 -0.75577 0.08318
0.20873 0.070893 0.85881 8.0902e-39 222.5 243 0 0 0 -0.25615 -0.63848 -0.72576 0.080073
0.21047 0.070693 0.85841 7.8673e-39 199 243 0 0 0 -0.21973 -0.6833 -0.69629 0.07321
0.21274 0.070391 0.85881 6.4998e-39 150.5 243 0 0 0 -0.17399 -0.73881 -0.65106 0.063436
0.21483 0.070415 0.85911 6.4998e-39 152.5 243 0 0 0 -0.14095 -0.76497 -0.62845 0.057386
0.22144 0.07044 0.85941 6.9147e-39 159 243 0 0 0 -0.08484 -0.82146 -0.56393 0.033063
0.22515 0.071346 0.85821 7.4678e-39 315 243 0 0 0 -0.082568 -0.83872 -0.53826 0.025593
0.2269 0.07142 0.85911 7.1913e-39 316.5 243 0 0 0 -0.060913 -0.85034 -0.5227 0.01823
0.22948 0.071445 0.85941 6.7303e-39 319 243 0 0 0 -0.040307 -0.86684 -0.49695 0.011082
0.24155 0.071445 0.85941 1.0418e-38 331 243 0 0 0 -0.0044318 -0.87756 -0.47944 0.0041724
0.24339 0.071395 0.85881 9.404e-39 333 243 0 0 0 -0.0046828 -0.87284 -0.48798 0.0043843
0.24507 0.07106 0.85881 8.3284e-39 284 243 0 0 0 -0.0072806 -0.86873 -0.49523 0.0041617
0.2469 0.070391 0.85881 6.9147e-39 184.5 243 0 0 0 -0.012487 -0.86396 -0.50341 0.0036939
0.24875 0.070726 0.85881 7.8366e-39 245 243 0 0 0 -0.0079967 -0.86282 -0.50544 0.003725
0.25101 0.070415 0.85911 7.053e-39 200.5 243 0 0 0 -0.010886 -0.85937 -0.51125 0.0033541
0.25294 0.070893 0.85881 8.505e-39 272.5 243 0 0 0 -0.010786 -0.85687 -0.51542 0.0028648
0.25486 0.07137 0.85851 8.7586e-39 344.5 243 0 0 0 -0.0094401 -0.85488 -0.51874 0.0024564
0.25695 0.071395 0.85881 6.6842e-39 346.5 243 0 0 0 -0.0034816 -0.85322 -0.52153 0.0021847
0.25914 0.071445 0.85941 6.2232e-39 348.5 243 0 0 0 0.0015272 -0.85137 -0.52457 0.0020222
0.26047 0.071395 0.85881 6.5459e-39 350 243 0 0 0 0.0064892 -0.84657 -0.53224 0.0017164
0.26719 0.071445 0.85941 6.9147e-39 351.5 243 0 0 0 0.03257 -0.84393 -0.53546 0.0017953
0.27112 0.07142 0.85911 6.2693e-39 353.5 243 0 0 0 0.050853 -0.84882 -0.52622 0.0022767
0.27312 0.07142 0.85911 6.592e-39 355.5 243 0 0 0 0.059575 -0.85135 -0.52121 0.0023903
0.27527 0.071077 0.85901 7.5908e-39 311.67 243 0 0 0 0.075246 -0.85495 -0.51322 0.0027532
0.27728 0.071077 0.85901 7.3142e-39 313.67 243 0 0 0 0.09883 -0.85475 -0.50955 0.0034414
0.27916 0.070918 0.85911 7.6983e-39 292.5 243 0 0 0 0.12436 -0.85111 -0.51005 0.0051726
0.28076 0.071445 0.85941 6.8225e-39 363 243 0 0 0 0.1458 -0.84788 -0.50975 0.0062649
0.19932 0.072953 0.85941 7.7905e-39 319.5 243.5 0 0 0 -0.47128 -0.24348 -0.84771 0.058977
0.20069 0.072903 0.85881 7.1913e-39 321 243.5 0 0 0 -0.45666 -0.25083 -0.85355 0.059797
0.20263 0.072877 0.85851 6.9839e-39 323 243.5 0 0 0 -0.41776 -0.32745 -0.8475 0.071775
0.20457 0.072852 0.85821 7.5601e-39 325 243.5 0 0 0 -0.39938 -0.38114 -0.83381 0.076863
0.20708 0.07235 0.85821 7.0991e-39 435 243 0 0 0 -0.34457 -0.49151 -0.79981 0.083128
0.22866 0.07235 0.85821 9.2657e-39 456.5 243 0 0 0 -0.064114 -0.8455 -0.53012 0.020118
0.23083 0.0724 0.85881 9.3578e-39 458.5 243 0 0 0 -0.045867 -0.86456 -0.50043 0.012668
0.23284 0.072903 0.85881 9.8419e-39 353 243.5 0 0 0 -0.038883 -0.87134 -0.48914 0.011208
0.23485 0.072903 0.85881 9.4961e-39 355 243.5 0 0 0 -0.027174 -0.88034 -0.47356 0.0077124
0.23686 0.073405 0.85881 9.5423e-39 249.5 244 0 0 0 -0.011734 -0.88323 -0.46879 0.0060642
0.23904 0.07307 0.85881 9.4961e-39 323.33 243.67 0 0 0 0.0048428 -0.88479 -0.46597 0.0047858
0.24071 0.072735 0.85881 8.7279e-39 396.67 243.33 0 0 0 0.0019119 -0.87958 -0.47575 0.0045327
0.24261 0.072701 0.85841 8.7586e-39 398.67 243.33 0 0 0 0.001408 -0.8757 -0.48285 0.0046371
0.25728 0.07235 0.85821 6.9147e-39 485 243 0 0 0 -0.00064689 -0.85049 -0.52599 0.001868
0.25929 0.07235 0.85821 6.5459e-39 487 243 0 0 0 0.0068677 -0.84726 -0.53113 0.0016185
0.27284 0.07235 0.85821 7.0069e-39 491 243 0 0 0 0.05511 -0.85192 -0.52076 0.0024929
0.27736 0.07235 0.85821 7.56e-39 497 243 0 0 0 0.1058 -0.84918 -0.5174 0.0044607
0.27887 0.07235 0.85821 7.4218e-39 500 243 0 0 0 0.12555 -0.84813 -0.51469 0.0061213
0.28117 0.072718 0.85861 9.404e-39 430.33 243.33 0 0 0 0.15961 -0.84186 -0.51556 0.0090207
0.28291 0.07307 0.85881 7.7444e-39 236.33 244 0 0 0 0.18051 -0.83588 -0.51838 0.011035
0.28518 0.07343 0.85911 9.865e-39 287.5 244 0 0 0 0.20544 -0.82947 -0.51939 0.012919
0.2868 0.073456 0.85941 1.0418e-38 289 244 0 0 0 0.2284 -0.82283 -0.52037 0.016034
0.29132 0.073456 0.85941 1.0372e-38 293.5 244 0 0 0 0.28806 -0.79279 -0.53712 0.022638
0.29283 0.073456 0.85941 1.0234e-38 295 244 0 0 0 0.30164 -0.78458 -0.54171 0.023488
0.19932 0.074964 0.85941 8.0672e-39 410.5 244 0 0 0 -0.49232 -0.15176 -0.85708 0.054608
0.20069 0.074912 0.85881 7.5601e-39 412 244 0 0 0 -0.48525 -0.16235 -0.85917 0.055097
0.20263 0.074886 0.85851 7.3526e-39 414 244 0 0 0 -0.46984 -0.21085 -0.8572 0.063372
0.20473 0.074693 0.85821 6.8532e-39 394.67 244 0 0 0 -0.44328 -0.28242 -0.85073 0.073042
0.28439 0.074358 0.85821 7.0991e-39 418 244 0 0 0 0.2033 -0.82988 -0.51959 0.012967
0.2874 0.074358 0.85821 7.4678e-39 421 244 0 0 0 0.23735 -0.81818 -0.52369 0.016366
0.29343 0.074358 0.85821 7.6522e-39 427 244 0 0 0 0.31788 -0.77336 -0.54852 0.024977
0.29497 0.075079 0.85881 8.0825e-39 283.67 244.67 0 0 0 0.33122 -0.76462 -0.55286 0.025921
0.29685 0.075467 0.85941 7.7444e-39 213 245 0 0 0 0.35019 -0.75121 -0.55951 0.027161
0.19932 0.076975 0.85941 8.9431e-39 325 245 0 0 0 -0.51464 -0.072069 -0.85437 0.043763
0.20073 0.076935 0.85896 8.3667e-39 326.5 245 0 0 0 -0.50624 -0.092951 -0.85737 0.047843
0.20259 0.076881 0.85836 8.0211e-39 328.5 245 0 0 0 -0.49372 -0.10995 -0.86264 0.051659
0.29691 0.077071 0.85861 6.6381e-39 328.33 245.33 0 0 0 0.36591 -0.73906 -0.56561 0.027954
0.2009 0.078782 0.85901 7.4986e-39 226 246 0 0 0 -0.52131 -0.031698 -0.85278 0.040943
0.20263 0.078904 0.85851 8.4589e-39 251 246 0 0 0 -0.51107 -0.058503 -0.85755 0.047132
0.20473 0.079043 0.85821 9.5268e-39 276.33 246 0 0 0 -0.49816 -0.072142 -0.86408 0.050515
0.29786 0.078986 0.85941 7.3296e-39 347 246 0 0 0 0.38712 -0.72255 -0.57276 0.029578
0.20133 0.080997 0.85941 9.5423e-39 343.5 246.5 0 0 0 -0.53178 0.036741 -0.84609 0.029599
0.20263 0.080912 0.85851 9.7496e-39 345 246.5 0 0 0 -0.52653 0.021319 -0.84989 0.032951
0.20457 0.080884 0.85821 9.5883e-39 347 246.5 0 0 0 -0.51651 -0.011259 -0.85621 0.042844
0.29644 0.080884 0.85821 9.8651e-39 264 247 0 0 0 0.39549 -0.71963 -0.57072 0.03023
0.20296 0.082821 0.85921 7.4371e-39 294.67 247.33 0 0 0 -0.537 0.072035 -0.8405 0.024939
0.20471 0.082951 0.85881 8.2515e-39 259.5 247.5 0 0 0 -0.52988 0.055465 -0.84626 0.030505
0.29543 0.083395 0.85821 9.6805e-39 244 248 0 0 0 0.41426 -0.70817 -0.57174 0.032935
0.20497 0.084832 0.85921 7.7752e-39 327.33 248 0 0 0 -0.53891 0.11512 -0.83446 0.020216
0.20641 0.085068 0.85821 7.3142e-39 371.67 248 0 0 0 -0.53341 0.1046 -0.83936 0.024212
0.20808 0.085403 0.85821 7.4678e-39 416 248 0 0 0 -0.52387 0.1041 -0.84541 0.025967
0.20535 0.086527 0.85941 7.0991e-39 182 249 0 0 0 -0.53864 0.15771 -0.82764 0.015061
0.20668 0.086954 0.85866 1.4821e-38 245 249 0 0 0 -0.53975 0.15745 -0.82697 0.015994
0.20815 0.086939 0.85851 1.4889e-38 246.5 249 0 0 0 -0.53488 0.15391 -0.83079 0.017258
0.20682 0.089025 0.85926 8.5281e-39 311.5 249.5 0 0 0 -0.54341 0.21865 -0.81049 0.0076812
0.20869 0.088964 0.85866 9.0121e-39 313.5 249.5 0 0 0 -0.53962 0.20496 -0.81658 0.0096471
0.20736 0.090549 0.85941 1.9269e-38 316 250 0 0 0 -0.54446 0.24367 -0.80261 0.0054206
0.2088 0.09102 0.85911 1.5996e-38 383.5 250 0 0 0 -0.54519 0.24906 -0.80046 0.00488
0.21009 0.091427 0.85821 9.7727e-39 451 250 0 0 0 -0.54573 0.24639 -0.80092 0.004877
0.20884 0.093047 0.85926 8.8736e-39 300.5 251 0 0 0 -0.54743 0.27192 -0.79144 0.0031267
0.21009 0.092933 0.85821 8.482e-39 302 251 0 0 0 -0.54819 0.26658 -0.79273 0.0032905
0.20937 0.094571 0.85941 6.7303e-39 153 252 0 0 0 -0.54901 0.28434 -0.78596 0.0022902
0.21057 0.095175 0.85881 1.6595e-38 243 252 0 0 0 -0.55186 0.28344 -0.78429 0.0021403
0.2109 0.09685 0.85881 7.9596e-39 389 252.33 0 0 0 -0.55393 0.29106 -0.78003 0.0015833
0.21277 0.097117 0.85821 9.4041e-39 314.67 252.67 0 0 0 -0.5565 0.28687 -0.77975 0.0015987
0.21139 0.098593 0.85941 9.9571e-39 432 253 0 0 0 -0.55606 0.2951 -0.77699 0.0013037
0.21271 0.099009 0.85866 8.5511e-39 320.5 253.5 0 0 0 -0.55887 0.29223 -0.77606 0.0013016
0.2141 0.09946 0.85821 7.56e-39 209 254 0 0 0 -0.56041 0.29062 -0.77555 0.0012757
0.2129 0.1011 0.85941 6.7534e-39 289 254.5 0 0 0 -0.55976 0.29685 -0.77366 0.0011366
0.21475 0.10103 0.85881 7.3757e-39 291 254.5 0 0 0 -0.56104 0.2952 -0.77337 0.0011494
0.21611 0.10147 0.85821 6.3615e-39 177 255 0 0 0 -0.55916 0.29508 -0.77477 0.001339
0.21487 0.1031 0.85926 7.6522e-39 258 255.5 0 0 0 -0.56004 0.30026 -0.77214 0.001092
0.21619 0.10301 0.85851 8.0211e-39 259.5 255.5 0 0 0 -0.55967 0.2992 -0.77282 0.0012609
0.21541 0.10513 0.85941 7.9749e-39 358.5 256 0 0 0 -0.55965 0.30576 -0.77026 0.0010548
0.21673 0.10504 0.85866 8.2285e-39 360 256 0 0 0 -0.55813 0.3049 -0.77171 0.0011441
0.21698 0.10692 0.85901 7.4986e-39 306.33 257 0 0 0 -0.55662 0.30956 -0.77094 0.0011085
0.21812 0.10749 0.85821 8.021e-39 449 257 0 0 0 -0.55264 0.31097 -0.77323 0.0011788
0.21734 0.10911 0.85911 8.8509e-39 330 258 0 0 0 -0.55395 0.31543 -0.77048 0.0010967
0.2185 0.10919 0.85841 9.2811e-39 367.67 258 0 0 0 -0.55045 0.31544 -0.77298 0.0011592
0.21885 0.11112 0.85911 9.6346e-39 322 259 0 0 0 -0.54965 0.32027 -0.77156 0.0011171
0.22046 0.11117 0.85821 9.3732e-39 359.67 259 0 0 0 -0.54611 0.32069 -0.7739 0.0012302
0.21892 0.11317 0.85941 8.8048e-39 311 260 0 0 0 -0.54907 0.32523 -0.7699 0.0011311
0.22071 0.11305 0.85851 8.6203e-39 313 260 0 0 0 -0.54524 0.32469 -0.77285 0.0011795
0.221 0.11496 0.85901 7.683e-39 263.33 261 0 0 0 -0.54517 0.32693 -0.77195 0.0011637
0.22214 0.11552 0.85821 8.8508e-39 406 261 0 0 0 -0.54262 0.32803 -0.77328 0.0011789
0.22144 0.11669 0.85941 7.0069e-39 179 262 0 0 0 -0.54464 0.32809 -0.77183 0.0011477
0.22275 0.11709 0.85866 8.2747e-39 286.5 262 0 0 0 -0.54246 0.32831 -0.77327 0.0011691
0.22414 0.11753 0.85821 1.0049e-38 394 262 0 0 0 -0.54057 0.32776 -0.77483 0.0012112
0.22312 0.11904 0.85941 6.8532e-39 238.67 263 0 0 0 -0.54198 0.33172 -0.77215 0.0011013
0.22458 0.11926 0.85861 7.3142e-39 311.33 263 0 0 0 -0.54134 0.33029 -0.77321 0.0011666
0.22615 0.11954 0.85821 7.0991e-39 384 263 0 0 0 -0.54112 0.3284 -0.77417 0.0013003
0.22503 0.12099 0.85901 6.8532e-39 233.33 264 0 0 0 -0.54171 0.33228 -0.7721 0.0011317
0.22654 0.12124 0.85841 6.8225e-39 306.67 264 0 0 0 -0.54236 0.32984 -0.77269 0.0012898
0.22546 0.12272 0.85941 6.9147e-39 160 265 0 0 0 -0.54354 0.33343 -0.77032 0.0011533
0.22682 0.12314 0.85881 8.0671e-39 263.5 265 0 0 0 -0.54341 0.33209 -0.77099 0.0012957
0.22866 0.12305 0.85821 7.5601e-39 265.5 265 0 0 0 -0.53893 0.33057 -0.77477 0.0016316
0.22697 0.12473 0.85941 7.6061e-39 468.5 265 0 0 0 -0.54488 0.33702 -0.76781 0.0013803
0.2289 0.12519 0.85911 8.8968e-39 360.5 265.5 0 0 0 -0.54009 0.33538 -0.77189 0.0016651
0.23017 0.12557 0.85821 1.0602e-38 252 266 0 0 0 -0.53762 0.33445 -0.77402 0.0018989
0.22898 0.12725 0.85941 7.537e-39 351 266.5 0 0 0 -0.5431 0.34 -0.76775 0.0016325
0.23056 0.12727 0.85841 8.1132e-39 316.67 266.67 0 0 0 -0.53778 0.33972 -0.77161 0.0018881
0.23083 0.12917 0.85881 7.7905e-39 347.5 267.5 0 0 0 -0.5385 0.34301 -0.76965 0.0018771
0.23218 0.12908 0.85821 7.56e-39 349 267.5 0 0 0 -0.5349 0.34122 -0.77295 0.0020354
0.23105 0.13104 0.85901 7.7444e-39 377 268.33 0 0 0 -0.54011 0.34312 -0.76847 0.0018494
0.23272 0.13111 0.85836 7.9519e-39 343 268.5 0 0 0 -0.53579 0.34315 -0.77148 0.0019702
0.23142 0.13324 0.85911 7.4218e-39 334.5 269.5 0 0 0 -0.54103 0.34371 -0.76756 0.0020169
0.2328 0.13317 0.85866 7.7444e-39 336 269.5 0 0 0 -0.53583 0.34336 -0.77136 0.0019815
0.23419 0.1336 0.85821 8.7586e-39 229 270 0 0 0 -0.53165 0.34377 -0.77406 0.0020681
0.2315 0.13479 0.85941 8.2976e-39 439 270 0 0 0 -0.54032 0.34546 -0.76728 0.0021051
0.23312 0.1351 0.85921 7.683e-39 370 270.33 0 0 0 -0.53727 0.34585 -0.76924 0.0020801
0.23458 0.1353 0.85841 8.3284e-39 301 270.67 0 0 0 -0.5313 0.34445 -0.774 0.0020456
0.23502 0.13704 0.85881 7.3142e-39 381.33 271.33 0 0 0 -0.53296 0.34575 -0.77227 0.0020556
0.27883 0.13701 0.85861 8.5128e-39 242.33 272 0 0 0 0.79834 0.16111 -0.58025 0.011935
0.23552 0.13881 0.85941 7.6522e-39 465 272 0 0 0 -0.53367 0.34544 -0.77192 0.0022204
0.23678 0.13917 0.85851 8.459e-39 336 272.75 0 0 0 -0.53136 0.34407 -0.77413 0.0021705
0.23753 0.14082 0.85941 7.0069e-39 165 274 0 0 0 -0.53046 0.34694 -0.77347 0.002165
0.23879 0.14118 0.85851 8.5051e-39 281.5 274 0 0 0 -0.53311 0.34777 -0.77127 0.0022572
0.24021 0.14163 0.85821 9.7727e-39 398 274 0 0 0 -0.53368 0.34781 -0.77085 0.0022711
0.23891 0.14326 0.85896 6.8225e-39 307.5 275 0 0 0 -0.53112 0.35032 -0.77148 0.002245
0.24029 0.14318 0.85851 6.8225e-39 309 275 0 0 0 -0.53352 0.35057 -0.76971 0.0022597
0.23853 0.14484 0.85941 7.3757e-39 220 276 0 0 0 -0.52951 0.3528 -0.77146 0.0022125
0.24104 0.14508 0.85881 8.6664e-39 297.33 276 0 0 0 -0.53264 0.35355 -0.76896 0.0022018
0.24155 0.14736 0.85941 9.3118e-39 355.5 277 0 0 0 -0.53363 0.35357 -0.76827 0.0021294
0.24272 0.14716 0.85821 7.6752e-39 275.25 277.25 0 0 0 -0.53587 0.35499 -0.76604 0.0021053
