# .PCD v.7 - Point Cloud Data file format
VERSION .7
FIELDS x y z rgb u v vx vy vz normal_x normal_y normal_z curvature
SIZE 4 4 4 4 4 4 4 4 4 4 4 4 4
TYPE F F F F F F F F F F F F F
COUNT 1 1 1 1 1 1 1 1 1 1 1 1 1
WIDTH 558
HEIGHT 1
VIEWPOINT 0 0 0 1 0 0 0
POINTS 558
DATA ascii
0.034341 0.097366 1.0395 7.6522e-39 220 238 0 0 0 0.27699 0.52851 -0.80247 0.021414
-0.00092931 0.098582 1.0395 8.1132e-39 267 238 0 0 0 -0.13208 0.48509 -0.86443 0.0037984
0.00069231 0.098987 1.0395 7.9596e-39 292 238 0 0 0 -0.12838 0.48057 -0.86751 0.003493
0.0039355 0.098582 1.0395 7.8366e-39 271 238 0 0 0 -0.12892 0.47898 -0.86831 0.0038646
0.0051518 0.098582 1.0395 7.56e-39 272 238 0 0 0 -0.12609 0.47865 -0.8689 0.003778
0.007581 0.099148 1.0391 8.9889e-39 309.5 238 0 0 0 -0.10787 0.47399 -0.8739 0.0042662
0.0087967 0.099148 1.0391 9.1737e-39 310.5 238 0 0 0 -0.10099 0.47275 -0.87539 0.0045475
0.01062 0.099148 1.0391 9.6806e-39 312 238 0 0 0 -0.091133 0.47104 -0.87739 0.0047646
0.013249 0.099309 1.0387 9.8957e-39 326 238 0 0 0 -0.069527 0.46787 -0.88106 0.0057658
0.014869 0.099714 1.0387 9.6805e-39 351 238 0 0 0 -0.053458 0.46555 -0.8834 0.0065269
0.016084 0.099714 1.0387 9.5883e-39 352 238 0 0 0 -0.039946 0.45749 -0.88832 0.0072413
0.027021 0.099714 1.0387 7.9288e-39 359 238 0 0 0 0.12971 0.46944 -0.87339 0.01366
0.028236 0.099714 1.0387 8.2976e-39 360 238 0 0 0 0.14469 0.47558 -0.86769 0.014641
0.031494 0.099365 1.0392 8.8815e-39 338 238 0 0 0 0.21947 0.50751 -0.83323 0.019128
0.0088004 0.10101 1.0395 8.6664e-39 420 238 0 0 0 -0.10216 0.48142 -0.87052 0.0044762
0.013057 0.10101 1.0395 9.1274e-39 429.5 238 0 0 0 -0.072895 0.47626 -0.87628 0.0051586
0.014881 0.10101 1.0395 8.5742e-39 431 238 0 0 0 -0.054461 0.46912 -0.88145 0.0060977
0.016699 0.10097 1.0391 7.7905e-39 432.5 238 0 0 0 -0.033217 0.46572 -0.88431 0.0068356
0.027044 0.10101 1.0395 7.7444e-39 441 238 0 0 0 0.12544 0.4669 -0.87537 0.01221
0.028855 0.10097 1.0391 6.8225e-39 442.5 238 0 0 0 0.17077 0.47907 -0.861 0.015054
0.031287 0.10097 1.0391 6.131e-39 444.5 238 0 0 0 0.21303 0.487 -0.84702 0.01632
0.012449 0.10223 1.0395 7.3757e-39 205 239 0 0 0 -0.07463 0.47823 -0.87506 0.004882
0.017314 0.10223 1.0395 8.021e-39 209 239 0 0 0 -0.023045 0.46762 -0.88363 0.0067851
0.01913 0.1028 1.0391 9.1964e-39 248 239 0 0 0 -0.0060945 0.46968 -0.88282 0.0073092
0.020953 0.1028 1.0391 9.035e-39 249.5 239 0 0 0 0.024739 0.45853 -0.88834 0.0091347
0.022777 0.10279 1.0391 9.2659e-39 251 239 0 0 0 0.054966 0.44949 -0.89159 0.010287
0.025415 0.10261 1.0392 8.5127e-39 240.67 239 0 0 0 0.1021 0.4568 -0.88369 0.011004
0.029476 0.10223 1.0395 8.3898e-39 219 239 0 0 0 0.17963 0.47898 -0.85925 0.014676
-0.030765 0.085311 1.0409 6.8686e-39 437.5 236 0 0 0 -0.48108 0.27922 -0.83102 0.023623
-0.030575 0.086971 1.0413 6.6381e-39 152.33 237 0 0 0 -0.48216 0.32561 -0.81333 0.02208
-0.028939 0.087138 1.0409 6.5459e-39 156.5 237 0 0 0 -0.43782 0.36089 -0.82345 0.021026
-0.026913 0.087353 1.041 6.5152e-39 160.67 237 0 0 0 -0.40023 0.38602 -0.83115 0.017338
-0.024883 0.087353 1.041 6.3922e-39 163.67 237 0 0 0 -0.35678 0.40387 -0.84237 0.013582
-0.02284 0.08771 1.0404 6.4537e-39 172 237 0 0 0 -0.31817 0.41495 -0.8524 0.010747
-0.021623 0.08771 1.0404 7.0069e-39 173 237 0 0 0 -0.30791 0.41383 -0.8567 0.0098839
-0.027123 0.089002 1.0413 7.3296e-39 205.5 237 0 0 0 -0.39517 0.41213 -0.82097 0.016338
-0.024058 0.088927 1.0404 7.1913e-39 208 237 0 0 0 -0.33556 0.42739 -0.83949 0.011846
-0.02284 0.088927 1.0404 7.3757e-39 209 237 0 0 0 -0.31551 0.43092 -0.84544 0.0099153
-0.021623 0.088927 1.0404 8.1132e-39 210 237 0 0 0 -0.30585 0.42605 -0.85143 0.0092697
-0.024068 0.090791 1.0409 8.7586e-39 255 237 0 0 0 -0.33893 0.44585 -0.82846 0.011529
-0.02286 0.090829 1.0413 8.7585e-39 256 237 0 0 0 -0.32669 0.45252 -0.82976 0.010245
-0.021641 0.090829 1.0413 8.5281e-39 257 237 0 0 0 -0.31148 0.45352 -0.83504 0.0094425
-0.024078 0.093266 1.0413 8.5281e-39 321.5 237 0 0 0 -0.33509 0.48282 -0.80907 0.01026
-0.02286 0.092657 1.0413 7.6522e-39 305 237 0 0 0 -0.32377 0.47811 -0.81645 0.0095359
-0.020415 0.093227 1.0409 8.9429e-39 324.5 237 0 0 0 -0.2792 0.48393 -0.82937 0.0075429
-0.019197 0.093227 1.0409 9.5423e-39 325.5 237 0 0 0 -0.26912 0.48141 -0.83416 0.0072515
-0.017979 0.093227 1.0409 1.0003e-38 326.5 237 0 0 0 -0.24905 0.47693 -0.84292 0.0061029
0.044735 0.093227 1.0409 7.7905e-39 337 237 0 0 0 0.47648 0.5602 -0.6776 0.031466
0.046542 0.092579 1.0404 7.56e-39 320 237 0 0 0 0.48557 0.56361 -0.66826 0.027655
-0.019205 0.095093 1.0413 7.8366e-39 380 237 0 0 0 -0.27035 0.50373 -0.82047 0.007064
-0.016754 0.095013 1.0404 7.8366e-39 382 237 0 0 0 -0.24041 0.49688 -0.83386 0.0058144
-0.014935 0.095053 1.0409 8.2976e-39 383.5 237 0 0 0 -0.22062 0.49323 -0.84146 0.0056489
0.038647 0.095053 1.0409 8.2515e-39 390.5 237 0 0 0 0.371 0.55272 -0.74623 0.023321
0.041082 0.095053 1.0409 9.3117e-39 392.5 237 0 0 0 0.39283 0.5575 -0.73135 0.026089
0.042927 0.095093 1.0413 8.943e-39 394 237 0 0 0 0.44343 0.55663 -0.70252 0.029262
-0.016768 0.096312 1.0413 7.4678e-39 432 237 0 0 0 -0.24223 0.51469 -0.82244 0.0060961
-0.01555 0.096312 1.0413 7.2835e-39 433 237 0 0 0 -0.23062 0.51351 -0.82651 0.0063076
-0.013108 0.09688 1.0409 7.053e-39 308.5 237.5 0 0 0 -0.20278 0.50469 -0.83915 0.0057597
-0.011281 0.09688 1.0409 7.3757e-39 310 237.5 0 0 0 -0.192 0.50218 -0.84318 0.0053734
-0.0088421 0.097448 1.0404 7.1913e-39 185.5 238 0 0 0 -0.18053 0.49561 -0.84957 0.0050192
-0.0070163 0.097448 1.0404 7.7444e-39 187 238 0 0 0 -0.17106 0.49525 -0.85174 0.0047423
-0.0033646 0.097448 1.0404 7.0991e-39 201 238 0 0 0 -0.1447 0.48581 -0.862 0.0039245
0.035587 0.097448 1.0404 7.56e-39 221 238 0 0 0 0.31999 0.53416 -0.78248 0.022697
0.03682 0.09688 1.0409 6.8685e-39 183.5 238 0 0 0 0.35165 0.54471 -0.76134 0.022293
-0.011286 0.098748 1.0413 7.4679e-39 258.5 238 0 0 0 -0.1995 0.52147 -0.82962 0.0057232
-0.0088496 0.099357 1.0413 9.0582e-39 296 238 0 0 0 -0.1878 0.51866 -0.8341 0.005254
-0.0070193 0.099315 1.0409 8.4359e-39 297.5 238 0 0 0 -0.17691 0.51006 -0.84175 0.0048946
-0.0051916 0.099294 1.0406 8.5742e-39 299 238 0 0 0 -0.16381 0.50424 -0.84788 0.0043804
-0.0027578 0.099336 1.0411 9.2657e-39 301 238 0 0 0 -0.14764 0.50313 -0.8515 0.0042757
-0.00093009 0.099882 1.0404 9.2196e-39 338 238 0 0 0 -0.13867 0.49199 -0.85949 0.0039655
0.0015044 0.099882 1.0404 9.5883e-39 340 238 0 0 0 -0.12842 0.48437 -0.86539 0.0034062
0.0031281 0.099504 1.0407 9.2502e-39 317.67 238 0 0 0 -0.12856 0.4842 -0.86546 0.0035605
0.0051561 0.099882 1.0404 1.0049e-38 343 238 0 0 0 -0.12537 0.48593 -0.86496 0.003708
0.0063733 0.099274 1.0404 8.8048e-39 308.5 238 0 0 0 -0.12132 0.48273 -0.86732 0.0038187
0.033153 0.099274 1.0404 8.5281e-39 327 238 0 0 0 0.26041 0.51574 -0.81621 0.021036
0.034979 0.099274 1.0404 8.5972e-39 328.5 238 0 0 0 0.31099 0.52802 -0.79024 0.021314
0.036835 0.099357 1.0413 9.4501e-39 330 238 0 0 0 0.34837 0.53491 -0.76974 0.02096
-0.0070222 0.10118 1.0413 8.6664e-39 407 238 0 0 0 -0.18168 0.51852 -0.83554 0.0048595
-0.0051928 0.10114 1.0409 8.1132e-39 408.5 238 0 0 0 -0.16626 0.51338 -0.8419 0.004518
-0.0021491 0.10118 1.0413 9.3118e-39 411 238 0 0 0 -0.14722 0.49985 -0.85351 0.004078
-0.00093087 0.10118 1.0413 9.404e-39 412 238 0 0 0 -0.14332 0.50173 -0.85307 0.004291
0.00089578 0.1011 1.0404 8.7125e-39 413.5 238 0 0 0 -0.13643 0.49334 -0.85907 0.0038857
0.0033314 0.10114 1.0409 8.021e-39 415.5 238 0 0 0 -0.13154 0.48361 -0.86534 0.0033893
0.0051561 0.1011 1.0404 8.482e-39 417 238 0 0 0 -0.12515 0.48715 -0.86431 0.0038497
0.0069847 0.10114 1.0409 9.4962e-39 418.5 238 0 0 0 -0.11642 0.48649 -0.86589 0.003908
0.010634 0.1011 1.0404 8.0671e-39 427.5 238 0 0 0 -0.090562 0.48096 -0.87205 0.0045474
0.033153 0.1011 1.0404 5.8083e-39 446 238 0 0 0 0.26481 0.50795 -0.81967 0.019463
0.035008 0.10118 1.0413 7.1452e-39 447.5 238 0 0 0 0.3246 0.527 -0.78543 0.020974
0.036835 0.10118 1.0413 1.0602e-38 449 238 0 0 0 0.35187 0.53749 -0.76635 0.02014
-0.0045857 0.1024 1.0413 6.8225e-39 179 239 0 0 0 -0.16216 0.50978 -0.84488 0.0043492
-0.00093087 0.1024 1.0413 6.8225e-39 182 239 0 0 0 -0.14395 0.50122 -0.85326 0.0041779
0.00089655 0.1024 1.0413 7.4679e-39 183.5 239 0 0 0 -0.13896 0.49968 -0.85499 0.0040309
0.0039422 0.1024 1.0413 7.0991e-39 186 239 0 0 0 -0.13057 0.48818 -0.86292 0.0035186
0.0051604 0.10301 1.0413 7.2835e-39 230.5 239 0 0 0 -0.1268 0.49099 -0.86189 0.0039524
0.0071888 0.10278 1.041 7.7445e-39 221.67 239 0 0 0 -0.11259 0.49063 -0.86406 0.0040744
0.0088078 0.10293 1.0404 8.7123e-39 239.5 239 0 0 0 -0.10007 0.48743 -0.86741 0.0044128
0.010638 0.10297 1.0409 9.1505e-39 241 239 0 0 0 -0.091143 0.48819 -0.86797 0.004534
0.013271 0.10313 1.0404 9.3732e-39 255.67 239 0 0 0 -0.068527 0.4835 -0.87266 0.0051106
0.0149 0.10297 1.0409 8.3437e-39 244.5 239 0 0 0 -0.057841 0.4811 -0.87475 0.0055658
0.016521 0.10316 1.0407 8.7279e-39 258.33 239 0 0 0 -0.035069 0.47473 -0.87943 0.0061837
0.023415 0.10353 1.0404 9.6805e-39 289 239 0 0 0 0.069845 0.45906 -0.88566 0.010071
0.024632 0.10353 1.0404 9.2196e-39 290 239 0 0 0 0.091989 0.45755 -0.88441 0.010522
0.027077 0.10297 1.0409 8.5281e-39 254.5 239 0 0 0 0.13239 0.46844 -0.87352 0.011088
0.028697 0.10316 1.0407 9.404e-39 268.33 239 0 0 0 0.16549 0.47604 -0.86371 0.013356
0.03134 0.10297 1.0409 8.8968e-39 258 239 0 0 0 0.23304 0.49209 -0.83877 0.016922
0.03318 0.1024 1.0413 7.1913e-39 222 239 0 0 0 0.27015 0.50813 -0.81781 0.018262
0.035008 0.1024 1.0413 8.021e-39 223.5 239 0 0 0 0.32278 0.51745 -0.7925 0.019894
0.0051604 0.10484 1.0413 9.4961e-39 349 239 0 0 0 -0.12699 0.49319 -0.8606 0.0038509
0.0088152 0.10484 1.0413 9.6805e-39 352 239 0 0 0 -0.10066 0.49503 -0.86302 0.0044422
0.010643 0.10484 1.0413 8.9891e-39 353.5 239 0 0 0 -0.08985 0.49206 -0.86592 0.0044108
0.013079 0.10484 1.0413 8.021e-39 355.5 239 0 0 0 -0.072509 0.49228 -0.86741 0.0049151
0.016734 0.10484 1.0413 8.2054e-39 358.5 239 0 0 0 -0.034595 0.48471 -0.87399 0.0058573
0.019155 0.10475 1.0404 8.4359e-39 360.5 239 0 0 0 -0.00080993 0.47589 -0.8795 0.0071169
0.020998 0.10484 1.0413 8.943e-39 362 239 0 0 0 0.024676 0.47364 -0.88037 0.0083371
0.022815 0.1048 1.0409 8.1593e-39 363.5 239 0 0 0 0.05808 0.464 -0.88393 0.0099197
0.025871 0.10484 1.0413 8.482e-39 366 239 0 0 0 0.11715 0.46585 -0.87707 0.010637
0.029526 0.10484 1.0413 9.404e-39 369 239 0 0 0 0.18957 0.47505 -0.8593 0.013805
0.030744 0.10484 1.0413 9.3118e-39 370 239 0 0 0 0.2138 0.47954 -0.85108 0.013983
0.0088152 0.10606 1.0413 8.2976e-39 432 239 0 0 0 -0.10413 0.49893 -0.86036 0.004427
0.01978 0.10606 1.0413 8.5742e-39 441 239 0 0 0 0.0072807 0.47845 -0.87809 0.0072959
0.022216 0.10667 1.0413 8.0671e-39 327 239.5 0 0 0 0.043313 0.48206 -0.87507 0.0087342
0.025871 0.10606 1.0413 6.3615e-39 446 239 0 0 0 0.11727 0.47178 -0.87388 0.01086
-0.035131 0.084953 1.0439 7.7905e-39 422 236 0 0 0 -0.56089 0.26278 -0.78508 0.026333
-0.033446 0.085013 1.0422 7.6523e-39 427.33 236 0 0 0 -0.53269 0.2351 -0.813 0.025208
-0.035131 0.086785 1.0439 1.134e-38 447 236 0 0 0 -0.56247 0.28752 -0.77522 0.024064
-0.033264 0.087303 1.0428 6.3615e-39 153 237 0 0 0 -0.52699 0.28947 -0.79905 0.023384
-0.031414 0.087858 1.0422 6.5459e-39 163 237 0 0 0 -0.4946 0.33351 -0.80258 0.02302
-0.035131 0.088006 1.0439 7.0069e-39 160 237 0 0 0 -0.55605 0.30656 -0.77255 0.023399
-0.033285 0.08919 1.0434 6.9608e-39 200.5 237 0 0 0 -0.52465 0.34614 -0.77777 0.023026
-0.030804 0.089077 1.0422 7.4679e-39 202.5 237 0 0 0 -0.47582 0.38201 -0.79225 0.021
-0.028975 0.089077 1.0422 7.6522e-39 204 237 0 0 0 -0.4497 0.39714 -0.80003 0.020659
-0.025317 0.089077 1.0422 7.0991e-39 207 237 0 0 0 -0.37729 0.43034 -0.82004 0.014953
-0.033095 0.090856 1.0439 8.6049e-39 242.33 237 0 0 0 -0.51917 0.37931 -0.76588 0.022194
-0.030824 0.090964 1.0428 8.8508e-39 249.5 237 0 0 0 -0.47431 0.40559 -0.78136 0.019984
-0.028988 0.090944 1.0426 8.3437e-39 251 237 0 0 0 -0.43564 0.43112 -0.79016 0.018661
-0.027146 0.090906 1.0422 7.975e-39 252.5 237 0 0 0 -0.40001 0.44822 -0.79943 0.015593
-0.025317 0.090906 1.0422 8.4359e-39 254 237 0 0 0 -0.37111 0.45498 -0.80949 0.013817
-0.030844 0.092853 1.0434 9.45e-39 298.5 237 0 0 0 -0.46473 0.43716 -0.77001 0.018238
-0.029 0.092813 1.043 9.6805e-39 300 237 0 0 0 -0.42944 0.46147 -0.77629 0.016229
-0.027146 0.092735 1.0422 9.404e-39 301.5 237 0 0 0 -0.39046 0.47142 -0.79076 0.014103
-0.025317 0.092735 1.0422 8.482e-39 303 237 0 0 0 -0.36627 0.47823 -0.79821 0.012602
-0.022879 0.093954 1.0422 9.404e-39 340 237 0 0 0 -0.32797 0.50023 -0.80138 0.0097327
-0.02166 0.093344 1.0422 8.6203e-39 323.5 237 0 0 0 -0.30733 0.49462 -0.81295 0.0090939
0.04788 0.092813 1.043 7.56e-39 321 237 0 0 0 0.54045 0.54348 -0.6423 0.027941
-0.03085 0.094704 1.0437 9.4501e-39 352 237 0 0 0 -0.45355 0.45971 -0.76352 0.016904
-0.029 0.094644 1.043 9.2657e-39 353.5 237 0 0 0 -0.42137 0.47851 -0.77037 0.014872
-0.027169 0.094644 1.043 9.3117e-39 355 237 0 0 0 -0.38972 0.49305 -0.77783 0.013147
-0.024925 0.094821 1.0427 9.0352e-39 363 237 0 0 0 -0.3597 0.50362 -0.78548 0.010976
-0.022879 0.095174 1.0422 8.482e-39 377 237 0 0 0 -0.32559 0.51244 -0.79461 0.0091491
-0.021059 0.095214 1.0426 8.4359e-39 378.5 237 0 0 0 -0.30164 0.5199 -0.7992 0.0084038
-0.018002 0.095174 1.0422 8.021e-39 381 237 0 0 0 -0.25871 0.51223 -0.81896 0.006509
0.044829 0.094644 1.043 7.8827e-39 375.5 237 0 0 0 0.47243 0.55422 -0.68531 0.029948
0.04666 0.094034 1.043 7.4678e-39 357 237 0 0 0 0.51516 0.54246 -0.66359 0.02852
-0.030246 0.096556 1.0439 9.404e-39 411 237 0 0 0 -0.42872 0.49014 -0.75893 0.014108
-0.029024 0.097167 1.0439 8.2055e-39 290.5 237.5 0 0 0 -0.40799 0.50413 -0.76118 0.012457
-0.026989 0.096963 1.0439 8.0518e-39 332.67 237.33 0 0 0 -0.37953 0.51661 -0.76751 0.010698
-0.024729 0.097085 1.043 7.3065e-39 294 237.5 0 0 0 -0.34713 0.52352 -0.77809 0.0094504
-0.022898 0.097084 1.043 7.8366e-39 295.5 237.5 0 0 0 -0.3243 0.53203 -0.78216 0.0084718
-0.021068 0.097085 1.043 8.0902e-39 297 237.5 0 0 0 -0.30354 0.53585 -0.78786 0.0079445
-0.018619 0.097044 1.0426 7.6753e-39 301.5 237.5 0 0 0 -0.27212 0.537 -0.79849 0.0071838
-0.016782 0.097612 1.0422 7.0069e-39 179 238 0 0 0 -0.25011 0.53528 -0.8068 0.0064312
-0.01475 0.097206 1.0422 7.3142e-39 265 237.67 0 0 0 -0.22805 0.52556 -0.81962 0.0062835
0.038695 0.097002 1.0422 7.1682e-39 185 238 0 0 0 0.37497 0.54048 -0.75318 0.021833
0.041151 0.097044 1.0426 7.1221e-39 187 238 0 0 0 0.41116 0.5493 -0.72747 0.026579
0.042999 0.097084 1.043 7.2835e-39 188.5 238 0 0 0 0.44115 0.54513 -0.7129 0.027056
-0.024749 0.098998 1.0439 9.911e-39 247.5 238 0 0 0 -0.3397 0.53742 -0.77187 0.0082217
-0.022918 0.098998 1.0439 9.5883e-39 249 238 0 0 0 -0.32051 0.54404 -0.77543 0.0077339
-0.021086 0.098998 1.0439 8.943e-39 250.5 238 0 0 0 -0.29907 0.54746 -0.78156 0.0073779
-0.018627 0.098915 1.043 8.8969e-39 252.5 238 0 0 0 -0.27147 0.54811 -0.79113 0.0069543
-0.016797 0.098915 1.043 9.0352e-39 254 238 0 0 0 -0.25424 0.54569 -0.79849 0.006479
-0.014966 0.098915 1.043 8.482e-39 255.5 238 0 0 0 -0.23467 0.53936 -0.80871 0.0062698
-0.013125 0.098831 1.0422 7.4678e-39 257 238 0 0 0 -0.21698 0.53109 -0.81906 0.0060878
0.038712 0.098873 1.0426 1.0188e-38 294.5 238 0 0 0 0.37928 0.53951 -0.75172 0.021071
0.041186 0.098957 1.0434 9.7266e-39 296.5 238 0 0 0 0.41841 0.54337 -0.7278 0.024732
0.043035 0.098998 1.0439 9.404e-39 298 238 0 0 0 0.44303 0.54003 -0.71561 0.025156
-0.020475 0.10022 1.0439 7.9288e-39 322 238 0 0 0 -0.28958 0.55247 -0.78161 0.0069295
-0.018643 0.10083 1.0439 8.1823e-39 360.5 238 0 0 0 -0.27269 0.55587 -0.78527 0.0066476
-0.016797 0.10075 1.043 9.0813e-39 362 238 0 0 0 -0.25489 0.55017 -0.7952 0.0065132
-0.014972 0.10079 1.0434 9.381e-39 363.5 238 0 0 0 -0.23809 0.547 -0.80256 0.0063978
-0.013136 0.10075 1.043 8.9891e-39 365 238 0 0 0 -0.21819 0.53794 -0.81426 0.0061419
-0.011298 0.10068 1.0424 9.0813e-39 366.5 238 0 0 0 -0.20701 0.53092 -0.82175 0.0058031
-0.008857 0.10127 1.0422 9.0352e-39 405.5 238 0 0 0 -0.1929 0.52472 -0.82913 0.0051526
-0.0033702 0.10127 1.0422 8.7586e-39 410 238 0 0 0 -0.15668 0.50779 -0.84712 0.0043853
0.038712 0.1007 1.0426 1.1409e-38 409.5 238 0 0 0 0.37433 0.53917 -0.75444 0.020508
0.040988 0.1006 1.0436 1.0879e-38 397.67 238 0 0 0 0.41652 0.53027 -0.73847 0.023675
-0.016811 0.10266 1.0439 7.2835e-39 169 239 0 0 0 -0.25893 0.55789 -0.78849 0.0065962
-0.015589 0.10266 1.0439 6.9147e-39 170 239 0 0 0 -0.24627 0.55449 -0.79491 0.0065389
-0.013147 0.10266 1.0439 6.7303e-39 172 239 0 0 0 -0.226 0.54593 -0.80677 0.0061259
-0.01131 0.10323 1.0434 7.6983e-39 217 239 0 0 0 -0.21108 0.5385 -0.81576 0.0058439
-0.0088608 0.10315 1.0426 7.3757e-39 219 239 0 0 0 -0.19631 0.53396 -0.82241 0.0049707
-0.0070311 0.10315 1.0426 7.4218e-39 220.5 239 0 0 0 -0.18643 0.52595 -0.82983 0.0047996
-0.005404 0.10333 1.0425 7.8059e-39 236.33 239 0 0 0 -0.17349 0.51792 -0.83765 0.0044844
-0.0027613 0.10312 1.0424 7.4218e-39 224 239 0 0 0 -0.15242 0.5081 -0.8477 0.0044222
-0.00093166 0.10371 1.0422 7.0991e-39 269 239 0 0 0 -0.1455 0.50339 -0.85172 0.0042554
0.00089726 0.10371 1.0422 7.3757e-39 270.5 239 0 0 0 -0.14272 0.49626 -0.85636 0.0037975
0.0031326 0.1033 1.0422 7.2835e-39 243.33 239 0 0 0 -0.13364 0.4902 -0.8613 0.0037558
0.0063841 0.10371 1.0422 7.9288e-39 275 239 0 0 0 -0.12005 0.4933 -0.86154 0.0038477
0.033208 0.10371 1.0422 9.5883e-39 297 239 0 0 0 0.27676 0.50267 -0.81898 0.017925
0.035038 0.10371 1.0422 9.3118e-39 298.5 239 0 0 0 0.32549 0.52262 -0.78799 0.019658
0.036866 0.1031 1.0422 8.7585e-39 262.5 239 0 0 0 0.3548 0.52308 -0.77492 0.019008
0.038752 0.10325 1.0437 8.8277e-39 264 239 0 0 0 0.3754 0.52473 -0.76402 0.019754
0.040593 0.10266 1.0439 8.482e-39 228 239 0 0 0 0.40993 0.52656 -0.74478 0.022526
-0.010704 0.10511 1.0439 1.0142e-38 336 239 0 0 0 -0.20806 0.54231 -0.81401 0.005322
-0.0088686 0.10507 1.0434 9.5883e-39 337.5 239 0 0 0 -0.19978 0.53769 -0.81913 0.0050206
-0.00704 0.10511 1.0439 9.4961e-39 339 239 0 0 0 -0.19254 0.53521 -0.82248 0.0051311
-0.0052016 0.10498 1.0426 1.0279e-38 340.5 239 0 0 0 -0.17748 0.52304 -0.83363 0.0049186
-0.002763 0.10502 1.043 1.0464e-38 342.5 239 0 0 0 -0.1585 0.50725 -0.8471 0.0044455
-0.00093245 0.10502 1.043 9.8649e-39 344 239 0 0 0 -0.15087 0.50191 -0.85166 0.0042805
0.00089738 0.10498 1.0426 1.0003e-38 345.5 239 0 0 0 -0.1447 0.49897 -0.85445 0.0040191
0.0033375 0.10498 1.0426 9.2657e-39 347.5 239 0 0 0 -0.13564 0.49529 -0.85807 0.0039591
0.0069938 0.10493 1.0422 9.5883e-39 350.5 239 0 0 0 -0.11566 0.49522 -0.86104 0.0039228
0.014919 0.10493 1.0422 8.1132e-39 357 239 0 0 0 -0.057892 0.4897 -0.86997 0.0054962
0.024673 0.10493 1.0422 8.1132e-39 365 239 0 0 0 0.094192 0.46594 -0.87979 0.010544
0.027112 0.10493 1.0422 9.2196e-39 367 239 0 0 0 0.14803 0.47008 -0.87012 0.011368
0.028331 0.10493 1.0422 9.3118e-39 368 239 0 0 0 0.1643 0.47355 -0.86531 0.012479
0.031989 0.10493 1.0422 9.2196e-39 371 239 0 0 0 0.24723 0.48959 -0.83617 0.016314
0.033237 0.10502 1.043 8.943e-39 372 239 0 0 0 0.2884 0.50382 -0.81424 0.017323
0.035067 0.10502 1.043 8.3898e-39 373.5 239 0 0 0 0.3331 0.51734 -0.78829 0.019175
0.036897 0.10502 1.043 8.6664e-39 375 239 0 0 0 0.36053 0.51637 -0.77678 0.018332
0.039371 0.10511 1.0439 9.4961e-39 377 239 0 0 0 0.38211 0.51363 -0.76823 0.019323
-0.008872 0.10633 1.0439 8.7586e-39 413.5 239 0 0 0 -0.20332 0.54017 -0.81663 0.0050469
-0.00704 0.10633 1.0439 8.2054e-39 415 239 0 0 0 -0.19223 0.53492 -0.82274 0.005149
-0.0050031 0.10671 1.0436 8.0825e-39 336.67 239.33 0 0 0 -0.18262 0.52414 -0.83182 0.0048147
-0.0027652 0.10633 1.0439 9.6344e-39 418.5 239 0 0 0 -0.16184 0.51198 -0.84361 0.0046562
-0.00093323 0.10633 1.0439 9.3118e-39 420 239 0 0 0 -0.15142 0.50469 -0.84992 0.0043715
0.00089842 0.10689 1.0434 7.8136e-39 303.5 239.5 0 0 0 -0.14666 0.4992 -0.85398 0.004199
0.0033395 0.10687 1.0432 7.6983e-39 305.5 239.5 0 0 0 -0.13495 0.49661 -0.85742 0.0040297
0.0051648 0.10676 1.0422 7.9288e-39 307 239.5 0 0 0 -0.12454 0.49475 -0.86007 0.0038919
0.0069997 0.10685 1.043 7.9519e-39 308.5 239.5 0 0 0 -0.11591 0.4986 -0.85904 0.0039778
0.0088227 0.10737 1.0422 7.0069e-39 188 240 0 0 0 -0.10403 0.49961 -0.85998 0.0043001
0.010656 0.1068 1.0426 7.56e-39 317.5 239.5 0 0 0 -0.09096 0.49867 -0.862 0.0044967
0.013091 0.10676 1.0422 8.2284e-39 319.5 239.5 0 0 0 -0.07351 0.49594 -0.86524 0.004748
0.014926 0.1068 1.0426 7.8827e-39 321 239.5 0 0 0 -0.056525 0.49547 -0.86678 0.0055023
0.016755 0.1068 1.0426 8.1132e-39 322.5 239.5 0 0 0 -0.036942 0.49258 -0.86948 0.0057903
0.018983 0.10696 1.0422 7.9903e-39 285.67 239.67 0 0 0 -0.0055986 0.48474 -0.87464 0.0067282
0.021033 0.10685 1.043 8.021e-39 326 239.5 0 0 0 0.027472 0.4859 -0.87358 0.0080575
0.023454 0.10676 1.0422 7.9288e-39 328 239.5 0 0 0 0.072557 0.48062 -0.87392 0.0098897
0.025094 0.10702 1.0427 7.8366e-39 290.67 239.67 0 0 0 0.10497 0.4828 -0.86942 0.010551
0.027123 0.1068 1.0426 6.7764e-39 331 239.5 0 0 0 0.14713 0.48008 -0.8648 0.011248
0.028959 0.10683 1.0428 6.8916e-39 332.5 239.5 0 0 0 0.1862 0.48368 -0.85521 0.013568
0.03077 0.10676 1.0422 8.8047e-39 334 239.5 0 0 0 0.22722 0.48467 -0.84467 0.014703
0.032634 0.10687 1.0432 1.0649e-38 335.5 239.5 0 0 0 0.26737 0.49378 -0.82746 0.016716
0.035097 0.10694 1.0439 1.0234e-38 337.5 239.5 0 0 0 0.3357 0.50123 -0.79754 0.019055
0.036913 0.10689 1.0434 9.5881e-39 339 239.5 0 0 0 0.3597 0.50098 -0.78717 0.017726
0.0033415 0.10877 1.0439 7.7444e-39 261.5 240 0 0 0 -0.13517 0.50085 -0.85491 0.0042149
0.0051692 0.10929 1.043 8.2515e-39 292.5 240 0 0 0 -0.1291 0.50043 -0.8561 0.0042076
0.006802 0.10918 1.0439 8.2361e-39 284 240 0 0 0 -0.11587 0.49933 -0.85863 0.0040654
0.0088301 0.10929 1.043 9.1735e-39 295.5 240 0 0 0 -0.10005 0.4962 -0.86242 0.0040517
0.010663 0.10931 1.0432 9.0352e-39 297 240 0 0 0 -0.091638 0.50273 -0.85957 0.0043981
0.013104 0.10931 1.0432 8.4359e-39 299 240 0 0 0 -0.070621 0.50055 -0.86282 0.004621
0.014944 0.10938 1.0439 8.8967e-39 300.5 240 0 0 0 -0.056744 0.50471 -0.86142 0.00537
0.016773 0.10936 1.0437 8.8046e-39 302 240 0 0 0 -0.040074 0.50215 -0.86385 0.0060725
0.019211 0.10934 1.0434 8.3898e-39 304 240 0 0 0 -0.0040448 0.49773 -0.86732 0.0066956
0.021051 0.10877 1.0439 8.5742e-39 276 240 0 0 0 0.030083 0.49543 -0.86813 0.0078585
0.022859 0.10927 1.0428 9.8419e-39 307 240 0 0 0 0.059446 0.50208 -0.86278 0.0088921
0.025321 0.10936 1.0437 9.957e-39 309 240 0 0 0 0.10742 0.49885 -0.86001 0.010582
0.027146 0.10934 1.0434 1.0095e-38 310.5 240 0 0 0 0.14019 0.49721 -0.85623 0.011395
0.028984 0.10936 1.0437 1.0142e-38 312 240 0 0 0 0.18697 0.50135 -0.8448 0.013532
0.030809 0.10934 1.0434 9.911e-39 313.5 240 0 0 0 0.22979 0.49929 -0.83541 0.014701
0.032441 0.10915 1.0436 9.9878e-39 305 240 0 0 0 0.26178 0.49501 -0.82852 0.016028
0.034486 0.10877 1.0439 1.0326e-38 287 240 0 0 0 0.30663 0.49263 -0.81443 0.016176
0.036929 0.10877 1.0439 9.4961e-39 289 240 0 0 0 0.3589 0.49223 -0.79303 0.018143
0.0051735 0.11121 1.0439 9.1274e-39 376 240 0 0 0 -0.12935 0.50109 -0.85567 0.0043511
0.0088376 0.11121 1.0439 9.0352e-39 379 240 0 0 0 -0.10331 0.49806 -0.86096 0.0040502
0.010059 0.11121 1.0439 8.3898e-39 380 240 0 0 0 -0.092789 0.49795 -0.86222 0.0041178
0.013113 0.11121 1.0439 8.7586e-39 382.5 240 0 0 0 -0.070574 0.50007 -0.8631 0.0044866
0.017387 0.11121 1.0439 8.3898e-39 386 240 0 0 0 -0.03278 0.50512 -0.86243 0.0060143
0.019219 0.11121 1.0439 8.7125e-39 387.5 240 0 0 0 -0.0021224 0.50634 -0.86233 0.0065347
0.022883 0.11121 1.0439 8.6664e-39 390.5 240 0 0 0 0.062414 0.51395 -0.85555 0.0083853
0.025937 0.11121 1.0439 9.3118e-39 393 240 0 0 0 0.11766 0.50974 -0.85225 0.010132
0.022883 0.11243 1.0439 9.3118e-39 440.5 240 0 0 0 0.057787 0.51376 -0.85599 0.0077496
-0.036822 0.0853 1.0457 7.4679e-39 424.67 236 0 0 0 -0.58857 0.31408 -0.74495 0.031035
-0.037026 0.086932 1.0457 1.194e-38 445.5 236 0 0 0 -0.58303 0.32666 -0.74388 0.027442
-0.037026 0.088155 1.0457 6.7303e-39 158.5 237 0 0 0 -0.58585 0.31427 -0.74701 0.025097
-0.035161 0.089303 1.0448 7.0991e-39 189 237 0 0 0 -0.55299 0.34772 -0.75716 0.022906
-0.035176 0.091176 1.0452 8.3437e-39 246 237 0 0 0 -0.5488 0.36934 -0.74993 0.0218
-0.033938 0.091748 1.0448 7.56e-39 263 237 0 0 0 -0.5318 0.38222 -0.75571 0.021238
-0.035191 0.093049 1.0457 1.0234e-38 295 237 0 0 0 -0.53943 0.39486 -0.74371 0.020612
-0.033327 0.09297 1.0448 9.6344e-39 296.5 237 0 0 0 -0.51156 0.41101 -0.75457 0.020379
-0.035191 0.094272 1.0457 1.0418e-38 330 237 0 0 0 -0.53638 0.40652 -0.73962 0.020282
-0.033341 0.094844 1.0453 9.8188e-39 350 237 0 0 0 -0.50522 0.43375 -0.74606 0.019146
0.045517 0.095415 1.0448 8.021e-39 396 237 0 0 0 0.50155 0.53988 -0.676 0.026416
0.046739 0.095415 1.0448 8.021e-39 397 237 0 0 0 0.51815 0.53705 -0.66565 0.025393
0.048002 0.094272 1.0457 7.6522e-39 358 237 0 0 0 0.55608 0.52691 -0.64276 0.02515
-0.033356 0.096719 1.0457 8.0671e-39 408.5 237 0 0 0 -0.48981 0.45606 -0.74303 0.017156
-0.031095 0.09748 1.0451 7.6523e-39 248.33 237.67 0 0 0 -0.4462 0.48704 -0.7508 0.014237
-0.027826 0.09786 1.0448 6.6381e-39 170 238 0 0 0 -0.39399 0.5148 -0.76141 0.011155
0.044714 0.097072 1.0451 7.0991e-39 177 238 0 0 0 0.48066 0.5386 -0.69201 0.026174
-0.030297 0.099166 1.0457 9.1274e-39 243 238 0 0 0 -0.42711 0.50533 -0.74981 0.012698
-0.029049 0.099082 1.0448 9.1274e-39 244 238 0 0 0 -0.4008 0.51623 -0.75688 0.011014
-0.027227 0.099124 1.0452 9.3118e-39 245.5 238 0 0 0 -0.37847 0.52323 -0.76354 0.0099036
0.044294 0.099082 1.0448 9.404e-39 299 238 0 0 0 0.47146 0.52524 -0.70841 0.02469
-0.029073 0.10039 1.0457 8.5742e-39 315 238 0 0 0 -0.40001 0.51916 -0.75529 0.010784
-0.026627 0.10039 1.0457 9.0352e-39 317 238 0 0 0 -0.36942 0.5317 -0.76212 0.0091646
-0.024781 0.10096 1.0453 8.8277e-39 355.5 238 0 0 0 -0.34132 0.54419 -0.7664 0.0079854
-0.022946 0.10095 1.0452 8.2054e-39 357 238 0 0 0 -0.3205 0.55266 -0.76932 0.0070206
-0.021307 0.10112 1.0448 7.9595e-39 370.67 238 0 0 0 -0.30034 0.55633 -0.77479 0.0068239
0.041849 0.10153 1.0448 1.3922e-38 453 238 0 0 0 0.42555 0.52578 -0.73652 0.023632
0.043072 0.10091 1.0448 7.4218e-39 257 238.5 0 0 0 0.44454 0.52854 -0.72321 0.024035
0.044332 0.101 1.0457 7.5601e-39 258 238.5 0 0 0 0.47221 0.51938 -0.71223 0.023137
-0.02051 0.10284 1.0457 6.9147e-39 166 239 0 0 0 -0.29174 0.56241 -0.77368 0.0065815
-0.018659 0.10275 1.0448 7.4218e-39 167.5 239 0 0 0 -0.273 0.55972 -0.78242 0.0065573
-0.016825 0.10397 1.0448 8.7586e-39 256 239 0 0 0 -0.2601 0.55924 -0.78715 0.0065873
-0.014991 0.10336 1.0448 7.2374e-39 214 239 0 0 0 -0.24472 0.55577 -0.7945 0.0064564
-0.013158 0.10397 1.0448 7.56e-39 259 239 0 0 0 -0.23196 0.55132 -0.8014 0.0062633
0.041238 0.10336 1.0448 8.9891e-39 266 239 0 0 0 0.41676 0.52285 -0.7436 0.02232
0.043108 0.10284 1.0457 9.404e-39 230 239 0 0 0 0.44747 0.51098 -0.73394 0.023012
-0.018675 0.10406 1.0457 9.3118e-39 254.5 239 0 0 0 -0.27573 0.56405 -0.77834 0.0066348
-0.016839 0.10528 1.0457 1.0418e-38 331 239 0 0 0 -0.26255 0.56763 -0.78029 0.006581
-0.0148 0.10487 1.0457 9.0044e-39 307.67 239 0 0 0 -0.24587 0.56113 -0.79037 0.0064452
-0.013169 0.10528 1.0457 8.943e-39 334 239 0 0 0 -0.23262 0.55957 -0.79547 0.0060647
-0.011935 0.10519 1.0448 9.4961e-39 335 239 0 0 0 -0.21913 0.55063 -0.80547 0.0058038
0.038182 0.10519 1.0448 9.1274e-39 376 239 0 0 0 0.36717 0.51654 -0.77355 0.019099
0.041256 0.10463 1.0452 8.7125e-39 341 239 0 0 0 0.41986 0.5114 -0.74979 0.021882
0.043108 0.10406 1.0457 7.8366e-39 305 239 0 0 0 0.44352 0.51359 -0.73451 0.02211
-0.015616 0.10651 1.0457 8.482e-39 408 239 0 0 0 -0.25259 0.57055 -0.78146 0.0061114
-0.011324 0.10642 1.0448 9.5883e-39 411.5 239 0 0 0 -0.21626 0.5507 -0.8062 0.0057878
-0.0088836 0.10768 1.0452 7.3757e-39 173.5 240 0 0 0 -0.20764 0.54234 -0.8141 0.0051626
-0.0070519 0.10773 1.0457 7.6522e-39 175 240 0 0 0 -0.19783 0.53671 -0.82025 0.0051668
-0.0058285 0.10773 1.0457 7.2835e-39 176 240 0 0 0 -0.19261 0.53101 -0.82519 0.0050018
-0.0027676 0.10764 1.0448 6.6381e-39 178.5 240 0 0 0 -0.16736 0.51673 -0.83963 0.0047885
-0.00093402 0.10764 1.0448 7.4678e-39 180 240 0 0 0 -0.15353 0.5041 -0.84989 0.0044538
0.038802 0.10705 1.045 8.2976e-39 384.5 239.5 0 0 0 0.37595 0.49486 -0.78344 0.018331
0.040661 0.10712 1.0457 8.021e-39 386 239.5 0 0 0 0.40447 0.49402 -0.76964 0.020883
-0.0046051 0.10895 1.0457 9.4961e-39 255 240 0 0 0 -0.18526 0.5272 -0.8293 0.0049777
-0.0027699 0.10895 1.0457 9.0352e-39 256.5 240 0 0 0 -0.17085 0.51985 -0.837 0.0049657
-0.00093481 0.10895 1.0457 8.3898e-39 258 240 0 0 0 -0.15951 0.50949 -0.84556 0.0049302
0.00089953 0.10886 1.0448 8.021e-39 259.5 240 0 0 0 -0.14724 0.5019 -0.8523 0.0044578
0.035738 0.10886 1.0448 9.9571e-39 288 240 0 0 0 0.33512 0.49012 -0.80466 0.017732
0.038827 0.10895 1.0457 9.3578e-39 290.5 240 0 0 0 0.37794 0.47737 -0.79327 0.018068
0.0009003 0.11018 1.0457 8.2976e-39 318.5 240 0 0 0 -0.1495 0.50541 -0.84983 0.0046566
0.0033457 0.11074 1.0453 8.4589e-39 347.5 240 0 0 0 -0.13642 0.50391 -0.85291 0.0044582
0.0072174 0.11093 1.0451 9.0967e-39 359.67 240 0 0 0 -0.11366 0.50002 -0.85852 0.0041499
0.01129 0.11131 1.0448 8.2976e-39 381 240 0 0 0 -0.085492 0.50013 -0.86172 0.004351
0.014957 0.11131 1.0448 9.2196e-39 384 240 0 0 0 -0.057057 0.50539 -0.861 0.0052488
0.016179 0.11131 1.0448 8.6664e-39 385 240 0 0 0 -0.043642 0.50817 -0.86015 0.0056953
0.021069 0.11069 1.0448 8.7586e-39 362 240 0 0 0 0.029451 0.50476 -0.86276 0.0072954
0.024736 0.11131 1.0448 9.3118e-39 392 240 0 0 0 0.097855 0.51279 -0.85292 0.0096814
0.027181 0.11131 1.0448 8.7586e-39 394 240 0 0 0 0.13575 0.51207 -0.84815 0.010729
0.029015 0.11131 1.0448 8.1132e-39 395.5 240 0 0 0 0.18708 0.50868 -0.84038 0.013465
0.030848 0.11131 1.0448 8.021e-39 397 240 0 0 0 0.23227 0.50146 -0.83342 0.015577
0.032895 0.11093 1.0451 8.9737e-39 380.67 240 0 0 0 0.27379 0.50254 -0.82006 0.016827
0.035141 0.11074 1.0453 9.5883e-39 373.5 240 0 0 0 0.31756 0.49455 -0.80906 0.016809
0.036975 0.11074 1.0452 9.1735e-39 375 240 0 0 0 0.35323 0.48154 -0.80209 0.017639
0.0039589 0.11262 1.0457 9.2196e-39 425 240 0 0 0 -0.13617 0.50534 -0.85211 0.0046305
0.0051801 0.11319 1.0452 7.514e-39 287.5 240.5 0 0 0 -0.13148 0.50471 -0.85322 0.0047673
0.0070174 0.11262 1.0457 8.3437e-39 427.5 240 0 0 0 -0.11592 0.49925 -0.85867 0.0042876
0.0088488 0.11319 1.0452 7.4679e-39 290.5 240.5 0 0 0 -0.10354 0.49807 -0.86094 0.0040986
0.010683 0.11319 1.0453 7.7444e-39 292 240.5 0 0 0 -0.08917 0.49416 -0.86479 0.0041425
0.013129 0.11319 1.0453 7.6753e-39 294 240.5 0 0 0 -0.070146 0.4974 -0.86468 0.0042543
0.014964 0.11319 1.0452 7.4218e-39 295.5 240.5 0 0 0 -0.057497 0.4981 -0.86521 0.004702
0.016794 0.11316 1.045 7.9288e-39 297 240.5 0 0 0 -0.037727 0.50563 -0.86192 0.0054818
0.01924 0.11316 1.045 7.9749e-39 299 240.5 0 0 0 -0.0033751 0.50772 -0.86151 0.0057298
0.021078 0.11319 1.0452 7.9288e-39 300.5 240.5 0 0 0 0.031371 0.51566 -0.85622 0.0066295
0.022902 0.11375 1.0448 6.3615e-39 163.5 241 0 0 0 0.056252 0.51774 -0.85369 0.0070439
0.025358 0.11319 1.0453 7.975e-39 304 240.5 0 0 0 0.10954 0.52596 -0.84342 0.0098184
0.027192 0.11319 1.0452 8.3898e-39 305.5 240.5 0 0 0 0.13862 0.52079 -0.84235 0.010584
0.028827 0.113 1.0454 7.9903e-39 353 240.33 0 0 0 0.18061 0.51756 -0.83637 0.012745
0.030874 0.11262 1.0457 6.6381e-39 447 240 0 0 0 0.23075 0.50561 -0.83133 0.015365
0.032098 0.11262 1.0457 5.4395e-39 448 240 0 0 0 0.25853 0.51215 -0.81907 0.016819
0.016805 0.11507 1.0457 6.7764e-39 207.5 241 0 0 0 -0.035756 0.50221 -0.86401 0.004803
0.022922 0.11507 1.0457 7.7905e-39 212.5 241 0 0 0 0.063905 0.51991 -0.85183 0.0065228
0.02598 0.11507 1.0457 8.021e-39 215 241 0 0 0 0.11458 0.52919 -0.84073 0.0090381
-0.053587 0.072924 1.0466 7.9749e-39 226.5 236 0 0 0 0.59096 -0.80595 0.034698 0.069396
-0.053587 0.074761 1.0466 7.56e-39 263 236 0 0 0 0.61701 -0.78472 0.059339 0.069687
-0.053633 0.07605 1.0475 9.404e-39 287 236 0 0 0 -0.65388 0.74997 -0.099919 0.074646
-0.053633 0.078501 1.0475 1.0695e-38 336 236 0 0 0 -0.68808 0.70135 -0.18614 0.077913
-0.038927 0.083403 1.0475 8.2054e-39 398 236 0 0 0 -0.62465 0.35169 -0.69723 0.038966
-0.038927 0.085241 1.0475 7.9288e-39 419 236 0 0 0 -0.6235 0.33629 -0.70581 0.034525
-0.037669 0.084557 1.0466 7.6522e-39 408 236 0 0 0 -0.60927 0.32431 -0.72361 0.033857
-0.038927 0.087079 1.0475 8.3898e-39 444 236 0 0 0 -0.61908 0.33797 -0.70888 0.031094
-0.037057 0.089454 1.0466 7.4679e-39 187.5 237 0 0 0 -0.58135 0.3477 -0.73562 0.023853
-0.037065 0.091311 1.0468 8.5972e-39 244.5 237 0 0 0 -0.57977 0.35898 -0.73144 0.022591
-0.036476 0.093207 1.0475 1.0234e-38 294 237 0 0 0 -0.55931 0.39712 -0.72765 0.021107
-0.036476 0.095045 1.0475 9.3118e-39 347.5 237 0 0 0 -0.55612 0.41088 -0.72243 0.020465
-0.03522 0.095577 1.0466 9.4961e-39 367 237 0 0 0 -0.52939 0.42467 -0.73444 0.019242
0.048083 0.095658 1.0475 8.2054e-39 398 237 0 0 0 0.56435 0.51025 -0.64896 0.02419
-0.03522 0.096801 1.0466 8.482e-39 407 237 0 0 0 -0.51959 0.44121 -0.73168 0.018694
0.046818 0.096801 1.0466 6.3615e-39 153 238 0 0 0 0.53258 0.51708 -0.67007 0.024038
-0.033383 0.098026 1.0466 6.592e-39 165.5 238 0 0 0 -0.48417 0.46858 -0.73892 0.016377
-0.031574 0.099334 1.0475 9.1274e-39 242 238 0 0 0 -0.45175 0.49496 -0.74225 0.013721
0.045613 0.09868 1.047 9.3118e-39 264.5 238 0 0 0 0.51487 0.51246 -0.68724 0.023026
0.046838 0.09868 1.047 9.45e-39 265.5 238 0 0 0 0.52941 0.50918 -0.67857 0.022939
-0.030348 0.10056 1.0475 8.021e-39 314 238 0 0 0 -0.43022 0.50949 -0.7452 0.01214
-0.029123 0.10179 1.0475 7.9288e-39 389 238 0 0 0 -0.39968 0.53156 -0.74679 0.0098788
-0.027261 0.10108 1.0466 9.2656e-39 353.5 238 0 0 0 -0.38024 0.53305 -0.75583 0.0096403
-0.024823 0.10296 1.047 6.6381e-39 162.5 239 0 0 0 -0.338 0.55335 -0.76129 0.0076306
-0.022976 0.10292 1.0466 6.6381e-39 164 239 0 0 0 -0.3167 0.56012 -0.76549 0.006625
-0.021751 0.10292 1.0466 6.4537e-39 165 239 0 0 0 -0.30719 0.56326 -0.76706 0.0064865
0.044369 0.10292 1.0466 9.4961e-39 231 239 0 0 0 0.4707 0.50717 -0.72196 0.022385
-0.021157 0.10424 1.0475 9.0352e-39 252.5 239 0 0 0 -0.30296 0.56675 -0.76617 0.0064114
-0.01869 0.10537 1.0466 9.8187e-39 329.5 239 0 0 0 -0.27638 0.56789 -0.77532 0.006659
0.04192 0.10537 1.0466 9.2196e-39 379 239 0 0 0 0.42742 0.49697 -0.7552 0.020763
0.043145 0.10537 1.0466 8.2976e-39 380 239 0 0 0 0.44396 0.4952 -0.74678 0.020618
0.044369 0.10476 1.0466 8.2976e-39 343.5 239 0 0 0 0.46302 0.4993 -0.73234 0.021164
-0.018093 0.10669 1.0475 9.404e-39 406 239 0 0 0 -0.27271 0.58144 -0.76652 0.006423
-0.016854 0.1066 1.0466 8.943e-39 407 239 0 0 0 -0.26335 0.5745 -0.77498 0.0064212
-0.014411 0.10725 1.047 7.8366e-39 289 239.5 0 0 0 -0.2478 0.576 -0.77898 0.006065
-0.01318 0.1066 1.0466 9.0352e-39 410 239 0 0 0 -0.23991 0.56797 -0.78731 0.0058576
-0.011343 0.10782 1.0466 6.6842e-39 171.5 240 0 0 0 -0.22902 0.56179 -0.79495 0.0059214
0.041956 0.1073 1.0475 8.2054e-39 387 239.5 0 0 0 0.4331 0.48683 -0.75857 0.020277
0.043145 0.10721 1.0466 7.1452e-39 185 240 0 0 0 0.44586 0.48863 -0.74997 0.020582
0.044407 0.1073 1.0475 7.8366e-39 186 240 0 0 0 0.46749 0.4829 -0.74045 0.019909
-0.01074 0.10914 1.0475 9.4961e-39 250 240 0 0 0 -0.23257 0.56536 -0.79138 0.0059297
-0.0088945 0.10905 1.0466 9.5423e-39 251.5 240 0 0 0 -0.21218 0.54778 -0.80927 0.0054312
-0.0070579 0.10905 1.0466 9.2196e-39 253 240 0 0 0 -0.20202 0.54037 -0.81682 0.005307
-0.0058334 0.10905 1.0466 9.3118e-39 254 240 0 0 0 -0.19718 0.53458 -0.82179 0.0050872
0.040696 0.10905 1.0466 9.404e-39 292 240 0 0 0 0.41108 0.47517 -0.77797 0.019888
-0.004609 0.11027 1.0466 7.9288e-39 314 240 0 0 0 -0.19077 0.53219 -0.82485 0.0050581
-0.0027735 0.11093 1.047 9.1043e-39 342.5 240 0 0 0 -0.17879 0.52597 -0.8315 0.0052276
-0.00093561 0.11027 1.0466 9.3118e-39 317 240 0 0 0 -0.16397 0.51576 -0.8409 0.0051426
0.00090107 0.11149 1.0466 8.7586e-39 372.5 240 0 0 0 -0.15267 0.51233 -0.84511 0.0048265
0.038876 0.11031 1.047 9.5422e-39 349.5 240 0 0 0 0.38127 0.47265 -0.7945 0.018662
0.04073 0.11036 1.0475 9.6805e-39 351 240 0 0 0 0.41484 0.46761 -0.78054 0.020107
0.0015146 0.11281 1.0475 8.7586e-39 421 240 0 0 0 -0.15312 0.51661 -0.84242 0.0050075
0.00335 0.11333 1.0466 7.7905e-39 286 240.5 0 0 0 -0.14336 0.51091 -0.8476 0.0049021
0.0070233 0.11394 1.0466 6.0388e-39 150.5 241 0 0 0 -0.11904 0.50386 -0.85555 0.0045436
0.029676 0.11394 1.0466 7.0991e-39 169 241 0 0 0 0.19142 0.51721 -0.83417 0.013275
0.0309 0.11394 1.0466 6.7303e-39 170 241 0 0 0 0.22506 0.5142 -0.82761 0.015152
0.032737 0.11333 1.0466 5.8544e-39 310 240.5 0 0 0 0.26543 0.51487 -0.81514 0.016714
0.035186 0.11272 1.0466 6.9608e-39 450.5 240 0 0 0 0.31645 0.49754 -0.80766 0.017758
0.037054 0.11281 1.0475 1.051e-38 452 240 0 0 0 0.35453 0.4842 -0.79991 0.019381
0.0027401 0.11404 1.0475 5.9005e-39 147 241 0 0 0 -0.14731 0.51729 -0.84303 0.0053678
0.0051867 0.11517 1.0466 6.4537e-39 186 241 0 0 0 -0.13407 0.51393 -0.84729 0.0051476
0.0064166 0.11527 1.0475 6.5459e-39 187 241 0 0 0 -0.12914 0.51506 -0.84737 0.0049252
0.00886 0.11517 1.0466 6.9147e-39 201 241 0 0 0 -0.10652 0.50163 -0.8585 0.0043331
0.010697 0.11517 1.0466 7.6983e-39 202.5 241 0 0 0 -0.090509 0.49713 -0.86294 0.0042653
0.013145 0.11517 1.0466 7.5601e-39 204.5 241 0 0 0 -0.068737 0.50032 -0.86311 0.0043262
0.014982 0.11517 1.0466 7.0069e-39 206 241 0 0 0 -0.05368 0.50128 -0.86362 0.0044784
0.019268 0.11517 1.0466 7.56e-39 209.5 241 0 0 0 0.0042549 0.51045 -0.8599 0.0050504
0.021105 0.11517 1.0466 8.021e-39 211 241 0 0 0 0.034815 0.51445 -0.85681 0.0055932
0.024778 0.11517 1.0466 7.9288e-39 214 241 0 0 0 0.09578 0.52793 -0.84387 0.0087169
0.027227 0.11517 1.0466 7.7444e-39 216 241 0 0 0 0.13761 0.52979 -0.83689 0.0098536
0.029076 0.11522 1.047 7.6522e-39 217.5 241 0 0 0 0.17677 0.51924 -0.83615 0.012145
0.030926 0.11527 1.0475 7.56e-39 219 241 0 0 0 0.22405 0.52048 -0.82395 0.015011
0.032765 0.11466 1.0475 7.1452e-39 196 241 0 0 0 0.27284 0.52378 -0.80698 0.017778
0.035216 0.11404 1.0475 7.3757e-39 173.5 241 0 0 0 0.3163 0.50474 -0.80323 0.018347
0.011319 0.11649 1.0475 9.404e-39 233 241 0 0 0 -0.084642 0.50556 -0.85863 0.0043399
0.013157 0.11649 1.0475 9.3118e-39 234.5 241 0 0 0 -0.066565 0.50297 -0.86174 0.0044424
0.014995 0.11649 1.0475 9.1274e-39 236 241 0 0 0 -0.048254 0.50797 -0.86002 0.0045111
0.016826 0.11644 1.047 9.3579e-39 237.5 241 0 0 0 -0.035025 0.51157 -0.85853 0.0046649
0.019285 0.11649 1.0475 9.404e-39 239.5 241 0 0 0 0.0059124 0.51351 -0.85806 0.0048889
0.021123 0.11649 1.0475 9.2196e-39 241 241 0 0 0 0.035082 0.51432 -0.85688 0.0053761
0.022941 0.11639 1.0466 9.8648e-39 242.5 241 0 0 0 0.061678 0.53012 -0.84568 0.0065694
0.024799 0.11649 1.0475 1.0142e-38 244 241 0 0 0 0.099189 0.53825 -0.83693 0.0088191
0.026626 0.11644 1.047 9.5422e-39 245.5 241 0 0 0 0.12457 0.53126 -0.838 0.0091115
0.028475 0.11649 1.0475 9.1274e-39 247 241 0 0 0 0.15038 0.52548 -0.83741 0.0099637
-0.056131 0.074888 1.0484 8.3898e-39 261 236 0 0 0 0.64493 -0.76392 -0.022072 0.075322
-0.053678 0.077341 1.0484 8.2976e-39 311 236 0 0 0 -0.67882 0.72531 -0.11458 0.078458
-0.051269 0.081089 1.0493 9.404e-39 370 236 0 0 0 -0.75796 0.56751 -0.32161 0.077436
-0.038976 0.089032 1.0489 6.6381e-39 171.5 237 0 0 0 -0.62395 0.34293 -0.7022 0.028884
-0.038993 0.09091 1.0493 8.943e-39 227 237 0 0 0 -0.61878 0.35337 -0.7016 0.025636
-0.037733 0.093286 1.0484 9.6805e-39 293 237 0 0 0 -0.58528 0.39199 -0.70978 0.021404
-0.037749 0.095167 1.0489 8.7125e-39 346.5 237 0 0 0 -0.57515 0.41023 -0.70775 0.020297
0.049393 0.094593 1.0493 7.6522e-39 359 237 0 0 0 0.59103 0.49138 -0.63971 0.024979
-0.036507 0.096966 1.0484 9.0352e-39 406 237 0 0 0 -0.5467 0.43089 -0.71795 0.01924
0.048165 0.097048 1.0493 6.4537e-39 154 238 0 0 0 0.57204 0.49161 -0.65657 0.023602
-0.034667 0.098806 1.0484 8.0672e-39 202 238 0 0 0 -0.50712 0.4623 -0.7274 0.016908
-0.032827 0.099419 1.0484 9.3118e-39 241 238 0 0 0 -0.47195 0.48688 -0.73499 0.014502
0.048165 0.098276 1.0493 9.2196e-39 231 238 0 0 0 0.56814 0.47982 -0.66858 0.02215
-0.031013 0.10135 1.0493 8.0671e-39 350.5 238 0 0 0 -0.44077 0.51339 -0.73631 0.01219
-0.027921 0.10187 1.0484 8.1132e-39 390 238 0 0 0 -0.39281 0.5356 -0.74755 0.0097038
0.045671 0.10126 1.0484 7.6522e-39 259 238.5 0 0 0 0.50887 0.49497 -0.70431 0.021536
0.046918 0.10131 1.0489 7.6983e-39 260 238.5 0 0 0 0.53702 0.48359 -0.69119 0.020089
-0.026717 0.10319 1.0493 6.6381e-39 161 239 0 0 0 -0.37176 0.555 -0.74416 0.0087423
0.045671 0.1031 1.0484 9.9571e-39 232 239 0 0 0 0.50074 0.48342 -0.71803 0.01988
-0.024876 0.10441 1.0493 9.2657e-39 249.5 239 0 0 0 -0.33976 0.56813 -0.74953 0.0074704
-0.023015 0.10432 1.0484 9.2196e-39 251 239 0 0 0 -0.31684 0.56715 -0.76023 0.0065473
-0.021175 0.10555 1.0484 9.5422e-39 327.5 239 0 0 0 -0.30144 0.57459 -0.76091 0.006417
0.04571 0.10441 1.0493 8.943e-39 307 239 0 0 0 0.50189 0.48516 -0.71605 0.019714
-0.019335 0.10678 1.0484 9.2196e-39 405 239 0 0 0 -0.2844 0.58421 -0.76014 0.0063307
-0.016882 0.108 1.0484 7.56e-39 167 240 0 0 0 -0.26868 0.59197 -0.75985 0.0063321
-0.015049 0.10866 1.0489 8.1593e-39 207.5 240 0 0 0 -0.26002 0.58945 -0.76482 0.0060813
-0.013203 0.108 1.0484 6.8225e-39 170 240 0 0 0 -0.24414 0.57556 -0.78046 0.0059759
-0.011976 0.10923 1.0484 9.1274e-39 249 240 0 0 0 -0.2419 0.57243 -0.78346 0.0057874
0.041992 0.10923 1.0484 9.4961e-39 293 240 0 0 0 0.43502 0.47022 -0.76789 0.019793
0.043218 0.10923 1.0484 1.0326e-38 294 240 0 0 0 0.45929 0.46953 -0.75405 0.019283
0.044482 0.10932 1.0493 1.0418e-38 295 240 0 0 0 0.48196 0.46895 -0.74013 0.018848
-0.0087103 0.11093 1.049 8.0517e-39 328.67 240 0 0 0 -0.22609 0.56113 -0.79625 0.0055362
-0.0070729 0.11112 1.0489 8.2054e-39 339 240 0 0 0 -0.21176 0.55063 -0.80744 0.0054058
-0.0054361 0.11131 1.0487 8.7893e-39 349.33 240 0 0 0 -0.20217 0.54297 -0.81505 0.0052773
-0.00093719 0.11168 1.0484 9.3118e-39 371 240 0 0 0 -0.16938 0.52057 -0.83685 0.0053492
0.038942 0.11173 1.0489 8.482e-39 403.5 240 0 0 0 0.38975 0.46856 -0.79281 0.01932
0.0408 0.11178 1.0493 9.0352e-39 405 240 0 0 0 0.43683 0.46569 -0.76962 0.020792
-0.0046207 0.11301 1.0493 8.482e-39 416 240 0 0 0 -0.20546 0.54807 -0.8108 0.0055026
-0.002777 0.11291 1.0484 9.404e-39 417.5 240 0 0 0 -0.18649 0.53678 -0.82285 0.0052405
0.00028934 0.11291 1.0484 9.6805e-39 420 240 0 0 0 -0.16224 0.52259 -0.837 0.0051479
0.038344 0.11301 1.0493 1.2078e-38 453 240 0 0 0 0.37389 0.48311 -0.79172 0.020695
-0.0027784 0.11418 1.0489 6.4076e-39 142.5 241 0 0 0 -0.18911 0.54761 -0.81508 0.0052673
0.00090274 0.11418 1.0489 6.0388e-39 145.5 241 0 0 0 -0.16289 0.52882 -0.83296 0.0053048
0.0033556 0.11536 1.0484 6.6381e-39 184.5 241 0 0 0 -0.14891 0.52944 -0.83518 0.0053402
0.0076486 0.11536 1.0484 6.5459e-39 188 241 0 0 0 -0.11934 0.51417 -0.84935 0.0046582
0.033406 0.11536 1.0484 7.2835e-39 221 241 0 0 0 0.2827 0.5234 -0.80382 0.018524
0.03526 0.11541 1.0489 7.1452e-39 222.5 241 0 0 0 0.31588 0.51413 -0.79742 0.019313
0.037085 0.11414 1.0484 7.0991e-39 175 241 0 0 0 0.35226 0.49333 -0.79532 0.019292
0.0051955 0.11659 1.0484 7.7444e-39 228 241 0 0 0 -0.13982 0.52963 -0.83662 0.0054827
0.0070413 0.11669 1.0493 8.7125e-39 229.5 241 0 0 0 -0.12905 0.52554 -0.84092 0.0051811
0.0088751 0.11659 1.0484 9.0352e-39 231 241 0 0 0 -0.1114 0.51197 -0.85175 0.0046619
0.010102 0.11659 1.0484 9.404e-39 232 241 0 0 0 -0.099236 0.51039 -0.8542 0.0045894
0.016855 0.11787 1.0489 9.3579e-39 253.5 241 0 0 0 -0.031583 0.51395 -0.85724 0.0048459
0.019317 0.11792 1.0493 9.5422e-39 255.5 241 0 0 0 0.010446 0.517 -0.85592 0.0049431
0.021158 0.11792 1.0493 9.404e-39 257 241 0 0 0 0.040929 0.51915 -0.8537 0.0055391
0.022981 0.11782 1.0484 8.8969e-39 258.5 241 0 0 0 0.06508 0.52982 -0.84561 0.0066849
0.02482 0.11782 1.0484 8.6664e-39 260 241 0 0 0 0.097859 0.53994 -0.836 0.0093802
0.026671 0.11787 1.0489 7.9288e-39 261.5 241 0 0 0 0.12445 0.53443 -0.836 0.0098113
0.029125 0.11726 1.0489 8.1132e-39 255.5 241 0 0 0 0.1802 0.53831 -0.82325 0.014201
0.030953 0.11659 1.0484 9.2196e-39 249 241 0 0 0 0.2201 0.52711 -0.8208 0.015626
0.032807 0.11664 1.0489 9.6345e-39 250.5 241 0 0 0 0.26952 0.53846 -0.79838 0.0193
-0.055045 0.073234 1.051 7.9749e-39 225.5 236 0 0 0 0.67098 -0.7383 -0.068555 0.076494
-0.055092 0.075143 1.0519 8.1132e-39 262 236 0 0 0 0.6925 -0.7207 -0.032074 0.083366
-0.051356 0.079998 1.051 8.3898e-39 355 236 0 0 0 -0.75349 0.59524 -0.27917 0.081561
-0.040289 0.083687 1.051 7.7444e-39 397 236 0 0 0 -0.6913 0.38248 -0.61304 0.046247
-0.040255 0.084844 1.0501 8.482e-39 406 236 0 0 0 -0.65867 0.37144 -0.65435 0.037326
-0.040255 0.086688 1.0501 7.3757e-39 431 236 0 0 0 -0.64776 0.36634 -0.66798 0.034674
-0.040722 0.089066 1.0516 6.5766e-39 165.33 237 0 0 0 -0.66717 0.36477 -0.64948 0.029718
-0.040289 0.091065 1.051 8.5742e-39 226 237 0 0 0 -0.64859 0.36435 -0.66827 0.025936
-0.039042 0.09287 1.0505 8.3437e-39 275.5 237 0 0 0 -0.61656 0.37486 -0.69234 0.02192
-0.039093 0.094835 1.0519 8.943e-39 327 237 0 0 0 -0.62042 0.39667 -0.67656 0.021182
0.049435 0.095902 1.0501 8.943e-39 399 237 0 0 0 0.59146 0.47512 -0.65149 0.023843
-0.039093 0.096065 1.0519 7.9288e-39 364 237 0 0 0 -0.61394 0.40778 -0.67586 0.020425
-0.037797 0.09713 1.0501 9.2196e-39 405 237 0 0 0 -0.57944 0.42409 -0.69598 0.019809
-0.03701 0.098853 1.051 7.5908e-39 187.67 238 0 0 0 -0.55533 0.4509 -0.69878 0.018386
-0.03534 0.099588 1.0501 9.404e-39 239 238 0 0 0 -0.5168 0.46853 -0.71652 0.016985
0.048206 0.099588 1.0501 9.404e-39 302 238 0 0 0 0.57051 0.46387 -0.67775 0.020685
-0.03417 0.10099 1.0519 8.021e-39 311 238 0 0 0 -0.50177 0.49339 -0.71049 0.015175
-0.032883 0.10082 1.0501 7.7444e-39 312 238 0 0 0 -0.47338 0.49517 -0.7285 0.014304
0.048247 0.1009 1.051 9.1274e-39 376 238 0 0 0 0.5761 0.46362 -0.67318 0.019972
-0.031093 0.10283 1.0519 7.4679e-39 272.5 238.5 0 0 0 -0.44366 0.53514 -0.71888 0.011699
-0.028607 0.10336 1.051 6.9147e-39 159.5 239 0 0 0 -0.40183 0.55362 -0.72941 0.0096987
0.046977 0.10327 1.0501 9.8649e-39 233 239 0 0 0 0.5408 0.47668 -0.69305 0.018894
0.048247 0.10274 1.051 7.6983e-39 190 239 0 0 0 0.56696 0.45773 -0.68487 0.018481
-0.029247 0.10468 1.0519 9.404e-39 246 239 0 0 0 -0.40673 0.57271 -0.71174 0.0095514
-0.026785 0.10468 1.0519 9.3118e-39 248 239 0 0 0 -0.3759 0.58264 -0.72058 0.0079398
-0.024918 0.10582 1.051 9.0352e-39 324.5 239 0 0 0 -0.34438 0.59165 -0.72894 0.0069552
-0.023054 0.10573 1.0501 9.7727e-39 326 239 0 0 0 -0.32189 0.58625 -0.74344 0.0062096
0.045749 0.10573 1.0501 8.2054e-39 382 239 0 0 0 0.51598 0.46547 -0.7191 0.018347
0.046977 0.1045 1.0501 9.2196e-39 308 239 0 0 0 0.53404 0.46562 -0.70569 0.018624
0.048247 0.10459 1.051 9.2196e-39 309 239 0 0 0 0.55872 0.45253 -0.69501 0.018246
-0.023093 0.10714 1.0519 8.6664e-39 402 239 0 0 0 -0.3228 0.61058 -0.72318 0.0056208
-0.021211 0.10696 1.0501 8.482e-39 403.5 239 0 0 0 -0.3038 0.59546 -0.74372 0.0058561
-0.020632 0.10837 1.0519 6.4537e-39 164 240 0 0 0 -0.30508 0.61957 -0.72323 0.0051217
-0.018565 0.10869 1.051 7.7751e-39 191.67 240 0 0 0 -0.28707 0.61265 -0.73637 0.0058026
-0.016911 0.10942 1.0501 9.8649e-39 245 240 0 0 0 -0.27605 0.60549 -0.74645 0.0060353
-0.015682 0.10942 1.0501 9.3118e-39 246 240 0 0 0 -0.26817 0.59761 -0.75561 0.0062837
-0.013225 0.10942 1.0501 8.943e-39 248 240 0 0 0 -0.25791 0.58386 -0.7698 0.006011
-0.01694 0.11083 1.0519 8.1132e-39 304 240 0 0 0 -0.28463 0.62997 -0.72259 0.0053812
-0.015088 0.11079 1.0515 7.8827e-39 305.5 240 0 0 0 -0.27179 0.61447 -0.74064 0.0057982
-0.012628 0.11079 1.0515 8.8969e-39 307.5 240 0 0 0 -0.25962 0.59173 -0.76319 0.0058219
-0.010768 0.11065 1.0501 8.6664e-39 309 240 0 0 0 -0.24445 0.57907 -0.77777 0.005795
-0.0095473 0.11197 1.051 7.9288e-39 364 240 0 0 0 -0.23845 0.58073 -0.77839 0.005821
0.042695 0.1107 1.0505 9.3579e-39 352.5 240 0 0 0 0.46393 0.46018 -0.75697 0.020454
-0.012017 0.11206 1.0519 8.6664e-39 362 240 0 0 0 -0.26281 0.608 -0.74918 0.0052346
-0.010786 0.11206 1.0519 8.2054e-39 363 240 0 0 0 -0.25582 0.60048 -0.75761 0.0053481
-0.0089365 0.11325 1.0515 9.3579e-39 412.5 240 0 0 0 -0.24298 0.59434 -0.76663 0.0052159
-0.0070879 0.1132 1.051 8.482e-39 414 240 0 0 0 -0.22322 0.57245 -0.78897 0.0051953
-0.0058583 0.1132 1.051 8.3898e-39 415 240 0 0 0 -0.21587 0.56683 -0.79505 0.0052039
-0.00093879 0.1131 1.0501 9.7727e-39 419 240 0 0 0 -0.17629 0.53485 -0.82635 0.0054503
0.039606 0.1131 1.0501 1.1709e-38 454 240 0 0 0 0.40761 0.47864 -0.77766 0.020161
