# .PCD v.7 - Point Cloud Data file format
VERSION .7
FIELDS x y z rgb u v vx vy vz normal_x normal_y normal_z curvature
SIZE 4 4 4 4 4 4 4 4 4 4 4 4 4
TYPE F F F F F F F F F F F F F
COUNT 1 1 1 1 1 1 1 1 1 1 1 1 1
WIDTH 553
HEIGHT 1
VIEWPOINT 0 0 0 1 0 0 0
POINTS 553
DATA ascii
0.0088525 0.090602 1.0457 5.9005e-39 313 230 0 0 0 0.12751 0.62598 -0.76934 0.0097103
-0.042603 0.080952 1.0475 1.0418e-38 215 228 0 0 0 -0.37424 0.46726 -0.801 0.016646
-0.041378 0.082177 1.0475 6.2693e-39 311 228 0 0 0 -0.36678 0.46062 -0.80827 0.014484
-0.03525 0.084628 1.0475 7.0069e-39 470 228 0 0 0 -0.31655 0.42448 -0.8483 0.0080433
-0.033996 0.085781 1.0466 7.3757e-39 245 229 0 0 0 -0.29478 0.42136 -0.85765 0.0067265
0.030926 0.085854 1.0475 7.0069e-39 262 229 0 0 0 0.28597 0.56746 -0.77214 0.020608
-0.0242 0.087006 1.0466 6.2693e-39 319 229 0 0 0 -0.2028 0.48002 -0.85349 0.0073231
-0.020544 0.087079 1.0475 6.4537e-39 320 229 0 0 0 -0.17338 0.5225 -0.83483 0.0085737
-0.019319 0.087079 1.0475 6.2693e-39 321 229 0 0 0 -0.16439 0.54989 -0.8189 0.0081032
-0.016854 0.087006 1.0466 6.8225e-39 336 229 0 0 0 -0.15356 0.58777 -0.79432 0.0083503
-0.014405 0.087006 1.0466 6.3615e-39 338 229 0 0 0 -0.1347 0.60297 -0.78631 0.0086299
-0.01318 0.087006 1.0466 5.9927e-39 339 229 0 0 0 -0.12654 0.61487 -0.77841 0.0086726
0.024778 0.087006 1.0466 6.4537e-39 347 229 0 0 0 0.23937 0.57661 -0.78117 0.010864
0.027227 0.087006 1.0466 6.4537e-39 349 229 0 0 0 0.24927 0.57234 -0.78121 0.013475
0.029676 0.087006 1.0466 7.0991e-39 351 229 0 0 0 0.26788 0.57171 -0.77549 0.016122
-0.024221 0.088917 1.0475 8.7124e-39 309.5 229.5 0 0 0 -0.19325 0.48438 -0.85325 0.0077722
-0.022995 0.088917 1.0475 9.4038e-39 310.5 229.5 0 0 0 -0.18664 0.49711 -0.84738 0.0081489
-0.020544 0.088917 1.0475 9.2657e-39 312 229.5 0 0 0 -0.16856 0.52415 -0.83478 0.0082944
-0.018706 0.088917 1.0475 9.7727e-39 313.5 229.5 0 0 0 -0.15696 0.55277 -0.81842 0.0079952
-0.016861 0.08888 1.047 1.0372e-38 314.5 229.5 0 0 0 -0.14585 0.57706 -0.80357 0.0079837
-0.014813 0.089046 1.0466 1.0971e-38 282.67 229.67 0 0 0 -0.12936 0.59716 -0.79162 0.0085373
-0.01318 0.088842 1.0466 1.0649e-38 317.5 229.5 0 0 0 -0.12444 0.60515 -0.78632 0.0085302
-0.010731 0.089454 1.0466 1.2078e-38 219 230 0 0 0 -0.10431 0.61789 -0.77932 0.0081064
0.018672 0.08953 1.0475 6.2693e-39 228 230 0 0 0 0.203 0.56549 -0.79938 0.0083882
0.026024 0.088305 1.0475 7.0991e-39 453 229 0 0 0 0.24197 0.55599 -0.79519 0.010765
0.028475 0.088305 1.0475 7.4678e-39 455 229 0 0 0 0.2564 0.54933 -0.7953 0.013615
-0.016868 0.091368 1.0475 7.053e-39 341.5 230 0 0 0 -0.139 0.569 -0.8105 0.0076013
-0.015023 0.09133 1.047 6.8224e-39 343 230 0 0 0 -0.12728 0.58155 -0.80349 0.0080494
-0.013191 0.091368 1.0475 6.7764e-39 344.5 230 0 0 0 -0.11221 0.59097 -0.79885 0.007968
-0.011142 0.091521 1.0469 7.0684e-39 362 230 0 0 0 -0.10052 0.60418 -0.79049 0.0078491
-0.0088983 0.09133 1.047 6.7534e-39 348.5 230 0 0 0 -0.08524 0.61175 -0.78645 0.0081736
-0.0070579 0.091903 1.0466 8.021e-39 397 230 0 0 0 -0.074981 0.61885 -0.78192 0.0083384
-0.0052212 0.091903 1.0466 8.021e-39 398.5 230 0 0 0 -0.061833 0.62191 -0.78065 0.0091552
-0.0027723 0.091903 1.0466 7.56e-39 400.5 230 0 0 0 -0.041203 0.62632 -0.77848 0.010522
0.0039622 0.091903 1.0466 7.6522e-39 406 230 0 0 0 0.056069 0.6129 -0.78817 0.013355
0.0076356 0.091903 1.0466 7.6522e-39 409 230 0 0 0 0.11171 0.60431 -0.78888 0.010943
0.0088676 0.091981 1.0475 8.2976e-39 410 230 0 0 0 0.12793 0.60031 -0.78947 0.010444
0.010702 0.09133 1.047 7.1452e-39 363 230 0 0 0 0.14382 0.60941 -0.7797 0.0087901
-0.016868 0.093207 1.0475 7.2835e-39 513 230 0 0 0 -0.1319 0.56232 -0.81633 0.0072118
-0.015023 0.093167 1.047 7.2835e-39 514.5 230 0 0 0 -0.12188 0.57465 -0.80927 0.0078216
-0.011956 0.093128 1.0466 6.3615e-39 517 230 0 0 0 -0.1027 0.59436 -0.79761 0.0077604
-0.0089021 0.093207 1.0475 4.5176e-39 519.5 230 0 0 0 -0.079865 0.6025 -0.79411 0.0078687
-0.0070639 0.093207 1.0475 4.1488e-39 521 230 0 0 0 -0.070371 0.60821 -0.79065 0.0080356
-0.0058384 0.093207 1.0475 4.1488e-39 522 230 0 0 0 -0.059076 0.61009 -0.79013 0.0084791
-0.0033874 0.093207 1.0475 4.0566e-39 524 230 0 0 0 -0.039061 0.61628 -0.78656 0.0099382
-0.0009364 0.093207 1.0475 1.3553e-38 197 231 0 0 0 -0.0068997 0.61635 -0.78744 0.011242
0.0009012 0.093167 1.047 9.3577e-39 198.5 231 0 0 0 0.015635 0.61584 -0.78771 0.011715
0.0027378 0.093128 1.0466 5.9005e-39 200 231 0 0 0 0.038723 0.61145 -0.79034 0.012711
0.0051911 0.093207 1.0475 6.5459e-39 202 231 0 0 0 0.077578 0.60013 -0.79614 0.012974
0.0070293 0.093207 1.0475 7.8827e-39 203.5 231 0 0 0 0.10548 0.59433 -0.79728 0.011696
-0.011966 0.094432 1.0475 7.0069e-39 266 231 0 0 0 -0.094337 0.58989 -0.80196 0.0069654
-0.041448 0.083545 1.0493 7.6522e-39 384 228 0 0 0 -0.37591 0.44755 -0.81142 0.015867
-0.036507 0.0847 1.0484 7.0069e-39 469 228 0 0 0 -0.32798 0.42565 -0.84336 0.0080099
-0.03528 0.085927 1.0484 7.6522e-39 244 229 0 0 0 -0.31558 0.42031 -0.85073 0.0073701
-0.034054 0.087153 1.0484 5.8083e-39 313 229 0 0 0 -0.29666 0.42552 -0.85494 0.0062449
-0.032827 0.087153 1.0484 5.9927e-39 314 229 0 0 0 -0.28335 0.42081 -0.86176 0.0061468
-0.031013 0.087227 1.0493 6.2693e-39 315.5 229 0 0 0 -0.26088 0.433 -0.86282 0.005739
-0.029148 0.087153 1.0484 6.0849e-39 317 229 0 0 0 -0.23825 0.44638 -0.86255 0.0057893
-0.027921 0.087153 1.0484 6.0849e-39 318 229 0 0 0 -0.22823 0.45049 -0.86312 0.0060933
0.030953 0.087153 1.0484 7.3757e-39 352 229 0 0 0 0.29076 0.53929 -0.79033 0.021453
0.032207 0.086 1.0493 6.7303e-39 263 229 0 0 0 0.29677 0.54558 -0.78375 0.022572
-0.029172 0.088455 1.0493 6.9147e-39 407 229 0 0 0 -0.23489 0.44941 -0.86189 0.0060516
-0.027119 0.088839 1.049 7.2835e-39 341 229.33 0 0 0 -0.21276 0.46195 -0.86101 0.006788
-0.025479 0.089032 1.0489 7.8827e-39 308.5 229.5 0 0 0 -0.19917 0.47379 -0.85782 0.0075191
-0.021788 0.089606 1.0484 1.1248e-38 210 230 0 0 0 -0.17555 0.50163 -0.84708 0.008348
-0.019335 0.089606 1.0484 1.0695e-38 212 230 0 0 0 -0.15145 0.54158 -0.82689 0.0076674
0.017476 0.089683 1.0493 6.3615e-39 227 230 0 0 0 0.19568 0.56783 -0.79955 0.0084797
0.022386 0.088455 1.0493 7.9288e-39 450 229 0 0 0 0.22477 0.55028 -0.80416 0.009033
0.024841 0.088455 1.0493 7.0069e-39 452 229 0 0 0 0.23828 0.54284 -0.80533 0.00983
0.026682 0.089069 1.0493 7.0991e-39 344 229.5 0 0 0 0.24644 0.53462 -0.80836 0.01118
0.029125 0.089032 1.0489 6.9608e-39 346 229.5 0 0 0 0.26824 0.52598 -0.80709 0.01617
-0.024241 0.090833 1.0484 7.0991e-39 289 230 0 0 0 -0.18348 0.48591 -0.85453 0.0074898
-0.023015 0.090833 1.0484 6.6381e-39 290 230 0 0 0 -0.17871 0.49362 -0.85112 0.0079715
-0.021185 0.090871 1.0489 6.1771e-39 291.5 230 0 0 0 -0.1588 0.51157 -0.84444 0.0078888
-0.018722 0.090833 1.0484 6.2693e-39 293.5 230 0 0 0 -0.14543 0.54697 -0.82442 0.0071472
0.013168 0.090833 1.0484 6.3615e-39 315.5 230 0 0 0 0.15978 0.58948 -0.79182 0.00864
0.016248 0.09091 1.0493 5.9005e-39 317 230 0 0 0 0.17711 0.56479 -0.806 0.0086585
0.018703 0.09091 1.0493 6.1771e-39 319 230 0 0 0 0.19651 0.54496 -0.81511 0.0083671
-0.024252 0.092712 1.0489 7.4218e-39 424 230 0 0 0 -0.1778 0.49051 -0.8531 0.0074704
-0.023034 0.092752 1.0493 7.3757e-39 425 230 0 0 0 -0.17391 0.49398 -0.85191 0.0077921
-0.020983 0.092521 1.049 7.7137e-39 412.67 230 0 0 0 -0.15164 0.51411 -0.84422 0.0074824
-0.018726 0.092692 1.0486 7.7214e-39 440.5 230 0 0 0 -0.13725 0.5415 -0.82942 0.0067674
-0.013203 0.093286 1.0484 6.9147e-39 516 230 0 0 0 -0.10991 0.58368 -0.80451 0.0075364
-0.010749 0.093286 1.0484 5.5317e-39 518 230 0 0 0 -0.091928 0.59471 -0.79867 0.0074593
-0.0046168 0.093286 1.0484 4.0566e-39 523 230 0 0 0 -0.049534 0.61174 -0.78951 0.0089194
-0.0021637 0.093286 1.0484 4.1488e-39 525 230 0 0 0 -0.025705 0.61196 -0.79047 0.010599
0.0039689 0.093286 1.0484 5.4395e-39 201 231 0 0 0 0.060495 0.60109 -0.79689 0.012766
0.0088751 0.093286 1.0484 7.4678e-39 205 231 0 0 0 0.13183 0.59451 -0.79321 0.010585
0.010513 0.092903 1.0487 8.0517e-39 274.67 230.67 0 0 0 0.13931 0.58934 -0.79579 0.0094843
0.013179 0.092138 1.0493 8.6203e-39 413.5 230 0 0 0 0.15574 0.57737 -0.80149 0.0089427
-0.018124 0.094593 1.0493 7.2835e-39 261 231 0 0 0 -0.12204 0.54013 -0.83269 0.0062498
-0.016882 0.094513 1.0484 7.1913e-39 262 231 0 0 0 -0.12528 0.55373 -0.82322 0.0067105
-0.015255 0.094975 1.049 6.9454e-39 297 231 0 0 0 -0.11685 0.56658 -0.81568 0.0071805
-0.013214 0.094593 1.0493 7.1913e-39 265 231 0 0 0 -0.10398 0.5783 -0.80917 0.0070259
-0.011373 0.095206 1.0493 7.1913e-39 317 231 0 0 0 -0.090959 0.58784 -0.80385 0.0065624
-0.0089172 0.094593 1.0493 7.0991e-39 268.5 231 0 0 0 -0.075906 0.60142 -0.79532 0.0073085
-0.0070699 0.094513 1.0484 6.7303e-39 271 231 0 0 0 -0.06846 0.60782 -0.79112 0.0076866
-0.005232 0.094553 1.0489 6.8225e-39 288.5 231 0 0 0 -0.051235 0.61006 -0.7907 0.008365
-0.0027794 0.094593 1.0493 6.2232e-39 290.5 231 0 0 0 -0.028578 0.61089 -0.7912 0.009673
-0.00093719 0.094513 1.0484 6.2693e-39 292 231 0 0 0 -0.0049226 0.61247 -0.79048 0.010877
0.00090274 0.094553 1.0489 6.4537e-39 293.5 231 0 0 0 0.018716 0.60732 -0.79424 0.011099
0.0027424 0.094513 1.0484 6.3615e-39 295 231 0 0 0 0.039988 0.60524 -0.79503 0.011962
0.0051955 0.094513 1.0484 6.0849e-39 297 231 0 0 0 0.073199 0.60396 -0.79365 0.012385
0.0070413 0.094593 1.0493 6.5459e-39 298.5 231 0 0 0 0.10546 0.59488 -0.79687 0.011409
-0.046477 0.081297 1.0519 9.1274e-39 212 228 0 0 0 -0.40898 0.49531 -0.76642 0.028382
-0.045169 0.081158 1.0501 9.2196e-39 213 228 0 0 0 -0.39274 0.4791 -0.785 0.021007
-0.043941 0.081158 1.0501 9.8649e-39 214 228 0 0 0 -0.39403 0.46562 -0.79242 0.019984
-0.045227 0.083108 1.0515 7.0991e-39 319 228 0 0 0 -0.40124 0.47393 -0.78383 0.019152
-0.043354 0.083055 1.0508 7.1452e-39 345.75 228 0 0 0 -0.38909 0.46207 -0.79693 0.017102
-0.040306 0.083108 1.0515 6.8685e-39 348.5 228 0 0 0 -0.37826 0.4482 -0.80996 0.015239
-0.039076 0.083108 1.0515 6.7302e-39 359 228 0 0 0 -0.36253 0.43855 -0.82234 0.014435
-0.037797 0.083616 1.0501 7.2835e-39 406 228 0 0 0 -0.34555 0.42759 -0.83532 0.01196
0.035981 0.083758 1.0519 7.7444e-39 411 228 0 0 0 0.35958 0.52502 -0.7714 0.035537
0.03718 0.083687 1.051 7.4678e-39 412 228 0 0 0 0.37317 0.53693 -0.7566 0.038339
-0.044631 0.084989 1.0519 6.6381e-39 462.5 228 0 0 0 -0.40628 0.4765 -0.77967 0.017809
-0.042748 0.084916 1.051 7.1913e-39 464 228 0 0 0 -0.38821 0.45718 -0.80017 0.015475
-0.041483 0.084844 1.0501 7.0069e-39 465 228 0 0 0 -0.38096 0.45091 -0.80718 0.014512
-0.03783 0.084916 1.051 7.0991e-39 468 228 0 0 0 -0.3477 0.43074 -0.8328 0.011013
0.035365 0.084989 1.0519 1.0602e-38 213.5 229 0 0 0 0.35447 0.52459 -0.77406 0.034057
0.03718 0.084916 1.051 1.1156e-38 215 229 0 0 0 0.37395 0.52096 -0.76731 0.03617
0.038442 0.084989 1.0519 1.1709e-38 216 229 0 0 0 0.38876 0.515 -0.76396 0.038107
-0.042785 0.08622 1.0519 6.7303e-39 237 229 0 0 0 -0.39682 0.46238 -0.79293 0.015265
-0.041519 0.086146 1.051 6.3615e-39 238 229 0 0 0 -0.38498 0.45385 -0.80362 0.013834
-0.037021 0.086581 1.0513 6.9147e-39 265.33 229 0 0 0 -0.34401 0.42776 -0.83587 0.0080919
-0.03534 0.087302 1.0501 6.0849e-39 312 229 0 0 0 -0.32241 0.42772 -0.84446 0.0068485
0.033063 0.086917 1.0504 6.761e-39 323.67 229 0 0 0 0.31413 0.52895 -0.78838 0.0261
0.035571 0.08663 1.0519 6.7918e-39 295.67 229 0 0 0 0.34299 0.51512 -0.7855 0.030786
0.037212 0.086835 1.0519 6.6842e-39 312.5 229 0 0 0 0.36506 0.50935 -0.77929 0.032721
-0.03456 0.089041 1.0513 8.728e-39 335 229.33 0 0 0 -0.3145 0.4339 -0.84429 0.0061887
-0.032911 0.088605 1.051 8.1132e-39 404 229 0 0 0 -0.29048 0.43264 -0.85349 0.0059727
-0.03087 0.089041 1.0513 7.5907e-39 338 229.33 0 0 0 -0.25904 0.44528 -0.8571 0.0061626
-0.029222 0.089835 1.051 7.4678e-39 204 230 0 0 0 -0.23286 0.45879 -0.85749 0.0062682
-0.027968 0.089759 1.0501 6.9147e-39 205 230 0 0 0 -0.21748 0.46361 -0.85893 0.0067305
0.019948 0.089759 1.0501 6.0849e-39 229 230 0 0 0 0.20865 0.54367 -0.81295 0.0085902
0.021194 0.089835 1.051 6.0849e-39 230 230 0 0 0 0.2145 0.53231 -0.81892 0.008628
0.023257 0.089476 1.0516 6.6688e-39 304.67 229.67 0 0 0 0.2279 0.5255 -0.8197 0.009238
0.024862 0.089759 1.0501 6.9147e-39 233 230 0 0 0 0.2397 0.52518 -0.81654 0.0099107
0.027343 0.089835 1.051 7.0991e-39 235 230 0 0 0 0.26395 0.51083 -0.81816 0.013903
0.029802 0.089835 1.051 6.5459e-39 237 230 0 0 0 0.28247 0.512 -0.81121 0.017293
0.031045 0.089258 1.0515 6.5459e-39 347.5 229.5 0 0 0 0.29753 0.5133 -0.80499 0.021783
0.032289 0.088681 1.0519 6.1771e-39 458 229 0 0 0 0.30505 0.51258 -0.80262 0.022742
-0.029247 0.091142 1.0519 6.8225e-39 271 230 0 0 0 -0.23106 0.4683 -0.85282 0.0066106
-0.027366 0.091026 1.0505 6.3154e-39 286.5 230 0 0 0 -0.2068 0.47244 -0.85676 0.0071634
-0.025511 0.090987 1.0501 6.8225e-39 288 230 0 0 0 -0.19042 0.48071 -0.85596 0.0071453
0.017491 0.090987 1.0501 5.9927e-39 318 230 0 0 0 0.18892 0.5493 -0.81399 0.0084726
0.019982 0.091142 1.0519 6.0849e-39 320 230 0 0 0 0.20275 0.53863 -0.81779 0.0081253
0.022443 0.091142 1.0519 6.3615e-39 330 230 0 0 0 0.22141 0.52726 -0.82035 0.008339
0.024905 0.091142 1.0519 6.5459e-39 336 230 0 0 0 0.24193 0.51887 -0.81991 0.0096622
0.026113 0.091065 1.051 6.4537e-39 337 230 0 0 0 0.24541 0.51575 -0.82084 0.010024
0.028597 0.091142 1.0519 5.9927e-39 339 230 0 0 0 0.28176 0.50859 -0.8136 0.016167
-0.028632 0.092988 1.0519 7.1913e-39 418.25 230 0 0 0 -0.21756 0.48104 -0.84927 0.0069724
-0.026763 0.092909 1.051 7.1913e-39 420.5 230 0 0 0 -0.19837 0.48328 -0.85269 0.0072768
-0.025511 0.092831 1.0501 7.053e-39 421.5 230 0 0 0 -0.18688 0.4864 -0.85351 0.0073509
-0.021825 0.093445 1.0501 7.0991e-39 468 230 0 0 0 -0.15464 0.50711 -0.84789 0.0074961
0.013196 0.093485 1.0505 9.404e-39 208.5 231 0 0 0 0.14911 0.572 -0.80659 0.0089175
0.015046 0.09291 1.051 9.5422e-39 312.5 230.5 0 0 0 0.1624 0.56363 -0.80991 0.0085596
0.016894 0.092929 1.0512 9.3579e-39 314 230.5 0 0 0 0.17364 0.55189 -0.81564 0.0084543
0.018743 0.092949 1.0515 9.3116e-39 315.5 230.5 0 0 0 0.19079 0.54316 -0.81767 0.0080904
-0.029247 0.094835 1.0519 6.9147e-39 252 231 0 0 0 -0.22266 0.48491 -0.84575 0.0071347
-0.026785 0.094835 1.0519 7.3757e-39 254 231 0 0 0 -0.19367 0.4896 -0.85017 0.0074294
-0.024706 0.095137 1.0507 6.8225e-39 289.33 231 0 0 0 -0.17625 0.49223 -0.85243 0.0075869
-0.023064 0.095328 1.0505 6.4537e-39 307.5 231 0 0 0 -0.16293 0.50157 -0.84964 0.0074931
-0.021018 0.095137 1.0507 6.7918e-39 292.33 231 0 0 0 -0.13969 0.51587 -0.8452 0.0066806
-0.018964 0.095519 1.0504 7.4064e-39 327.67 231 0 0 0 -0.12436 0.52877 -0.83961 0.0061016
-0.016911 0.095902 1.0501 7.1913e-39 363 231 0 0 0 -0.11428 0.54113 -0.83314 0.00606
-0.014466 0.095983 1.051 7.0069e-39 365 231 0 0 0 -0.10323 0.55989 -0.82211 0.0065455
-0.013236 0.095983 1.051 7.2835e-39 366 231 0 0 0 -0.098735 0.57337 -0.81332 0.0064807
-0.010777 0.095983 1.051 7.56e-39 368 231 0 0 0 -0.083441 0.58918 -0.80368 0.0063928
-0.0089324 0.095983 1.051 7.8827e-39 369.5 231 0 0 0 -0.068065 0.59623 -0.79992 0.0062805
-0.0070879 0.095983 1.051 7.9288e-39 371 231 0 0 0 -0.064254 0.60252 -0.79552 0.0067367
-0.0052409 0.095942 1.0505 7.8827e-39 374 231 0 0 0 -0.046644 0.60978 -0.7912 0.0080021
-0.0027841 0.095983 1.051 7.6522e-39 377.5 231 0 0 0 -0.025018 0.61055 -0.79158 0.009379
-0.00093879 0.095902 1.0501 7.3757e-39 379 231 0 0 0 -0.0015843 0.60995 -0.79244 0.01016
0.00090429 0.095942 1.0505 7.6522e-39 381.5 231 0 0 0 0.018566 0.60865 -0.79322 0.01033
0.0035673 0.095519 1.0504 7.4678e-39 354.33 231 0 0 0 0.052237 0.60735 -0.79271 0.011542
0.0052043 0.095902 1.0501 7.8366e-39 385 231 0 0 0 0.07317 0.60257 -0.79471 0.011702
0.0070505 0.095942 1.0505 8.1132e-39 386.5 231 0 0 0 0.1029 0.59295 -0.79864 0.011085
0.008894 0.095328 1.0505 7.4679e-39 344 231 0 0 0 0.11963 0.58682 -0.80083 0.010641
0.010737 0.095328 1.0505 7.2835e-39 345.5 231 0 0 0 0.13014 0.5755 -0.80738 0.0094225
0.013207 0.094794 1.0515 6.4537e-39 303.5 231 0 0 0 0.14443 0.56799 -0.81026 0.008554
0.01629 0.094835 1.0519 5.9005e-39 306 231 0 0 0 0.16589 0.55127 -0.81767 0.0084084
-0.024939 0.09668 1.0519 7.3757e-39 397.5 231 0 0 0 -0.17637 0.49609 -0.85017 0.0075123
-0.023093 0.097296 1.0519 8.482e-39 440 231 0 0 0 -0.1549 0.5091 -0.84665 0.0070008
-0.021248 0.09668 1.0519 7.1913e-39 400.5 231 0 0 0 -0.13652 0.51784 -0.84451 0.0064567
-0.018785 0.097296 1.0519 6.5459e-39 443.5 231 0 0 0 -0.11631 0.53002 -0.83997 0.0058618
-0.01694 0.097296 1.0519 6.3615e-39 445 231 0 0 0 -0.10944 0.53446 -0.83808 0.0058581
-0.015709 0.097296 1.0519 6.6381e-39 446 231 0 0 0 -0.10409 0.54476 -0.83211 0.0060673
-0.012017 0.097296 1.0519 7.7444e-39 449 231 0 0 0 -0.080503 0.5767 -0.81298 0.0056705
-0.0034018 0.097296 1.0519 6.8225e-39 456 231 0 0 0 -0.030161 0.60863 -0.79288 0.0084272
-0.00094039 0.097296 1.0519 6.1771e-39 458 231 0 0 0 -0.00031699 0.6093 -0.79294 0.0094109
0.00090567 0.097296 1.0519 6.4537e-39 459.5 231 0 0 0 0.020341 0.61087 -0.79147 0.0095143
0.0033672 0.097296 1.0519 6.5459e-39 461.5 231 0 0 0 0.049036 0.60827 -0.79221 0.010628
0.0052132 0.097296 1.0519 6.9147e-39 463 231 0 0 0 0.07046 0.59798 -0.79841 0.011061
0.0070565 0.097254 1.0515 7.053e-39 464.5 231 0 0 0 0.10207 0.58813 -0.8023 0.011061
0.0089053 0.097296 1.0519 6.7303e-39 466 231 0 0 0 0.11692 0.57454 -0.81008 0.010371
0.010751 0.097296 1.0519 6.8225e-39 467.5 231 0 0 0 0.12952 0.56206 -0.81689 0.0094429
0.001521 0.098527 1.0519 7.0991e-39 242 232 0 0 0 0.02792 0.6129 -0.78967 0.0094278
0.0052132 0.098527 1.0519 7.3757e-39 245 232 0 0 0 0.067134 0.59611 -0.80009 0.01068
-0.056371 0.077055 1.0528 1.0418e-38 216.5 224.5 0 0 0 -0.4459 0.54187 -0.71243 0.065298
-0.056371 0.078902 1.0528 5.9005e-39 213 226 0 0 0 -0.45129 0.55443 -0.69925 0.058375
-0.056419 0.080203 1.0537 6.9147e-39 211 227 0 0 0 -0.45789 0.56093 -0.68971 0.054659
-0.053953 0.081435 1.0537 6.3615e-39 206 228 0 0 0 -0.45389 0.54345 -0.70615 0.043512
-0.047789 0.081435 1.0537 9.2196e-39 211 228 0 0 0 -0.4307 0.51827 -0.73884 0.031567
-0.046536 0.08325 1.0533 7.3296e-39 310 228 0 0 0 -0.42109 0.49897 -0.75744 0.026481
-0.046556 0.085134 1.0537 6.1771e-39 461 228 0 0 0 -0.42297 0.4953 -0.7588 0.024073
-0.040358 0.085061 1.0528 6.8225e-39 466 228 0 0 0 -0.38317 0.45217 -0.80543 0.013572
-0.039126 0.085061 1.0528 6.6381e-39 467 228 0 0 0 -0.36994 0.44253 -0.81689 0.013454
-0.044688 0.08633 1.0533 6.9608e-39 235.5 229 0 0 0 -0.41591 0.47199 -0.77733 0.020686
-0.042858 0.087599 1.0537 5.9927e-39 306 229 0 0 0 -0.40626 0.47669 -0.77956 0.014847
-0.040991 0.086946 1.0533 6.2232e-39 273 229 0 0 0 -0.39298 0.45943 -0.79655 0.013793
-0.039143 0.086946 1.0533 6.4998e-39 274.5 229 0 0 0 -0.3779 0.44788 -0.81031 0.013124
-0.037894 0.087525 1.0528 6.7303e-39 310 229 0 0 0 -0.35363 0.43764 -0.82669 0.01003
0.03478 0.087525 1.0528 6.4537e-39 355 229 0 0 0 0.33666 0.50774 -0.79301 0.028744
0.038508 0.086983 1.0537 6.8225e-39 313.5 229 0 0 0 0.44334 0.47943 -0.75736 0.048639
-0.041625 0.088832 1.0537 8.3898e-39 387 229 0 0 0 -0.40403 0.4733 -0.78278 0.014035
-0.037294 0.088794 1.0533 7.56e-39 400.5 229 0 0 0 -0.35632 0.43728 -0.82573 0.0097354
-0.035431 0.089988 1.0528 1.2631e-38 199 230 0 0 0 -0.3243 0.44214 -0.83627 0.0068772
-0.032967 0.089988 1.0528 7.9288e-39 201 230 0 0 0 -0.28833 0.4489 -0.84579 0.0063295
-0.031735 0.089988 1.0528 7.0069e-39 202 230 0 0 0 -0.27058 0.45113 -0.85045 0.0064922
0.032932 0.089373 1.0528 6.2232e-39 349 229.5 0 0 0 0.32352 0.50735 -0.79871 0.025884
0.03481 0.088832 1.0537 6.1771e-39 460 229 0 0 0 0.33387 0.50728 -0.79448 0.027423
0.036628 0.088757 1.0528 6.2232e-39 461.5 229 0 0 0 0.35251 0.50059 -0.79066 0.028921
-0.034845 0.091298 1.0537 7.1913e-39 266.5 230 0 0 0 -0.32095 0.45129 -0.83266 0.0067118
-0.032995 0.091298 1.0537 6.9147e-39 268 230 0 0 0 -0.28923 0.4634 -0.83762 0.0068795
-0.031133 0.091259 1.0533 7.053e-39 269.5 230 0 0 0 -0.2596 0.46373 -0.84709 0.0068412
0.021231 0.09122 1.0528 5.9927e-39 321 230 0 0 0 0.21414 0.52931 -0.82096 0.0080531
0.023694 0.09122 1.0528 6.8225e-39 335 230 0 0 0 0.22955 0.52152 -0.82178 0.0086493
0.027389 0.09122 1.0528 6.4537e-39 338 230 0 0 0 0.27003 0.51078 -0.81621 0.013585
0.029853 0.09122 1.0528 5.6239e-39 340 230 0 0 0 0.28464 0.51016 -0.81161 0.016447
0.031111 0.091298 1.0537 5.7161e-39 341 230 0 0 0 0.29855 0.50608 -0.80917 0.020266
0.033577 0.090065 1.0537 6.4537e-39 240 230 0 0 0 0.32407 0.50551 -0.79965 0.025541
0.036659 0.090065 1.0537 7.5601e-39 242.5 230 0 0 0 0.36019 0.50391 -0.78507 0.030971
-0.034228 0.092531 1.0537 7.1913e-39 368 230 0 0 0 -0.30907 0.46572 -0.8292 0.0070402
-0.031133 0.093108 1.0533 7.1913e-39 415.5 230 0 0 0 -0.2514 0.47689 -0.84225 0.0071587
0.019999 0.093068 1.0528 9.6806e-39 316.5 230.5 0 0 0 0.19723 0.53365 -0.82239 0.0072546
0.021249 0.093148 1.0537 9.6346e-39 317.5 230.5 0 0 0 0.2096 0.53238 -0.82015 0.007547
0.023093 0.093128 1.0535 9.473e-39 319 230.5 0 0 0 0.22431 0.5235 -0.82197 0.008172
0.024947 0.092531 1.0537 9.404e-39 423 230 0 0 0 0.23994 0.51894 -0.82045 0.0092916
0.026169 0.093108 1.0533 9.45e-39 321.5 230.5 0 0 0 0.24758 0.51911 -0.81806 0.0092237
0.028646 0.092531 1.0537 8.8508e-39 426 230 0 0 0 0.28169 0.5092 -0.81325 0.015386
-0.03053 0.094996 1.0537 6.6381e-39 251 231 0 0 0 -0.2403 0.48958 -0.83819 0.0074394
-0.02804 0.094915 1.0528 7.1913e-39 253 231 0 0 0 -0.2097 0.48737 -0.84764 0.0073729
0.015072 0.094915 1.0528 5.9927e-39 305 231 0 0 0 0.15747 0.55764 -0.81501 0.008146
0.017535 0.094915 1.0528 6.2693e-39 307 231 0 0 0 0.17722 0.54967 -0.81636 0.0080525
0.018767 0.094915 1.0528 6.9147e-39 308 231 0 0 0 0.18373 0.54077 -0.82086 0.0072345
0.020016 0.094996 1.0537 7.0069e-39 309 231 0 0 0 0.19376 0.53794 -0.82041 0.0072292
0.023098 0.094996 1.0537 6.3615e-39 311.5 231 0 0 0 0.21609 0.52652 -0.82225 0.0074464
-0.03053 0.096229 1.0537 6.7303e-39 352 231 0 0 0 -0.23699 0.49485 -0.83604 0.0080279
-0.028668 0.096804 1.0533 7.8827e-39 392.5 231 0 0 0 -0.21442 0.49348 -0.84292 0.0077161
-0.026819 0.096804 1.0533 7.514e-39 394 231 0 0 0 -0.19525 0.4944 -0.84702 0.0077883
-0.025576 0.097379 1.0528 8.482e-39 434 231 0 0 0 -0.1814 0.49569 -0.84935 0.007579
-0.021881 0.097379 1.0528 8.3898e-39 441 231 0 0 0 -0.14059 0.51578 -0.84511 0.0066665
-0.014491 0.097379 1.0528 7.0069e-39 447 231 0 0 0 -0.093272 0.54918 -0.83049 0.005848
-0.013259 0.097379 1.0528 7.56e-39 448 231 0 0 0 -0.088561 0.55805 -0.82507 0.0057319
-0.010795 0.097379 1.0528 7.9288e-39 450 231 0 0 0 -0.072655 0.58126 -0.81047 0.0056349
-0.0089476 0.097379 1.0528 7.2835e-39 451.5 231 0 0 0 -0.063626 0.5904 -0.8046 0.0057529
-0.0071 0.097379 1.0528 7.0069e-39 453 231 0 0 0 -0.05485 0.59668 -0.8006 0.0057738
-0.0052524 0.097379 1.0528 6.9608e-39 454.5 231 0 0 0 -0.046207 0.60644 -0.79379 0.0073293
-0.002173 0.097379 1.0528 6.3615e-39 457 231 0 0 0 -0.012546 0.60973 -0.79251 0.0089741
0.013227 0.096784 1.053 7.2374e-39 436.5 231 0 0 0 0.14402 0.55404 -0.81994 0.0083738
0.015085 0.096846 1.0537 7.4218e-39 444 231 0 0 0 0.15598 0.55299 -0.81846 0.0079801
0.016934 0.096229 1.0537 6.8225e-39 394.5 231 0 0 0 0.16843 0.54572 -0.82087 0.0075665
0.018783 0.096846 1.0537 7.1913e-39 455.5 231 0 0 0 0.18103 0.54336 -0.81975 0.0071118
-0.029297 0.099312 1.0537 6.9147e-39 265.5 232 0 0 0 -0.22188 0.4985 -0.83801 0.0083168
-0.026831 0.098695 1.0537 7.56e-39 219 232 0 0 0 -0.19618 0.50009 -0.84346 0.0080331
-0.024977 0.09929 1.0535 6.6151e-39 269 232 0 0 0 -0.16946 0.50893 -0.84397 0.0075906
-0.023123 0.099269 1.0533 6.2693e-39 270.5 232 0 0 0 -0.1496 0.51576 -0.84357 0.0068148
-0.021283 0.098695 1.0537 6.4076e-39 223.5 232 0 0 0 -0.13204 0.5213 -0.8431 0.0062254
-0.018817 0.098695 1.0537 6.4998e-39 225.5 232 0 0 0 -0.11258 0.52973 -0.84066 0.0057392
-0.016969 0.098695 1.0537 6.9147e-39 227 232 0 0 0 -0.10402 0.53507 -0.83838 0.0056326
-0.015736 0.098695 1.0537 6.7303e-39 228 232 0 0 0 -0.095799 0.5425 -0.83457 0.0056555
-0.012037 0.098695 1.0537 6.6381e-39 231 232 0 0 0 -0.071886 0.56662 -0.82084 0.0049413
-0.0083389 0.098695 1.0537 7.2835e-39 234 232 0 0 0 -0.055747 0.58846 -0.8066 0.0053118
-0.0071061 0.098695 1.0537 7.0069e-39 235 232 0 0 0 -0.05125 0.59344 -0.80324 0.0054311
-0.0052569 0.098695 1.0537 6.4537e-39 236.5 232 0 0 0 -0.041553 0.59896 -0.7997 0.0062344
-0.0029967 0.099106 1.0537 6.1464e-39 272.67 232 0 0 0 -0.024579 0.60553 -0.79544 0.0077578
-0.00094119 0.098611 1.0528 6.5459e-39 240 232 0 0 0 -0.00048009 0.60914 -0.79307 0.008455
0.00070166 0.099489 1.0534 7.1605e-39 310 232 0 0 0 0.017034 0.61136 -0.79117 0.0086283
0.0033715 0.099269 1.0533 7.3526e-39 295 232 0 0 0 0.046989 0.60475 -0.79503 0.010213
0.0052176 0.099842 1.0528 6.6381e-39 348 232 0 0 0 0.066023 0.59068 -0.8042 0.010326
0.006864 0.099078 1.0534 7.1605e-39 280.67 232 0 0 0 0.0928 0.57803 -0.81072 0.010603
0.0089167 0.099269 1.0533 7.0068e-39 299.5 232 0 0 0 0.11001 0.56825 -0.81547 0.010245
0.010765 0.099269 1.0533 6.7534e-39 301 232 0 0 0 0.12726 0.5519 -0.82414 0.0088105
0.012619 0.098695 1.0537 6.6381e-39 251 232 0 0 0 0.138 0.54906 -0.82431 0.0086949
0.0052221 0.10116 1.0537 9.3118e-39 421 232 0 0 0 0.061087 0.58626 -0.80782 0.010152
-0.055233 0.079037 1.0546 6.5459e-39 214 226 0 0 0 -0.45473 0.56158 -0.69126 0.053188
-0.049106 0.079105 1.0555 1.4475e-38 218 226 0 0 0 -0.44553 0.54035 -0.71381 0.037962
-0.056467 0.081505 1.0546 9.8649e-39 204 228 0 0 0 -0.46542 0.56087 -0.6847 0.050966
-0.054045 0.08034 1.0555 7.6522e-39 213 227 0 0 0 -0.46292 0.56421 -0.68365 0.046822
-0.05281 0.081575 1.0555 5.163e-39 207 228 0 0 0 -0.46339 0.55027 -0.69461 0.041348
-0.049106 0.080958 1.0555 1.0971e-38 213.5 227.5 0 0 0 -0.44282 0.52991 -0.72326 0.034194
-0.053404 0.082775 1.0551 6.7303e-39 254.5 228 0 0 0 -0.46536 0.54228 -0.69955 0.040442
-0.049106 0.08281 1.0555 7.2835e-39 258 228 0 0 0 -0.44687 0.53007 -0.72065 0.032031
-0.04783 0.083356 1.0546 6.9147e-39 308.5 228 0 0 0 -0.43946 0.51394 -0.73671 0.028986
-0.054045 0.084044 1.0555 6.5459e-39 348 228 0 0 0 -0.47003 0.55223 -0.68856 0.040097
-0.049106 0.084044 1.0555 6.5459e-39 357 228 0 0 0 -0.45312 0.53044 -0.71646 0.030678
-0.04783 0.085207 1.0546 6.5459e-39 460 228 0 0 0 -0.44221 0.51682 -0.73304 0.027742
-0.046596 0.08644 1.0546 6.9147e-39 234 229 0 0 0 -0.43901 0.50733 -0.74154 0.024141
-0.044765 0.087711 1.0551 5.9927e-39 304.5 229 0 0 0 -0.44101 0.49343 -0.74969 0.022474
-0.040427 0.087674 1.0546 6.2693e-39 308 229 0 0 0 -0.40005 0.46923 -0.78727 0.014054
0.039792 0.087094 1.0551 6.8225e-39 314.5 229 0 0 0 0.51922 0.45241 -0.72508 0.056869
0.041009 0.087674 1.0546 7.4678e-39 360 229 0 0 0 0.54638 0.43436 -0.7161 0.055718
0.042897 0.087749 1.0555 7.7444e-39 361.5 229 0 0 0 0.64323 0.38541 -0.6616 0.055617
-0.044166 0.088984 1.0555 7.8366e-39 385 229 0 0 0 -0.43494 0.494 -0.75285 0.021209
-0.042894 0.088908 1.0546 8.2054e-39 386 229 0 0 0 -0.40952 0.48041 -0.77556 0.014878
-0.040461 0.088984 1.0555 7.4678e-39 389 229 0 0 0 -0.40115 0.46891 -0.78689 0.013817
-0.039193 0.088908 1.0546 7.9288e-39 397 229 0 0 0 -0.38718 0.46246 -0.79763 0.013228
0.039158 0.088908 1.0546 7.0991e-39 463.5 229 0 0 0 0.45665 0.47652 -0.75127 0.049618
0.041009 0.088908 1.0546 6.9147e-39 465 229 0 0 0 0.52941 0.45005 -0.71915 0.055199
0.042878 0.088946 1.0551 6.7303e-39 466.5 229 0 0 0 0.59699 0.41493 -0.68661 0.058412
-0.042931 0.090219 1.0555 4.5176e-39 519 229 0 0 0 -0.42498 0.49607 -0.75717 0.01694
-0.041272 0.090605 1.0552 5.2859e-39 434 229.33 0 0 0 -0.40858 0.47425 -0.77984 0.013827
-0.039226 0.090836 1.0555 5.4395e-39 392.5 229.5 0 0 0 -0.39529 0.46553 -0.79185 0.013003
-0.03735 0.090778 1.0548 5.4857e-39 394 229.5 0 0 0 -0.35816 0.4568 -0.81428 0.0090362
0.032988 0.091376 1.0546 6.2693e-39 342.5 230 0 0 0 0.32202 0.50491 -0.80085 0.024745
0.034854 0.090798 1.0551 7.0069e-39 292.5 230 0 0 0 0.34587 0.50456 -0.79107 0.028658
0.03669 0.091376 1.0546 6.9608e-39 345.5 230 0 0 0 0.3635 0.50167 -0.78498 0.030314
0.038574 0.090219 1.0555 7.7444e-39 244 230 0 0 0 0.46256 0.48052 -0.74508 0.051242
0.041044 0.090219 1.0555 7.6522e-39 246 230 0 0 0 0.54348 0.45199 -0.70735 0.055612
0.043514 0.090219 1.0555 7.1913e-39 248 230 0 0 0 0.62109 0.40974 -0.6681 0.056601
-0.037168 0.093101 1.0555 7.0069e-39 395.67 230 0 0 0 -0.35693 0.47041 -0.80704 0.0093546
-0.03508 0.093433 1.0546 6.4844e-39 427.33 230 0 0 0 -0.32469 0.47282 -0.81916 0.0076146
-0.033023 0.093227 1.0546 6.7303e-39 414 230 0 0 0 -0.28788 0.47889 -0.82933 0.0072727
0.024968 0.093844 1.0546 9.6805e-39 218 231 0 0 0 0.24245 0.52113 -0.81831 0.0090914
0.027436 0.093227 1.0546 9.0813e-39 322.5 230.5 0 0 0 0.26911 0.51193 -0.81578 0.012907
0.029493 0.093433 1.0546 8.2054e-39 290 230.67 0 0 0 0.28313 0.50888 -0.81294 0.015664
0.031164 0.093306 1.0555 7.6983e-39 325.5 230.5 0 0 0 0.29751 0.50567 -0.8098 0.019513
0.032811 0.093101 1.0555 8.1132e-39 361 230.33 0 0 0 0.31942 0.50395 -0.8025 0.02386
0.036104 0.092689 1.0555 8.6664e-39 432 230 0 0 0 0.35195 0.50231 -0.78982 0.029167
-0.034889 0.095118 1.0551 7.56e-39 247.5 231 0 0 0 -0.31859 0.49006 -0.81138 0.0082422
-0.033023 0.095077 1.0546 6.8225e-39 249 231 0 0 0 -0.28386 0.49009 -0.82416 0.0079018
-0.031789 0.095077 1.0546 6.6381e-39 250 231 0 0 0 -0.26321 0.48884 -0.83171 0.0076007
0.021267 0.095077 1.0546 6.9147e-39 310 231 0 0 0 0.20457 0.53261 -0.82127 0.007276
0.024968 0.095077 1.0546 5.9927e-39 313 231 0 0 0 0.23553 0.52572 -0.8174 0.0082732
0.026831 0.095118 1.0551 6.1771e-39 314.5 231 0 0 0 0.25666 0.51875 -0.81549 0.010564
0.029287 0.095077 1.0546 6.2693e-39 316.5 231 0 0 0 0.28181 0.5095 -0.81301 0.01511
0.031164 0.095159 1.0555 5.9005e-39 318 231 0 0 0 0.29648 0.50632 -0.80978 0.018834
0.032399 0.095159 1.0555 5.9005e-39 319 231 0 0 0 0.30147 0.50658 -0.80777 0.019883
-0.034698 0.096806 1.0555 7.1298e-39 374.67 231 0 0 0 -0.3084 0.50019 -0.80913 0.0085886
-0.033052 0.097012 1.0555 7.4679e-39 389 231 0 0 0 -0.28279 0.5022 -0.8172 0.0090428
-0.031387 0.097162 1.0549 7.9903e-39 403.33 231 0 0 0 -0.25378 0.4991 -0.82855 0.0086266
0.016948 0.097545 1.0546 7.3296e-39 513.5 231 0 0 0 0.16711 0.54607 -0.82091 0.0072326
0.020654 0.096949 1.0548 7.5831e-39 457 231 0 0 0 0.19683 0.53712 -0.82022 0.0070978
0.023128 0.09697 1.0551 6.7533e-39 459 231 0 0 0 0.21664 0.53228 -0.81838 0.0071245
0.02499 0.096394 1.0555 7.56e-39 401 231 0 0 0 0.23617 0.52735 -0.81616 0.0081994
0.026843 0.096394 1.0555 8.1593e-39 402.5 231 0 0 0 0.25036 0.52213 -0.8153 0.0095275
0.028695 0.096394 1.0555 8.5742e-39 404 231 0 0 0 0.2682 0.51682 -0.813 0.011689
-0.034287 0.098864 1.0555 8.3898e-39 213 232 0 0 0 -0.29662 0.50822 -0.80854 0.0094129
-0.033052 0.098864 1.0555 8.8508e-39 214 232 0 0 0 -0.27866 0.50563 -0.81651 0.0096958
-0.031187 0.098821 1.0551 8.4359e-39 215.5 232 0 0 0 -0.25128 0.50108 -0.82812 0.0088936
-0.028088 0.098779 1.0546 7.4678e-39 218 232 0 0 0 -0.20761 0.50096 -0.8402 0.0082054
-0.014515 0.098779 1.0546 6.1771e-39 229 232 0 0 0 -0.086929 0.54673 -0.83279 0.0053553
-0.013281 0.098779 1.0546 6.0849e-39 230 232 0 0 0 -0.077246 0.5537 -0.82913 0.0047566
-0.010814 0.098779 1.0546 7.0991e-39 232 232 0 0 0 -0.062253 0.57012 -0.8192 0.0045981
-0.0095799 0.098779 1.0546 7.4678e-39 233 232 0 0 0 -0.060256 0.57985 -0.81249 0.0047812
0.013864 0.098779 1.0546 6.9147e-39 252 232 0 0 0 0.14409 0.53672 -0.83137 0.0072151
0.015097 0.098779 1.0546 7.1913e-39 253 232 0 0 0 0.15326 0.53641 -0.82992 0.0069169
0.016948 0.098779 1.0546 7.3296e-39 254.5 232 0 0 0 0.16547 0.53884 -0.826 0.0071404
0.018799 0.098779 1.0546 6.8225e-39 256 232 0 0 0 0.17565 0.53835 -0.82421 0.0068557
0.02005 0.098864 1.0555 6.3615e-39 257 232 0 0 0 0.1869 0.53819 -0.82184 0.0067895
0.023755 0.098864 1.0555 6.8225e-39 260 232 0 0 0 0.2195 0.53504 -0.81581 0.0074312
-0.030994 0.10051 1.0555 6.7917e-39 339 232 0 0 0 -0.24544 0.5047 -0.82767 0.0092519
-0.028515 0.10089 1.0552 6.9454e-39 367.33 232 0 0 0 -0.21025 0.50499 -0.83712 0.0087467
-0.026866 0.10067 1.0551 6.592e-39 355.5 232 0 0 0 -0.19242 0.50858 -0.83924 0.0082686
-0.025003 0.10125 1.0546 7.3757e-39 396.5 232 0 0 0 -0.1643 0.5165 -0.84038 0.0076862
-0.023152 0.10125 1.0546 8.3898e-39 398 232 0 0 0 -0.14842 0.51987 -0.84125 0.0068228
-0.021311 0.10067 1.0551 7.0068e-39 360 232 0 0 0 -0.12931 0.5225 -0.84278 0.0063034
-0.018842 0.10067 1.0551 6.9838e-39 365 232 0 0 0 -0.11115 0.52884 -0.84141 0.0059151
-0.016991 0.10067 1.0551 7.3296e-39 366.5 232 0 0 0 -0.097525 0.53567 -0.83877 0.0054439
-0.015347 0.10048 1.0552 7.4064e-39 355.67 232 0 0 0 -0.086679 0.54173 -0.83607 0.0052376
-0.012466 0.10048 1.0552 6.761e-39 358 232 0 0 0 -0.065268 0.55965 -0.82616 0.0044057
-0.010819 0.10067 1.0551 7.053e-39 371.5 232 0 0 0 -0.056298 0.56764 -0.82135 0.0042539
-0.008965 0.10065 1.0548 7.6753e-39 373 232 0 0 0 -0.051883 0.57564 -0.81605 0.0041874
-0.0071151 0.10067 1.0551 8.021e-39 374.5 232 0 0 0 -0.04495 0.58204 -0.81192 0.0045447
-0.0052626 0.10065 1.0548 7.4448e-39 376 232 0 0 0 -0.037181 0.59555 -0.80246 0.0052961
-0.0025886 0.10086 1.0549 7.7752e-39 390.33 232 0 0 0 -0.0082524 0.60745 -0.79431 0.0062592
-0.0009432 0.10067 1.0551 7.7905e-39 379.5 232 0 0 0 0.0056912 0.60549 -0.79583 0.0066996
0.00090798 0.10125 1.0546 9.2657e-39 417.5 232 0 0 0 0.017215 0.60489 -0.79612 0.0071863
0.0033758 0.10125 1.0546 9.3578e-39 419.5 232 0 0 0 0.043123 0.58751 -0.80807 0.0084891
0.0072852 0.10086 1.0549 8.2976e-39 398.33 232 0 0 0 0.091269 0.56239 -0.82182 0.0091436
0.0089281 0.10125 1.0546 9.3118e-39 424 232 0 0 0 0.10358 0.54899 -0.82939 0.0088264
0.010779 0.10125 1.0546 8.7125e-39 425.5 232 0 0 0 0.12317 0.53649 -0.83487 0.0079219
0.013253 0.10067 1.0551 7.7675e-39 392 232 0 0 0 0.14313 0.5286 -0.83672 0.0072651
0.01511 0.10071 1.0555 7.7444e-39 393.5 232 0 0 0 0.15579 0.52551 -0.8364 0.0066237
0.016963 0.1001 1.0555 6.6842e-39 357.5 232 0 0 0 0.16494 0.52689 -0.83378 0.0063974
0.018815 0.10071 1.0555 7.6983e-39 396.5 232 0 0 0 0.17654 0.52707 -0.83128 0.0064155
-0.029347 0.10257 1.0555 7.0991e-39 465 232 0 0 0 -0.21766 0.51055 -0.83184 0.009378
-0.025024 0.10257 1.0555 7.053e-39 468.5 232 0 0 0 -0.16136 0.51746 -0.84036 0.0076295
-0.023172 0.10257 1.0555 7.0069e-39 486 232 0 0 0 -0.14424 0.52134 -0.84107 0.0069052
-0.016998 0.10257 1.0555 7.0991e-39 495 232 0 0 0 -0.09186 0.53951 -0.83695 0.0053538
-0.015763 0.10257 1.0555 7.3757e-39 496 232 0 0 0 -0.079427 0.54594 -0.83405 0.0047611
-0.012058 0.10257 1.0555 7.56e-39 515 232 0 0 0 -0.054805 0.56161 -0.82559 0.0037856
-0.010823 0.10318 1.0555 7.3757e-39 379 232.5 0 0 0 -0.046748 0.5689 -0.82108 0.0038144
-0.0087648 0.10298 1.0555 7.0991e-39 426.33 232.33 0 0 0 -0.043702 0.58146 -0.8124 0.0037122
-0.0071182 0.10318 1.0555 6.4998e-39 382 232.5 0 0 0 -0.038972 0.58575 -0.80955 0.0038877
-0.0052659 0.10318 1.0555 6.0158e-39 383.5 232.5 0 0 0 -0.027909 0.59952 -0.79987 0.0041724
-0.0027945 0.10314 1.0551 5.624e-39 385.5 232.5 0 0 0 -0.012253 0.60899 -0.79309 0.0056536
-0.0009436 0.10318 1.0555 5.3473e-39 387 232.5 0 0 0 0.0022808 0.60308 -0.79768 0.0062023
0.00090837 0.10314 1.0551 5.3934e-39 388.5 232.5 0 0 0 0.013101 0.59921 -0.80049 0.0068732
0.0033787 0.10318 1.0555 8.505e-39 209.25 233 0 0 0 0.037263 0.5878 -0.80815 0.0080254
0.0052287 0.10314 1.0551 1.0971e-38 223 233 0 0 0 0.054236 0.57073 -0.81935 0.0085168
0.0068757 0.10295 1.0552 9.5268e-39 213.67 233 0 0 0 0.078377 0.5578 -0.82627 0.0085994
0.0089358 0.10257 1.0555 7.9288e-39 194 233 0 0 0 0.10377 0.5468 -0.83081 0.0087163
0.01058 0.10295 1.0552 6.6381e-39 216.67 233 0 0 0 0.1181 0.53669 -0.83548 0.0082062
-0.0034134 0.10504 1.0555 6.3615e-39 336 233 0 0 0 -0.018537 0.59807 -0.80123 0.0044868
-0.062797 0.076766 1.0573 1.0326e-38 217 223 0 0 0 -0.45598 0.65855 -0.59866 0.11778
-0.057849 0.076766 1.0573 9.1274e-39 216 224 0 0 0 -0.48076 0.58401 -0.65406 0.071895
-0.064034 0.07924 1.0573 8.1132e-39 207 226 0 0 0 -0.47314 0.6371 -0.60848 0.1228
-0.062797 0.078621 1.0573 8.9431e-39 209.5 225.5 0 0 0 -0.49114 0.63294 -0.59848 0.10466
-0.057849 0.078621 1.0573 6.7303e-39 213.5 225.5 0 0 0 -0.48701 0.5848 -0.64871 0.063868
-0.057849 0.080477 1.0573 6.9147e-39 210 227 0 0 0 -0.47989 0.58035 -0.65795 0.057334
-0.055351 0.081061 1.0568 7.3757e-39 208.5 227.5 0 0 0 -0.46567 0.56183 -0.68374 0.047563
-0.052901 0.080477 1.0573 8.6664e-39 214 227 0 0 0 -0.46494 0.55625 -0.68878 0.045559
-0.050406 0.08106 1.0568 9.3576e-39 212.5 227.5 0 0 0 -0.46002 0.54194 -0.70334 0.03674
-0.056563 0.08288 1.0564 7.2835e-39 252 228 0 0 0 -0.47466 0.5647 -0.67514 0.045883
-0.050384 0.08288 1.0564 7.2835e-39 257 228 0 0 0 -0.46083 0.53998 -0.70431 0.032831
-0.056612 0.084188 1.0573 6.6381e-39 346 228 0 0 0 -0.48798 0.56451 -0.66574 0.045221
-0.052856 0.084734 1.0564 6.8686e-39 402.5 228 0 0 0 -0.46853 0.54274 -0.69708 0.035584
-0.050406 0.084771 1.0568 6.9608e-39 405 228 0 0 0 -0.4618 0.5307 -0.7107 0.030377
-0.049148 0.085352 1.0564 6.6381e-39 459 228 0 0 0 -0.4531 0.52901 -0.71753 0.028563
0.039843 0.085352 1.0564 1.2723e-38 217 229 0 0 0 0.59018 0.41684 -0.69133 0.061994
0.041114 0.085425 1.0573 1.3184e-38 218 229 0 0 0 0.66887 0.37204 -0.64358 0.054983
-0.04919 0.086662 1.0573 6.4537e-39 232 229 0 0 0 -0.46234 0.52383 -0.71543 0.028663
-0.047514 0.087437 1.0567 6.1156e-39 279.33 229 0 0 0 -0.45198 0.51269 -0.72998 0.025154
0.041079 0.086588 1.0564 6.7303e-39 271 229 0 0 0 0.62224 0.39646 -0.67501 0.056854
0.04297 0.086662 1.0573 6.2232e-39 286.5 229 0 0 0 0.71323 0.34041 -0.61271 0.048873
-0.047314 0.089098 1.0568 7.8827e-39 382.5 229 0 0 0 -0.45416 0.51522 -0.72683 0.023849
-0.04544 0.08906 1.0564 7.6522e-39 384 229 0 0 0 -0.44879 0.50459 -0.73755 0.022877
0.044825 0.089137 1.0573 7.1913e-39 468 229 0 0 0 0.73087 0.35354 -0.58381 0.046217
-0.046716 0.090374 1.0573 6.6381e-39 516 229 0 0 0 -0.45895 0.5145 -0.72433 0.02372
-0.044851 0.090973 1.0571 6.0849e-39 388 229.5 0 0 0 -0.44627 0.50479 -0.73894 0.022133
-0.042968 0.091532 1.0564 7.0069e-39 260 230 0 0 0 -0.43359 0.49727 -0.75148 0.017267
-0.040496 0.091532 1.0564 7.2835e-39 262 230 0 0 0 -0.41094 0.47971 -0.77525 0.013951
0.039442 0.091146 1.0567 6.761e-39 313.33 230 0 0 0 0.50388 0.47306 -0.72272 0.055375
0.041079 0.091532 1.0564 6.3615e-39 349 230 0 0 0 0.54058 0.45918 -0.70493 0.055015
0.042951 0.090953 1.0568 7.3296e-39 299 230 0 0 0 0.6441 0.41101 -0.64514 0.052867
-0.043004 0.092848 1.0573 7.9288e-39 361 230 0 0 0 -0.4415 0.50602 -0.74096 0.018036
-0.041114 0.092768 1.0564 7.3757e-39 362.5 230 0 0 0 -0.41767 0.48487 -0.76841 0.014334
-0.03926 0.092768 1.0564 7.0069e-39 364 230 0 0 0 -0.39674 0.47943 -0.78278 0.012278
0.034899 0.092768 1.0564 8.8508e-39 431 230 0 0 0 0.34461 0.50558 -0.79097 0.028147
0.037371 0.092768 1.0564 8.2976e-39 433 230 0 0 0 0.42507 0.49464 -0.75806 0.044342
0.041114 0.092848 1.0573 8.3898e-39 440 230 0 0 0 0.5369 0.4604 -0.70695 0.056856
-0.041148 0.094703 1.0573 7.2604e-39 347.5 230.5 0 0 0 -0.42547 0.49571 -0.75713 0.01376
-0.03865 0.094642 1.0566 7.3987e-39 349.5 230.5 0 0 0 -0.39044 0.48617 -0.78179 0.011099
-0.036788 0.09524 1.0564 7.56e-39 246 231 0 0 0 -0.35686 0.49748 -0.79068 0.0093253
0.033663 0.094622 1.0564 6.1771e-39 272.5 231 0 0 0 0.33332 0.50448 -0.79649 0.025891
0.034914 0.094663 1.0568 6.2232e-39 273.5 231 0 0 0 0.34528 0.50379 -0.79182 0.026898
0.036761 0.094643 1.0566 6.2923e-39 278.5 231 0 0 0 0.38164 0.50454 -0.77446 0.032992
-0.04053 0.096559 1.0573 7.0991e-39 344 231 0 0 0 -0.41159 0.50061 -0.76157 0.012181
-0.038658 0.097136 1.0568 8.3437e-39 384.5 231 0 0 0 -0.38491 0.50844 -0.77028 0.010498
-0.036788 0.097094 1.0564 7.8827e-39 386 231 0 0 0 -0.35198 0.50498 -0.7881 0.0092524
-0.035552 0.097712 1.0564 8.7586e-39 426 231 0 0 0 -0.32857 0.50394 -0.7988 0.0092425
0.025011 0.097712 1.0564 4.5176e-39 520 231 0 0 0 0.23231 0.52972 -0.81574 0.0080203
0.026865 0.097712 1.0564 4.241e-39 521.5 231 0 0 0 0.2486 0.52325 -0.81512 0.0095413
0.029552 0.097328 1.0567 5.501e-39 484 231 0 0 0 0.27493 0.51356 -0.81281 0.013494
0.031204 0.097136 1.0568 6.0388e-39 465.5 231 0 0 0 0.28933 0.51082 -0.80954 0.016028
0.032858 0.096944 1.057 9.1581e-39 336.33 231.33 0 0 0 0.30725 0.50591 -0.80601 0.019889
-0.038674 0.099033 1.0573 8.6664e-39 209.5 232 0 0 0 -0.37998 0.51231 -0.77016 0.010683
-0.036819 0.099033 1.0573 8.2976e-39 211 232 0 0 0 -0.35147 0.51186 -0.78388 0.01028
-0.035552 0.098948 1.0564 7.9288e-39 212 232 0 0 0 -0.32953 0.5127 -0.79281 0.0098752
0.021303 0.098948 1.0564 6.4537e-39 258 232 0 0 0 0.19957 0.53011 -0.82411 0.0067479
0.022539 0.098948 1.0564 6.4537e-39 259 232 0 0 0 0.20806 0.53779 -0.817 0.0072833
0.025011 0.098948 1.0564 7.1913e-39 261 232 0 0 0 0.22877 0.53338 -0.81435 0.0077953
0.026877 0.09899 1.0568 6.9608e-39 262.5 232 0 0 0 0.2422 0.52611 -0.81519 0.0089047
0.029362 0.099033 1.0573 7.1452e-39 264.5 232 0 0 0 0.26413 0.51064 -0.81822 0.010873
0.031218 0.099033 1.0573 7.1913e-39 266 232 0 0 0 0.28666 0.50148 -0.8163 0.015393
-0.038056 0.10027 1.0573 6.4537e-39 307 232 0 0 0 -0.36958 0.51855 -0.77105 0.011348
-0.034748 0.10065 1.057 7.1913e-39 336 232 0 0 0 -0.31302 0.5199 -0.79481 0.010825
-0.033094 0.10085 1.0568 7.099e-39 350.5 232 0 0 0 -0.28531 0.51128 -0.81067 0.010413
-0.031844 0.10142 1.0564 7.56e-39 391 232 0 0 0 -0.26523 0.51448 -0.81545 0.01084
-0.01454 0.10142 1.0564 8.6664e-39 405 232 0 0 0 -0.075237 0.5489 -0.8325 0.0046181
-0.013304 0.10142 1.0564 8.482e-39 406 232 0 0 0 -0.066773 0.55285 -0.8306 0.0042671
0.016977 0.10142 1.0564 8.5742e-39 432.5 232 0 0 0 0.16304 0.51448 -0.84186 0.005991
0.02069 0.10082 1.0566 7.7905e-39 399.5 232 0 0 0 0.18977 0.51851 -0.83375 0.0060438
0.023167 0.10084 1.0568 7.6983e-39 401.5 232 0 0 0 0.20951 0.52824 -0.82284 0.00696
0.025033 0.10027 1.0573 7.0991e-39 364 232 0 0 0 0.22652 0.52401 -0.82103 0.0072067
0.026889 0.10027 1.0573 7.3757e-39 365.5 232 0 0 0 0.23577 0.51689 -0.82294 0.0077311
0.028744 0.10027 1.0573 7.8366e-39 367 232 0 0 0 0.25253 0.51053 -0.82194 0.0086508
-0.031038 0.10313 1.057 6.9762e-39 384.33 232.33 0 0 0 -0.24852 0.5164 -0.8195 0.011424
-0.028556 0.10351 1.0567 6.761e-39 307 232.67 0 0 0 -0.20544 0.51137 -0.83444 0.0095147
-0.0269 0.10266 1.0564 6.6381e-39 467 232 0 0 0 -0.18583 0.51472 -0.83697 0.0085897
-0.025046 0.10389 1.0564 6.3615e-39 230.5 233 0 0 0 -0.16154 0.52008 -0.8387 0.0078254
-0.023212 0.10398 1.0573 6.8225e-39 232 233 0 0 0 -0.13958 0.52245 -0.84117 0.0071443
-0.021347 0.10332 1.0568 6.9608e-39 362.5 232.5 0 0 0 -0.12438 0.52869 -0.83966 0.0064444
-0.018874 0.10332 1.0568 6.6381e-39 364.5 232.5 0 0 0 -0.10452 0.53664 -0.83731 0.0059522
-0.017012 0.10389 1.0564 6.3615e-39 237 233 0 0 0 -0.085966 0.54463 -0.83426 0.0051258
-0.014956 0.10351 1.0567 6.761e-39 330 232.67 0 0 0 -0.069376 0.553 -0.83029 0.0042369
-0.012896 0.10351 1.0567 7.0069e-39 331.67 232.67 0 0 0 -0.055477 0.55889 -0.82739 0.0037156
-0.0095963 0.10389 1.0564 7.6522e-39 243 233 0 0 0 -0.040073 0.57963 -0.81389 0.0034632
0.0077074 0.10389 1.0564 6.3615e-39 257 233 0 0 0 0.084659 0.55331 -0.82866 0.008328
0.0089434 0.10389 1.0564 6.3615e-39 258 233 0 0 0 0.10082 0.53498 -0.83883 0.0082396
0.011415 0.10389 1.0564 6.8225e-39 260 233 0 0 0 0.12418 0.52274 -0.8434 0.0076445
0.013269 0.10328 1.0564 6.8686e-39 229.5 233 0 0 0 0.13825 0.51381 -0.84669 0.0068444
0.015123 0.10328 1.0564 6.592e-39 231 233 0 0 0 0.15458 0.50985 -0.84626 0.0060721
0.016984 0.10332 1.0568 6.8917e-39 232.5 233 0 0 0 0.1609 0.4993 -0.85136 0.0052041
0.018831 0.10328 1.0564 6.8225e-39 234 233 0 0 0 0.17369 0.50568 -0.84506 0.0052272
0.020076 0.10332 1.0568 6.8686e-39 235 233 0 0 0 0.18481 0.49799 -0.84726 0.0048828
0.023796 0.10336 1.0573 7.053e-39 239 233 0 0 0 0.21347 0.49902 -0.83989 0.0057506
-0.029397 0.10522 1.0573 7.0069e-39 309 233 0 0 0 -0.21343 0.51249 -0.83174 0.010819
-0.025068 0.10522 1.0573 6.4537e-39 312.5 233 0 0 0 -0.15332 0.5257 -0.83674 0.0078031
-0.017027 0.10522 1.0573 5.7161e-39 319 233 0 0 0 -0.076898 0.55655 -0.82725 0.0047088
-0.01579 0.10522 1.0573 5.7161e-39 320 233 0 0 0 -0.068204 0.56026 -0.8255 0.0043133
-0.012068 0.10513 1.0564 6.1771e-39 329 233 0 0 0 -0.044831 0.56987 -0.82051 0.003452
-0.010832 0.10513 1.0564 6.6381e-39 330 233 0 0 0 -0.038647 0.57629 -0.81633 0.0034169
-0.0089783 0.10513 1.0564 6.6842e-39 331.5 233 0 0 0 -0.039539 0.58574 -0.80953 0.0033394
-0.0071243 0.10513 1.0564 6.0849e-39 333 233 0 0 0 -0.033048 0.58833 -0.80794 0.0035836
-0.0052703 0.10513 1.0564 5.9927e-39 334.5 233 0 0 0 -0.027134 0.5919 -0.80555 0.003748
-0.0021804 0.10513 1.0564 6.6381e-39 337 233 0 0 0 -0.012031 0.59578 -0.80305 0.004924
-0.00094441 0.10513 1.0564 6.4537e-39 338 233 0 0 0 -0.0040379 0.59263 -0.80547 0.0055459
0.00090953 0.10513 1.0564 5.4856e-39 340.5 233 0 0 0 0.0067581 0.5846 -0.81129 0.0059441
0.0033815 0.10513 1.0564 6.131e-39 342.5 233 0 0 0 0.028349 0.58325 -0.8118 0.0073194
0.0052355 0.10513 1.0564 7.1913e-39 344 233 0 0 0 0.048406 0.56742 -0.822 0.0077677
0.0070927 0.10518 1.0568 7.5139e-39 345.5 233 0 0 0 0.073881 0.5523 -0.83037 0.0078009
0.0089434 0.10513 1.0564 7.0991e-39 347 233 0 0 0 0.095526 0.53915 -0.83678 0.0080704
0.010797 0.10513 1.0564 6.4998e-39 348.5 233 0 0 0 0.11416 0.52236 -0.84505 0.0073604
0.013275 0.10518 1.0568 6.5459e-39 350.5 233 0 0 0 0.13529 0.50493 -0.85249 0.0065573
0.015136 0.10522 1.0573 7.0991e-39 352 233 0 0 0 0.14791 0.49039 -0.85886 0.0054428
0.016991 0.10522 1.0573 7.1452e-39 353.5 233 0 0 0 0.16108 0.48425 -0.85997 0.0045976
0.018847 0.10522 1.0573 6.9147e-39 355 233 0 0 0 0.17174 0.48259 -0.85884 0.0041705
0.020084 0.10522 1.0573 6.9147e-39 356 233 0 0 0 0.18067 0.47862 -0.85923 0.0040869
0.023796 0.10522 1.0573 6.8225e-39 359 233 0 0 0 0.21235 0.48084 -0.85071 0.0051558
-0.029397 0.10646 1.0573 8.021e-39 368 233 0 0 0 -0.2055 0.51041 -0.83502 0.010332
-0.01579 0.10646 1.0573 7.4678e-39 379 233 0 0 0 -0.065083 0.56192 -0.82462 0.0043129
-0.012079 0.10646 1.0573 7.7444e-39 382 233 0 0 0 -0.041683 0.57586 -0.81648 0.0034863
-0.010842 0.10707 1.0573 8.3437e-39 406 233 0 0 0 -0.035271 0.5771 -0.81591 0.0034596
-0.0089842 0.10705 1.0571 8.3437e-39 407.5 233 0 0 0 -0.036579 0.58171 -0.81257 0.0033942
-0.0071274 0.10702 1.0568 8.2515e-39 409 233 0 0 0 -0.03079 0.58374 -0.81135 0.0037122
-0.0052748 0.10707 1.0573 8.2054e-39 410.5 233 0 0 0 -0.02853 0.58204 -0.81266 0.0037949
-0.0028001 0.10705 1.0571 7.4217e-39 414 233 0 0 0 -0.020203 0.58299 -0.81223 0.0044018
-0.00094522 0.10707 1.0573 7.4218e-39 415.5 233 0 0 0 -0.0096033 0.57602 -0.81738 0.0048983
0.0011165 0.10687 1.0573 7.1298e-39 409 233 0 0 0 0.0028068 0.56916 -0.82222 0.0054556
0.0027659 0.10707 1.0573 6.6842e-39 418.5 233 0 0 0 0.016625 0.56596 -0.82426 0.006355
0.0046214 0.10707 1.0573 6.5229e-39 420 233 0 0 0 0.035534 0.56185 -0.82648 0.0070454
0.0064715 0.10698 1.0564 7.0068e-39 421.5 233 0 0 0 0.05931 0.55387 -0.83049 0.007137
0.0089511 0.10646 1.0573 8.5742e-39 399 233 0 0 0 0.092082 0.53228 -0.84154 0.0071123
0.010804 0.10705 1.0571 7.9058e-39 425 233 0 0 0 0.1091 0.51338 -0.8512 0.0064388
0.013487 0.10687 1.0573 8.144e-39 419 233 0 0 0 0.1314 0.48596 -0.86405 0.0056538
0.015136 0.10646 1.0573 8.8508e-39 404 233 0 0 0 0.14663 0.4827 -0.86342 0.0051912
0.016991 0.10646 1.0573 9.2657e-39 405.5 233 0 0 0 0.15762 0.47773 -0.86425 0.0045857
0.018847 0.10646 1.0573 8.6664e-39 407 233 0 0 0 0.16845 0.46833 -0.86735 0.0038833
0.020084 0.10646 1.0573 8.6664e-39 408 233 0 0 0 0.17666 0.46745 -0.86619 0.0037496
0.006477 0.10893 1.0573 6.9147e-39 465 233 0 0 0 0.054646 0.52597 -0.84874 0.0057571
0.010188 0.10893 1.0573 6.6381e-39 466 233 0 0 0 0.095183 0.49822 -0.86181 0.0055517
-0.057898 0.075594 1.0582 9.8649e-39 216 223 0 0 0 -0.48527 0.6035 -0.6327 0.085271
-0.060426 0.076898 1.0592 7.56e-39 214 224 0 0 0 -0.48878 0.62622 -0.60741 0.094284
-0.059187 0.076898 1.0592 7.9288e-39 215 224 0 0 0 -0.49413 0.60836 -0.62107 0.088977
-0.060994 0.078689 1.0582 8.1594e-39 211 225.5 0 0 0 -0.49413 0.60836 -0.62107 0.088977
-0.059137 0.078689 1.0582 6.6381e-39 212.5 225.5 0 0 0 -0.5027 0.60066 -0.62169 0.073894
-0.052992 0.079376 1.0592 8.021e-39 215 226 0 0 0 -0.46693 0.56485 -0.68039 0.046264
-0.050513 0.079376 1.0592 1.3922e-38 217 226 0 0 0 -0.46181 0.55342 -0.69315 0.041562
-0.064089 0.080546 1.0582 8.1132e-39 205 227 0 0 0 -0.50662 0.61357 -0.60569 0.10644
-0.062851 0.081165 1.0582 7.053e-39 291.5 227 0 0 0 -0.51369 0.60475 -0.60861 0.087291
-0.061021 0.0812 1.0587 7.4678e-39 295 227 0 0 0 -0.52262 0.59683 -0.60882 0.07447
