# .PCD v.7 - Point Cloud Data file format
VERSION .7
FIELDS x y z rgb u v vx vy vz normal_x normal_y normal_z curvature
SIZE 4 4 4 4 4 4 4 4 4 4 4 4 4
TYPE F F F F F F F F F F F F F
COUNT 1 1 1 1 1 1 1 1 1 1 1 1 1
WIDTH 553
HEIGHT 1
VIEWPOINT 0 0 0 1 0 0 0
POINTS 553
DATA ascii
-0.048492 0.092642 1.0692 9.9571e-39 352 236 0 0 0 -0.92402 0.11926 -0.36326 0.0049209
-0.04845 0.095061 1.0683 7.7444e-39 438 236 0 0 0 -0.91982 0.1299 -0.37022 0.0048694
-0.048492 0.096395 1.0692 7.4678e-39 174 237 0 0 0 -0.9196 0.14117 -0.36661 0.0051735
0.060914 0.096936 1.0683 9.3579e-39 266 237 0 0 0 0.86507 0.3242 -0.38282 0.028604
0.060341 0.098897 1.0692 7.9288e-39 354 237 0 0 0 0.86215 0.32736 -0.3867 0.030989
0.056539 0.10381 1.0683 9.9571e-39 346 238 0 0 0 0.70801 0.43968 -0.55263 0.020822
-0.048576 0.090923 1.0711 7.3757e-39 312 236 0 0 0 -0.92798 0.10984 -0.35607 0.0049893
0.062952 0.092802 1.0711 9.4961e-39 384 236 0 0 0 0.9134 0.32004 -0.25152 0.026575
-0.048534 0.09773 1.0702 9.2196e-39 240 237 0 0 0 -0.91994 0.1375 -0.36716 0.0054187
0.061646 0.09773 1.0702 1.0142e-38 295 237 0 0 0 0.87927 0.32791 -0.34548 0.027337
0.061699 0.099068 1.0711 6.8225e-39 355 237 0 0 0 0.8877 0.32945 -0.32163 0.025925
-0.047323 0.10157 1.0711 6.9147e-39 421 237 0 0 0 -0.91156 0.1919 -0.36364 0.0081043
0.060446 0.10032 1.0711 7.9288e-39 419 237 0 0 0 0.88065 0.32242 -0.34714 0.028134
-0.04607 0.10533 1.0711 9.3118e-39 348 238 0 0 0 -0.90297 0.24093 -0.35581 0.010822
0.054133 0.109 1.0702 6.6381e-39 355 239 0 0 0 0.70522 0.48351 -0.51854 0.019551
0.070655 0.082993 1.0739 6.3615e-39 250 236 0 0 0 -0.88072 -0.40432 -0.24671 0.05393
-0.04996 0.09116 1.0739 7.6061e-39 311 236 0 0 0 -0.93704 0.072167 -0.34167 0.0053979
-0.049916 0.092964 1.073 9.5883e-39 351 236 0 0 0 -0.93297 0.097704 -0.34645 0.0049658
-0.049916 0.094219 1.073 9.7727e-39 386 236 0 0 0 -0.92867 0.11689 -0.35201 0.0054187
0.063007 0.094764 1.072 7.0529e-39 302 236.5 0 0 0 0.9074 0.33509 -0.25367 0.023978
0.063116 0.096814 1.0739 9.1274e-39 239 237 0 0 0 0.91019 0.35297 -0.21671 0.024852
-0.048619 0.099154 1.072 9.7727e-39 296 237 0 0 0 -0.92386 0.13941 -0.35644 0.005654
0.059347 0.10184 1.0739 6.0849e-39 165 238 0 0 0 0.8962 0.31731 -0.31007 0.027442
0.05799 0.10292 1.072 6.7303e-39 262 238 0 0 0 0.85612 0.3431 -0.38645 0.031479
0.056785 0.10552 1.073 7.9288e-39 430 238 0 0 0 0.76158 0.45871 -0.4578 0.016303
0.058091 0.10435 1.0739 9.3118e-39 347 238 0 0 0 0.85117 0.36787 -0.37441 0.026911
0.070778 0.075586 1.0758 6.9147e-39 249 235 0 0 0 -0.75287 -0.27654 -0.59725 0.033607
0.070716 0.076778 1.0748 6.8225e-39 304 235 0 0 0 -0.77242 -0.33675 -0.53848 0.059001
0.070778 0.078733 1.0758 7.3757e-39 384.5 235 0 0 0 -0.77257 -0.33513 -0.53927 0.05242
0.070747 0.081215 1.0753 6.6842e-39 340.5 235.5 0 0 0 -0.78957 -0.42767 -0.44009 0.055688
-0.048746 0.089353 1.0748 8.7586e-39 282 236 0 0 0 -0.93703 0.072974 -0.34155 0.0061013
-0.051261 0.09061 1.0748 9.2196e-39 298 236 0 0 0 -0.94078 0.076734 -0.33021 0.0062782
-0.050003 0.09564 1.0748 7.4678e-39 437 236 0 0 0 -0.93441 0.10652 -0.33989 0.0054839
-0.050047 0.096982 1.0758 7.0991e-39 173 237 0 0 0 -0.93628 0.11167 -0.33302 0.0056627
0.061968 0.10076 1.0758 7.4678e-39 420 237 0 0 0 0.913 0.35546 -0.20019 0.02523
0.069641 0.075718 1.0776 7.56e-39 248 235 0 0 0 -0.74858 -0.26646 -0.60714 0.02794
0.069641 0.076979 1.0776 7.0991e-39 303 235 0 0 0 -0.74417 -0.29227 -0.60065 0.029345
0.069641 0.078871 1.0776 7.1452e-39 383.5 235 0 0 0 -0.7444 -0.29845 -0.59732 0.028912
0.06918 0.081554 1.077 6.3615e-39 297.67 235.67 0 0 0 -0.75933 -0.41469 -0.50145 0.048982
0.067119 0.082652 1.0776 7.0068e-39 230 236 0 0 0 -0.77534 -0.42576 -0.46645 0.046157
0.06895 0.08321 1.0767 7.1913e-39 248.5 236 0 0 0 -0.78206 -0.43845 -0.44288 0.046078
0.060815 0.085805 1.0776 6.7303e-39 259 236 0 0 0 -0.85868 -0.40293 -0.31674 0.047341
0.065858 0.085805 1.0776 6.5459e-39 263 236 0 0 0 -0.83313 -0.41751 -0.36275 0.046198
0.067089 0.085137 1.0771 6.7303e-39 260 236 0 0 0 -0.83614 -0.40169 -0.37351 0.048225
0.06874 0.08489 1.0767 6.7918e-39 260 236 0 0 0 -0.81328 -0.41466 -0.40821 0.04457
0.065801 0.086989 1.0767 6.5459e-39 270 236 0 0 0 -0.88268 -0.39722 -0.25118 0.045176
0.06706 0.086989 1.0767 6.6381e-39 271 236 0 0 0 -0.87272 -0.40383 -0.27436 0.044126
-0.05135 0.092658 1.0767 7.7444e-39 336 236 0 0 0 -0.93904 0.088841 -0.33213 0.0067721
-0.05135 0.094548 1.0767 9.4961e-39 385 236 0 0 0 -0.9396 0.087537 -0.3309 0.0060047
0.060762 0.10211 1.0767 6.2693e-39 166 238 0 0 0 0.91162 0.34715 -0.22006 0.02249
0.069762 0.073325 1.0795 7.0991e-39 428 234 0 0 0 -0.74411 -0.21852 -0.6313 0.0094549
0.069701 0.074523 1.0786 6.2693e-39 182 235 0 0 0 -0.75038 -0.24524 -0.61383 0.025286
0.068499 0.07964 1.0795 7.0991e-39 409 235 0 0 0 -0.73939 -0.29721 -0.60412 0.027068
0.067236 0.080903 1.0795 6.7303e-39 462 235 0 0 0 -0.73559 -0.32452 -0.59464 0.030633
0.06844 0.080832 1.0786 6.6381e-39 463 235 0 0 0 -0.75376 -0.34982 -0.55631 0.046561
0.065916 0.084618 1.0786 6.9147e-39 255 236 0 0 0 -0.80765 -0.38896 -0.44318 0.044242
-0.052748 0.093532 1.0795 9.1274e-39 349 236 0 0 0 -0.93869 0.11164 -0.3262 0.0083844
-0.05144 0.095975 1.0786 7.3757e-39 435 236 0 0 0 -0.94157 0.097333 -0.32246 0.0076177
0.059606 0.10355 1.0786 6.5459e-39 263 238 0 0 0 0.92281 0.34168 -0.17798 0.021645
0.068589 0.075318 1.081 6.8686e-39 214 235 0 0 0 -0.75003 -0.24231 -0.61542 0.022288
0.068559 0.077181 1.0805 7.3757e-39 302 235 0 0 0 -0.74675 -0.26291 -0.61093 0.025663
0.067295 0.079709 1.0805 7.0069e-39 408 235 0 0 0 -0.74043 -0.28815 -0.60724 0.025733
0.068559 0.078445 1.0805 6.9147e-39 356 235 0 0 0 -0.7429 -0.28137 -0.60739 0.026851
0.06606 0.082906 1.081 7.0991e-39 229 236 0 0 0 -0.7252 -0.35929 -0.58737 0.028423
0.064824 0.08484 1.0814 6.7303e-39 254 236 0 0 0 -0.74376 -0.37945 -0.55031 0.029731
0.062293 0.086105 1.0814 6.8225e-39 260 236 0 0 0 -0.76473 -0.39589 -0.50839 0.037738
0.064796 0.0867 1.081 6.4998e-39 265.5 236 0 0 0 -0.78796 -0.39677 -0.47084 0.041002
0.067472 0.073582 1.0833 7.0069e-39 426 234 0 0 0 -0.75294 -0.21628 -0.62153 0.0081782
0.06871 0.072916 1.0828 7.0069e-39 398.5 234 0 0 0 -0.74825 -0.2173 -0.62682 0.0084887
0.067413 0.074784 1.0824 6.8225e-39 180 235 0 0 0 -0.75065 -0.21589 -0.62443 0.0081625
0.067413 0.076683 1.0824 7.2835e-39 273.5 235 0 0 0 -0.75325 -0.24108 -0.61196 0.021389
0.066809 0.079251 1.0828 7.3296e-39 381 235 0 0 0 -0.74491 -0.27643 -0.60721 0.02353
0.064937 0.081186 1.0833 7.2835e-39 460 235 0 0 0 -0.74288 -0.28568 -0.6054 0.021991
0.066205 0.081186 1.0833 7.0069e-39 461 235 0 0 0 -0.74246 -0.28674 -0.60543 0.023519
0.064881 0.083015 1.0824 7.1913e-39 228 236 0 0 0 -0.73019 -0.32214 -0.60253 0.023388
0.061082 0.084914 1.0824 6.0849e-39 251 236 0 0 0 -0.73159 -0.37032 -0.5724 0.026106
0.063037 0.084989 1.0833 6.2232e-39 252.5 236 0 0 0 -0.73176 -0.35816 -0.57987 0.024277
0.063614 0.086814 1.0824 6.6381e-39 264.5 236 0 0 0 -0.74364 -0.39182 -0.54173 0.028958
0.06367 0.088791 1.0833 9.3118e-39 280 236 0 0 0 -0.73703 -0.39373 -0.54933 0.025247
0.064881 0.088713 1.0824 8.943e-39 281 236 0 0 0 -0.75323 -0.39951 -0.52253 0.028033
0.065052 0.069267 1.0852 7.7905e-39 336 233.5 0 0 0 -0.76031 -0.22554 -0.60915 0.0064312
0.066321 0.069902 1.0852 8.2976e-39 240 234 0 0 0 -0.75826 -0.22205 -0.61297 0.0069122
0.065052 0.071172 1.0852 7.2835e-39 309 234 0 0 0 -0.75993 -0.22445 -0.61002 0.0065501
0.066926 0.07114 1.0847 7.1452e-39 310.5 234 0 0 0 -0.75799 -0.22204 -0.61331 0.0070832
0.065052 0.073077 1.0852 7.2374e-39 395.5 234 0 0 0 -0.75918 -0.2214 -0.61207 0.0066344
0.066724 0.072844 1.0849 7.4371e-39 387.33 234 0 0 0 -0.757 -0.22005 -0.61525 0.0070711
0.064994 0.074915 1.0843 6.2693e-39 178 235 0 0 0 -0.75672 -0.2198 -0.61568 0.0072451
0.066263 0.074915 1.0843 6.6381e-39 179 235 0 0 0 -0.75572 -0.21846 -0.61738 0.0072868
0.065023 0.076852 1.0847 7.9749e-39 271.5 235 0 0 0 -0.75572 -0.21738 -0.61777 0.0074607
0.066263 0.076818 1.0843 7.3757e-39 272.5 235 0 0 0 -0.75342 -0.21604 -0.62103 0.0077894
0.065023 0.079389 1.0847 8.5742e-39 379.5 235 0 0 0 -0.7515 -0.25869 -0.6069 0.020015
0.066263 0.078721 1.0843 9.1274e-39 354 235 0 0 0 -0.75212 -0.25845 -0.60624 0.020484
0.063147 0.081329 1.0852 7.0069e-39 458.5 235 0 0 0 -0.7443 -0.28181 -0.60547 0.019892
0.061216 0.083197 1.0847 7.1913e-39 225 236 0 0 0 -0.74749 -0.28461 -0.60021 0.019606
0.063092 0.083161 1.0843 7.1682e-39 226.5 236 0 0 0 -0.7416 -0.28953 -0.60514 0.021002
0.063894 0.066846 1.0871 9.45e-39 285 233 0 0 0 -0.76178 -0.22188 -0.60866 0.0046503
0.063894 0.068754 1.0871 7.3757e-39 432 233 0 0 0 -0.75697 -0.23892 -0.6082 0.0055655
0.063894 0.070661 1.0871 7.6061e-39 273 234 0 0 0 -0.76093 -0.22909 -0.60704 0.0057432
0.063451 0.073395 1.0868 6.9454e-39 403.67 234 0 0 0 -0.76445 -0.22031 -0.60587 0.0058537
0.06135 0.075113 1.0871 6.5459e-39 175 235 0 0 0 -0.7685 -0.2137 -0.6031 0.005325
0.06323 0.07508 1.0867 6.2693e-39 176.5 235 0 0 0 -0.76423 -0.21593 -0.60772 0.0058535
0.06135 0.077021 1.0871 8.943e-39 268.5 235 0 0 0 -0.77252 -0.20368 -0.60144 0.0054075
0.06323 0.076987 1.0867 8.5511e-39 270 235 0 0 0 -0.76433 -0.21575 -0.60766 0.0060997
0.06135 0.078929 1.0871 9.2196e-39 350 235 0 0 0 -0.77353 -0.20068 -0.60115 0.0056172
0.06323 0.078894 1.0867 9.8188e-39 351.5 235 0 0 0 -0.76405 -0.21193 -0.60935 0.0067254
0.061323 0.080801 1.0867 7.8827e-39 430 235 0 0 0 -0.77179 -0.21636 -0.59794 0.0082668
0.063203 0.08013 1.0862 8.6203e-39 404.5 235 0 0 0 -0.75989 -0.25224 -0.59912 0.017146
0.062733 0.067601 1.089 9.4961e-39 336 233 0 0 0 -0.75869 -0.22243 -0.61231 0.004151
0.061459 0.068875 1.089 7.1913e-39 430 233 0 0 0 -0.75873 -0.22287 -0.6121 0.0038289
0.062677 0.068814 1.0881 7.4678e-39 431 233 0 0 0 -0.76117 -0.2198 -0.61017 0.0040143
0.061459 0.070786 1.089 7.3296e-39 271 234 0 0 0 -0.76073 -0.22497 -0.60884 0.0047517
0.062677 0.070724 1.0881 7.3757e-39 272 234 0 0 0 -0.76216 -0.22412 -0.60736 0.0051362
0.061404 0.07327 1.0881 6.6381e-39 392.5 234 0 0 0 -0.7655 -0.22043 -0.6045 0.0049048
0.062677 0.072633 1.0881 6.0849e-39 365 234 0 0 0 -0.76415 -0.22298 -0.60527 0.0050949
0.060184 0.075245 1.089 6.7303e-39 174 235 0 0 0 -0.77435 -0.20487 -0.59867 0.0049708
0.060184 0.077157 1.089 9.0813e-39 267.5 235 0 0 0 -0.77844 -0.19518 -0.5966 0.0050337
0.060184 0.079068 1.089 8.943e-39 349 235 0 0 0 -0.77976 -0.19058 -0.59636 0.0051445
0.060158 0.080943 1.0885 7.9288e-39 429 235 0 0 0 -0.78132 -0.18655 -0.5956 0.005397
0.061567 0.063891 1.091 6.7303e-39 307 232 0 0 0 -0.75263 -0.22095 -0.62026 0.0042177
0.060956 0.065196 1.0914 9.4501e-39 405.5 232 0 0 0 -0.75617 -0.21627 -0.6176 0.0041736
0.062788 0.06511 1.09 8.6664e-39 407 232 0 0 0 -0.75832 -0.21637 -0.61493 0.0042799
0.060915 0.067067 1.0907 8.6894e-39 282.5 233 0 0 0 -0.75833 -0.21598 -0.61506 0.0038352
0.062788 0.066385 1.09 8.8508e-39 232 233 0 0 0 -0.75743 -0.21658 -0.61595 0.003989
0.060291 0.068996 1.091 7.2835e-39 429 233 0 0 0 -0.76073 -0.21233 -0.61336 0.0038012
0.060264 0.07088 1.0905 7.3757e-39 270 234 0 0 0 -0.76521 -0.21508 -0.60679 0.0048012
0.059067 0.07289 1.0919 6.9147e-39 362 234 0 0 0 -0.77007 -0.19857 -0.60627 0.0048643
0.060238 0.072761 1.09 6.2693e-39 363 234 0 0 0 -0.76893 -0.21046 -0.6037 0.0047322
0.057789 0.074806 1.0919 7.053e-39 295 234.5 0 0 0 -0.77415 -0.19412 -0.60251 0.0051494
0.059041 0.074772 1.0914 7.0991e-39 296 234.5 0 0 0 -0.77605 -0.19384 -0.60015 0.0050043
0.060238 0.074037 1.09 7.56e-39 420 234 0 0 0 -0.7729 -0.20468 -0.60061 0.0048556
0.057789 0.076722 1.0919 8.2976e-39 238 235 0 0 0 -0.77886 -0.18802 -0.59835 0.0053339
0.059014 0.077293 1.091 8.9891e-39 266.5 235 0 0 0 -0.77962 -0.19402 -0.59543 0.0050358
0.057789 0.078639 1.0919 9.4962e-39 320 235 0 0 0 -0.78017 -0.18946 -0.59618 0.0053327
0.059014 0.079207 1.091 9.3118e-39 348 235 0 0 0 -0.78047 -0.18836 -0.59614 0.0052317
0.057738 0.081122 1.091 8.5281e-39 427 235 0 0 0 -0.78453 -0.17877 -0.59376 0.0056073
0.058988 0.081086 1.0905 8.2515e-39 428 235 0 0 0 -0.78205 -0.18488 -0.59516 0.0053536
0.057687 0.082963 1.09 5.9927e-39 207 236 0 0 0 -0.78639 -0.17627 -0.59204 0.0057805
0.060398 0.064004 1.0929 6.2693e-39 306 232 0 0 0 -0.75551 -0.22204 -0.61637 0.0041922
0.059171 0.0679 1.0939 8.943e-39 333 233 0 0 0 -0.76239 -0.20177 -0.61486 0.0038904
0.059119 0.069119 1.0929 7.1913e-39 428 233 0 0 0 -0.76209 -0.20347 -0.61467 0.0038797
0.057866 0.071068 1.0934 8.1132e-39 268 234 0 0 0 -0.76973 -0.18863 -0.60987 0.0042894
0.059119 0.071037 1.0929 7.7444e-39 269 234 0 0 0 -0.76815 -0.19475 -0.60993 0.0040619
0.05784 0.072954 1.0929 7.2835e-39 361 234 0 0 0 -0.77161 -0.184 -0.6089 0.0041931
0.057994 0.064815 1.0958 8.2054e-39 353.5 232 0 0 0 -0.75761 -0.22439 -0.61292 0.0039406
0.059224 0.064758 1.0948 8.2054e-39 354.5 232 0 0 0 -0.75885 -0.21615 -0.61435 0.0040723
0.057969 0.067349 1.0953 8.9891e-39 280 233 0 0 0 -0.76777 -0.19384 -0.6107 0.0041504
0.059224 0.066679 1.0948 8.5742e-39 229 233 0 0 0 -0.76313 -0.20325 -0.61345 0.0040882
0.057943 0.069241 1.0948 7.0991e-39 427 233 0 0 0 -0.76695 -0.1907 -0.61272 0.0040807
0.058097 0.063004 1.0978 5.8083e-39 206 232 0 0 0 -0.76262 -0.23657 -0.60204 0.0038765
0.055529 0.071352 1.0978 7.8827e-39 266 234 0 0 0 -0.78254 -0.16752 -0.59965 0.0043163
0.056788 0.07132 1.0973 8.1132e-39 267 234 0 0 0 -0.77827 -0.17038 -0.60437 0.0044934
0.054886 0.073279 1.0978 7.0991e-39 359.5 234 0 0 0 -0.78591 -0.16116 -0.59697 0.0043922
0.054862 0.07453 1.0973 7.4218e-39 416.5 234 0 0 0 -0.78653 -0.15758 -0.59711 0.0046908
-0.057491 0.083553 1.0978 7.2835e-39 466 235 0 0 0 0.59503 -0.014641 -0.80357 0.063568
0.055628 0.06569 1.0997 9.404e-39 401 232 0 0 0 -0.77803 -0.21129 -0.59163 0.00379
0.056914 0.06569 1.0997 9.4961e-39 402 232 0 0 0 -0.77627 -0.21137 -0.5939 0.0038882
0.055578 0.066917 1.0987 8.8508e-39 226 233 0 0 0 -0.78174 -0.19143 -0.5935 0.0041615
0.056914 0.066976 1.0997 8.8508e-39 227 233 0 0 0 -0.78189 -0.19119 -0.59337 0.0042082
0.054959 0.068875 1.0992 7.2604e-39 377 233 0 0 0 -0.78483 -0.18475 -0.59153 0.0042418
0.056864 0.068845 1.0987 7.7905e-39 378.5 233 0 0 0 -0.77903 -0.18005 -0.60057 0.0043768
0.054293 0.070773 1.0987 8.6664e-39 230 234 0 0 0 -0.78793 -0.1675 -0.59254 0.0043135
0.054293 0.072058 1.0987 7.1913e-39 300 234 0 0 0 -0.78957 -0.15929 -0.59262 0.0046411
-0.057594 0.082415 1.0997 7.7444e-39 413 235 0 0 0 0.62374 0.020267 -0.78137 0.056436
-0.05383 0.056784 1.1017 5.9005e-39 211 230 0 0 0 0.47676 0.0030192 -0.87903 0.073609
-0.05383 0.058718 1.1017 8.8047e-39 340.5 230 0 0 0 0.49986 0.0093832 -0.86606 0.065672
0.055727 0.06194 1.1017 9.2196e-39 385 231 0 0 0 -0.76814 -0.25432 -0.5876 0.0035332
0.055727 0.063229 1.1017 6.1771e-39 204 232 0 0 0 -0.77159 -0.24406 -0.58744 0.0034297
0.057016 0.063229 1.1017 5.9927e-39 205 232 0 0 0 -0.77141 -0.24343 -0.58794 0.0035116
0.054835 0.064909 1.101 7.7445e-39 334.33 232 0 0 0 -0.78072 -0.21391 -0.58713 0.0037735
0.056965 0.06446 1.1007 6.8225e-39 303 232 0 0 0 -0.77229 -0.22971 -0.59229 0.0035
0.053149 0.067096 1.1017 8.8508e-39 224 233 0 0 0 -0.79147 -0.18148 -0.58365 0.0043875
0.054389 0.067036 1.1007 8.7586e-39 225 233 0 0 0 -0.78723 -0.18989 -0.5867 0.0040502
0.053149 0.069029 1.1017 6.8224e-39 375.5 233 0 0 0 -0.79625 -0.16606 -0.58173 0.004462
0.05186 0.070962 1.1017 8.943e-39 228 234 0 0 0 -0.80011 -0.15541 -0.57938 0.0046083
0.053102 0.070899 1.1007 8.6664e-39 229 234 0 0 0 -0.79738 -0.16089 -0.58163 0.0043593
-0.060274 0.07354 1.1017 6.6381e-39 313 234 0 0 0 0.52667 0.01315 -0.84997 0.066972
0.05186 0.072895 1.1017 7.8827e-39 328 234 0 0 0 -0.80222 -0.14585 -0.57895 0.0046701
0.053102 0.072187 1.1007 7.9288e-39 299 234 0 0 0 -0.80032 -0.14954 -0.58063 0.00453
-0.060274 0.074829 1.1017 7.8366e-39 372 234 0 0 0 0.54358 0.023112 -0.83904 0.055698
0.05186 0.074829 1.1017 7.1913e-39 415 234 0 0 0 -0.80562 -0.13112 -0.57774 0.0048015
-0.060274 0.076762 1.1017 6.7764e-39 306 234.5 0 0 0 0.57023 0.013196 -0.82138 0.058222
-0.057671 0.079305 1.1012 6.4537e-39 278.5 235 0 0 0 0.60889 0.011229 -0.79318 0.060224
0.05186 0.078696 1.1017 9.1274e-39 292 235 0 0 0 -0.81125 -0.1125 -0.57377 0.0050019
-0.057026 0.081238 1.1012 7.4218e-39 360.5 235 0 0 0 0.62689 0.027929 -0.77861 0.053536
-0.056382 0.08317 1.1012 7.3757e-39 440.5 235 0 0 0 0.65434 0.054168 -0.75426 0.04908
-0.055119 0.08514 1.1017 7.1913e-39 217 236 0 0 0 0.67664 0.059009 -0.73394 0.04584
-0.053782 0.085064 1.1007 8.3898e-39 218 236 0 0 0 0.67312 0.065256 -0.73665 0.045784
-0.052588 0.056835 1.1027 5.8083e-39 212 230 0 0 0 0.51828 0.021025 -0.85495 0.063767
-0.051344 0.056886 1.1036 6.1771e-39 213 230 0 0 0 0.53519 0.039223 -0.84382 0.05773
-0.056508 0.059468 1.1036 8.3898e-39 383 230 0 0 0 0.4895 -0.0079005 -0.87197 0.065485
-0.055217 0.059468 1.1036 8.8508e-39 384 230 0 0 0 0.51677 0.0022983 -0.85612 0.059878
-0.052635 0.058823 1.1036 8.5742e-39 341.5 230 0 0 0 0.53983 0.029649 -0.84125 0.053621
-0.056508 0.06076 1.1036 5.6239e-39 200 231 0 0 0 0.50889 -0.00089979 -0.86083 0.059644
-0.055217 0.06076 1.1036 5.5317e-39 201 231 0 0 0 0.53068 0.00015277 -0.84757 0.055088
-0.053464 0.061153 1.103 6.423e-39 234.33 231 0 0 0 0.54299 0.0055085 -0.83972 0.050965
0.055777 0.060705 1.1027 9.1274e-39 291 231 0 0 0 -0.76379 -0.26704 -0.58763 0.003637
0.057067 0.061995 1.1027 9.404e-39 386 231 0 0 0 -0.76805 -0.25447 -0.58765 0.0035721
-0.056508 0.062051 1.1036 8.8508e-39 296 231 0 0 0 0.52117 0.0018699 -0.85345 0.055743
-0.053926 0.063342 1.1036 8.943e-39 393 231 0 0 0 0.56721 0.0184 -0.82337 0.04741
0.051953 0.063342 1.1036 5.6239e-39 201 232 0 0 0 -0.77443 -0.22344 -0.59189 0.0043643
0.053244 0.062697 1.1036 7.6522e-39 292.5 231.5 0 0 0 -0.76912 -0.2449 -0.59032 0.0039253
0.054511 0.062668 1.1032 7.8366e-39 293.5 231.5 0 0 0 -0.77056 -0.24525 -0.5883 0.0036514
-0.053926 0.065924 1.1036 6.4537e-39 314 232 0 0 0 0.59199 0.024679 -0.80557 0.045548
0.051929 0.06525 1.1032 8.482e-39 348.5 232 0 0 0 -0.78566 -0.18985 -0.58881 0.004818
0.053196 0.065221 1.1027 8.3437e-39 349.5 232 0 0 0 -0.78688 -0.1891 -0.58742 0.0045329
-0.060382 0.067216 1.1036 7.9288e-39 409 232 0 0 0 0.5021 -0.012282 -0.86472 0.059564
-0.053926 0.067216 1.1036 7.0991e-39 414 232 0 0 0 0.59722 0.032553 -0.80142 0.0455
0.051284 0.067186 1.1032 8.8508e-39 222.5 233 0 0 0 -0.79061 -0.17411 -0.58704 0.0048661
-0.060355 0.069121 1.1032 8.989e-39 287 233 0 0 0 0.50418 0.00022931 -0.8636 0.059839
-0.056939 0.069368 1.1036 8.6357e-39 307 233 0 0 0 0.59105 0.037083 -0.80578 0.050733
-0.055217 0.069798 1.1036 9.4961e-39 343 233 0 0 0 0.6053 0.048939 -0.79449 0.048286
-0.053926 0.069153 1.1036 9.1274e-39 292 233 0 0 0 0.60927 0.05146 -0.7913 0.044669
0.051284 0.069122 1.1032 6.6381e-39 374 233 0 0 0 -0.79665 -0.15669 -0.58377 0.0051285
-0.060382 0.071089 1.1036 7.56e-39 438 233 0 0 0 0.54114 0.023052 -0.84062 0.060924
-0.057154 0.071089 1.1036 7.7444e-39 440.5 233 0 0 0 0.60247 0.049806 -0.79659 0.051343
-0.055217 0.071089 1.1036 7.2835e-39 442 233 0 0 0 0.6125 0.06086 -0.78812 0.047742
-0.053926 0.071089 1.1036 6.9147e-39 443 233 0 0 0 0.61955 0.065386 -0.78223 0.044222
0.050616 0.071026 1.1027 9.3118e-39 227 234 0 0 0 -0.80049 -0.14767 -0.58087 0.0049749
-0.060328 0.072316 1.1027 7.9288e-39 242 234 0 0 0 0.53226 0.018581 -0.84638 0.064224
-0.059091 0.073026 1.1036 7.0991e-39 278.5 234 0 0 0 0.58787 0.040769 -0.80793 0.059988
-0.057116 0.072977 1.1029 6.8456e-39 280 234 0 0 0 0.60819 0.054526 -0.79191 0.053591
-0.055168 0.072961 1.1027 6.592e-39 281.5 234 0 0 0 0.61373 0.062115 -0.78707 0.04989
-0.053926 0.073026 1.1036 6.7303e-39 282.5 234 0 0 0 0.62424 0.069856 -0.77811 0.045157
0.04937 0.073026 1.1036 8.2976e-39 326 234 0 0 0 -0.80671 -0.12697 -0.57715 0.0057223
0.050616 0.072961 1.1027 8.1132e-39 327 234 0 0 0 -0.80488 -0.13952 -0.57681 0.005099
-0.061618 0.074896 1.1027 7.0069e-39 371 234 0 0 0 0.53752 -0.0022782 -0.84325 0.071052
-0.059091 0.074963 1.1036 8.3898e-39 373 234 0 0 0 0.60506 0.041386 -0.79511 0.06177
-0.057103 0.074896 1.1027 8.3437e-39 374.5 234 0 0 0 0.61129 0.04839 -0.78992 0.058208
-0.055168 0.074896 1.1027 7.9288e-39 376 234 0 0 0 0.62397 0.070838 -0.77823 0.041962
-0.053926 0.074963 1.1036 7.8366e-39 377 234 0 0 0 0.63197 0.080357 -0.77081 0.038275
0.04937 0.074963 1.1036 7.7444e-39 413 234 0 0 0 -0.80878 -0.11631 -0.57649 0.0055783
0.050616 0.074896 1.1027 7.3757e-39 414 234 0 0 0 -0.80836 -0.12412 -0.57545 0.0051428
-0.059091 0.076899 1.1036 6.9147e-39 307 234.5 0 0 0 0.61112 0.03942 -0.79056 0.053191
-0.057103 0.076831 1.1027 6.8917e-39 308.5 234.5 0 0 0 0.62151 0.044109 -0.78216 0.050374
-0.055168 0.076831 1.1027 6.9608e-39 310 234.5 0 0 0 0.63077 0.058973 -0.77372 0.043967
-0.053926 0.076254 1.1036 7.1913e-39 434 234 0 0 0 0.63592 0.076108 -0.768 0.039571
0.04937 0.076899 1.1036 7.6983e-39 203 235 0 0 0 -0.80966 -0.11202 -0.57611 0.0056445
0.050616 0.076831 1.1027 7.6061e-39 204 235 0 0 0 -0.81048 -0.11659 -0.57405 0.0051119
-0.059091 0.078836 1.1036 6.6381e-39 250 235 0 0 0 0.61676 0.018193 -0.78694 0.056012
-0.056458 0.078766 1.1027 6.5459e-39 252 235 0 0 0 0.63382 0.036567 -0.77262 0.050436
-0.055168 0.078766 1.1027 6.9147e-39 253 235 0 0 0 0.63639 0.040231 -0.77032 0.047535
-0.053926 0.078836 1.1036 7.0991e-39 254 235 0 0 0 0.64126 0.048249 -0.76581 0.043108
0.04937 0.078836 1.1036 8.5742e-39 290 235 0 0 0 -0.80985 -0.10216 -0.57767 0.0056392
0.050616 0.078766 1.1027 8.8508e-39 291 235 0 0 0 -0.81328 -0.1093 -0.57152 0.0051536
-0.059091 0.080128 1.1036 6.3615e-39 305 235 0 0 0 0.63197 0.017401 -0.77479 0.057533
-0.056458 0.080056 1.1027 6.6381e-39 307 235 0 0 0 0.63774 0.028391 -0.76973 0.053946
-0.055168 0.080701 1.1027 7.2374e-39 335 235 0 0 0 0.64584 0.061263 -0.76101 0.044473
-0.053926 0.080774 1.1036 7.0069e-39 336 235 0 0 0 0.65528 0.067421 -0.75237 0.03952
0.050616 0.080701 1.1027 1.0095e-38 372.5 235 0 0 0 -0.81482 -0.093751 -0.57209 0.0050532
-0.055193 0.083318 1.1032 6.4998e-39 286.5 235.5 0 0 0 0.66357 0.069646 -0.74486 0.042721
-0.053926 0.08271 1.1036 7.1913e-39 416 235 0 0 0 0.66484 0.079999 -0.74269 0.038803
0.050616 0.082636 1.1027 7.0069e-39 453 235 0 0 0 -0.81764 -0.056935 -0.57291 0.003891
-0.053926 0.084001 1.1036 6.6381e-39 159 236 0 0 0 0.66946 0.064907 -0.74001 0.040368
0.050662 0.084001 1.1036 6.0849e-39 206 236 0 0 0 -0.81829 -0.044354 -0.57309 0.0038214
-0.050097 0.056937 1.1046 6.5459e-39 214 230 0 0 0 0.54029 0.061885 -0.8392 0.048518
-0.057903 0.059575 1.1056 8.1132e-39 382 230 0 0 0 0.4895 -0.0079003 -0.87197 0.065485
-0.055267 0.058229 1.1046 8.482e-39 295 230 0 0 0 0.5161 0.011683 -0.85645 0.061416
-0.050766 0.058902 1.1051 8.2285e-39 343 230 0 0 0 0.55369 0.055889 -0.83085 0.044311
-0.057851 0.060814 1.1046 5.9927e-39 199 231 0 0 0 0.50091 -0.0059455 -0.86548 0.060254
-0.050766 0.060841 1.1051 5.7622e-39 204.5 231 0 0 0 0.56745 0.051568 -0.82179 0.04212
0.052669 0.060841 1.1051 9.5422e-39 288.5 231 0 0 0 -0.75652 -0.26524 -0.59776 0.0040535
0.054584 0.060814 1.1046 9.1274e-39 290 231 0 0 0 -0.75979 -0.27134 -0.59084 0.0038113
-0.059197 0.062808 1.1056 9.0352e-39 341.5 231 0 0 0 0.50432 -0.0019461 -0.86352 0.060001
-0.05742 0.062968 1.1046 8.943e-39 358.67 231 0 0 0 0.52885 0.014235 -0.8486 0.054029
-0.055267 0.062753 1.1046 8.6664e-39 344.5 231 0 0 0 0.55628 0.019477 -0.83076 0.050206
-0.052706 0.06278 1.1051 8.0671e-39 346.5 231 0 0 0 0.57554 0.041746 -0.81671 0.042455
-0.050989 0.062574 1.1053 7.7137e-39 332 231 0 0 0 0.58099 0.055029 -0.81205 0.039069
0.051376 0.06278 1.1051 7.099e-39 291 231.5 0 0 0 -0.76996 -0.22973 -0.5953 0.0045064
-0.060463 0.065366 1.1051 6.4076e-39 258.5 232 0 0 0 0.49779 -0.017776 -0.86712 0.059468
-0.05917 0.065366 1.1051 6.4537e-39 259.5 232 0 0 0 0.52828 -0.0054085 -0.84905 0.055224
-0.057231 0.065366 1.1051 6.4537e-39 261 232 0 0 0 0.56273 0.013695 -0.82653 0.050432
-0.055291 0.065366 1.1051 6.3615e-39 262.5 232 0 0 0 0.58577 0.029536 -0.80994 0.047147
-0.053351 0.06472 1.1051 7.514e-39 213.5 232 0 0 0 0.58808 0.036488 -0.80798 0.041743
-0.051436 0.064749 1.1056 8.2976e-39 215 232 0 0 0 0.59445 0.053127 -0.80238 0.036695
0.049459 0.064749 1.1056 8.7586e-39 297 232 0 0 0 -0.78383 -0.17291 -0.59641 0.0060724
0.050707 0.065337 1.1046 8.7124e-39 347.5 232 0 0 0 -0.78719 -0.18217 -0.5892 0.0052679
-0.059144 0.067276 1.1046 7.9288e-39 410 232 0 0 0 0.54122 -0.00073747 -0.84088 0.055382
-0.057205 0.067276 1.1046 7.8366e-39 411.5 232 0 0 0 0.58189 0.022113 -0.81297 0.050838
-0.055267 0.067276 1.1046 7.3757e-39 413 232 0 0 0 0.59682 0.032955 -0.80169 0.04643
-0.052729 0.066689 1.1056 6.9608e-39 365 232 0 0 0 0.60953 0.052281 -0.79104 0.038096
-0.051005 0.066905 1.1056 7.0991e-39 383 232 0 0 0 0.60802 0.057959 -0.7918 0.034914
0.049437 0.066659 1.1051 9.0813e-39 308.5 232.5 0 0 0 -0.79132 -0.15939 -0.59026 0.0060632
-0.061784 0.069923 1.1056 9.9571e-39 338 233 0 0 0 0.50525 -0.00066674 -0.86297 0.06142
-0.059144 0.069214 1.1046 8.5742e-39 288 233 0 0 0 0.56469 0.017949 -0.82511 0.056508
-0.057851 0.068568 1.1046 7.6522e-39 237 233 0 0 0 0.58253 0.026048 -0.81239 0.051006
-0.055267 0.068568 1.1046 7.9288e-39 239 233 0 0 0 0.60576 0.048816 -0.79415 0.045634
-0.052682 0.069214 1.1046 9.2658e-39 293 233 0 0 0 0.61555 0.065131 -0.7854 0.040048
-0.050789 0.069276 1.1056 9.1274e-39 294.5 233 0 0 0 0.61623 0.07759 -0.78373 0.034129
0.049415 0.069214 1.1046 6.7764e-39 372.5 233 0 0 0 -0.79938 -0.14229 -0.58374 0.0056033
-0.061784 0.071217 1.1056 7.1913e-39 437 233 0 0 0 0.53226 0.018581 -0.84638 0.064224
-0.059144 0.071153 1.1046 7.7444e-39 439 233 0 0 0 0.58354 0.035509 -0.81131 0.056703
-0.052729 0.071217 1.1056 6.8225e-39 444 233 0 0 0 0.62158 0.077015 -0.77956 0.037635
-0.051436 0.071217 1.1056 6.8225e-39 445 233 0 0 0 0.62237 0.083918 -0.77821 0.036009
0.049415 0.071153 1.1046 8.943e-39 226 234 0 0 0 -0.8034 -0.13042 -0.58098 0.0056287
-0.061728 0.073091 1.1046 7.514e-39 276.5 234 0 0 0 0.53337 0.014735 -0.84575 0.066734
-0.052729 0.073157 1.1056 6.7303e-39 283.5 234 0 0 0 0.62616 0.081508 -0.77542 0.038476
-0.052729 0.075097 1.1056 8.2054e-39 378 234 0 0 0 0.63125 0.082733 -0.77116 0.038727
-0.053974 0.077615 1.1046 6.5459e-39 188 235 0 0 0 0.63981 0.066887 -0.76562 0.038863
-0.059144 0.081492 1.1046 6.8225e-39 359 235 0 0 0 0.64742 0.0039096 -0.76213 0.05913
0.049415 0.080846 1.1046 1.0003e-38 371.5 235 0 0 0 -0.8131 -0.076351 -0.5771 0.0047892
-0.059197 0.082858 1.1056 7.9288e-39 412 235 0 0 0 0.65666 0.021087 -0.75389 0.052925
0.049415 0.082784 1.1046 6.7303e-39 452 235 0 0 0 -0.81672 -0.043417 -0.5754 0.0035961
0.049459 0.084152 1.1056 6.5459e-39 205 236 0 0 0 -0.81752 -0.028825 -0.57518 0.0032595
-0.048892 0.055744 1.1066 9.1274e-39 405 229 0 0 0 0.54754 0.093875 -0.8315 0.04426
-0.048892 0.057039 1.1066 6.5459e-39 215 230 0 0 0 0.55425 0.10287 -0.82597 0.041909
-0.04764 0.05709 1.1076 6.5459e-39 216 230 0 0 0 0.5539 0.10558 -0.82586 0.037069
-0.048892 0.058981 1.1066 7.9288e-39 345 230 0 0 0 0.56116 0.090904 -0.8227 0.038014
-0.04764 0.059034 1.1076 7.6061e-39 346 230 0 0 0 0.55999 0.095852 -0.82293 0.034473
0.052539 0.059214 1.1069 6.9454e-39 258 230.67 0 0 0 -0.74851 -0.27948 -0.60135 0.0040338
-0.05925 0.060923 1.1066 6.2693e-39 198 231 0 0 0 0.48845 -0.0087501 -0.87255 0.061815
-0.048892 0.060923 1.1066 5.6239e-39 206 231 0 0 0 0.56798 0.082187 -0.81893 0.03473
-0.04764 0.060978 1.1076 5.5317e-39 207 231 0 0 0 0.56693 0.098988 -0.8178 0.031326
0.050843 0.060978 1.1076 9.2196e-39 287 231 0 0 0 -0.75517 -0.2439 -0.60846 0.0047303
-0.060544 0.063512 1.1066 9.404e-39 388 231 0 0 0 0.49097 -0.0020162 -0.87118 0.060647
-0.050187 0.063512 1.1066 9.2196e-39 396 231 0 0 0 0.58745 0.064384 -0.80669 0.033257
-0.048914 0.062894 1.1071 8.2976e-39 349.5 231 0 0 0 0.57606 0.081445 -0.81334 0.031286
-0.04764 0.062921 1.1076 8.2054e-39 350.5 231 0 0 0 0.57598 0.095079 -0.81192 0.029368
0.049503 0.063512 1.1066 5.9927e-39 199 232 0 0 0 -0.77621 -0.1875 -0.60195 0.0058039
0.050798 0.062218 1.1066 7.56e-39 381 231 0 0 0 -0.76725 -0.22639 -0.60007 0.0047892
-0.050187 0.064807 1.1066 8.1132e-39 216 232 0 0 0 0.5926 0.0679 -0.80263 0.032244
-0.048936 0.064865 1.1076 8.021e-39 217 232 0 0 0 0.58693 0.087602 -0.80489 0.028658
-0.061895 0.066809 1.1076 7.6983e-39 358 232 0 0 0 0.51229 0.00051683 -0.85881 0.059532
-0.050187 0.066102 1.1066 6.3615e-39 317 232 0 0 0 0.59866 0.073313 -0.79764 0.031805
-0.048936 0.066809 1.1076 6.4537e-39 368 232 0 0 0 0.59533 0.089333 -0.7985 0.02823
-0.04764 0.066809 1.1076 6.4998e-39 369 232 0 0 0 0.58934 0.093213 -0.80249 0.026819
0.046956 0.067457 1.1076 8.943e-39 219 233 0 0 0 -0.78235 -0.13567 -0.60788 0.0073015
0.04823 0.066778 1.1071 9.1735e-39 307.5 232.5 0 0 0 -0.78405 -0.14578 -0.60333 0.0071163
-0.061839 0.068691 1.1066 8.943e-39 234 233 0 0 0 0.51894 -0.0034038 -0.85481 0.059743
-0.048892 0.068691 1.1066 7.3757e-39 244 233 0 0 0 0.61084 0.08486 -0.78719 0.030496
-0.04764 0.068753 1.1076 7.0991e-39 245 233 0 0 0 0.59944 0.093356 -0.79496 0.027531
0.046956 0.068753 1.1076 6.7303e-39 322 233 0 0 0 -0.78549 -0.1262 -0.60587 0.0075745
0.048208 0.069339 1.1066 6.9608e-39 371 233 0 0 0 -0.79161 -0.12841 -0.59738 0.0069782
-0.050187 0.07128 1.1066 6.9147e-39 446 233 0 0 0 0.61843 0.089049 -0.78078 0.031521
-0.048936 0.070696 1.1076 8.1133e-39 397.5 233 0 0 0 0.60661 0.091449 -0.78972 0.029119
-0.04764 0.070048 1.1076 8.943e-39 349 233 0 0 0 0.60244 0.092452 -0.7928 0.027921
0.046935 0.070664 1.1071 7.8366e-39 321 233.5 0 0 0 -0.79115 -0.11142 -0.60138 0.0072925
0.048208 0.07128 1.1066 8.8508e-39 225 234 0 0 0 -0.79548 -0.11923 -0.59414 0.0067206
-0.050834 0.073223 1.1066 6.4306e-39 285 234 0 0 0 0.623 0.089107 -0.77713 0.033239
0.046914 0.072575 1.1066 9.2196e-39 294 234 0 0 0 -0.7952 -0.10773 -0.5967 0.0067556
0.048208 0.072575 1.1066 9.0352e-39 295 234 0 0 0 -0.79616 -0.1108 -0.59485 0.0068458
-0.050834 0.075164 1.1066 9.2657e-39 379.5 234 0 0 0 0.62852 0.094457 -0.77203 0.027964
-0.052776 0.077106 1.1066 7.053e-39 313.5 234.5 0 0 0 0.63745 0.074081 -0.76692 0.032802
-0.050834 0.077106 1.1066 7.1452e-39 320.75 234.5 0 0 0 0.63113 0.076385 -0.77191 0.029512
-0.052776 0.079048 1.1066 7.0991e-39 255 235 0 0 0 0.64241 0.060215 -0.764 0.035023
-0.050834 0.079048 1.1066 6.592e-39 256.5 235 0 0 0 0.63556 0.064679 -0.76933 0.032096
-0.052776 0.080991 1.1066 6.8225e-39 337 235 0 0 0 0.65054 0.07127 -0.75612 0.030994
-0.050857 0.081027 1.1071 6.6842e-39 338.5 235 0 0 0 0.64467 0.084463 -0.75978 0.026614
-0.052824 0.083007 1.1076 7.6522e-39 417 235 0 0 0 0.65832 0.085454 -0.74787 0.028403
0.048252 0.083007 1.1076 6.8225e-39 451 235 0 0 0 -0.8106 -0.028049 -0.58493 0.0036505
-0.046428 0.057193 1.1096 6.8225e-39 217 230 0 0 0 0.55442 0.12704 -0.82249 0.031145
-0.04513 0.057193 1.1096 7.1913e-39 218 230 0 0 0 0.55807 0.12321 -0.8206 0.02948
0.050935 0.059789 1.1096 6.1771e-39 195 231 0 0 0 -0.74364 -0.25896 -0.61639 0.0046295
0.049637 0.061087 1.1096 8.8508e-39 286 231 0 0 0 -0.75279 -0.22066 -0.62018 0.0056424
-0.060653 0.062329 1.1086 9.0352e-39 293 231 0 0 0 0.49499 0.0067583 -0.86887 0.064134
0.048965 0.063006 1.1091 6.7764e-39 289 231.5 0 0 0 -0.76596 -0.18921 -0.61442 0.0064016
-0.062006 0.064982 1.1096 5.7161e-39 207 232 0 0 0 0.50272 0.011881 -0.86437 0.061354
-0.047683 0.064923 1.1086 8.2976e-39 218 232 0 0 0 0.58073 0.10032 -0.8079 0.027074
0.04704 0.064982 1.1096 9.1274e-39 295 232 0 0 0 -0.77276 -0.14531 -0.61784 0.0072987
0.048295 0.064923 1.1086 8.943e-39 296 232 0 0 0 -0.77579 -0.15338 -0.61207 0.0069063
0.045742 0.067578 1.1096 8.6664e-39 218 233 0 0 0 -0.78053 -0.11999 -0.6135 0.008066
0.046998 0.06622 1.1086 8.8508e-39 394 232 0 0 0 -0.77726 -0.1377 -0.61393 0.0074598
-0.046428 0.068876 1.1096 7.2835e-39 246 233 0 0 0 0.58443 0.10605 -0.80448 0.024095
0.045742 0.068876 1.1096 6.1771e-39 321 233 0 0 0 -0.78322 -0.10778 -0.61233 0.0079495
-0.047683 0.071408 1.1086 7.0069e-39 448 233 0 0 0 0.60254 0.096024 -0.79229 0.027032
0.045722 0.070791 1.1091 8.1593e-39 320 233.5 0 0 0 -0.78598 -0.10286 -0.60964 0.0077474
-0.04898 0.072705 1.1086 6.5459e-39 251 234 0 0 0 0.60731 0.0936 -0.78893 0.028118
-0.047726 0.072771 1.1096 6.6381e-39 252 234 0 0 0 0.60009 0.094286 -0.79436 0.025874
0.045701 0.072705 1.1086 9.4961e-39 293 234 0 0 0 -0.78894 -0.096893 -0.60678 0.0070937
-0.04898 0.07465 1.1086 7.9749e-39 351.5 234 0 0 0 0.61285 0.097003 -0.78422 0.023891
-0.047726 0.074069 1.1096 6.9147e-39 323 234 0 0 0 0.60155 0.095614 -0.79309 0.021696
0.045742 0.074069 1.1096 8.3898e-39 355 234 0 0 0 -0.78723 -0.095859 -0.60916 0.0070844
-0.049002 0.07728 1.1091 7.1913e-39 322.5 234.5 0 0 0 0.61204 0.077828 -0.78698 0.024991
0.045742 0.079261 1.1096 8.7586e-39 289 235 0 0 0 -0.79502 -0.060094 -0.60361 0.0052137
-0.050926 0.083081 1.1086 8.0671e-39 418.5 235 0 0 0 0.64472 0.084033 -0.75978 0.024409
-0.052919 0.084454 1.1096 6.7303e-39 160 236 0 0 0 0.65888 0.082201 -0.74774 0.026663
-0.04326 0.057296 1.1116 7.5139e-39 219.5 230 0 0 0 0.57793 0.13421 -0.80497 0.011889
-0.046469 0.059193 1.1106 7.6061e-39 347 230 0 0 0 0.55806 0.12045 -0.82101 0.027295
-0.04517 0.059193 1.1106 7.6061e-39 348 230 0 0 0 0.55764 0.126 -0.82046 0.026387
-0.046511 0.061197 1.1116 5.8083e-39 208 231 0 0 0 0.5615 0.12008 -0.81872 0.025263
-0.045211 0.061197 1.1116 5.8083e-39 209 231 0 0 0 0.55707 0.12497 -0.82101 0.024096
0.048425 0.061197 1.1116 8.8508e-39 285 231 0 0 0 -0.75328 -0.19354 -0.62858 0.0070261
-0.046511 0.063148 1.1116 7.9749e-39 351.5 231 0 0 0 0.56415 0.11946 -0.81699 0.02359
-0.045211 0.063148 1.1116 7.6522e-39 352.5 231 0 0 0 0.55806 0.12256 -0.8207 0.022591
0.047104 0.06312 1.1111 7.099e-39 287.5 231.5 0 0 0 -0.76177 -0.16292 -0.62703 0.007394
0.048382 0.062441 1.1106 7.2835e-39 379 231 0 0 0 -0.75985 -0.18271 -0.62389 0.0067414
-0.046511 0.065099 1.1116 8.482e-39 219 232 0 0 0 0.5684 0.11617 -0.81451 0.023279
-0.045211 0.065099 1.1116 8.6664e-39 220 232 0 0 0 0.56141 0.11853 -0.81901 0.021677
0.045824 0.065099 1.1116 9.4961e-39 294 232 0 0 0 -0.76979 -0.12752 -0.62543 0.0078189
-0.046469 0.066989 1.1106 6.6842e-39 370 232 0 0 0 0.57643 0.11319 -0.80927 0.023134
-0.04519 0.067019 1.1111 6.8225e-39 371 232 0 0 0 0.56431 0.12112 -0.81663 0.021286
0.045783 0.066339 1.1106 8.7586e-39 393 232 0 0 0 -0.77454 -0.11933 -0.62116 0.0077279
-0.04517 0.068938 1.1106 7.6522e-39 247 233 0 0 0 0.57129 0.11555 -0.81257 0.021762
-0.046469 0.070237 1.1106 9.1274e-39 350 233 0 0 0 0.58656 0.10164 -0.8035 0.023902
-0.045211 0.070301 1.1116 9.4961e-39 351 233 0 0 0 0.57166 0.11148 -0.81289 0.021198
-0.047769 0.075435 1.1106 9.2196e-39 382 234 0 0 0 0.5966 0.088101 -0.79769 0.021518
-0.047769 0.076734 1.1106 7.3757e-39 441 234 0 0 0 0.59739 0.083236 -0.79762 0.022516
-0.049068 0.079333 1.1106 6.5459e-39 258 235 0 0 0 0.61493 0.082434 -0.78426 0.021638
-0.047812 0.078104 1.1116 6.4537e-39 206 235 0 0 0 0.60386 0.091404 -0.79184 0.019425
0.044524 0.079404 1.1116 8.482e-39 288 235 0 0 0 -0.79923 -0.053819 -0.59861 0.0052494
-0.049068 0.081281 1.1106 6.8686e-39 340 235 0 0 0 0.62441 0.092217 -0.77563 0.020467
0.045783 0.081281 1.1106 9.6346e-39 370.5 235 0 0 0 -0.80068 -0.028834 -0.5984 0.0039337
-0.049112 0.083306 1.1116 7.7444e-39 420 235 0 0 0 0.63603 0.10617 -0.76432 0.019374
0.045783 0.083231 1.1106 7.1913e-39 450 235 0 0 0 -0.80158 -0.0091559 -0.59781 0.0036326
-0.051017 0.08453 1.1106 6.2693e-39 161.5 236 0 0 0 0.6488 0.092118 -0.75537 0.023163
0.045824 0.084606 1.1116 6.6381e-39 204 236 0 0 0 -0.80112 0.00010106 -0.59851 0.0038091
-0.041384 0.057399 1.1136 7.1913e-39 221 230 0 0 0 0.5775 0.12895 -0.80615 0.0092316
0.048513 0.057399 1.1136 8.6664e-39 294 230 0 0 0 -0.72947 -0.23535 -0.64225 0.0074343
-0.043299 0.058649 1.1126 6.0849e-39 305.5 230 0 0 0 0.56226 0.13323 -0.81616 0.016211
-0.041384 0.058702 1.1136 6.2693e-39 307 230 0 0 0 0.57276 0.136 -0.80836 0.0095367
0.049131 0.059313 1.1128 6.4998e-39 286.5 230.5 0 0 0 -0.73702 -0.22421 -0.6376 0.0069606
-0.043556 0.060439 1.1136 8.021e-39 332.33 230.33 0 0 0 0.55582 0.12779 -0.82142 0.020405
0.045907 0.061307 1.1136 9.8649e-39 283 231 0 0 0 -0.75445 -0.16498 -0.63528 0.0079473
0.047167 0.061252 1.1126 9.404e-39 284 231 0 0 0 -0.75201 -0.17604 -0.63521 0.0077127
-0.062173 0.063856 1.1126 9.4961e-39 387 231 0 0 0 0.49541 0.0063235 -0.86864 0.065181
0.045887 0.063233 1.1131 7.3296e-39 286.5 231.5 0 0 0 -0.7624 -0.1418 -0.63138 0.007899
0.043301 0.067822 1.1136 8.5742e-39 216 233 0 0 0 -0.77716 -0.092565 -0.62245 0.0075309
0.044604 0.067822 1.1136 8.482e-39 217 233 0 0 0 -0.77827 -0.094499 -0.62078 0.0076337
0.043301 0.069125 1.1136 5.9927e-39 319 233 0 0 0 -0.78122 -0.088661 -0.61793 0.0074787
0.044564 0.069062 1.1126 5.9005e-39 320 233 0 0 0 -0.78086 -0.098644 -0.61686 0.0076312
-0.046553 0.071666 1.1126 7.1913e-39 449 233 0 0 0 0.57745 0.10047 -0.81022 0.022397
-0.045292 0.07173 1.1136 7.0991e-39 450 233 0 0 0 0.56276 0.10712 -0.81965 0.020002
0.043262 0.071015 1.1126 8.2054e-39 318.5 233.5 0 0 0 -0.78386 -0.096125 -0.61345 0.0074064
0.044564 0.070364 1.1126 7.4678e-39 416 233 0 0 0 -0.78245 -0.099102 -0.61478 0.0076943
-0.046553 0.072967 1.1126 7.0069e-39 253 234 0 0 0 0.57884 0.092799 -0.81014 0.022763
-0.045292 0.073033 1.1136 7.2835e-39 254 234 0 0 0 0.57154 0.096791 -0.81484 0.017975
0.043262 0.072967 1.1126 9.5883e-39 292 234 0 0 0 -0.78951 -0.091453 -0.60689 0.0072088
-0.046595 0.074988 1.1136 7.9749e-39 353.5 234 0 0 0 0.58135 0.092079 -0.80843 0.019568
-0.045292 0.074988 1.1136 7.7905e-39 354.5 234 0 0 0 0.58221 0.098984 -0.80699 0.015751
0.043262 0.074269 1.1126 9.6805e-39 354 234 0 0 0 -0.79098 -0.086058 -0.60577 0.006731
-0.046595 0.076942 1.1136 7.0069e-39 442 234 0 0 0 0.58767 0.091926 -0.80386 0.017608
-0.047855 0.079476 1.1126 6.4537e-39 259 235 0 0 0 0.60614 0.092449 -0.78997 0.01832
0.043282 0.078861 1.1131 8.4359e-39 261 235 0 0 0 -0.79971 -0.047082 -0.59853 0.0052009
-0.047855 0.080777 1.1126 6.4537e-39 314 235 0 0 0 0.61312 0.096127 -0.78412 0.017791
0.043301 0.08085 1.1136 8.8508e-39 342 235 0 0 0 -0.80289 -0.025372 -0.59559 0.004479
0.044564 0.080777 1.1126 9.404e-39 343 235 0 0 0 -0.8025 -0.037401 -0.59548 0.0045594
-0.047898 0.082153 1.1136 7.4678e-39 368 235 0 0 0 0.61692 0.10276 -0.78029 0.017384
0.043301 0.082805 1.1136 7.8827e-39 421.5 235 0 0 0 -0.80632 -0.010759 -0.59138 0.0042802
0.044564 0.08273 1.1126 7.8366e-39 422.5 235 0 0 0 -0.80421 -0.016654 -0.59411 0.0042812
-0.051109 0.085984 1.1126 9.6806e-39 219.5 236 0 0 0 0.65738 0.1104 -0.74542 0.020897
-0.049157 0.084682 1.1126 6.4537e-39 163 236 0 0 0 0.64128 0.11508 -0.75862 0.019411
0.044604 0.084759 1.1136 6.6381e-39 203 236 0 0 0 -0.80561 0.0024764 -0.59245 0.0041756
-0.049201 0.086062 1.1136 9.9571e-39 221 236 0 0 0 0.65653 0.12023 -0.74465 0.018907
-0.034917 0.052911 1.1151 6.7303e-39 342 228.5 0 0 0 0.575 0.095261 -0.81259 0.009745
-0.033612 0.052911 1.1151 6.592e-39 346 228.5 0 0 0 0.577 0.085382 -0.81227 0.0098165
-0.040153 0.05685 1.1156 8.2515e-39 314 229.5 0 0 0 0.58605 0.13846 -0.79836 0.0085731
-0.038831 0.056825 1.1151 8.3898e-39 315 229.5 0 0 0 0.58077 0.12973 -0.80367 0.00917
-0.037543 0.05685 1.1156 8.6203e-39 316 229.5 0 0 0 0.5764 0.12102 -0.80815 0.0095201
0.04599 0.057503 1.1156 9.1274e-39 292 230 0 0 0 -0.73472 -0.20882 -0.64543 0.0078065
0.047252 0.057451 1.1146 8.8508e-39 293 230 0 0 0 -0.72995 -0.22579 -0.64513 0.0077992
0.04599 0.058808 1.1156 7.4678e-39 377 230 0 0 0 -0.74181 -0.19544 -0.64149 0.0077984
0.047252 0.058755 1.1146 7.1913e-39 378 230 0 0 0 -0.73838 -0.20973 -0.64095 0.0076514
-0.042725 0.061363 1.1146 5.9927e-39 211 231 0 0 0 0.56085 0.12864 -0.81786 0.01344
-0.04144 0.060739 1.1151 7.6061e-39 303.5 230.5 0 0 0 0.57022 0.12991 -0.81115 0.0096337
0.045948 0.060059 1.1146 5.7161e-39 191 231 0 0 0 -0.74819 -0.17987 -0.63864 0.007611
0.047252 0.060059 1.1146 5.5317e-39 192 231 0 0 0 -0.74562 -0.18704 -0.63958 0.0079689
-0.044029 0.063319 1.1146 7.6061e-39 353.5 231 0 0 0 0.55248 0.12589 -0.82396 0.020052
-0.042725 0.063319 1.1146 7.9288e-39 354.5 231 0 0 0 0.54954 0.12351 -0.82629 0.018384
-0.041459 0.062723 1.1156 7.0991e-39 308 231 0 0 0 0.56944 0.13676 -0.81058 0.009265
0.04338 0.062723 1.1156 8.021e-39 375 231 0 0 0 -0.76752 -0.12781 -0.62816 0.0083213
0.044685 0.062723 1.1156 8.1132e-39 376 231 0 0 0 -0.76471 -0.1348 -0.63012 0.0082852
-0.044029 0.065275 1.1146 8.5742e-39 221 232 0 0 0 0.54942 0.1307 -0.82526 0.019691
-0.042725 0.065275 1.1146 8.3898e-39 222 232 0 0 0 0.55541 0.12925 -0.82147 0.01433
-0.04144 0.064652 1.1151 9.1735e-39 313 231.5 0 0 0 0.56786 0.13831 -0.81142 0.0092495
0.042931 0.064879 1.1153 8.3283e-39 259 232 0 0 0 -0.77335 -0.10837 -0.62465 0.008078
0.044664 0.064652 1.1151 7.9749e-39 244 232 0 0 0 -0.77069 -0.1164 -0.62649 0.0078288
-0.044029 0.067231 1.1146 7.0069e-39 372 232 0 0 0 0.54878 0.13185 -0.82551 0.01879
-0.042725 0.067231 1.1146 7.3757e-39 373 232 0 0 0 0.55744 0.13718 -0.81881 0.013156
-0.041421 0.067231 1.1146 6.9608e-39 375 232 0 0 0 0.56838 0.14072 -0.81064 0.0096011
0.042496 0.067054 1.1153 8.7893e-39 332 232.33 0 0 0 -0.78059 -0.083711 -0.61941 0.0078676
0.044644 0.066579 1.1146 8.943e-39 392 232 0 0 0 -0.77549 -0.095131 -0.62415 0.0078804
-0.044029 0.069187 1.1146 7.4678e-39 248 233 0 0 0 0.54873 0.12502 -0.8266 0.01854
-0.042725 0.069187 1.1146 6.8225e-39 249 233 0 0 0 0.56715 0.13597 -0.81231 0.010423
-0.041421 0.069187 1.1146 6.4537e-39 250 233 0 0 0 0.56559 0.13684 -0.81326 0.0098428
0.042074 0.069249 1.1156 6.0849e-39 318 233 0 0 0 -0.7864 -0.082232 -0.61222 0.0073287
-0.044049 0.071176 1.1151 8.2515e-39 402 233 0 0 0 0.56105 0.11704 -0.81947 0.015678
-0.042764 0.070555 1.1156 1.0049e-38 353 233 0 0 0 0.56816 0.13294 -0.81211 0.010589
-0.041459 0.070555 1.1156 9.7727e-39 354 233 0 0 0 0.56094 0.1297 -0.81763 0.010264
0.042055 0.071175 1.1151 8.3438e-39 317.5 233.5 0 0 0 -0.78672 -0.086218 -0.61126 0.0073172
0.042074 0.073165 1.1156 9.2196e-39 291 234 0 0 0 -0.79026 -0.085363 -0.60679 0.0074442
0.042074 0.075122 1.1156 8.9893e-39 382.5 234 0 0 0 -0.79294 -0.075308 -0.60463 0.0070407
-0.045333 0.077011 1.1146 6.9147e-39 443 234 0 0 0 0.59009 0.10203 -0.80086 0.01414
0.042074 0.077081 1.1156 6.9147e-39 169 235 0 0 0 -0.79674 -0.060224 -0.60131 0.0064055
-0.046658 0.079003 1.1151 6.4537e-39 233.5 235 0 0 0 0.59914 0.10064 -0.7943 0.015401
-0.045354 0.079003 1.1151 6.4998e-39 234.5 235 0 0 0 0.59898 0.10246 -0.79418 0.014941
-0.046679 0.080996 1.1156 6.8225e-39 315 235 0 0 0 0.60811 0.1104 -0.78614 0.016071
-0.045374 0.080996 1.1156 6.9147e-39 316 235 0 0 0 0.59944 0.11086 -0.79271 0.01635
-0.04731 0.082916 1.1151 7.4679e-39 395 235 0 0 0 0.61707 0.11575 -0.77835 0.01755
-0.045374 0.082301 1.1156 7.4678e-39 370 235 0 0 0 0.60453 0.11198 -0.78867 0.017266
-0.047941 0.084835 1.1146 6.3615e-39 164 236 0 0 0 0.63207 0.11842 -0.76581 0.01934
0.04334 0.084835 1.1146 6.3615e-39 202 236 0 0 0 -0.80818 0.0036951 -0.58892 0.004295
-0.047941 0.086139 1.1146 9.7727e-39 222 236 0 0 0 0.64172 0.11729 -0.75792 0.020409
0.04338 0.086217 1.1156 8.943e-39 241 236 0 0 0 -0.80775 0.0061511 -0.58949 0.0047398
-0.032381 0.053684 1.1176 6.8225e-39 247 229 0 0 0 0.57557 0.042808 -0.81663 0.010472
-0.031073 0.052376 1.1176 6.8225e-39 447 228 0 0 0 0.5782 0.026907 -0.81545 0.010883
-0.036271 0.054942 1.1166 6.6381e-39 320 229 0 0 0 0.57658 0.10116 -0.81075 0.010103
-0.034964 0.054942 1.1166 6.5459e-39 321 229 0 0 0 0.57527 0.082803 -0.81376 0.010216
-0.033658 0.054942 1.1166 6.5459e-39 322 229 0 0 0 0.5762 0.065851 -0.81465 0.010241
-0.036287 0.056928 1.1171 8.7125e-39 317 229.5 0 0 0 0.56993 0.094441 -0.81625 0.010374
-0.034996 0.056953 1.1176 8.8507e-39 318 229.5 0 0 0 0.57514 0.073236 -0.81477 0.010245
-0.033688 0.056953 1.1176 8.7125e-39 319 229.5 0 0 0 0.57132 0.060605 -0.81849 0.010148
0.046685 0.056248 1.1166 5.9466e-39 209.5 230 0 0 0 -0.72748 -0.22283 -0.64894 0.0079868
-0.04019 0.058861 1.1166 6.3615e-39 308 230 0 0 0 0.57547 0.1271 -0.80789 0.0089436
-0.038883 0.058861 1.1166 6.6381e-39 309 230 0 0 0 0.57411 0.12054 -0.80985 0.009355
-0.03694 0.058887 1.1171 6.6842e-39 310.5 230 0 0 0 0.57014 0.099176 -0.81554 0.010371
0.044766 0.058914 1.1176 7.56e-39 376 230 0 0 0 -0.74893 -0.17571 -0.63893 0.0080264
-0.04019 0.06082 1.1166 7.8827e-39 304.5 230.5 0 0 0 0.57326 0.12476 -0.80982 0.0089854
-0.038883 0.06082 1.1166 8.3898e-39 305.5 230.5 0 0 0 0.57083 0.12018 -0.81223 0.0095898
-0.037164 0.060639 1.1173 8.7279e-39 337.33 230.33 0 0 0 0.56586 0.10122 -0.81826 0.010066
0.042795 0.060862 1.1173 7.3296e-39 234.5 231 0 0 0 -0.76585 -0.14172 -0.62721 0.0082668
0.044746 0.060848 1.1171 7.7444e-39 236 231 0 0 0 -0.75843 -0.15227 -0.63372 0.0081581
-0.062455 0.062837 1.1176 9.404e-39 292 231 0 0 0 0.44319 0.065265 -0.89405 0.090128
-0.04019 0.06278 1.1166 7.0991e-39 309 231 0 0 0 0.56817 0.12953 -0.81265 0.0090528
-0.038883 0.06278 1.1166 6.9147e-39 310 231 0 0 0 0.56325 0.12228 -0.81719 0.0097669
-0.036957 0.062837 1.1176 6.4998e-39 311.5 231 0 0 0 0.55634 0.10436 -0.82437 0.010143
0.040843 0.062837 1.1176 8.2054e-39 373 231 0 0 0 -0.7745 -0.1121 -0.62257 0.0081401
0.042112 0.06278 1.1166 7.9288e-39 374 231 0 0 0 -0.77376 -0.11616 -0.62274 0.0084076
-0.04019 0.06474 1.1166 9.0351e-39 314 231.5 0 0 0 0.56412 0.12921 -0.81552 0.0092642
-0.038883 0.06474 1.1166 8.8968e-39 315 231.5 0 0 0 0.55887 0.12476 -0.81981 0.0095982
-0.037611 0.064799 1.1176 8.8047e-39 316 231.5 0 0 0 0.55342 0.11165 -0.82539 0.009779
0.040843 0.064799 1.1176 7.4678e-39 241 232 0 0 0 -0.78026 -0.093949 -0.61836 0.0081044
0.042112 0.064087 1.1166 5.9005e-39 193 232 0 0 0 -0.77631 -0.10781 -0.62107 0.0081535
-0.04019 0.066699 1.1166 6.1771e-39 327 232 0 0 0 0.55963 0.13334 -0.81795 0.0094579
-0.038883 0.066699 1.1166 6.2693e-39 328 232 0 0 0 0.55213 0.1242 -0.82445 0.009908
-0.037611 0.06676 1.1176 6.4537e-39 329 232 0 0 0 0.5453 0.11497 -0.83032 0.0096376
0.040806 0.066699 1.1166 9.1274e-39 389 232 0 0 0 -0.78506 -0.078954 -0.61436 0.0077818
-0.04019 0.068659 1.1166 7.0529e-39 338 232.5 0 0 0 0.55279 0.13025 -0.82308 0.0097128
-0.038901 0.068691 1.1171 7.0069e-39 339 232.5 0 0 0 0.54119 0.12045 -0.83223 0.0099811
-0.037611 0.068721 1.1176 7.1452e-39 340 232.5 0 0 0 0.53861 0.11551 -0.8346 0.010016
0.039535 0.069375 1.1176 6.6381e-39 316 233 0 0 0 -0.78723 -0.075456 -0.61202 0.0074523
0.040806 0.068659 1.1166 7.1452e-39 265.5 233 0 0 0 -0.78627 -0.079964 -0.61269 0.0074674
-0.042802 0.071925 1.1166 6.8225e-39 453 233 0 0 0 0.56538 0.1258 -0.81518 0.011157
-0.040649 0.071532 1.1173 7.6215e-39 421.33 233 0 0 0 0.54737 0.12308 -0.82779 0.010741
-0.038918 0.071336 1.1176 7.4218e-39 406 233 0 0 0 0.53427 0.11936 -0.83685 0.010399
0.039535 0.071336 1.1176 8.5281e-39 315.5 233.5 0 0 0 -0.78909 -0.077162 -0.60941 0.0075882
0.040806 0.071272 1.1166 8.6203e-39 316.5 233.5 0 0 0 -0.7886 -0.080707 -0.60959 0.0073858
-0.044109 0.073231 1.1166 7.1913e-39 255 234 0 0 0 0.5736 0.11714 -0.81071 0.012101
-0.042802 0.073231 1.1166 6.7303e-39 256 234 0 0 0 0.56501 0.12161 -0.81608 0.011854
-0.04088 0.073297 1.1176 6.4076e-39 257.5 234 0 0 0 0.54243 0.11916 -0.83161 0.011847
-0.038918 0.073297 1.1176 6.2693e-39 259 234 0 0 0 0.53047 0.11709 -0.83958 0.01082
0.040806 0.073231 1.1166 9.0352e-39 290 234 0 0 0 -0.792 -0.079195 -0.60537 0.0074908
-0.044109 0.075191 1.1166 7.8366e-39 355.5 234 0 0 0 0.57693 0.113 -0.80894 0.012754
-0.042802 0.075191 1.1166 7.9288e-39 356.5 234 0 0 0 0.56735 0.11336 -0.81564 0.013332
-0.041534 0.075259 1.1176 8.021e-39 357.5 234 0 0 0 0.54011 0.11797 -0.83328 0.013512
-0.038918 0.074605 1.1176 8.021e-39 330 234 0 0 0 0.52844 0.11485 -0.84117 0.011261
0.040806 0.075191 1.1166 8.8967e-39 381.5 234 0 0 0 -0.79286 -0.071293 -0.60522 0.007145
-0.044109 0.07715 1.1166 7.1913e-39 444 234 0 0 0 0.57605 0.11471 -0.80932 0.013889
-0.042802 0.07715 1.1166 7.56e-39 445 234 0 0 0 0.57007 0.1099 -0.81421 0.015152
-0.041534 0.07722 1.1176 7.56e-39 446 234 0 0 0 0.54305 0.11564 -0.8317 0.015058
0.040806 0.07715 1.1166 6.8225e-39 168 235 0 0 0 -0.79899 -0.049712 -0.59929 0.0060821
-0.044109 0.07911 1.1166 6.5459e-39 235.5 235 0 0 0 0.58283 0.10723 -0.80549 0.016113
-0.042841 0.079181 1.1176 6.3615e-39 236.5 235 0 0 0 0.56174 0.11374 -0.81946 0.017207
0.040843 0.079181 1.1176 9.3579e-39 259 235 0 0 0 -0.80311 -0.024238 -0.59534 0.0050336
0.042112 0.07911 1.1166 8.7125e-39 260 235 0 0 0 -0.80116 -0.03573 -0.59739 0.0057813
