# .PCD v.7 - Point Cloud Data file format
VERSION .7
FIELDS x y z rgb u v vx vy vz normal_x normal_y normal_z curvature
SIZE 4 4 4 4 4 4 4 4 4 4 4 4 4
TYPE F F F F F F F F F F F F F
COUNT 1 1 1 1 1 1 1 1 1 1 1 1 1
WIDTH 556
HEIGHT 1
VIEWPOINT 0 0 0 1 0 0 0
POINTS 556
DATA ascii
-0.038993 0.11669 1.0493 6.7303e-39 422 238 0 0 0 -0.34305 0.4538 -0.82243 0.016465
-0.037733 0.11782 1.0484 6.4537e-39 482 238 0 0 0 -0.34348 0.44189 -0.82871 0.015888
0.027273 0.11782 1.0484 6.6381e-39 171 239 0 0 0 0.25328 0.49769 -0.82955 0.0063377
0.029113 0.11721 1.0484 7.0991e-39 325 238.5 0 0 0 0.26505 0.50523 -0.82128 0.0068448
0.030953 0.11659 1.0484 7.2835e-39 479 238 0 0 0 0.30381 0.52171 -0.79719 0.010446
0.032207 0.11669 1.0493 7.0069e-39 480 238 0 0 0 0.3189 0.52738 -0.78751 0.011549
0.045134 0.092831 1.0501 6.9607e-39 173 235 0 0 0 0.77106 0.066729 -0.63325 0.026846
0.047017 0.094754 1.051 7.6522e-39 219 235 0 0 0 0.79412 0.10957 -0.5978 0.023877
0.048288 0.096065 1.0519 7.2835e-39 254 235 0 0 0 0.79678 0.11735 -0.59276 0.023696
0.048288 0.10099 1.0519 6.3615e-39 200 236 0 0 0 0.77208 0.18189 -0.60894 0.02825
0.048288 0.10222 1.0519 1.0326e-38 283 236 0 0 0 0.7702 0.18625 -0.61 0.028612
0.045788 0.10582 1.051 6.4537e-39 162 237 0 0 0 0.71203 0.26786 -0.64905 0.034148
0.042677 0.10942 1.0501 9.1735e-39 401.5 237 0 0 0 0.60858 0.38162 -0.69569 0.03065
0.044558 0.10951 1.051 8.5742e-39 403 237 0 0 0 0.65504 0.35159 -0.66881 0.031215
-0.041519 0.11197 1.051 6.9147e-39 480 237 0 0 0 -0.37004 0.47521 -0.79828 0.015837
0.040834 0.11187 1.0501 7.4678e-39 207 238 0 0 0 0.5471 0.44194 -0.7109 0.024454
0.042732 0.11079 1.0515 6.8225e-39 474.5 237 0 0 0 0.60929 0.39838 -0.68561 0.028306
0.039008 0.11315 1.0505 9.5883e-39 279.5 238 0 0 0 0.49227 0.49291 -0.71744 0.021325
0.040904 0.1133 1.0519 9.404e-39 281 238 0 0 0 0.54388 0.48594 -0.68414 0.021353
-0.040323 0.11453 1.0519 1.0142e-38 285 238 0 0 0 -0.36913 0.45783 -0.80879 0.017483
0.03532 0.11561 1.0505 7.7444e-39 417.5 238 0 0 0 0.39758 0.53791 -0.74336 0.014997
0.03718 0.11504 1.051 7.6983e-39 383.5 238 0 0 0 0.44341 0.53569 -0.71863 0.017415
0.038442 0.11453 1.0519 6.6381e-39 349 238 0 0 0 0.48204 0.53033 -0.69742 0.019662
0.033491 0.11689 1.051 6.5459e-39 481 238 0 0 0 0.36255 0.55714 -0.7471 0.013406
0.045866 0.092452 1.0528 5.8083e-39 164 235 0 0 0 0.80215 0.062794 -0.59381 0.023261
0.049603 0.097462 1.0537 6.8225e-39 306 235 0 0 0 0.8151 0.13277 -0.56391 0.022515
0.045905 0.10732 1.0537 7.6522e-39 247 237 0 0 0 0.71595 0.2917 -0.63429 0.031543
0.044672 0.11102 1.0537 7.1913e-39 476 237 0 0 0 0.67063 0.37383 -0.6407 0.030347
-0.041589 0.11339 1.0528 7.3757e-39 213 238 0 0 0 -0.39114 0.46382 -0.79491 0.017864
0.042787 0.11216 1.0528 7.8827e-39 208.5 238 0 0 0 0.60608 0.4262 -0.67157 0.026496
0.039319 0.11551 1.0534 7.1913e-39 397 238 0 0 0 0.50842 0.5519 -0.661 0.018471
0.040974 0.11472 1.0537 7.1913e-39 351 238 0 0 0 0.54903 0.52586 -0.64965 0.020406
0.047178 0.093844 1.0546 7.6522e-39 184 235 0 0 0 0.82615 0.082418 -0.55739 0.02045
0.048453 0.093924 1.0555 7.9288e-39 194 235 0 0 0 0.84256 0.078531 -0.53284 0.019291
0.04905 0.095118 1.0551 7.8366e-39 220.5 235 0 0 0 0.84062 0.09531 -0.53318 0.019763
0.049646 0.096311 1.0546 7.2835e-39 255 235 0 0 0 0.83552 0.1096 -0.53841 0.020479
0.049646 0.098779 1.0546 7.0069e-39 380 235 0 0 0 0.81905 0.15419 -0.55262 0.023579
0.049646 0.10063 1.0546 6.592e-39 329 235.5 0 0 0 0.80985 0.16718 -0.56231 0.024748
0.049646 0.10248 1.0546 1.051e-38 284 236 0 0 0 0.80474 0.18351 -0.56454 0.026225
0.047218 0.10751 1.0555 7.56e-39 248 237 0 0 0 0.75248 0.26932 -0.60104 0.033487
0.048412 0.10618 1.0546 6.2693e-39 163 237 0 0 0 0.77234 0.23298 -0.59095 0.03063
0.045983 0.10874 1.0555 9.3118e-39 325 237 0 0 0 0.73012 0.30703 -0.61046 0.031616
0.04286 0.11359 1.0546 9.2196e-39 282.5 238 0 0 0 0.59595 0.4838 -0.64092 0.021651
0.044749 0.11245 1.0555 8.482e-39 210 238 0 0 0 0.66847 0.41203 -0.61918 0.027635
0.042279 0.11492 1.0555 7.3757e-39 352 238 0 0 0 0.58082 0.5317 -0.61639 0.019228
0.046062 0.091611 1.0573 6.6381e-39 156 235 0 0 0 0.85371 0.039176 -0.51927 0.018548
0.049773 0.091611 1.0573 7.6522e-39 159 235 0 0 0 0.87006 0.022482 -0.49243 0.017286
0.047259 0.092768 1.0564 5.6239e-39 165 235 0 0 0 0.84854 0.060766 -0.52562 0.018798
0.049113 0.092768 1.0564 5.7622e-39 166.5 235 0 0 0 0.85341 0.050296 -0.5188 0.018447
0.049731 0.094004 1.0564 8.1132e-39 195 235 0 0 0 0.85647 0.071547 -0.51121 0.018593
0.049113 0.10698 1.0564 6.5459e-39 206.5 237 0 0 0 0.79392 0.2352 -0.56069 0.030778
0.047299 0.10893 1.0573 8.8508e-39 326 237 0 0 0 0.77014 0.27481 -0.57564 0.030594
0.046461 0.11055 1.057 8.5742e-39 428.67 237 0 0 0 0.73391 0.31179 -0.60346 0.030986
0.044825 0.11388 1.0573 9.5883e-39 284 238 0 0 0 0.65912 0.46361 -0.59214 0.023581
0.049859 0.085572 1.0592 7.0069e-39 489 234 0 0 0 0.88277 -0.14282 -0.44757 0.019685
0.049859 0.089289 1.0592 6.2693e-39 141 235 0 0 0 0.89471 -0.026 -0.44589 0.016957
0.051098 0.089289 1.0592 6.5459e-39 142 235 0 0 0 0.89696 -0.037045 -0.44057 0.016983
0.04734 0.091689 1.0582 6.7303e-39 157 235 0 0 0 0.86274 0.026793 -0.50493 0.01804
0.049005 0.09089 1.0585 6.884e-39 154.33 235 0 0 0 0.87536 0.011499 -0.48334 0.017214
0.051076 0.091109 1.0587 7.2835e-39 157 235 0 0 0 0.89154 0.0031053 -0.45293 0.016106
0.052337 0.091768 1.0592 6.8225e-39 161 235 0 0 0 0.89936 0.0088753 -0.43712 0.017486
0.051054 0.092927 1.0582 6.1771e-39 168 235 0 0 0 0.8815 0.044198 -0.47011 0.016594
0.052337 0.093007 1.0592 6.5459e-39 169 235 0 0 0 0.89246 0.031717 -0.45001 0.016567
0.051098 0.094246 1.0592 7.4678e-39 196 235 0 0 0 0.88448 0.064433 -0.46211 0.017051
0.051098 0.097344 1.0592 6.9147e-39 281.5 235 0 0 0 0.87417 0.10492 -0.47415 0.018764
0.051098 0.099203 1.0592 6.7303e-39 381 235 0 0 0 0.86351 0.13443 -0.48608 0.021078
0.051098 0.10168 1.0592 6.8225e-39 202 236 0 0 0 0.85566 0.15852 -0.49267 0.023637
0.051054 0.10283 1.0582 1.0879e-38 285 236 0 0 0 0.84808 0.173 -0.50084 0.024959
0.051076 0.10474 1.0587 6.8686e-39 401 236 0 0 0 0.84604 0.17492 -0.5036 0.0253
0.049859 0.10788 1.0592 6.9147e-39 250 237 0 0 0 0.82333 0.20748 -0.52829 0.029473
0.048578 0.10902 1.0582 8.2054e-39 327 237 0 0 0 0.78658 0.25571 -0.56206 0.030481
0.04734 0.1115 1.0582 7.56e-39 478 237 0 0 0 0.74216 0.32066 -0.58853 0.031847
0.04862 0.11036 1.0592 9.5883e-39 406 237 0 0 0 0.78623 0.25871 -0.56117 0.031309
0.046741 0.11278 1.0587 8.021e-39 211.5 238 0 0 0 0.71592 0.38122 -0.58492 0.026187
0.049281 0.086886 1.0601 7.2374e-39 490.5 234 0 0 0 0.88277 -0.14281 -0.44757 0.019685
0.051142 0.086886 1.0601 7.0991e-39 492 234 0 0 0 0.88828 -0.12516 -0.44192 0.019803
0.047482 0.08886 1.0615 6.7764e-39 316 234.5 0 0 0 0.8998 -0.055843 -0.43272 0.018061
0.049074 0.088539 1.0601 7.56e-39 376.33 234.33 0 0 0 0.89366 -0.066344 -0.44382 0.017276
0.051142 0.088126 1.0601 1.0326e-38 496 234 0 0 0 0.89707 -0.08394 -0.43385 0.018995
0.05245 0.08886 1.0615 6.4537e-39 143.5 235 0 0 0 0.90128 -0.072484 -0.42712 0.019791
0.046801 0.090606 1.0601 6.4076e-39 150.5 235 0 0 0 0.88161 -0.0010837 -0.47198 0.017186
0.053002 0.091226 1.0601 6.8225e-39 158.5 235 0 0 0 0.90342 -0.0011151 -0.42876 0.018844
0.051142 0.095567 1.0601 7.2835e-39 222 235 0 0 0 0.88421 0.082983 -0.45966 0.018124
0.05245 0.09507 1.0615 7.053e-39 210 235 0 0 0 0.8986 0.055114 -0.43529 0.0183
0.052472 0.096974 1.0619 6.6381e-39 257 235 0 0 0 0.88929 0.07821 -0.4506 0.019705
0.051142 0.10053 1.0601 7.0991e-39 458 235 0 0 0 0.86633 0.13958 -0.47957 0.021814
0.05245 0.10128 1.0615 7.56e-39 331 235.5 0 0 0 0.87636 0.12491 -0.46518 0.023386
0.052382 0.10301 1.0601 1.0418e-38 286 236 0 0 0 0.86298 0.1554 -0.48074 0.024946
0.052427 0.10496 1.061 6.6842e-39 402 236 0 0 0 0.85926 0.15146 -0.4886 0.025551
0.051186 0.10682 1.061 5.6239e-39 165 237 0 0 0 0.84351 0.17309 -0.50847 0.02705
0.049944 0.1093 1.061 8.2054e-39 328 237 0 0 0 0.8155 0.22636 -0.53266 0.029194
0.048661 0.11169 1.0601 7.2835e-39 479 237 0 0 0 0.76856 0.31171 -0.5587 0.024879
0.052562 0.1071 1.0637 5.7161e-39 166 237 0 0 0 0.83957 0.14105 -0.52462 0.028905
0.051274 0.10825 1.0628 6.8225e-39 251 237 0 0 0 0.83636 0.16631 -0.52234 0.029347
0.054244 0.068141 1.0978 9.404e-39 338 233 0 0 0 -0.72812 -0.35251 -0.58785 0.039539
0.058149 0.065631 1.0987 6.9147e-39 153 233 0 0 0 -0.72408 -0.34992 -0.59436 0.039906
0.054341 0.066976 1.0997 7.56e-39 247 233 0 0 0 -0.74533 -0.3369 -0.57531 0.028336
0.055264 0.065338 1.101 7.1298e-39 236.33 232.67 0 0 0 -0.74484 -0.31958 -0.58573 0.026857
0.058305 0.064518 1.1017 9.6805e-39 410 232 0 0 0 -0.7315 -0.33909 -0.59155 0.030249
0.053149 0.067096 1.1017 7.2835e-39 246 233 0 0 0 -0.74843 -0.30635 -0.58822 0.022897
0.05186 0.068385 1.1017 8.7586e-39 336 233 0 0 0 -0.75475 -0.30086 -0.58295 0.020991
0.053102 0.068967 1.1007 7.8827e-39 384.5 233 0 0 0 -0.74975 -0.32925 -0.574 0.025225
-0.055095 0.076728 1.1012 7.0991e-39 341.5 234 0 0 0 0.89325 -0.19177 -0.4066 0.061282
0.054535 0.055595 1.1036 8.7586e-39 420 230 0 0 0 -0.73717 -0.2696 -0.61959 0.025461
0.054535 0.056886 1.1036 7.1913e-39 159 231 0 0 0 -0.7405 -0.27017 -0.61536 0.025075
0.055156 0.062668 1.1032 7.6983e-39 252 232 0 0 0 -0.74539 -0.27367 -0.60787 0.023551
0.058357 0.063285 1.1027 7.0991e-39 303 232 0 0 0 -0.7336 -0.29686 -0.61132 0.030989
0.051953 0.065924 1.1036 6.2693e-39 148 233 0 0 0 -0.76075 -0.24488 -0.60107 0.020317
0.05322 0.06525 1.1032 7.8366e-39 277.5 232.5 0 0 0 -0.75229 -0.2637 -0.60376 0.020976
0.054487 0.064575 1.1027 9.1274e-39 407 232 0 0 0 -0.75135 -0.27439 -0.60015 0.024073
0.057067 0.065866 1.1027 6.4537e-39 152 233 0 0 0 -0.74584 -0.31954 -0.58448 0.026279
0.051284 0.067186 1.1032 7.3757e-39 244.5 233 0 0 0 -0.762 -0.24513 -0.59939 0.020888
0.050662 0.069153 1.1036 7.5601e-39 383 233 0 0 0 -0.77135 -0.23619 -0.59096 0.018942
-0.055217 0.074963 1.1036 9.8649e-39 289 234 0 0 0 0.76276 -0.18184 -0.62058 0.074015
0.053292 0.055644 1.1046 9.0352e-39 419 230 0 0 0 -0.7387 -0.26668 -0.61904 0.022565
0.053292 0.056937 1.1046 6.9147e-39 158 231 0 0 0 -0.73937 -0.26452 -0.61916 0.021506
0.053339 0.058281 1.1056 6.8225e-39 251 231 0 0 0 -0.73786 -0.25844 -0.62351 0.019085
0.055048 0.059126 1.1053 6.884e-39 319 231 0 0 0 -0.74299 -0.25808 -0.61754 0.021312
0.053339 0.060868 1.1056 7.1913e-39 457 231 0 0 0 -0.74403 -0.25075 -0.61931 0.018515
0.05523 0.060814 1.1046 7.2374e-39 458.5 231 0 0 0 -0.7463 -0.26053 -0.61251 0.023361
0.052877 0.062987 1.1049 8.2976e-39 266.33 232 0 0 0 -0.75053 -0.24487 -0.6138 0.019659
0.05722 0.063455 1.1056 7.0991e-39 302 232 0 0 0 -0.74539 -0.27367 -0.60787 0.023551
0.051353 0.065337 1.1046 8.021e-39 276 232.5 0 0 0 -0.76172 -0.22293 -0.60835 0.018414
0.057169 0.064691 1.1046 9.3118e-39 409 232 0 0 0 -0.74673 -0.28186 -0.60245 0.024492
0.049459 0.067336 1.1056 7.56e-39 243 233 0 0 0 -0.76956 -0.19356 -0.60853 0.016772
0.049459 0.068629 1.1056 8.482e-39 334 233 0 0 0 -0.77547 -0.18988 -0.60215 0.017682
-0.055267 0.073738 1.1046 6.7303e-39 245 234 0 0 0 0.70287 -0.16061 -0.69295 0.078065
-0.056559 0.076322 1.1046 7.1913e-39 324 234 0 0 0 0.77569 -0.21224 -0.59436 0.07308
0.052763 0.055122 1.1071 8.3898e-39 364 230 0 0 0 -0.73547 -0.25472 -0.62786 0.018688
0.052139 0.05709 1.1076 6.4537e-39 157 231 0 0 0 -0.73983 -0.24664 -0.62595 0.016868
0.053387 0.059628 1.1066 6.8225e-39 351 231 0 0 0 -0.74031 -0.24827 -0.62474 0.01825
0.052139 0.060978 1.1076 7.3757e-39 456 231 0 0 0 -0.74924 -0.22678 -0.62226 0.016106
0.050843 0.063569 1.1076 8.943e-39 297 232 0 0 0 -0.76343 -0.1918 -0.61675 0.015182
0.052092 0.062218 1.1066 6.3615e-39 201 232 0 0 0 -0.75459 -0.21784 -0.61898 0.016786
0.057271 0.062218 1.1066 7.7444e-39 205 232 0 0 0 -0.74669 -0.26083 -0.6119 0.023856
0.050798 0.064807 1.1066 9.8649e-39 404 232 0 0 0 -0.765 -0.19751 -0.613 0.016673
0.046956 0.067457 1.1076 7.2835e-39 241 233 0 0 0 -0.77106 -0.15454 -0.61772 0.013334
0.048877 0.066779 1.1071 6.9608e-39 194 233 0 0 0 -0.77452 -0.16261 -0.6113 0.014819
-0.05666 0.07387 1.1066 6.8225e-39 244 234 0 0 0 0.6694 -0.1943 -0.71705 0.081853
-0.055415 0.07264 1.1076 6.7303e-39 172 234 0 0 0 0.58018 -0.14943 -0.80067 0.077408
-0.05666 0.075164 1.1066 9.7727e-39 288 234 0 0 0 0.69043 -0.2066 -0.69327 0.08121
0.052233 0.054596 1.1096 7.1913e-39 309 230 0 0 0 -0.73469 -0.24933 -0.63092 0.016321
0.052186 0.059087 1.1086 7.1451e-39 300 231 0 0 0 -0.74472 -0.23244 -0.6256 0.015699
0.049637 0.063683 1.1096 8.943e-39 296 232 0 0 0 -0.7642 -0.17562 -0.62061 0.012592
0.050889 0.062329 1.1086 6.1771e-39 200 232 0 0 0 -0.75795 -0.20501 -0.61926 0.01436
0.049592 0.064923 1.1086 9.7727e-39 403 232 0 0 0 -0.76791 -0.1676 -0.61824 0.014013
0.045742 0.067578 1.1096 7.1913e-39 240 233 0 0 0 -0.76733 -0.15234 -0.6229 0.011748
0.04704 0.06628 1.1096 6.6381e-39 144 233 0 0 0 -0.76776 -0.15282 -0.62224 0.011842
0.048295 0.06622 1.1086 6.4537e-39 145 233 0 0 0 -0.77129 -0.15386 -0.61761 0.013471
-0.056762 0.072705 1.1086 6.8225e-39 171 234 0 0 0 0.58278 -0.15674 -0.79737 0.087126
0.049726 0.055995 1.1116 9.9571e-39 416 230 0 0 0 -0.74223 -0.21818 -0.63363 0.012381
0.050981 0.061142 1.1106 7.1913e-39 455 231 0 0 0 -0.76094 -0.18599 -0.6216 0.013118
0.049075 0.063148 1.1116 7.8366e-39 247 232 0 0 0 -0.76489 -0.1513 -0.62615 0.011893
0.045824 0.065099 1.1116 9.0352e-39 400 232 0 0 0 -0.76414 -0.1431 -0.62898 0.010683
0.047083 0.06504 1.1106 9.2196e-39 401 232 0 0 0 -0.76648 -0.14954 -0.62461 0.011517
0.048382 0.06504 1.1106 9.404e-39 402 232 0 0 0 -0.76724 -0.14894 -0.62382 0.011736
0.045783 0.066339 1.1106 7.0991e-39 143 233 0 0 0 -0.76592 -0.14827 -0.62561 0.011192
-0.056864 0.071537 1.1106 6.3615e-39 434 233 0 0 0 0.50977 -0.14716 -0.84763 0.10205
-0.055615 0.071601 1.1116 6.5459e-39 435 233 0 0 0 0.48618 -0.12603 -0.86472 0.090737
-0.054314 0.072902 1.1116 6.4537e-39 173 234 0 0 0 0.49187 -0.12411 -0.86178 0.078983
-0.054265 0.074785 1.1106 8.482e-39 268 234 0 0 0 0.53664 -0.1458 -0.83112 0.077331
-0.054265 0.076734 1.1106 8.5742e-39 326 234 0 0 0 0.56907 -0.16302 -0.80597 0.073562
-0.054314 0.078104 1.1116 6.1771e-39 359 234 0 0 0 0.57744 -0.18276 -0.79572 0.074268
0.045907 0.052188 1.1136 6.3615e-39 433 229 0 0 0 -0.7294 -0.19217 -0.65654 0.011155
0.049771 0.054744 1.1126 6.5459e-39 307 230 0 0 0 -0.73645 -0.22008 -0.6397 0.012145
0.049771 0.057347 1.1126 6.1771e-39 155 231 0 0 0 -0.75048 -0.19077 -0.63276 0.011861
0.051072 0.056697 1.1126 8.1132e-39 286.5 230.5 0 0 0 -0.74825 -0.21474 -0.6277 0.012502
0.049816 0.058702 1.1136 7.56e-39 248 231 0 0 0 -0.75295 -0.18104 -0.63269 0.011204
0.051095 0.059326 1.1131 7.5601e-39 299 231 0 0 0 -0.7536 -0.19278 -0.62843 0.011756
0.049794 0.060629 1.1131 7.7905e-39 401 231 0 0 0 -0.7572 -0.16977 -0.63073 0.011416
0.045887 0.063233 1.1131 8.9429e-39 244.5 232 0 0 0 -0.75988 -0.13402 -0.6361 0.010313
0.047188 0.063233 1.1131 8.482e-39 245.5 232 0 0 0 -0.76137 -0.13679 -0.63372 0.010695
0.048513 0.06261 1.1136 7.1913e-39 198 232 0 0 0 -0.76258 -0.14101 -0.63134 0.010852
-0.056967 0.070364 1.1126 8.482e-39 340 233 0 0 0 0.4525 -0.13149 -0.88202 0.10985
-0.05483 0.07084 1.1133 7.9596e-39 373 233 0 0 0 0.43855 -0.10953 -0.89201 0.094625
-0.058321 0.073033 1.1136 7.0991e-39 170 234 0 0 0 0.51657 -0.20829 -0.83052 0.12768
-0.053109 0.074988 1.1136 8.7124e-39 269 234 0 0 0 0.49262 -0.14858 -0.85747 0.084293
0.044685 0.050977 1.1156 9.0352e-39 281 229 0 0 0 -0.73331 -0.17679 -0.6565 0.0098456
-0.054461 0.053539 1.1146 6.4537e-39 435 229 0 0 0 0.078155 -0.01701 -0.9968 0.13535
-0.053157 0.053539 1.1146 6.2693e-39 436 229 0 0 0 0.14588 0.024397 -0.989 0.11091
0.045948 0.053539 1.1146 6.1771e-39 155 230 0 0 0 -0.73404 -0.18173 -0.65434 0.010042
0.047252 0.052887 1.1146 6.3154e-39 298 229.5 0 0 0 -0.73328 -0.19231 -0.65217 0.011185
0.048557 0.053539 1.1146 6.7303e-39 177 230 0 0 0 -0.73382 -0.2001 -0.64921 0.011383
-0.057121 0.054892 1.1156 6.8225e-39 178 230 0 0 0 0.018256 -0.10509 -0.9943 0.14807
-0.054511 0.054892 1.1156 6.4537e-39 183 230 0 0 0 0.14981 -0.035358 -0.98808 0.12922
-0.053205 0.054892 1.1156 6.3615e-39 184 230 0 0 0 0.16787 -0.022787 -0.98555 0.11959
0.04599 0.054892 1.1156 9.8649e-39 289 230 0 0 0 -0.73948 -0.16904 -0.65161 0.0093603
0.047252 0.054843 1.1146 6.3615e-39 305 230 0 0 0 -0.73839 -0.17932 -0.6501 0.010423
0.048557 0.054843 1.1146 6.3615e-39 306 230 0 0 0 -0.73857 -0.18531 -0.64821 0.011017
0.051165 0.054843 1.1146 6.8225e-39 308 230 0 0 0 -0.73645 -0.22008 -0.6397 0.012453
-0.054461 0.056799 1.1146 7.4679e-39 368.5 230 0 0 0 0.18538 -0.097051 -0.97786 0.13422
-0.053181 0.056824 1.1151 7.053e-39 369.5 230 0 0 0 0.20207 -0.045055 -0.97833 0.11597
0.04599 0.05685 1.1156 8.021e-39 282.5 230.5 0 0 0 -0.74461 -0.1559 -0.64904 0.009004
0.047252 0.056799 1.1146 7.9749e-39 283.5 230.5 0 0 0 -0.74574 -0.16821 -0.64465 0.010278
0.048557 0.056799 1.1146 8.3437e-39 284.5 230.5 0 0 0 -0.74599 -0.17351 -0.64296 0.010675
-0.054461 0.058755 1.1146 5.5317e-39 164 231 0 0 0 0.24904 -0.126 -0.96026 0.13012
-0.053157 0.058755 1.1146 5.5317e-39 166 231 0 0 0 0.26289 -0.10555 -0.95904 0.12158
-0.0519 0.058808 1.1156 5.6239e-39 167 231 0 0 0 0.27457 -0.056841 -0.95989 0.10406
0.04599 0.058808 1.1156 7.0991e-39 245 231 0 0 0 -0.75025 -0.14407 -0.64526 0.0091889
0.047295 0.058808 1.1156 7.2835e-39 246 231 0 0 0 -0.75 -0.14664 -0.64498 0.0095628
0.0486 0.058808 1.1156 7.6522e-39 247 231 0 0 0 -0.75052 -0.15145 -0.64326 0.010439
-0.054486 0.060739 1.1151 5.9005e-39 308.5 231 0 0 0 0.2822 -0.10746 -0.95332 0.13167
-0.053181 0.060739 1.1151 6.2693e-39 309.5 231 0 0 0 0.28416 -0.096768 -0.95388 0.12366
0.045969 0.060738 1.1151 8.5284e-39 398 231 0 0 0 -0.75487 -0.12311 -0.64422 0.0095383
0.047252 0.060711 1.1146 8.1593e-39 399 231 0 0 0 -0.75606 -0.14128 -0.63907 0.010153
0.048557 0.060711 1.1146 7.8827e-39 400 231 0 0 0 -0.75677 -0.15371 -0.63535 0.010377
-0.054511 0.062723 1.1156 6.8225e-39 466 231 0 0 0 0.28616 -0.091028 -0.95385 0.13189
-0.053205 0.062723 1.1156 6.7303e-39 467 231 0 0 0 0.31381 -0.078963 -0.9462 0.11486
-0.054511 0.064682 1.1156 7.7905e-39 260 232 0 0 0 0.30515 -0.099483 -0.94709 0.13926
-0.053205 0.064682 1.1156 7.514e-39 261 232 0 0 0 0.35164 -0.080154 -0.9327 0.11075
0.044685 0.064682 1.1156 9.5422e-39 345.5 232 0 0 0 -0.75875 -0.12136 -0.63998 0.0091847
-0.054929 0.067489 1.1153 7.5908e-39 243.33 232.67 0 0 0 0.36131 -0.077275 -0.92924 0.10873
-0.053205 0.067291 1.1156 8.482e-39 287.5 232.5 0 0 0 0.36855 -0.06478 -0.92735 0.097928
0.04338 0.067291 1.1156 6.8686e-39 190 233 0 0 0 -0.76346 -0.12105 -0.63441 0.0090428
0.044644 0.066579 1.1146 7.0991e-39 142 233 0 0 0 -0.76273 -0.13162 -0.63318 0.0097955
-0.057069 0.069187 1.1146 6.4537e-39 250 233 0 0 0 0.39857 -0.12306 -0.90884 0.12304
-0.055113 0.069187 1.1146 6.7303e-39 251.5 233 0 0 0 0.38489 -0.090843 -0.91848 0.10853
-0.053205 0.069249 1.1156 7.0991e-39 253 233 0 0 0 0.38049 -0.069612 -0.92216 0.096532
0.042727 0.069249 1.1156 8.8969e-39 332.5 233 0 0 0 -0.76459 -0.13065 -0.63113 0.0091582
-0.058426 0.07186 1.1156 6.1771e-39 433 233 0 0 0 0.46761 -0.18617 -0.86411 0.13979
-0.053181 0.071175 1.1151 7.9288e-39 390 233 0 0 0 0.41409 -0.090024 -0.90577 0.09316
0.04338 0.070555 1.1156 6.5459e-39 430 233 0 0 0 -0.76503 -0.13526 -0.62963 0.0093818
-0.053157 0.073099 1.1146 6.4537e-39 174 234 0 0 0 0.45053 -0.11329 -0.88554 0.088203
-0.053157 0.077011 1.1146 8.482e-39 327 234 0 0 0 0.52247 -0.13714 -0.84156 0.071869
-0.053181 0.079003 1.1151 8.1593e-39 380.5 234 0 0 0 0.54113 -0.17865 -0.82175 0.076715
-0.053157 0.080923 1.1146 6.5459e-39 425 234 0 0 0 0.58525 -0.18632 -0.78915 0.071702
-0.053157 0.082879 1.1146 7.1913e-39 452 234 0 0 0 0.61568 -0.18234 -0.76661 0.063819
-0.053157 0.084835 1.1146 7.0069e-39 466 234 0 0 0 0.645 -0.18087 -0.74247 0.066157
-0.048028 0.049716 1.1166 6.6381e-39 250 228 0 0 0 0.24421 0.14362 -0.95903 0.037672
-0.048703 0.051046 1.1171 6.131e-39 477.5 228 0 0 0 0.22248 0.13078 -0.96613 0.053777
-0.046764 0.051069 1.1176 6.4537e-39 480 228 0 0 0 0.25017 0.13659 -0.95852 0.037343
-0.051994 0.053684 1.1176 6.3615e-39 437 229 0 0 0 0.16616 0.060335 -0.98425 0.099932
-0.048703 0.053007 1.1171 7.9519e-39 361 229 0 0 0 0.23205 0.1047 -0.96705 0.05501
-0.046764 0.052376 1.1176 9.5883e-39 284 229 0 0 0 0.2466 0.118 -0.96191 0.043011
-0.044993 0.052781 1.1169 8.3284e-39 337.67 229 0 0 0 0.2723 0.12085 -0.95459 0.02792
0.044746 0.053007 1.1171 6.7764e-39 293 229.5 0 0 0 -0.7356 -0.16659 -0.65662 0.0082631
-0.055866 0.054942 1.1166 6.4537e-39 182 230 0 0 0 0.10173 -0.060826 -0.99295 0.13801
-0.051994 0.054992 1.1176 6.4537e-39 185 230 0 0 0 0.1865 0.04859 -0.98125 0.096272
-0.048725 0.054992 1.1176 6.4537e-39 200.5 230 0 0 0 0.23759 0.080716 -0.96801 0.068977
-0.045456 0.054992 1.1176 7.6522e-39 203 230 0 0 0 0.28431 0.097735 -0.95374 0.032465
0.044766 0.054992 1.1176 9.9571e-39 288 230 0 0 0 -0.74402 -0.152 -0.65063 0.0079428
-0.057173 0.056901 1.1166 7.8827e-39 366.5 230 0 0 0 -0.053374 -0.15043 -0.98718 0.18128
-0.055917 0.056953 1.1176 7.6983e-39 367.5 230 0 0 0 0.046284 -0.063815 -0.99689 0.16557
-0.051317 0.056927 1.1171 6.8225e-39 371 230 0 0 0 0.23616 0.0085777 -0.97168 0.094801
-0.048725 0.056953 1.1176 6.5689e-39 373 230 0 0 0 0.25865 0.031199 -0.96547 0.077187
0.044766 0.056953 1.1176 8.0671e-39 281.5 230.5 0 0 0 -0.74754 -0.14228 -0.6488 0.0077243
-0.057173 0.058861 1.1166 6.8225e-39 162 231 0 0 0 0.044766 -0.17591 -0.98339 0.18049
-0.055866 0.058861 1.1166 5.9927e-39 163 231 0 0 0 0.13281 -0.13514 -0.98189 0.16629
-0.050687 0.058914 1.1176 5.8083e-39 168 231 0 0 0 0.25843 0.00097384 -0.96603 0.09589
-0.048725 0.058914 1.1176 6.6842e-39 169.5 231 0 0 0 0.27386 0.025499 -0.96143 0.072701
-0.057173 0.060167 1.1166 6.8225e-39 256 231 0 0 0 0.12947 -0.16359 -0.978 0.17396
-0.055891 0.060848 1.1171 5.9005e-39 307.5 231 0 0 0 0.21988 -0.13493 -0.96615 0.16002
-0.051317 0.060848 1.1171 6.615e-39 311 231 0 0 0 0.2977 -0.045309 -0.95358 0.10131
-0.048725 0.060222 1.1176 6.6842e-39 262.5 231 0 0 0 0.30091 -0.0090655 -0.95361 0.076574
0.043458 0.061529 1.1176 7.4678e-39 449 231 0 0 0 -0.75866 -0.11147 -0.64188 0.0081533
0.044766 0.060875 1.1176 8.4359e-39 397 231 0 0 0 -0.75505 -0.11427 -0.64563 0.0085169
-0.055917 0.062837 1.1176 7.1913e-39 465 231 0 0 0 0.25609 -0.10291 -0.96116 0.14694
-0.051317 0.062808 1.1171 7.2835e-39 468.5 231 0 0 0 0.31997 -0.046919 -0.94626 0.097063
0.042805 0.062837 1.1176 7.1913e-39 193.5 232 0 0 0 -0.75932 -0.10876 -0.64156 0.0078067
0.044725 0.06278 1.1166 7.6522e-39 195 232 0 0 0 -0.75774 -0.12022 -0.64139 0.0088449
-0.057224 0.065452 1.1176 7.0991e-39 307 232 0 0 0 0.2723 -0.093047 -0.9577 0.14514
-0.055917 0.064799 1.1176 7.9749e-39 259 232 0 0 0 0.28166 -0.087531 -0.95551 0.13598
-0.051329 0.064784 1.1173 7.5139e-39 262.5 232 0 0 0 0.31402 -0.047307 -0.94824 0.1051
-0.049379 0.065452 1.1176 6.9147e-39 313 232 0 0 0 0.35215 -0.021738 -0.93569 0.076948
0.042775 0.064755 1.1169 9.404e-39 344 232 0 0 0 -0.7617 -0.11232 -0.63812 0.0082744
-0.057224 0.06676 1.1176 9.6805e-39 413 232 0 0 0 0.31733 -0.10646 -0.94232 0.14477
-0.055866 0.066699 1.1166 9.3118e-39 414 232 0 0 0 0.32173 -0.094938 -0.94206 0.13469
-0.051317 0.06673 1.1171 9.404e-39 417.5 232 0 0 0 0.37448 -0.049308 -0.92592 0.08506
-0.049379 0.06676 1.1176 9.1274e-39 419 232 0 0 0 0.35539 -0.022069 -0.93446 0.074534
0.040843 0.06676 1.1176 6.1771e-39 139 233 0 0 0 -0.76384 -0.10879 -0.63618 0.007435
0.042112 0.066699 1.1166 6.1771e-39 140 233 0 0 0 -0.76192 -0.11591 -0.63721 0.0085414
-0.057173 0.068006 1.1166 6.5459e-39 156 233 0 0 0 0.32736 -0.1099 -0.93849 0.141
-0.051329 0.068706 1.1173 7.076e-39 207.5 233 0 0 0 0.38803 -0.048583 -0.92036 0.084289
-0.049379 0.068721 1.1176 6.592e-39 209 233 0 0 0 0.39045 -0.028394 -0.92019 0.07728
0.040843 0.068721 1.1176 7.9749e-39 284 233 0 0 0 -0.76451 -0.11222 -0.63477 0.0078278
0.042112 0.068006 1.1166 7.0991e-39 238 233 0 0 0 -0.76202 -0.11997 -0.63634 0.0086554
-0.058532 0.070682 1.1176 8.943e-39 339 233 0 0 0 0.41452 -0.17935 -0.89219 0.15188
-0.05134 0.071336 1.1176 8.7356e-39 391.5 233 0 0 0 0.41318 -0.060904 -0.90861 0.087088
0.040843 0.070682 1.1176 6.3615e-39 428 233 0 0 0 -0.76663 -0.1187 -0.63102 0.0080786
0.042548 0.071489 1.1166 6.6074e-39 255.33 233.67 0 0 0 -0.77419 -0.13645 -0.61807 0.0084511
-0.051994 0.073297 1.1176 6.1771e-39 175 234 0 0 0 0.43592 -0.1069 -0.89362 0.091264
0.042151 0.073297 1.1176 7.0991e-39 243 234 0 0 0 -0.77606 -0.1342 -0.61621 0.0088281
-0.051994 0.075259 1.1176 8.8045e-39 270 234 0 0 0 0.46581 -0.13777 -0.8741 0.08803
-0.05134 0.07722 1.1176 8.5742e-39 328.5 234 0 0 0 0.50175 -0.13211 -0.85486 0.070837
-0.05134 0.079181 1.1176 8.1362e-39 382 234 0 0 0 0.53108 -0.13964 -0.83574 0.062404
-0.05134 0.081143 1.1176 6.4998e-39 426.5 234 0 0 0 0.55785 -0.16244 -0.81389 0.065665
-0.051329 0.083085 1.1173 7.3296e-39 453.5 234 0 0 0 0.59256 -0.14728 -0.79195 0.053051
-0.05134 0.085066 1.1176 7.1452e-39 467.5 234 0 0 0 0.61687 -0.14399 -0.77378 0.054272
-0.051317 0.086334 1.1171 6.8686e-39 474.5 234 0 0 0 0.64323 -0.10354 -0.75864 0.046095
-0.050732 0.053733 1.1186 6.2693e-39 438 229 0 0 0 0.18408 0.087766 -0.97899 0.089783
-0.046806 0.053733 1.1186 6.8225e-39 441 229 0 0 0 0.25912 0.10733 -0.95986 0.040447
-0.044189 0.053733 1.1186 7.0069e-39 443 229 0 0 0 0.27317 0.12307 -0.95406 0.029861
-0.042919 0.053781 1.1196 6.8225e-39 444 229 0 0 0 0.28664 0.12947 -0.94925 0.021811
0.042882 0.053126 1.1196 7.0069e-39 291 229.5 0 0 0 -0.74364 -0.15545 -0.65026 0.006128
-0.050732 0.055041 1.1186 7.1913e-39 186 230 0 0 0 0.20916 0.07265 -0.97518 0.086841
-0.046806 0.055041 1.1186 7.2835e-39 202 230 0 0 0 0.23366 0.12751 -0.96392 0.057448
-0.044229 0.055091 1.1196 7.3757e-39 204 230 0 0 0 0.2843 0.11606 -0.95169 0.026608
-0.042919 0.055091 1.1196 7.1913e-39 205 230 0 0 0 0.29313 0.12593 -0.94774 0.021124
0.042227 0.055091 1.1196 9.0352e-39 286 230 0 0 0 -0.74438 -0.13932 -0.65306 0.0062894
-0.058638 0.057711 1.1196 8.7586e-39 421 230 0 0 0 -0.071447 -0.10961 -0.9914 0.17576
-0.046806 0.057005 1.1186 6.8225e-39 374.5 230 0 0 0 0.26232 0.08285 -0.96142 0.056914
-0.044863 0.05703 1.1191 6.8456e-39 376 230 0 0 0 0.26867 0.10855 -0.9571 0.045499
0.042882 0.057056 1.1196 8.1362e-39 280 230.5 0 0 0 -0.75188 -0.12241 -0.64783 0.0060448
-0.058638 0.059021 1.1196 7.2835e-39 161 231 0 0 0 -0.0022183 -0.10595 -0.99437 0.1732
-0.046806 0.058968 1.1186 7.0991e-39 171 231 0 0 0 0.28092 0.048367 -0.95851 0.065608
-0.044863 0.058995 1.1191 6.7764e-39 172.5 231 0 0 0 0.27883 0.089773 -0.95614 0.047941
0.042882 0.059021 1.1196 7.3296e-39 242.5 231 0 0 0 -0.75298 -0.10765 -0.64918 0.0068227
0.044806 0.058968 1.1186 7.56e-39 244 231 0 0 0 -0.75166 -0.12491 -0.64761 0.0076343
-0.058638 0.060331 1.1196 7.4678e-39 255 231 0 0 0 0.060127 -0.13916 -0.98844 0.16854
-0.057276 0.061585 1.1186 5.9005e-39 357 231 0 0 0 0.16935 -0.097062 -0.98076 0.15897
-0.04877 0.061585 1.1186 6.2232e-39 363.5 231 0 0 0 0.31031 -0.0041066 -0.95063 0.080426
-0.046849 0.060986 1.1196 6.5459e-39 315 231 0 0 0 0.29891 0.041394 -0.95338 0.060428
-0.045539 0.060986 1.1196 6.7764e-39 318 231 0 0 0 0.29889 0.058497 -0.95249 0.056404
0.040917 0.061641 1.1196 6.8225e-39 447 231 0 0 0 -0.74755 -0.0982 -0.65691 0.0072951
0.042625 0.060712 1.1186 8.4513e-39 377.67 231 0 0 0 -0.75678 -0.10671 -0.6449 0.0072651
-0.057276 0.062894 1.1186 7.56e-39 464 231 0 0 0 0.23471 -0.12103 -0.9645 0.16065
-0.04877 0.062894 1.1186 7.1452e-39 470.5 231 0 0 0 0.31835 -0.00083408 -0.94797 0.076887
-0.046849 0.062951 1.1196 6.9147e-39 472 231 0 0 0 0.31164 0.03172 -0.94967 0.064081
-0.045539 0.062951 1.1196 6.8225e-39 473 231 0 0 0 0.31783 0.045922 -0.94704 0.053808
0.04088 0.062894 1.1186 6.8225e-39 192 232 0 0 0 -0.7567 -0.10508 -0.64526 0.007089
-0.057276 0.064203 1.1186 8.6664e-39 209 232 0 0 0 0.24651 -0.10815 -0.96309 0.15107
-0.048551 0.064639 1.1186 7.4371e-39 248.33 232 0 0 0 0.35046 -0.015233 -0.93646 0.076173
-0.046849 0.064916 1.1196 7.1452e-39 266 232 0 0 0 0.33696 0.021129 -0.94128 0.063914
-0.045539 0.064916 1.1196 7.0991e-39 267 232 0 0 0 0.35606 0.031183 -0.93394 0.051279
0.04088 0.064857 1.1186 9.1735e-39 342.5 232 0 0 0 -0.75953 -0.10403 -0.6421 0.0070024
-0.058638 0.066881 1.1196 9.9571e-39 412 232 0 0 0 0.28127 -0.10714 -0.95363 0.14768
-0.048115 0.06682 1.1186 8.943e-39 420 232 0 0 0 0.36494 -0.0092601 -0.93098 0.06974
-0.046849 0.066881 1.1196 8.3898e-39 421 232 0 0 0 0.36252 0.0082797 -0.93194 0.062774
-0.045539 0.066881 1.1196 7.56e-39 422 232 0 0 0 0.36235 0.02714 -0.93165 0.048441
0.039607 0.066881 1.1196 6.4537e-39 138 233 0 0 0 -0.74888 -0.097487 -0.6555 0.007787
-0.059057 0.069043 1.1193 7.0069e-39 217.33 233 0 0 0 0.33001 -0.14301 -0.93308 0.15144
-0.048115 0.068784 1.1186 6.131e-39 210 233 0 0 0 0.36913 -0.0086039 -0.92934 0.069774
-0.046849 0.068846 1.1196 5.9927e-39 211 233 0 0 0 0.37649 0.00057624 -0.92642 0.063904
-0.045539 0.068846 1.1196 5.9466e-39 212 233 0 0 0 0.38117 0.015036 -0.92438 0.050737
0.039607 0.068846 1.1196 7.9288e-39 283 233 0 0 0 -0.75132 -0.10151 -0.65208 0.007513
-0.04877 0.070746 1.1186 9.9112e-39 346.5 233 0 0 0 0.39523 -0.031412 -0.91805 0.075161
-0.046849 0.070811 1.1196 8.943e-39 348 233 0 0 0 0.39882 -0.0023332 -0.91703 0.055594
-0.045539 0.070811 1.1196 7.9288e-39 349 233 0 0 0 0.40203 0.0084667 -0.91559 0.05015
0.039607 0.070811 1.1196 6.4537e-39 427 233 0 0 0 -0.75572 -0.10539 -0.64636 0.0074493
-0.050732 0.073364 1.1186 5.9927e-39 176 234 0 0 0 0.42958 -0.093442 -0.89818 0.084526
-0.048781 0.072726 1.1188 6.7994e-39 309 233.5 0 0 0 0.41205 -0.048522 -0.90987 0.072496
-0.046849 0.07212 1.1196 7.0069e-39 442 233 0 0 0 0.41236 -0.010309 -0.91096 0.053598
0.039607 0.072775 1.1196 6.592e-39 203.5 234 0 0 0 -0.76002 -0.10932 -0.64064 0.0078722
0.04088 0.07271 1.1186 6.6381e-39 204.5 234 0 0 0 -0.76844 -0.11762 -0.62902 0.008097
-0.050732 0.075327 1.1186 8.4359e-39 271 234 0 0 0 0.46357 -0.12919 -0.87659 0.081946
-0.049002 0.075131 1.1189 7.6522e-39 265 234 0 0 0 0.45874 -0.088008 -0.8842 0.069051
0.039607 0.07474 1.1196 1.0326e-38 285 234 0 0 0 -0.76601 -0.10076 -0.63488 0.0077455
0.04088 0.074673 1.1186 9.6805e-39 286 234 0 0 0 -0.77333 -0.11642 -0.62322 0.008763
0.042189 0.074673 1.1186 9.5883e-39 287 234 0 0 0 -0.77702 -0.12565 -0.61681 0.0089817
-0.048566 0.076877 1.1189 9.1581e-39 318.67 234 0 0 0 0.48956 -0.074055 -0.86882 0.058804
-0.046849 0.07736 1.1196 8.7586e-39 332 234 0 0 0 0.47946 -0.04546 -0.87639 0.044812
-0.045539 0.07736 1.1196 8.6664e-39 333 234 0 0 0 0.47406 -0.027646 -0.88006 0.042867
0.040917 0.076705 1.1196 6.6381e-39 339 234 0 0 0 -0.77848 -0.10217 -0.61929 0.0088699
0.042227 0.076705 1.1196 6.592e-39 340 234 0 0 0 -0.78108 -0.1095 -0.61475 0.0089097
-0.04877 0.079253 1.1186 7.8597e-39 384 234 0 0 0 0.51719 -0.10018 -0.84999 0.055818
-0.046849 0.079325 1.1196 7.7905e-39 385.5 234 0 0 0 0.50601 -0.051005 -0.86102 0.039707
-0.045539 0.079325 1.1196 7.8827e-39 386.5 234 0 0 0 0.51061 -0.020256 -0.85957 0.030378
-0.04877 0.081216 1.1186 6.4076e-39 428.5 234 0 0 0 0.54467 -0.10399 -0.83217 0.05116
-0.046849 0.08129 1.1196 6.3615e-39 430 234 0 0 0 0.53271 -0.04434 -0.84513 0.033242
-0.044884 0.08129 1.1196 6.5459e-39 431.5 234 0 0 0 0.52761 -0.0076828 -0.84945 0.022115
-0.04877 0.083179 1.1186 7.3757e-39 455.5 234 0 0 0 0.57725 -0.09264 -0.8113 0.042499
-0.046849 0.083255 1.1196 6.8686e-39 457 234 0 0 0 0.56125 -0.026664 -0.82722 0.026782
-0.044884 0.083255 1.1196 7.03e-39 458.5 234 0 0 0 0.53777 0.0070087 -0.84306 0.01443
-0.04877 0.085143 1.1186 7.3296e-39 469.5 234 0 0 0 0.59448 -0.05723 -0.80207 0.031384
-0.046849 0.08522 1.1196 7.0069e-39 471 234 0 0 0 0.56808 -0.014094 -0.82285 0.01874
-0.044884 0.08522 1.1196 7.3296e-39 472.5 234 0 0 0 0.52718 0.005792 -0.84973 0.0089934
-0.04877 0.086451 1.1186 6.9608e-39 476.5 234 0 0 0 0.61238 -0.038029 -0.78965 0.028754
0.040954 0.05383 1.1207 6.4537e-39 150 230 0 0 0 -0.73284 -0.14715 -0.6643 0.0065861
0.043576 0.05383 1.1207 6.2693e-39 153 230 0 0 0 -0.74248 -0.15031 -0.65278 0.0060555
-0.040992 0.055141 1.1207 7.4218e-39 206.5 230 0 0 0 0.327 0.13431 -0.93543 0.011281
-0.035091 0.055141 1.1207 8.1132e-39 208 230 0 0 0 0.3931 0.12495 -0.91097 0.0055722
-0.03378 0.055141 1.1207 8.3898e-39 209 230 0 0 0 0.39388 0.12256 -0.91095 0.0059106
0.040954 0.055141 1.1207 9.3118e-39 285 230 0 0 0 -0.73694 -0.13151 -0.66304 0.0066625
0.043576 0.055141 1.1207 9.404e-39 287 230 0 0 0 -0.74549 -0.1398 -0.65169 0.0058921
-0.042958 0.057108 1.1207 6.5459e-39 377.5 230 0 0 0 0.30556 0.1185 -0.94477 0.023808
-0.041001 0.057121 1.1209 6.5689e-39 379 230 0 0 0 0.31822 0.13366 -0.93855 0.01742
-0.039042 0.057134 1.1212 6.4537e-39 380.5 230 0 0 0 0.35544 0.12987 -0.92563 0.0081925
-0.037299 0.056924 1.1214 6.9147e-39 363.33 230 0 0 0 0.38649 0.13282 -0.91268 0.0054361
-0.035123 0.056504 1.1217 8.2976e-39 328 230 0 0 0 0.3946 0.13397 -0.90904 0.0052703
-0.033811 0.056504 1.1217 8.3898e-39 329 230 0 0 0 0.39427 0.13152 -0.90953 0.0054392
0.039679 0.056504 1.1217 8.8508e-39 408 230 0 0 0 -0.72969 -0.11894 -0.67336 0.0078496
0.040954 0.057108 1.1207 7.9288e-39 278.5 230.5 0 0 0 -0.74036 -0.11355 -0.66255 0.0067176
-0.042958 0.059075 1.1207 6.1771e-39 174 231 0 0 0 0.30267 0.11556 -0.94606 0.029413
-0.04101 0.059101 1.1212 6.0849e-39 175.5 231 0 0 0 0.33064 0.11665 -0.93652 0.017296
-0.03906 0.059128 1.1217 6.5459e-39 177 231 0 0 0 0.35711 0.12585 -0.92554 0.0086087
-0.037748 0.059128 1.1217 6.9147e-39 178 231 0 0 0 0.38489 0.1305 -0.91369 0.0055728
0.040954 0.059075 1.1207 6.9147e-39 241 231 0 0 0 -0.74352 -0.10065 -0.6611 0.0073759
-0.058691 0.061697 1.1207 5.9927e-39 356 231 0 0 0 0.11348 -0.10319 -0.98817 0.16343
-0.044269 0.061041 1.1207 6.7764e-39 319 231 0 0 0 0.30365 0.078807 -0.94952 0.043621
-0.042958 0.061041 1.1207 6.7303e-39 320 231 0 0 0 0.30928 0.096821 -0.94603 0.036
-0.041019 0.061083 1.1214 6.6151e-39 328.5 231 0 0 0 0.33794 0.1082 -0.93493 0.016447
0.039679 0.061753 1.1217 6.7303e-39 446 231 0 0 0 -0.73421 -0.091612 -0.67271 0.0082151
0.040954 0.060386 1.1207 8.5742e-39 341 231 0 0 0 -0.74386 -0.09884 -0.66099 0.0075392
-0.044269 0.063008 1.1207 6.6381e-39 474 231 0 0 0 0.32908 0.058762 -0.94247 0.043819
-0.042958 0.063008 1.1207 6.1771e-39 475 231 0 0 0 0.32655 0.082823 -0.94154 0.036251
-0.04101 0.063037 1.1212 6.2693e-39 476.5 231 0 0 0 0.35221 0.094401 -0.93115 0.018089
0.039643 0.063008 1.1207 6.7303e-39 191 232 0 0 0 -0.73764 -0.091717 -0.66893 0.0079546
-0.058691 0.06563 1.1207 6.8225e-39 306 232 0 0 0 0.25451 -0.10805 -0.96102 0.15442
-0.044269 0.064975 1.1207 7.1452e-39 268 232 0 0 0 0.33994 0.05057 -0.93909 0.042188
-0.042997 0.065034 1.1217 7.0068e-39 269 232 0 0 0 0.33837 0.073229 -0.93816 0.035147
-0.041666 0.065004 1.1212 6.6842e-39 270 232 0 0 0 0.35139 0.079878 -0.93282 0.025257
0.039643 0.064975 1.1207 9.1735e-39 341.5 232 0 0 0 -0.7402 -0.094685 -0.66569 0.0077665
-0.044309 0.067002 1.1217 7.3757e-39 423 232 0 0 0 0.35168 0.048584 -0.93486 0.040273
-0.042997 0.067002 1.1217 7.0991e-39 424 232 0 0 0 0.35724 0.059325 -0.93213 0.0364
-0.041685 0.067002 1.1217 6.7303e-39 425 232 0 0 0 0.36756 0.070606 -0.92732 0.024073
-0.044289 0.06894 1.1212 5.9927e-39 213 233 0 0 0 0.36847 0.042135 -0.92868 0.03826
-0.042997 0.068971 1.1217 6.3615e-39 214 233 0 0 0 0.36775 0.052457 -0.92844 0.032815
-0.041685 0.068971 1.1217 6.3615e-39 215 233 0 0 0 0.38138 0.072927 -0.92154 0.020429
0.038367 0.069627 1.1217 8.6664e-39 329 233 0 0 0 -0.73089 -0.092617 -0.67618 0.0087558
-0.044309 0.070939 1.1217 6.9147e-39 350 233 0 0 0 0.38059 0.028769 -0.9243 0.040914
-0.042997 0.070939 1.1217 6.6381e-39 351 233 0 0 0 0.39 0.05904 -0.91892 0.027637
-0.041685 0.070939 1.1217 6.8225e-39 352 233 0 0 0 0.39563 0.071399 -0.91563 0.021329
0.038367 0.070939 1.1217 6.5459e-39 426 233 0 0 0 -0.73395 -0.096248 -0.67235 0.0086499
-0.046891 0.073497 1.1207 6.9147e-39 179 234 0 0 0 0.41867 -0.028131 -0.9077 0.05624
-0.044945 0.072875 1.1212 6.8456e-39 312 233.5 0 0 0 0.40724 0.018675 -0.91313 0.040053
-0.042997 0.072251 1.1217 7.0069e-39 445 233 0 0 0 0.40276 0.057615 -0.91349 0.025125
0.038367 0.072907 1.1217 6.638e-39 202.5 234 0 0 0 -0.73883 -0.098302 -0.66668 0.0082873
-0.046891 0.074808 1.1207 6.4537e-39 252 234 0 0 0 0.43364 -0.038641 -0.90026 0.057126
-0.044945 0.074842 1.1212 7.2374e-39 253.5 234 0 0 0 0.43991 0.021235 -0.89779 0.03262
0.038367 0.074876 1.1217 1.0787e-38 284 234 0 0 0 -0.75002 -0.092861 -0.65486 0.0078981
-0.046891 0.076119 1.1207 9.0352e-39 296 234 0 0 0 0.4591 -0.030662 -0.88786 0.048111
-0.044719 0.076579 1.121 8.7893e-39 309.67 234 0 0 0 0.45026 0.0074596 -0.89287 0.033506
-0.042997 0.077501 1.1217 8.7586e-39 335 234 0 0 0 0.45154 0.033552 -0.89162 0.017
0.039005 0.07681 1.1212 6.6842e-39 337.5 234 0 0 0 -0.76229 -0.081277 -0.64211 0.0079376
-0.044269 0.078742 1.1207 6.8225e-39 367 234 0 0 0 0.47632 0.011785 -0.87919 0.020621
-0.042997 0.078813 1.1217 6.8225e-39 368 234 0 0 0 0.46891 0.033405 -0.88262 0.013838
0.039643 0.078742 1.1207 9.4961e-39 398 234 0 0 0 -0.77677 -0.061591 -0.62677 0.0076261
0.040954 0.078742 1.1207 9.5883e-39 399 234 0 0 0 -0.78306 -0.058682 -0.61918 0.0075145
0.042265 0.078742 1.1207 9.8649e-39 400 234 0 0 0 -0.78706 -0.064327 -0.61352 0.007711
-0.044269 0.080053 1.1207 9.0352e-39 408 234 0 0 0 0.49116 0.0070169 -0.87104 0.019589
-0.042958 0.080709 1.1207 7.7905e-39 421 234 0 0 0 0.48549 0.032418 -0.87364 0.011816
-0.041685 0.081438 1.1217 6.3615e-39 434 234 0 0 0 0.48525 0.040541 -0.87344 0.0087087
-0.042958 0.08333 1.1207 7.1452e-39 460 234 0 0 0 0.50937 0.021247 -0.86029 0.0078448
-0.041685 0.08275 1.1217 6.9147e-39 456 234 0 0 0 0.49518 0.031485 -0.86822 0.0084301
0.039289 0.053507 1.123 6.7303e-39 242.33 229.67 0 0 0 -0.69751 -0.091802 -0.71067 0.014138
-0.031214 0.055242 1.1227 7.9288e-39 210 230 0 0 0 0.40342 0.12402 -0.90657 0.0058665
-0.029901 0.055242 1.1227 7.56e-39 211 230 0 0 0 0.40226 0.12596 -0.90682 0.0058748
0.039076 0.055267 1.1232 1.0234e-38 283.5 230 0 0 0 -0.6939 -0.085406 -0.71499 0.015707
-0.036468 0.057869 1.1227 6.2693e-39 438 230 0 0 0 0.39621 0.13703 -0.90788 0.0047745
-0.035155 0.057869 1.1227 6.4537e-39 439 230 0 0 0 0.39401 0.13624 -0.90895 0.0050723
-0.032985 0.057465 1.1234 7.4679e-39 403.67 230 0 0 0 0.40065 0.12509 -0.90765 0.0054695
-0.031243 0.056606 1.1237 9.3118e-39 331 230 0 0 0 0.40191 0.13069 -0.90631 0.0054587
-0.029928 0.056606 1.1237 1.0326e-38 333 230 0 0 0 0.40069 0.12814 -0.90721 0.0055583
0.039076 0.057237 1.1232 7.9749e-39 277 230.5 0 0 0 -0.7008 -0.085805 -0.70818 0.01391
-0.036468 0.059182 1.1227 6.6381e-39 179 231 0 0 0 0.39431 0.13575 -0.9089 0.0046595
-0.035187 0.059236 1.1237 6.6381e-39 180 231 0 0 0 0.39474 0.13674 -0.90856 0.0049258
-0.033872 0.059236 1.1237 6.5459e-39 181 231 0 0 0 0.39502 0.13412 -0.90883 0.0048319
0.039715 0.059182 1.1227 7.0069e-39 240 231 0 0 0 -0.72501 -0.093389 -0.68237 0.0099428
-0.039095 0.061152 1.1227 6.8686e-39 330 231 0 0 0 0.36106 0.12004 -0.92479 0.0099709
-0.037125 0.061152 1.1227 7.514e-39 331.5 231 0 0 0 0.39071 0.12875 -0.91147 0.0048801
-0.035187 0.061208 1.1237 7.7444e-39 333 231 0 0 0 0.39647 0.1304 -0.90874 0.0046949
-0.033215 0.061208 1.1237 7.7905e-39 334.5 231 0 0 0 0.39515 0.13338 -0.90888 0.0046292
0.037122 0.061865 1.1237 6.6381e-39 444 231 0 0 0 -0.69063 -0.073594 -0.71945 0.015656
0.039076 0.06118 1.1232 7.6061e-39 392.5 231 0 0 0 -0.71544 -0.087966 -0.69312 0.011099
-0.058798 0.063123 1.1227 7.4678e-39 463 231 0 0 0 0.10934 -0.065567 -0.99184 0.15627
-0.039095 0.063123 1.1227 6.5459e-39 478 231 0 0 0 0.36884 0.1116 -0.92277 0.010007
-0.037142 0.063152 1.1232 6.5459e-39 482 231 0 0 0 0.39844 0.12348 -0.90885 0.004784
-0.035187 0.06318 1.1237 6.5459e-39 486 231 0 0 0 0.39885 0.1212 -0.90897 0.0046792
-0.033215 0.06318 1.1237 6.9608e-39 487.5 231 0 0 0 0.39637 0.12774 -0.90916 0.0045031
0.037122 0.06318 1.1237 6.6381e-39 185 232 0 0 0 -0.69398 -0.079624 -0.71558 0.014116
0.038402 0.063123 1.1227 7.0991e-39 186 232 0 0 0 -0.71504 -0.0888 -0.69342 0.011125
-0.058798 0.064436 1.1227 8.2054e-39 208 232 0 0 0 0.16822 -0.069586 -0.98329 0.15074
-0.040409 0.065093 1.1227 6.6381e-39 271 232 0 0 0 0.36514 0.099736 -0.9256 0.013666
-0.039095 0.065093 1.1227 6.6381e-39 272 232 0 0 0 0.37461 0.10806 -0.92086 0.010237
-0.037355 0.064894 1.123 6.7303e-39 257 232 0 0 0 0.39862 0.11827 -0.90946 0.0050302
-0.033215 0.064495 1.1237 6.9608e-39 227.5 232 0 0 0 0.39896 0.12028 -0.90905 0.0047365
0.037088 0.065093 1.1227 8.6203e-39 339.5 232 0 0 0 -0.69976 -0.082635 -0.70959 0.012857
0.038402 0.065093 1.1227 8.8969e-39 340.5 232 0 0 0 -0.71509 -0.089348 -0.6933 0.0097146
-0.040409 0.067063 1.1227 6.4537e-39 426 232 0 0 0 0.37879 0.092956 -0.9208 0.013617
-0.039095 0.067063 1.1227 6.2693e-39 427 232 0 0 0 0.39121 0.10003 -0.91485 0.0091465
-0.037816 0.067124 1.1237 6.1771e-39 428 232 0 0 0 0.40426 0.11052 -0.90794 0.0053372
0.037122 0.067124 1.1237 7.8366e-39 493 232 0 0 0 -0.69477 -0.082861 -0.71444 0.01222
0.038402 0.067063 1.1227 9.0352e-39 494 232 0 0 0 -0.71569 -0.085954 -0.69311 0.0090858
-0.060112 0.068377 1.1227 6.8225e-39 154 233 0 0 0 0.25413 -0.13719 -0.95739 0.15868
-0.040409 0.069034 1.1227 6.4076e-39 216 233 0 0 0 0.39152 0.083394 -0.91638 0.01452
-0.039095 0.069034 1.1227 6.592e-39 217 233 0 0 0 0.39833 0.099612 -0.91182 0.0080841
-0.037816 0.069096 1.1237 6.9608e-39 221 233 0 0 0 0.4072 0.10993 -0.9067 0.0054104
0.035807 0.069754 1.1237 8.3898e-39 327 233 0 0 0 -0.68704 -0.084783 -0.72166 0.014013
0.037088 0.069034 1.1227 7.9749e-39 281 233 0 0 0 -0.70488 -0.098399 -0.70247 0.010626
0.038402 0.068377 1.1227 7.2835e-39 235 233 0 0 0 -0.71916 -0.088875 -0.68913 0.0085243
-0.040446 0.071068 1.1237 7.0991e-39 353 233 0 0 0 0.40129 0.082938 -0.91219 0.013253
-0.039131 0.071068 1.1237 7.1913e-39 354 233 0 0 0 0.41311 0.099615 -0.90522 0.0065615
0.035807 0.071068 1.1237 6.8225e-39 424 233 0 0 0 -0.69097 -0.091108 -0.71711 0.013068
0.037088 0.071004 1.1227 6.7303e-39 425 233 0 0 0 -0.70817 -0.09745 -0.69929 0.010411
-0.043036 0.073631 1.1227 7.0069e-39 182 234 0 0 0 0.41135 0.051645 -0.91002 0.025016
-0.041084 0.073007 1.1232 7.1221e-39 315 233.5 0 0 0 0.41017 0.076581 -0.90879 0.014011
-0.039131 0.073041 1.1237 7.2374e-39 316.5 233.5 0 0 0 0.42308 0.09718 -0.90087 0.0065114
0.035807 0.073041 1.1237 6.6381e-39 200.5 234 0 0 0 -0.69381 -0.092725 -0.71417 0.012616
0.037088 0.072974 1.1227 6.6841e-39 201.5 234 0 0 0 -0.714 -0.095355 -0.69362 0.010945
-0.043036 0.074944 1.1227 7.2835e-39 255 234 0 0 0 0.41766 0.04012 -0.90772 0.02539
-0.041103 0.075012 1.1237 6.7764e-39 256.5 234 0 0 0 0.4305 0.071059 -0.89979 0.010401
-0.039131 0.075012 1.1237 6.0849e-39 258 234 0 0 0 0.43323 0.084848 -0.89728 0.0069451
0.035775 0.074944 1.1227 1.0049e-38 282 234 0 0 0 -0.71064 -0.090099 -0.69776 0.012225
0.037088 0.074944 1.1227 1.0787e-38 283 234 0 0 0 -0.72382 -0.10084 -0.68258 0.011144
-0.043036 0.076258 1.1227 9.404e-39 299 234 0 0 0 0.43239 0.037234 -0.90092 0.021329
-0.041093 0.076967 1.1235 8.7586e-39 318.5 234 0 0 0 0.44596 0.064529 -0.89272 0.0093881
-0.039131 0.076985 1.1237 8.482e-39 320 234 0 0 0 0.43935 0.075386 -0.89514 0.0073308
0.037088 0.076258 1.1227 6.0849e-39 319 234 0 0 0 -0.72427 -0.094027 -0.68308 0.011065
-0.041084 0.07892 1.1232 6.6842e-39 375.5 234 0 0 0 0.4639 0.057009 -0.88405 0.0090613
-0.039095 0.078885 1.1227 6.9147e-39 383 234 0 0 0 0.4526 0.065775 -0.88929 0.0089132
-0.040847 0.080636 1.1227 8.8816e-39 418.67 234 0 0 0 0.47052 0.048448 -0.88106 0.0089495
-0.039095 0.080855 1.1227 8.3899e-39 424 234 0 0 0 0.45535 0.05618 -0.88854 0.0083926
0.035872 0.052758 1.1258 6.4537e-39 428 229 0 0 0 -0.64518 -0.050004 -0.76239 0.025605
0.038472 0.05271 1.1247 6.5459e-39 429 229 0 0 0 -0.67892 -0.086979 -0.72904 0.018113
0.035422 0.054937 1.1254 8.4206e-39 235.67 230 0 0 0 -0.64826 -0.042816 -0.76021 0.023735
0.037173 0.054708 1.1252 8.3898e-39 214.5 230 0 0 0 -0.66623 -0.059026 -0.74341 0.020431
-0.031271 0.057974 1.1247 7.1913e-39 442 230 0 0 0 0.39841 0.13293 -0.90752 0.0051648
-0.029297 0.057316 1.1247 8.6665e-39 390 230 0 0 0 0.39528 0.13021 -0.90929 0.0057525
-0.026677 0.056684 1.1252 9.819e-39 338.5 230 0 0 0 0.38115 0.13412 -0.91473 0.0076673
0.035872 0.05671 1.1258 9.4961e-39 405 230 0 0 0 -0.65075 -0.045792 -0.75791 0.022549
0.037156 0.057316 1.1247 7.9288e-39 275.5 230.5 0 0 0 -0.6751 -0.065154 -0.73484 0.017993
0.038472 0.057974 1.1247 6.7303e-39 146 231 0 0 0 -0.69083 -0.068363 -0.71978 0.016228
-0.060221 0.05929 1.1247 7.3757e-39 160 231 0 0 0 -0.14655 -0.01793 -0.98904 0.17074
-0.032587 0.05929 1.1247 6.5459e-39 182 231 0 0 0 0.3976 0.12819 -0.90856 0.0052196
-0.031271 0.05929 1.1247 6.5459e-39 183 231 0 0 0 0.39753 0.13219 -0.90802 0.0051595
-0.029096 0.058887 1.1254 6.5766e-39 271 230.67 0 0 0 0.39135 0.13168 -0.91077 0.0057475
-0.027348 0.058027 1.1258 6.5459e-39 445 230 0 0 0 0.38095 0.13383 -0.91486 0.0070144
0.035872 0.058027 1.1258 6.8225e-39 144 231 0 0 0 -0.65202 -0.045443 -0.75684 0.022094
0.03719 0.059344 1.1258 7.0069e-39 238 231 0 0 0 -0.67183 -0.06063 -0.73822 0.018084
0.038472 0.05929 1.1247 6.9147e-39 239 231 0 0 0 -0.69228 -0.071818 -0.71805 0.015112
-0.060221 0.060606 1.1247 7.3757e-39 254 231 0 0 0 -0.11737 -0.0058331 -0.99307 0.16588
-0.031271 0.061264 1.1247 7.9288e-39 336 231 0 0 0 0.39678 0.12924 -0.90877 0.005001
-0.029311 0.061292 1.1252 8.5742e-39 337.5 231 0 0 0 0.39015 0.12816 -0.91179 0.0055614
0.035872 0.06132 1.1258 8.3898e-39 390 231 0 0 0 -0.66014 -0.058411 -0.74887 0.019617
0.037156 0.060606 1.1247 9.6805e-39 338 231 0 0 0 -0.68037 -0.061356 -0.7303 0.016886
0.038472 0.060606 1.1247 9.1274e-39 339 231 0 0 0 -0.69241 -0.074297 -0.71767 0.015298
-0.031271 0.063238 1.1247 7.0069e-39 489 231 0 0 0 0.39502 0.1202 -0.91078 0.0050786
-0.029311 0.063267 1.1252 7.0069e-39 490.5 231 0 0 0 0.38935 0.12095 -0.91311 0.0053476
-0.027348 0.063295 1.1258 7.8366e-39 492 231 0 0 0 0.37625 0.12371 -0.91822 0.0059651
0.035198 0.063267 1.1252 6.6842e-39 183.5 232 0 0 0 -0.66109 -0.072318 -0.74681 0.019317
-0.036535 0.065869 1.1247 7.3757e-39 323 232 0 0 0 0.40152 0.11625 -0.90844 0.004791
-0.035219 0.065211 1.1247 6.9608e-39 275 232 0 0 0 0.39787 0.12035 -0.90952 0.0046627
-0.033245 0.065869 1.1247 7.514e-39 325.5 232 0 0 0 0.39917 0.11628 -0.90947 0.0049072
-0.031271 0.065211 1.1247 7.514e-39 278 232 0 0 0 0.39434 0.11874 -0.91126 0.0049098
-0.029311 0.065241 1.1252 7.6753e-39 279.5 232 0 0 0 0.39054 0.11734 -0.91308 0.0054175
-0.027348 0.06527 1.1258 8.0671e-39 281 232 0 0 0 0.37873 0.12019 -0.91767 0.0058851
0.035198 0.065241 1.1252 8.7585e-39 338 232 0 0 0 -0.65847 -0.075203 -0.74884 0.018973
-0.060276 0.067246 1.1258 9.8649e-39 411 232 0 0 0 0.049861 -0.084103 -0.99521 0.17468
-0.036535 0.067185 1.1247 6.4537e-39 429 232 0 0 0 0.40199 0.11647 -0.90821 0.0047881
-0.035219 0.067185 1.1247 6.6381e-39 430 232 0 0 0 0.39822 0.11528 -0.91002 0.0049933
-0.03326 0.067216 1.1252 6.6842e-39 431.5 232 0 0 0 0.39905 0.11358 -0.90987 0.0049971
-0.0313 0.067246 1.1258 6.1771e-39 433 232 0 0 0 0.3944 0.11567 -0.91163 0.0049881
-0.029983 0.067246 1.1258 6.2693e-39 434 232 0 0 0 0.39132 0.11654 -0.91284 0.0051781
0.03584 0.067185 1.1247 7.0069e-39 492 232 0 0 0 -0.66908 -0.08401 -0.73843 0.015996
-0.036535 0.069159 1.1247 6.6381e-39 222 233 0 0 0 0.40334 0.10952 -0.90847 0.0053222
-0.035235 0.069191 1.1252 6.4076e-39 223 233 0 0 0 0.39902 0.11364 -0.90987 0.0049795
-0.033268 0.069207 1.1255 6.2693e-39 224.5 233 0 0 0 0.39837 0.11505 -0.90998 0.0050954
0.03584 0.068501 1.1247 7.56e-39 233 233 0 0 0 -0.67504 -0.086053 -0.73274 0.014583
-0.037209 0.071166 1.1252 6.8686e-39 355.5 233 0 0 0 0.40299 0.11086 -0.90846 0.0054721
-0.035251 0.071198 1.1258 6.4537e-39 357 233 0 0 0 0.40061 0.1123 -0.90934 0.0053461
-0.033934 0.071198 1.1258 6.0849e-39 358 233 0 0 0 0.39956 0.11593 -0.90934 0.0053159
-0.037885 0.073174 1.1258 7.7905e-39 321.5 233.5 0 0 0 0.41247 0.10522 -0.90487 0.0062607
-0.037885 0.075149 1.1258 5.8083e-39 259 234 0 0 0 0.41803 0.091589 -0.9038 0.0064632
-0.037885 0.077783 1.1258 8.7586e-39 339 234 0 0 0 0.42241 0.077933 -0.90305 0.0071837
-0.037885 0.0791 1.1258 7.0069e-39 384 234 0 0 0 0.42546 0.06809 -0.90241 0.0077239
-0.037226 0.081076 1.1258 8.4818e-39 425 234 0 0 0 0.42532 0.060022 -0.90305 0.0081638
