# .PCD v.7 - Point Cloud Data file format
VERSION .7
FIELDS x y z rgb u v vx vy vz normal_x normal_y normal_z curvature
SIZE 4 4 4 4 4 4 4 4 4 4 4 4 4
TYPE F F F F F F F F F F F F F
COUNT 1 1 1 1 1 1 1 1 1 1 1 1 1
WIDTH 553
HEIGHT 1
VIEWPOINT 0 0 0 1 0 0 0
POINTS 553
DATA ascii
-0.050178 0.098498 1.0786 7.0069e-39 185 241 0 0 0 -0.58044 0.57434 -0.57725 0.0085794
-0.048916 0.10102 1.0786 6.7303e-39 368 241 0 0 0 -0.5951 0.55694 -0.57937 0.0071836
0.055918 0.080973 1.0805 6.8225e-39 145 239 0 0 0 0.84508 0.2644 -0.46469 0.033884
0.049641 0.083575 1.0814 7.4678e-39 187 239 0 0 0 0.83693 0.37436 -0.39926 0.02581
0.050862 0.083502 1.0805 7.2835e-39 188 239 0 0 0 0.83693 0.37436 -0.39926 0.02581
0.055918 0.082869 1.0805 6.7303e-39 186 239 0 0 0 0.84433 0.30486 -0.44064 0.03256
0.052781 0.0867 1.081 7.7444e-39 277.5 239 0 0 0 0.833 0.39194 -0.39051 0.025832
0.054654 0.08603 1.0805 8.2054e-39 259 239 0 0 0 0.83638 0.37421 -0.40054 0.027699
-0.055322 0.09235 1.0805 7.1913e-39 143 240 0 0 0 -0.5759 0.58218 -0.57395 0.016302
-0.054105 0.096227 1.0814 6.2693e-39 365 240 0 0 0 -0.59218 0.5722 -0.56737 0.012177
0.048334 0.096143 1.0805 7.7444e-39 477 240 0 0 0 0.84065 0.38942 -0.37638 0.021722
-0.050266 0.099935 1.0805 7.7444e-39 274 241 0 0 0 -0.59164 0.5685 -0.57164 0.0087878
0.04458 0.10002 1.0814 6.4537e-39 365 241 0 0 0 0.84323 0.38094 -0.37928 0.023807
0.050996 0.082454 1.0833 6.3615e-39 166 239 0 0 0 0.85687 0.34182 -0.38593 0.029353
0.056065 0.084989 1.0833 8.7586e-39 227 239 0 0 0 0.85884 0.35393 -0.37029 0.030599
0.052263 0.087524 1.0833 7.56e-39 297 239 0 0 0 0.83262 0.39188 -0.39137 0.026679
0.053507 0.089385 1.0828 7.1913e-39 394.5 239 0 0 0 0.83197 0.39329 -0.39135 0.02582
0.052263 0.090692 1.0833 7.3757e-39 290.5 239.5 0 0 0 0.83197 0.39329 -0.39135 0.02582
-0.055419 0.093778 1.0824 8.1132e-39 212 240 0 0 0 -0.60112 0.57541 -0.55458 0.0133
-0.055468 0.095128 1.0833 8.2054e-39 279 240 0 0 0 -0.60956 0.58404 -0.53603 0.011743
-0.052886 0.097577 1.0824 7.7444e-39 478 240 0 0 0 -0.59502 0.57686 -0.55963 0.011379
-0.05162 0.098844 1.0824 7.0991e-39 184 241 0 0 0 -0.59532 0.57805 -0.55808 0.010298
0.047152 0.098844 1.0824 7.8366e-39 272 241 0 0 0 0.83287 0.39234 -0.39038 0.023973
0.045886 0.10011 1.0824 6.6381e-39 366 241 0 0 0 0.84011 0.38556 -0.38151 0.026349
0.043353 0.10264 1.0824 6.1771e-39 151 242 0 0 0 0.8287 0.41134 -0.37955 0.016439
0.054846 0.0876 1.0843 7.4678e-39 299 239 0 0 0 0.85135 0.38348 -0.35797 0.028438
0.056164 0.086408 1.0852 8.482e-39 260 239 0 0 0 0.85977 0.36804 -0.35404 0.030655
0.052309 0.088869 1.0843 6.7303e-39 348 239 0 0 0 0.83181 0.3933 -0.39167 0.026494
-0.056835 0.091486 1.0852 7.4678e-39 441 239 0 0 0 -0.639 0.57264 -0.51358 0.015273
0.051041 0.093943 1.0843 8.3898e-39 278 240 0 0 0 0.83252 0.39224 -0.39124 0.024687
-0.055516 0.09648 1.0843 6.3615e-39 364 240 0 0 0 -0.63421 0.57427 -0.51768 0.012433
0.048503 0.097749 1.0843 7.0991e-39 183 241 0 0 0 0.83252 0.39224 -0.39124 0.024687
0.044698 0.10155 1.0843 7.7444e-39 470 241 0 0 0 0.85151 0.38805 -0.35264 0.025311
0.044737 0.10291 1.0852 6.0849e-39 152 242 0 0 0 0.8353 0.43149 -0.34072 0.015808
0.04986 0.082671 1.0862 5.9927e-39 165 239 0 0 0 0.85658 0.36568 -0.36407 0.030266
0.046047 0.10173 1.0862 8.1132e-39 471 241 0 0 0 0.85088 0.40794 -0.33104 0.026362
0.057585 0.082817 1.0881 6.1771e-39 171 239 0 0 0 0.88865 0.33475 -0.31343 0.014633
0.048717 0.099454 1.089 7.7444e-39 273 241 0 0 0 0.85542 0.41207 -0.31378 0.027916
0.047401 0.10064 1.0881 6.8225e-39 367 241 0 0 0 0.85894 0.40514 -0.31319 0.029492
-0.055021 0.051537 1.0997 6.0849e-39 183 233 0 0 0 0.77324 0.41125 -0.48267 0.049898
-0.053043 0.050206 1.0987 7.2835e-39 367.5 232 0 0 0 0.75243 0.4787 -0.45243 0.043343
-0.053138 0.051583 1.1007 6.2232e-39 184.5 233 0 0 0 0.75805 0.39678 -0.51761 0.051879
-0.056408 0.052918 1.1017 7.56e-39 287 233 0 0 0 0.77125 0.34097 -0.5375 0.065976
-0.055119 0.052918 1.1017 7.56e-39 288 233 0 0 0 0.7677 0.33805 -0.54438 0.064011
-0.053186 0.052918 1.1017 7.6061e-39 289.5 233 0 0 0 0.77102 0.30284 -0.56019 0.054462
0.067327 0.069673 1.1017 8.5742e-39 215 238 0 0 0 -0.83075 -0.20805 -0.51631 0.019981
0.066683 0.070962 1.1017 8.2054e-39 261.5 238 0 0 0 -0.83319 -0.19711 -0.51666 0.020862
-0.060274 0.074829 1.1017 6.9147e-39 337 238 0 0 0 0.73907 -0.085555 -0.66817 0.076305
0.05954 0.079913 1.1007 7.6522e-39 477 238 0 0 0 -0.83811 -0.52657 -0.14245 0.061313
-0.051298 0.050385 1.1027 7.0991e-39 369 232 0 0 0 0.7696 0.37654 -0.51569 0.04931
-0.057748 0.052965 1.1027 7.56e-39 286 233 0 0 0 0.77595 0.35401 -0.52209 0.073257
-0.057129 0.054279 1.1032 7.2374e-39 413.5 233 0 0 0 0.79336 0.27404 -0.54358 0.074544
-0.055217 0.054304 1.1036 6.7303e-39 415 233 0 0 0 0.78297 0.22882 -0.57844 0.071064
0.067447 0.063342 1.1036 6.4537e-39 342 236 0 0 0 -0.78503 -0.22564 -0.57689 0.019051
0.067017 0.065494 1.1036 8.5742e-39 327 236.67 0 0 0 -0.79809 -0.20519 -0.56652 0.020514
0.066771 0.067186 1.1032 6.592e-39 356.5 237 0 0 0 -0.80933 -0.1925 -0.55492 0.020386
0.064865 0.069153 1.1036 7.6983e-39 345.5 237.5 0 0 0 -0.79986 -0.1982 -0.56652 0.021235
0.066527 0.068876 1.1027 7.5908e-39 391 237.33 0 0 0 -0.81213 -0.20226 -0.54729 0.020426
0.068738 0.069153 1.1036 7.6983e-39 348.5 237.5 0 0 0 -0.82761 -0.20666 -0.52187 0.019538
0.063574 0.071089 1.1036 8.2976e-39 259 238 0 0 0 -0.80646 -0.19098 -0.55959 0.021532
0.064807 0.071026 1.1027 8.7586e-39 260 238 0 0 0 -0.81561 -0.19765 -0.5438 0.021028
0.068738 0.071089 1.1036 7.8366e-39 263 238 0 0 0 -0.83266 -0.20558 -0.51421 0.020346
-0.060776 0.073197 1.103 8.3591e-39 289.33 238 0 0 0 0.73022 -0.016094 -0.68302 0.072748
-0.059091 0.073672 1.1036 7.9288e-39 303 238 0 0 0 0.7265 -0.010796 -0.68708 0.066479
0.063545 0.072993 1.1032 7.514e-39 312 238 0 0 0 -0.83007 -0.2384 -0.50413 0.036706
0.064807 0.072961 1.1027 7.6983e-39 313 238 0 0 0 -0.83982 -0.24447 -0.48471 0.03651
0.066742 0.072961 1.1027 7.1682e-39 314.5 238 0 0 0 -0.85556 -0.24672 -0.45514 0.03537
-0.059091 0.074963 1.1036 6.5459e-39 338 238 0 0 0 0.71869 -0.045589 -0.69384 0.064932
0.063517 0.074896 1.1027 6.9147e-39 367 238 0 0 0 -0.84602 -0.24741 -0.47226 0.037913
0.064865 0.074963 1.1036 6.8225e-39 368 238 0 0 0 -0.86869 -0.20801 -0.44956 0.047976
0.066156 0.074963 1.1036 7.0069e-39 369 238 0 0 0 -0.88293 -0.21089 -0.41948 0.048424
-0.059091 0.076899 1.1036 6.8224e-39 409 238 0 0 0 0.72113 -0.11812 -0.68266 0.071682
-0.0578 0.077545 1.1036 7.56e-39 424 238 0 0 0 0.7206 -0.11522 -0.68371 0.067216
0.063574 0.076254 1.1036 7.0991e-39 417 238 0 0 0 -0.87216 -0.20924 -0.44222 0.050046
-0.059197 0.055694 1.1056 7.7444e-39 206 234 0 0 0 0.7978 0.19396 -0.57087 0.070602
-0.057205 0.055644 1.1046 7.1913e-39 207.5 234 0 0 0 0.78985 0.18672 -0.58418 0.069341
-0.053328 0.054352 1.1046 7.1452e-39 416.5 233 0 0 0 0.7716 0.19994 -0.60386 0.067037
-0.057256 0.056988 1.1056 7.8366e-39 307.5 234 0 0 0 0.7801 0.146 -0.60838 0.065312
0.067568 0.060868 1.1056 7.7444e-39 457 235 0 0 0 -0.74554 -0.21763 -0.62993 0.017854
0.066646 0.062537 1.1046 8.4512e-39 274 236 0 0 0 -0.76121 -0.21557 -0.61163 0.019791
0.068862 0.063455 1.1056 6.7303e-39 343 236 0 0 0 -0.76815 -0.22324 -0.6001 0.019804
0.066215 0.064691 1.1046 7.0069e-39 473 236 0 0 0 -0.77935 -0.20686 -0.59146 0.020985
0.068831 0.065366 1.1051 8.3898e-39 365 236.5 0 0 0 -0.80226 -0.20109 -0.56209 0.019983
0.063687 0.067336 1.1056 7.0991e-39 354 237 0 0 0 -0.78418 -0.18817 -0.59132 0.021048
0.064952 0.066659 1.1051 7.5601e-39 303.5 237 0 0 0 -0.78672 -0.18855 -0.58781 0.021208
0.0688 0.067276 1.1046 6.5459e-39 358 237 0 0 0 -0.80813 -0.20274 -0.55301 0.02037
0.063631 0.069214 1.1046 7.7444e-39 344.5 237.5 0 0 0 -0.79396 -0.18161 -0.58021 0.021286
-0.060436 0.071153 1.1046 9.0352e-39 218 238 0 0 0 0.7375 0.049313 -0.67355 0.065357
-0.059197 0.071217 1.1056 9.0352e-39 219 238 0 0 0 0.72655 0.058597 -0.68461 0.056694
-0.061728 0.072445 1.1046 7.9288e-39 264 238 0 0 0 0.73322 0.0080096 -0.67994 0.070313
-0.059144 0.072445 1.1046 8.3898e-39 266 238 0 0 0 0.72685 0.025317 -0.68633 0.059611
-0.057257 0.073157 1.1056 7.5601e-39 286 238 0 0 0 0.71764 0.01438 -0.69627 0.053725
-0.055316 0.073804 1.1056 7.3757e-39 306 238 0 0 0 0.71789 0.015381 -0.69599 0.050883
-0.057231 0.075063 1.1051 6.6381e-39 339.5 238 0 0 0 0.71468 -0.022647 -0.69909 0.055969
-0.055316 0.075097 1.1056 6.9147e-39 341 238 0 0 0 0.71578 -0.015547 -0.69815 0.050571
-0.057231 0.076357 1.1051 5.9005e-39 396.5 238 0 0 0 0.71668 -0.071346 -0.69375 0.057743
0.063687 0.077684 1.1056 8.021e-39 449 238 0 0 0 -0.86588 -0.19654 -0.46002 0.051941
0.064923 0.076322 1.1046 7.6522e-39 418 238 0 0 0 -0.86915 -0.2039 -0.45055 0.049394
0.059807 0.078978 1.1056 8.1132e-39 465 238 0 0 0 -0.86473 -0.18175 -0.4682 0.054752
-0.051482 0.05186 1.1066 7.1913e-39 187 233 0 0 0 0.77525 0.24549 -0.582 0.06325
-0.051528 0.053203 1.1076 7.6522e-39 291 233 0 0 0 0.77849 0.18715 -0.59911 0.060457
-0.054719 0.055744 1.1066 7.4678e-39 209.5 234 0 0 0 0.7829 0.12162 -0.61015 0.058675
-0.052776 0.055744 1.1066 7.4678e-39 211 234 0 0 0 0.77843 0.12274 -0.61562 0.05687
0.066393 0.055794 1.1076 7.0991e-39 305 234 0 0 0 -0.69717 -0.23623 -0.67687 0.018606
-0.05925 0.057039 1.1066 7.1913e-39 306 234 0 0 0 0.78308 0.15176 -0.60312 0.067884
-0.054767 0.05709 1.1076 8.2515e-39 309.5 234 0 0 0 0.77904 0.098386 -0.61921 0.053931
0.066393 0.05709 1.1076 7.8366e-39 439 234 0 0 0 -0.711 -0.21803 -0.66854 0.018359
-0.059303 0.058386 1.1076 7.9288e-39 440 234 0 0 0 0.77827 0.10808 -0.61856 0.061493
-0.057333 0.05836 1.1071 7.4679e-39 441.5 234 0 0 0 0.77833 0.098895 -0.62002 0.057984
-0.054119 0.058386 1.1076 7.3757e-39 444 234 0 0 0 0.77563 0.072674 -0.62699 0.048556
0.067041 0.059034 1.1076 7.537e-39 274.5 235 0 0 0 -0.73643 -0.19926 -0.64651 0.018835
0.066334 0.060923 1.1066 7.7444e-39 456 235 0 0 0 -0.75402 -0.18497 -0.63027 0.019121
0.065098 0.062921 1.1076 7.6983e-39 289.5 236 0 0 0 -0.76427 -0.17571 -0.6205 0.020518
0.065039 0.064807 1.1066 7.0991e-39 472 236 0 0 0 -0.77285 -0.19426 -0.60412 0.020287
-0.060599 0.067457 1.1076 8.3898e-39 257 237 0 0 0 0.73783 0.089315 -0.66905 0.053501
-0.059303 0.067457 1.1076 8.3898e-39 258 237 0 0 0 0.73928 0.09694 -0.66638 0.05238
0.063802 0.066161 1.1076 8.2054e-39 251 237 0 0 0 -0.77155 -0.18741 -0.60794 0.02062
-0.060544 0.069339 1.1066 6.6842e-39 421.5 237 0 0 0 0.7341 0.077029 -0.67466 0.058473
-0.058836 0.069143 1.1069 6.884e-39 404.67 237 0 0 0 0.73596 0.08617 -0.67152 0.054044
-0.056711 0.068753 1.1076 6.5459e-39 365 237 0 0 0 0.74008 0.095785 -0.66566 0.046786
0.062506 0.068753 1.1076 7.1913e-39 476 237 0 0 0 -0.77907 -0.179 -0.60083 0.021032
-0.061867 0.070664 1.1071 7.7444e-39 349.5 237.5 0 0 0 0.73354 0.038603 -0.67855 0.059924
-0.058007 0.070048 1.1076 7.1913e-39 496 237 0 0 0 0.72903 0.067922 -0.6811 0.047891
-0.057109 0.070869 1.1069 8.0518e-39 316.33 237.67 0 0 0 0.72864 0.067724 -0.68154 0.047275
-0.054767 0.071344 1.1076 8.8508e-39 222.5 238 0 0 0 0.7327 0.069926 -0.67695 0.041763
0.062478 0.070664 1.1071 7.9288e-39 234.5 238 0 0 0 -0.79878 -0.14207 -0.5846 0.028252
-0.054503 0.073007 1.1066 7.6522e-39 282 238 0 0 0 0.7231 0.026543 -0.69023 0.043671
0.06245 0.073223 1.1066 7.1452e-39 311 238 0 0 0 -0.81308 -0.14121 -0.56477 0.02989
-0.054119 0.075232 1.1076 7.0991e-39 342 238 0 0 0 0.7218 -0.0013727 -0.6921 0.043468
0.06245 0.075164 1.1066 6.7303e-39 366 238 0 0 0 -0.82782 -0.13992 -0.54327 0.030616
-0.05666 0.077754 1.1066 7.4678e-39 425 238 0 0 0 0.72156 -0.080996 -0.6876 0.05655
-0.05539 0.077141 1.1071 6.6381e-39 412 238 0 0 0 0.72469 -0.059242 -0.68652 0.05264
0.062506 0.076528 1.1076 6.6381e-39 416 238 0 0 0 -0.8292 -0.13357 -0.54276 0.031666
-0.05666 0.079048 1.1066 7.9288e-39 457 238 0 0 0 0.7266 -0.13706 -0.67325 0.058076
0.063802 0.079119 1.1076 8.482e-39 466 238 0 0 0 -0.85184 -0.12438 -0.50882 0.036203
-0.050322 0.050702 1.1096 7.0991e-39 370 232 0 0 0 0.80031 0.19755 -0.56611 0.055889
-0.052871 0.057141 1.1086 7.8366e-39 311 234 0 0 0 0.77036 0.088855 -0.63139 0.049772
-0.058707 0.059735 1.1086 9.0812e-39 226.5 235 0 0 0 0.76992 0.087238 -0.63215 0.054259
-0.056762 0.059735 1.1086 9.4961e-39 228 235 0 0 0 0.76902 0.079879 -0.63421 0.049865
-0.054841 0.059113 1.1091 8.2054e-39 336.5 234.5 0 0 0 0.77324 0.066959 -0.63057 0.045849
-0.052895 0.059113 1.1091 8.6203e-39 338 234.5 0 0 0 0.77107 0.062567 -0.63367 0.042444
-0.05876 0.061087 1.1096 6.4998e-39 327.5 235 0 0 0 0.76773 0.08324 -0.63534 0.050945
-0.056813 0.061087 1.1096 6.9147e-39 329 235 0 0 0 0.76794 0.072087 -0.63645 0.044577
-0.054217 0.061087 1.1096 7.2835e-39 331 235 0 0 0 0.76652 0.059667 -0.63945 0.040709
0.065156 0.061032 1.1086 7.9288e-39 455 235 0 0 0 -0.75583 -0.16181 -0.63445 0.019467
0.063887 0.063005 1.1091 7.6061e-39 288.5 236 0 0 0 -0.75646 -0.16403 -0.63314 0.020465
-0.05876 0.064982 1.1096 7.1452e-39 346.5 236 0 0 0 0.75396 0.094008 -0.65016 0.047444
0.063859 0.064923 1.1086 7.3757e-39 471 236 0 0 0 -0.76591 -0.17577 -0.61845 0.02049
-0.060708 0.06628 1.1096 7.1913e-39 477 236 0 0 0 0.74136 0.09393 -0.6645 0.052546
-0.058491 0.066652 1.1086 7.6215e-39 405.33 236.33 0 0 0 0.74913 0.10158 -0.65459 0.049021
-0.056787 0.066898 1.1091 7.9288e-39 370 236.5 0 0 0 0.74599 0.085421 -0.66045 0.041745
0.062562 0.067517 1.1086 7.3757e-39 353 237 0 0 0 -0.77235 -0.18025 -0.60908 0.020571
-0.06195 0.068814 1.1086 6.3615e-39 359 237 0 0 0 0.72847 0.058908 -0.68254 0.055935
-0.054866 0.068876 1.1096 7.053e-39 366.5 237 0 0 0 0.74068 0.080485 -0.66702 0.036732
-0.054816 0.070111 1.1086 6.4076e-39 509.5 237 0 0 0 0.732 0.072707 -0.67742 0.038461
-0.054168 0.076596 1.1086 6.5459e-39 399 238 0 0 0 0.72678 -0.018687 -0.68662 0.043163
0.060022 0.077963 1.1096 7.9288e-39 446 238 0 0 0 -0.82744 -0.098791 -0.5528 0.030185
-0.050413 0.052744 1.1116 7.7905e-39 242.5 233 0 0 0 0.79971 0.10606 -0.59094 0.053183
-0.051713 0.054695 1.1116 6.9147e-39 418 233 0 0 0 0.78449 0.094029 -0.61297 0.049963
0.065332 0.057296 1.1116 7.4678e-39 438 234 0 0 0 -0.72016 -0.18172 -0.66958 0.018357
-0.055565 0.059843 1.1106 9.3118e-39 229 235 0 0 0 0.76986 0.064015 -0.63499 0.04254
0.064859 0.059428 1.1109 7.0683e-39 289.33 235 0 0 0 -0.74314 -0.15719 -0.65041 0.018386
-0.055615 0.061197 1.1116 7.3757e-39 330 235 0 0 0 0.7689 0.060865 -0.63646 0.039386
-0.053014 0.061197 1.1116 6.9147e-39 332 235 0 0 0 0.7685 0.048998 -0.63797 0.036036
0.063974 0.061142 1.1106 8.021e-39 454 235 0 0 0 -0.75445 -0.14665 -0.63977 0.018942
-0.058827 0.063105 1.1108 8.2745e-39 352 235.5 0 0 0 0.76245 0.082292 -0.64179 0.044923
-0.05689 0.06312 1.1111 8.2054e-39 353.5 235.5 0 0 0 0.76375 0.074024 -0.64125 0.040421
-0.054314 0.063148 1.1116 8.0671e-39 355.5 235.5 0 0 0 0.7649 0.061484 -0.6412 0.036357
0.062731 0.063798 1.1116 6.6381e-39 338 236 0 0 0 -0.76251 -0.14708 -0.63004 0.019985
-0.060817 0.065099 1.1116 7.6522e-39 345 236 0 0 0 0.74731 0.084828 -0.65904 0.047264
-0.056864 0.06504 1.1106 6.6381e-39 348 236 0 0 0 0.75849 0.082994 -0.64638 0.040369
-0.054314 0.065099 1.1116 6.9147e-39 350 236 0 0 0 0.76028 0.073293 -0.64545 0.03477
0.062675 0.06504 1.1106 8.1132e-39 470 236 0 0 0 -0.76548 -0.15247 -0.62513 0.020357
-0.062061 0.067639 1.1106 9.0352e-39 256 237 0 0 0 0.72823 0.066594 -0.68209 0.051413
-0.054927 0.067004 1.1108 7.6061e-39 371.5 236.5 0 0 0 0.74988 0.075965 -0.6572 0.035183
0.062675 0.066339 1.1106 8.5742e-39 250 237 0 0 0 -0.77103 -0.16352 -0.61545 0.020328
-0.053014 0.069 1.1116 7.3757e-39 368 237 0 0 0 0.7427 0.062358 -0.66671 0.029849
0.06143 0.069 1.1116 6.9147e-39 475 237 0 0 0 -0.78354 -0.1368 -0.60609 0.024685
-0.05299 0.070919 1.1111 7.9749e-39 367.5 237.5 0 0 0 0.72938 0.05207 -0.68212 0.030698
-0.051713 0.071601 1.1116 9.404e-39 225 238 0 0 0 0.72928 0.044594 -0.68276 0.029696
0.060978 0.071146 1.1113 8.3898e-39 241 238 0 0 0 -0.79677 -0.12924 -0.5903 0.025409
-0.052966 0.072836 1.1106 7.8366e-39 271 238 0 0 0 0.72809 0.043865 -0.68408 0.031923
-0.051713 0.072902 1.1116 7.56e-39 272 238 0 0 0 0.72857 0.03453 -0.6841 0.029602
0.060752 0.072869 1.1111 7.0991e-39 291.5 238 0 0 0 -0.80507 -0.11692 -0.58154 0.025603
-0.05299 0.074819 1.1111 7.7444e-39 325.5 238 0 0 0 0.72476 0.016107 -0.68881 0.034117
0.060739 0.074802 1.1108 6.6842e-39 346 238 0 0 0 -0.81249 -0.11281 -0.57196 0.026731
0.060753 0.076769 1.1111 6.6842e-39 414.5 238 0 0 0 -0.8214 -0.10101 -0.56134 0.026952
-0.054314 0.078104 1.1116 7.0991e-39 427 238 0 0 0 0.72707 -0.039081 -0.68545 0.040143
0.062675 0.078033 1.1106 8.1132e-39 448 238 0 0 0 -0.82927 -0.1219 -0.54539 0.029376
-0.050504 0.054793 1.1136 7.0069e-39 419 233 0 0 0 0.79664 0.050641 -0.60233 0.045218
0.06545 0.054793 1.1136 7.9288e-39 205 234 0 0 0 -0.70189 -0.18064 -0.689 0.019691
-0.051341 0.056496 1.1129 7.4679e-39 245.67 234 0 0 0 0.78538 0.042414 -0.61756 0.043375
0.064562 0.056514 1.1133 7.4986e-39 348 234 0 0 0 -0.7249 -0.16328 -0.66923 0.019805
-0.05176 0.0593 1.1126 9.0353e-39 339 234.5 0 0 0 0.77597 0.036832 -0.6297 0.036744
0.064089 0.058649 1.1126 9.0352e-39 222 235 0 0 0 -0.7476 -0.14365 -0.64842 0.018819
-0.060872 0.061252 1.1126 6.6381e-39 326 235 0 0 0 0.76773 0.08324 -0.63534 0.050945
-0.051807 0.061307 1.1136 6.5459e-39 333 235 0 0 0 0.77696 0.038341 -0.62838 0.032082
0.062844 0.061307 1.1136 7.56e-39 453 235 0 0 0 -0.76085 -0.12594 -0.63659 0.018191
-0.060899 0.063233 1.1131 8.2054e-39 350.5 235.5 0 0 0 0.75829 0.074041 -0.6477 0.046658
-0.055665 0.063205 1.1126 8.3898e-39 354.5 235.5 0 0 0 0.7648 0.063828 -0.6411 0.037143
-0.053062 0.063205 1.1126 7.7905e-39 356.5 235.5 0 0 0 0.76648 0.05857 -0.63959 0.033407
0.062787 0.062554 1.1126 8.5742e-39 237 236 0 0 0 -0.76338 -0.13252 -0.63221 0.018765
-0.055665 0.065157 1.1126 6.6381e-39 349 236 0 0 0 0.75734 0.06551 -0.64973 0.034379
-0.053062 0.065157 1.1126 7.2835e-39 351 236 0 0 0 0.75801 0.059781 -0.64949 0.032135
0.061541 0.065216 1.1136 8.1132e-39 469 236 0 0 0 -0.77568 -0.12986 -0.61762 0.019944
-0.062229 0.066519 1.1136 6.9147e-39 476 236 0 0 0 0.72653 0.054565 -0.68496 0.044891
-0.053062 0.06711 1.1126 7.4679e-39 373 236.5 0 0 0 0.75209 0.064907 -0.65586 0.030718
-0.051373 0.067388 1.1136 7.9288e-39 339 236.67 0 0 0 0.75221 0.049063 -0.65709 0.026771
0.060889 0.067171 1.1136 8.1823e-39 300 237 0 0 0 -0.78757 -0.11308 -0.60576 0.023801
-0.051109 0.069062 1.1126 7.053e-39 369.5 237 0 0 0 0.74419 0.054644 -0.66573 0.027583
0.060184 0.069062 1.1126 7.0991e-39 474 237 0 0 0 -0.79502 -0.10966 -0.59659 0.024112
-0.050892 0.070798 1.1126 6.7917e-39 417 237.33 0 0 0 0.73642 0.044541 -0.67506 0.026266
0.060184 0.070364 1.1126 7.56e-39 209 238 0 0 0 -0.7991 -0.1101 -0.59103 0.023857
-0.050458 0.072967 1.1126 7.0991e-39 273 238 0 0 0 0.72819 0.024442 -0.68494 0.027076
-0.051109 0.07492 1.1126 8.021e-39 327 238 0 0 0 0.72517 0.0089665 -0.68851 0.02943
-0.053109 0.076942 1.1136 7.0991e-39 400 238 0 0 0 0.7259 -0.010358 -0.68773 0.033532
-0.050504 0.076942 1.1136 6.7303e-39 402 238 0 0 0 0.72529 -0.0068853 -0.68841 0.030762
0.058936 0.079547 1.1136 7.56e-39 464 238 0 0 0 -0.85094 -0.019184 -0.52492 0.025053
0.061541 0.078244 1.1136 7.9288e-39 447 238 0 0 0 -0.83656 -0.077585 -0.54235 0.026579
-0.04929 0.050977 1.1156 7.0069e-39 371 232 0 0 0 0.8252 0.057883 -0.56186 0.039916
-0.049268 0.05291 1.1151 7.8366e-39 243.5 233 0 0 0 0.81231 0.038685 -0.58195 0.040871
0.060347 0.053587 1.1156 6.6381e-39 408 233 0 0 0 -0.70625 -0.13593 -0.69479 0.01591
0.064857 0.053539 1.1146 7.6522e-39 411.5 233 0 0 0 -0.69135 -0.17645 -0.70064 0.01905
-0.04929 0.054892 1.1156 7.1913e-39 420 233 0 0 0 0.8012 0.020347 -0.59805 0.038403
0.060999 0.054892 1.1156 6.9147e-39 201.5 234 0 0 0 -0.72176 -0.11545 -0.68244 0.017402
0.064205 0.054843 1.1146 7.9288e-39 204 234 0 0 0 -0.7102 -0.15651 -0.68638 0.018978
-0.050549 0.057451 1.1146 7.2835e-39 313 234 0 0 0 0.79047 0.017078 -0.61226 0.035184
-0.04929 0.05685 1.1156 7.1452e-39 264 234 0 0 0 0.79379 0.0094003 -0.60812 0.036273
0.060999 0.05685 1.1156 7.2835e-39 367 234 0 0 0 -0.73852 -0.10961 -0.66526 0.018316
0.062958 0.05685 1.1156 7.3757e-39 369 234 0 0 0 -0.73174 -0.1264 -0.66976 0.018422
-0.050549 0.058755 1.1146 7.6522e-39 447 234 0 0 0 0.78839 0.018706 -0.61489 0.034651
-0.04929 0.058808 1.1156 7.0991e-39 448 234 0 0 0 0.79125 0.0080628 -0.61144 0.032316
0.060999 0.058808 1.1156 8.943e-39 219.5 235 0 0 0 -0.75297 -0.10062 -0.65032 0.01766
0.062901 0.058755 1.1146 9.1274e-39 221 235 0 0 0 -0.75008 -0.12004 -0.65036 0.018894
-0.050549 0.060711 1.1146 8.2052e-39 283.5 235 0 0 0 0.78252 0.026837 -0.62205 0.031663
-0.04929 0.060766 1.1156 8.2976e-39 284.5 235 0 0 0 0.78424 0.0092682 -0.62039 0.028937
0.060986 0.060752 1.1154 6.6842e-39 385.5 235 0 0 0 -0.75829 -0.11252 -0.64213 0.017035
0.062901 0.060059 1.1146 5.9927e-39 321 235 0 0 0 -0.76001 -0.11685 -0.63932 0.01825
-0.051201 0.063319 1.1146 7.8827e-39 358 235.5 0 0 0 0.77278 0.036763 -0.63361 0.028171
-0.04929 0.062723 1.1156 7.7444e-39 467 235 0 0 0 0.77792 0.023959 -0.6279 0.026497
0.057737 0.062723 1.1156 1.0142e-38 233 236 0 0 0 -0.77649 -0.087524 -0.62402 0.017922
0.060945 0.063319 1.1146 7.9519e-39 286 236 0 0 0 -0.76966 -0.11171 -0.6286 0.018194
-0.062342 0.065334 1.1156 7.2835e-39 344 236 0 0 0 0.72907 0.051095 -0.68253 0.042821
-0.051201 0.065275 1.1146 7.5139e-39 352.5 236 0 0 0 0.76542 0.046353 -0.64186 0.027673
-0.04929 0.064682 1.1156 7.9749e-39 303 236 0 0 0 0.77265 0.025798 -0.6343 0.024424
0.057737 0.064682 1.1156 7.2374e-39 400 236 0 0 0 -0.78365 -0.081804 -0.61579 0.018449
0.059042 0.064682 1.1156 7.3296e-39 401 236 0 0 0 -0.7778 -0.095424 -0.62123 0.018032
0.060293 0.065275 1.1146 7.7444e-39 468 236 0 0 0 -0.77707 -0.11015 -0.6197 0.018215
-0.050549 0.066579 1.1146 7.2835e-39 489 236 0 0 0 0.7584 0.038326 -0.65067 0.025441
-0.04929 0.067291 1.1156 7.7444e-39 387.5 236.5 0 0 0 0.75621 0.023424 -0.65391 0.022559
0.059042 0.067291 1.1156 8.1593e-39 298.5 237 0 0 0 -0.79633 -0.079099 -0.59967 0.022356
-0.049245 0.069187 1.1146 6.9147e-39 371 237 0 0 0 0.74909 0.032033 -0.6617 0.023526
0.057737 0.069249 1.1156 6.7303e-39 472 237 0 0 0 -0.80881 -0.064273 -0.58455 0.021554
0.059042 0.069249 1.1156 7.0991e-39 473 237 0 0 0 -0.80622 -0.073075 -0.58709 0.022398
-0.049245 0.071143 1.1146 7.1452e-39 370.5 237.5 0 0 0 0.73959 0.02725 -0.6725 0.024595
0.059042 0.071208 1.1156 8.2054e-39 231.5 238 0 0 0 -0.814 -0.066749 -0.57702 0.021833
-0.049245 0.073099 1.1146 7.0069e-39 274 238 0 0 0 0.73201 0.018946 -0.68103 0.025947
-0.049245 0.075055 1.1146 7.6061e-39 328.5 238 0 0 0 0.72579 0.0055886 -0.68789 0.028309
0.059042 0.075122 1.1156 6.9608e-39 343 238 0 0 0 -0.83188 -0.039548 -0.55355 0.021046
-0.051853 0.077011 1.1146 6.9147e-39 401 238 0 0 0 0.72407 -0.011644 -0.68963 0.03105
-0.04929 0.077081 1.1156 6.6381e-39 403 238 0 0 0 0.72634 -0.010138 -0.68726 0.029808
0.059042 0.077081 1.1156 7.4678e-39 413 238 0 0 0 -0.84063 -0.015653 -0.54139 0.02029
-0.053181 0.079003 1.1151 7.3757e-39 447.5 238 0 0 0 0.72739 -0.040181 -0.68505 0.035279
-0.051015 0.078797 1.1153 7.6522e-39 445.67 238 0 0 0 0.72897 -0.021765 -0.6842 0.032472
0.059042 0.078386 1.1156 7.7444e-39 445 238 0 0 0 -0.8484 0.0011912 -0.52936 0.019458
-0.050595 0.080996 1.1156 7.0991e-39 474 238 0 0 0 0.7372 -0.0080936 -0.67563 0.027982
0.057789 0.047104 1.1166 6.4537e-39 172 232 0 0 0 -0.64774 -0.16473 -0.74384 0.01502
-0.048071 0.049761 1.1176 8.5742e-39 269 232 0 0 0 0.83561 0.0051423 -0.5493 0.024993
0.057815 0.049085 1.1171 8.0671e-39 311.5 232 0 0 0 -0.66933 -0.14004 -0.72965 0.014079
0.059122 0.049085 1.1171 7.7905e-39 312.5 232 0 0 0 -0.6682 -0.15277 -0.72813 0.014693
0.061069 0.049074 1.1169 7.7905e-39 314 232 0 0 0 -0.65669 -0.16848 -0.7351 0.015976
0.063072 0.048454 1.1176 8.943e-39 268 232 0 0 0 -0.64373 -0.17994 -0.7438 0.017321
0.064379 0.049761 1.1176 6.9147e-39 366 232 0 0 0 -0.65363 -0.19294 -0.7318 0.018913
-0.048071 0.051069 1.1176 6.3615e-39 402 232 0 0 0 0.82659 0.011381 -0.56269 0.029755
0.057841 0.051069 1.1176 5.6239e-39 177 233 0 0 0 -0.68911 -0.12443 -0.71389 0.01452
0.059149 0.051069 1.1176 5.8083e-39 178 233 0 0 0 -0.68745 -0.12557 -0.71529 0.014173
0.061083 0.051046 1.1171 6.4998e-39 179.5 233 0 0 0 -0.68151 -0.14745 -0.7168 0.015239
0.064321 0.051023 1.1166 6.1771e-39 182 233 0 0 0 -0.67134 -0.18546 -0.71757 0.018118
-0.048028 0.052982 1.1166 7.6061e-39 245.5 233 0 0 0 0.81505 0.014636 -0.57921 0.037354
0.057841 0.05303 1.1176 7.0991e-39 342.5 233 0 0 0 -0.71624 -0.097383 -0.69103 0.015921
0.059122 0.053006 1.1171 6.9608e-39 343.5 233 0 0 0 -0.7116 -0.10437 -0.69479 0.01614
0.061273 0.052764 1.1166 7.4064e-39 324 233 0 0 0 -0.70044 -0.13167 -0.70146 0.016041
0.063044 0.053006 1.1171 7.8366e-39 346.5 233 0 0 0 -0.69837 -0.13336 -0.7032 0.016739
0.064974 0.052329 1.1166 8.0671e-39 284.5 233 0 0 0 -0.67935 -0.16806 -0.71432 0.017752
-0.048028 0.054942 1.1166 7.2835e-39 421 233 0 0 0 0.80443 0.0019874 -0.59405 0.03491
0.057789 0.054942 1.1166 6.5459e-39 199 234 0 0 0 -0.73108 -0.083257 -0.67719 0.016915
0.059095 0.054942 1.1166 6.5459e-39 200 234 0 0 0 -0.72749 -0.093981 -0.67965 0.017391
0.063015 0.054942 1.1166 7.56e-39 203 234 0 0 0 -0.723 -0.11587 -0.68107 0.018598
-0.048028 0.056901 1.1166 7.1452e-39 265 234 0 0 0 0.79828 -0.0024711 -0.60228 0.033129
0.057162 0.056927 1.1171 7.0991e-39 363.5 234 0 0 0 -0.74256 -0.072757 -0.66581 0.016731
0.059095 0.056901 1.1166 7.053e-39 365 234 0 0 0 -0.7432 -0.092269 -0.66268 0.018079
-0.048028 0.058861 1.1166 7.1913e-39 449 234 0 0 0 0.79084 -0.0073233 -0.61198 0.029451
0.057162 0.058887 1.1171 7.6522e-39 216.5 235 0 0 0 -0.75413 -0.067211 -0.65328 0.017022
0.059095 0.058861 1.1166 7.8366e-39 218 235 0 0 0 -0.75458 -0.076549 -0.65173 0.018332
-0.048028 0.06082 1.1166 8.2516e-39 285.5 235 0 0 0 0.78565 -0.0021116 -0.61867 0.027003
0.057162 0.060848 1.1171 6.7995e-39 382.5 235 0 0 0 -0.76525 -0.065424 -0.6404 0.017413
0.059095 0.06082 1.1166 6.7303e-39 384 235 0 0 0 -0.76224 -0.086752 -0.64146 0.017507
-0.048028 0.06278 1.1166 7.8366e-39 468 235 0 0 0 0.77993 0.0078748 -0.62582 0.024419
0.055226 0.062837 1.1176 9.7727e-39 231 236 0 0 0 -0.77344 -0.03983 -0.63262 0.017699
0.056483 0.06278 1.1166 1.0234e-38 232 236 0 0 0 -0.78132 -0.067722 -0.62044 0.018341
0.059095 0.06278 1.1166 9.6805e-39 234 236 0 0 0 -0.77649 -0.087524 -0.62402 0.017922
-0.062455 0.064145 1.1176 8.8508e-39 242 236 0 0 0 0.72632 0.032275 -0.6866 0.040619
-0.048028 0.06474 1.1166 8.0671e-39 304 236 0 0 0 0.77095 0.005737 -0.63687 0.022118
0.055226 0.064145 1.1176 6.9147e-39 332 236 0 0 0 -0.7795 -0.046912 -0.62465 0.017816
0.056483 0.06474 1.1166 7.0991e-39 399 236 0 0 0 -0.78994 -0.062766 -0.60996 0.01839
-0.048028 0.066699 1.1166 6.7303e-39 510 236 0 0 0 0.76416 0.0093004 -0.64496 0.021162
0.057162 0.06673 1.1171 8.3898e-39 245.5 237 0 0 0 -0.79546 -0.051217 -0.60384 0.020018
-0.048028 0.068659 1.1166 7.2835e-39 319.5 237 0 0 0 0.75823 0.018993 -0.65171 0.021636
-0.046764 0.068721 1.1176 6.7764e-39 331.5 237 0 0 0 0.75738 0.0034443 -0.65296 0.020444
0.056952 0.068483 1.1173 6.7918e-39 389.33 237 0 0 0 -0.80116 -0.043438 -0.59687 0.018897
-0.048028 0.071272 1.1166 7.3296e-39 371.5 237.5 0 0 0 0.74724 0.0092271 -0.66448 0.021856
0.057162 0.071304 1.1171 8.0441e-39 230 238 0 0 0 -0.81747 -0.040177 -0.57457 0.019679
-0.048071 0.073297 1.1176 7.56e-39 275 238 0 0 0 0.74156 0.0045287 -0.67087 0.022436
0.059095 0.073231 1.1166 7.1913e-39 290 238 0 0 0 -0.82453 -0.046523 -0.5639 0.020504
-0.048071 0.074605 1.1176 7.6522e-39 312 238 0 0 0 0.7377 0.0015289 -0.67513 0.023722
-0.051947 0.079763 1.1166 7.9288e-39 459 238 0 0 0 0.72909 -0.031607 -0.68368 0.033994
-0.053254 0.081069 1.1166 7.3757e-39 472 238 0 0 0 0.73227 -0.056872 -0.67864 0.037147
-0.051947 0.081069 1.1166 7.2835e-39 473 238 0 0 0 0.73575 -0.034283 -0.67638 0.034727
-0.051994 0.08245 1.1176 6.4537e-39 509 238 0 0 0 0.74934 0.034367 -0.6613 0.022961
0.055301 0.049175 1.1191 7.8827e-39 309.5 232 0 0 0 -0.68103 -0.10626 -0.72451 0.012197
0.05661 0.049175 1.1191 8.1593e-39 310.5 232 0 0 0 -0.67691 -0.12293 -0.72573 0.012369
0.063129 0.049806 1.1186 6.6381e-39 365 232 0 0 0 -0.65556 -0.16866 -0.73607 0.016282
0.055326 0.051161 1.1196 6.6381e-39 171 233 0 0 0 -0.69931 -0.075088 -0.71086 0.012306
0.056636 0.051161 1.1196 5.5317e-39 176 233 0 0 0 -0.69775 -0.084645 -0.71133 0.012817
0.063129 0.051115 1.1186 6.5459e-39 181 233 0 0 0 -0.67534 -0.15249 -0.72157 0.016258
-0.046849 0.053781 1.1196 7.4678e-39 297 233 0 0 0 0.79911 -0.047232 -0.59932 0.024117
0.054889 0.053344 1.1196 7.0376e-39 361.33 233 0 0 0 -0.71323 -0.045581 -0.69945 0.013411
0.05661 0.053102 1.1191 7.2835e-39 341.5 233 0 0 0 -0.71693 -0.062242 -0.69436 0.014063
-0.046849 0.055091 1.1196 7.0991e-39 422 233 0 0 0 0.79846 -0.053411 -0.59968 0.02321
0.054646 0.055066 1.1191 7.514e-39 196 234 0 0 0 -0.72048 -0.041294 -0.69225 0.013642
0.056585 0.055041 1.1186 6.8225e-39 198 234 0 0 0 -0.72971 -0.061568 -0.68097 0.014695
-0.046806 0.057005 1.1186 7.1913e-39 266 234 0 0 0 0.79957 -0.034731 -0.59957 0.0256
-0.045539 0.057711 1.1196 6.7303e-39 317 234 0 0 0 0.78825 -0.055305 -0.61286 0.020967
0.054646 0.05703 1.1191 7.4218e-39 360.5 234 0 0 0 -0.73154 -0.040427 -0.68059 0.014098
-0.046806 0.058968 1.1186 7.7444e-39 450 234 0 0 0 0.78745 -0.035427 -0.61537 0.02417
-0.045539 0.059021 1.1196 8.021e-39 451 234 0 0 0 0.78654 -0.051211 -0.61541 0.020432
0.054646 0.058995 1.1191 7.56e-39 214.5 235 0 0 0 -0.74303 -0.02906 -0.66863 0.015865
-0.046806 0.060931 1.1186 8.2055e-39 286.5 235 0 0 0 0.78236 -0.021095 -0.62247 0.02284
-0.045539 0.060986 1.1196 7.8366e-39 287.5 235 0 0 0 0.78123 -0.040428 -0.62294 0.01959
0.053967 0.061585 1.1186 7.8366e-39 446 235 0 0 0 -0.75656 -0.012944 -0.6538 0.016346
0.054856 0.060731 1.1189 6.761e-39 358.67 235 0 0 0 -0.75087 -0.020916 -0.66011 0.016217
-0.046806 0.062894 1.1186 8.2054e-39 469 235 0 0 0 0.77619 -0.018263 -0.63024 0.020716
-0.045539 0.062951 1.1196 8.1132e-39 470 235 0 0 0 0.77675 -0.022629 -0.6294 0.019927
0.053967 0.062894 1.1186 9.2196e-39 230 236 0 0 0 -0.76413 -0.022346 -0.64468 0.016913
-0.046806 0.064857 1.1186 8.1593e-39 305 236 0 0 0 0.77139 -0.008751 -0.63631 0.020735
-0.045518 0.064886 1.1191 8.2054e-39 306 236 0 0 0 0.77546 -0.014333 -0.63124 0.020505
0.053967 0.064203 1.1186 7.4678e-39 331 236 0 0 0 -0.76883 -0.019611 -0.63915 0.016515
0.054646 0.065541 1.1191 7.0991e-39 463.5 236 0 0 0 -0.77485 -0.025416 -0.63163 0.017305
-0.046806 0.06682 1.1186 6.3615e-39 511 236 0 0 0 0.76712 -0.0009178 -0.6415 0.020834
-0.045497 0.06682 1.1186 6.0849e-39 512 236 0 0 0 0.76722 -0.011392 -0.64129 0.019886
0.055276 0.06682 1.1186 8.2976e-39 244 237 0 0 0 -0.79025 -0.037832 -0.61162 0.018601
-0.045497 0.068784 1.1186 6.5459e-39 332.5 237 0 0 0 0.76275 -0.0046495 -0.64668 0.019531
0.055326 0.068846 1.1196 7.2835e-39 408.5 237 0 0 0 -0.79555 -0.018827 -0.6056 0.01851
-0.046806 0.070746 1.1186 8.2054e-39 144 238 0 0 0 0.75336 -0.0033081 -0.6576 0.020567
-0.045497 0.070746 1.1186 7.56e-39 145 238 0 0 0 0.75577 -0.0017157 -0.65483 0.020567
-0.046806 0.07271 1.1186 8.5742e-39 252.5 238 0 0 0 0.74826 0.00087421 -0.6634 0.021782
-0.045539 0.072775 1.1196 8.6203e-39 253.5 238 0 0 0 0.75623 8.8118e-05 -0.65431 0.020421
0.056585 0.073364 1.1186 7.56e-39 289 238 0 0 0 -0.82192 -0.0096941 -0.56952 0.01802
-0.048115 0.075981 1.1186 6.9147e-39 347 238 0 0 0 0.7378 0.0031929 -0.67501 0.024577
-0.046849 0.07474 1.1196 7.56e-39 313 238 0 0 0 0.74493 0.0013981 -0.66714 0.022807
-0.045539 0.07474 1.1196 7.56e-39 314 238 0 0 0 0.76377 0.011707 -0.64538 0.016226
-0.048159 0.07736 1.1196 6.6381e-39 404 238 0 0 0 0.74014 -0.0013088 -0.67245 0.025366
-0.046849 0.07605 1.1196 6.8225e-39 348 238 0 0 0 0.75102 0.0094546 -0.66022 0.022728
-0.046934 0.049942 1.1217 8.482e-39 270 232 0 0 0 0.81731 -0.048002 -0.5742 0.013466
0.054065 0.049241 1.1207 7.5601e-39 308.5 232 0 0 0 -0.685 -0.087841 -0.72323 0.011416
-0.046891 0.051208 1.1207 7.0069e-39 403 232 0 0 0 0.80222 -0.061716 -0.59383 0.017381
0.054065 0.051208 1.1207 6.4537e-39 170 233 0 0 0 -0.69747 -0.055239 -0.71448 0.012103
-0.046891 0.052519 1.1207 7.7444e-39 197 233 0 0 0 0.79723 -0.061346 -0.60055 0.019937
-0.045621 0.053879 1.1217 7.2835e-39 298 233 0 0 0 0.79531 -0.0743 -0.60164 0.013548
0.052802 0.053879 1.1217 6.6381e-39 402 233 0 0 0 -0.70324 -0.013859 -0.71082 0.011755
0.054065 0.052519 1.1207 7.0991e-39 276 233 0 0 0 -0.70535 -0.036701 -0.7079 0.012564
-0.045621 0.055191 1.1217 7.3757e-39 423 233 0 0 0 0.79188 -0.070186 -0.60663 0.015662
0.052802 0.055191 1.1217 8.021e-39 194 234 0 0 0 -0.70862 -0.0083004 -0.70555 0.012028
-0.044945 0.057134 1.1212 6.9146e-39 267.5 234 0 0 0 0.7911 -0.065542 -0.60817 0.01444
0.052802 0.05716 1.1217 7.6522e-39 357.5 234 0 0 0 -0.71568 0.0071697 -0.6984 0.012829
-0.044309 0.059128 1.1217 7.6522e-39 452 234 0 0 0 0.79483 -0.059207 -0.60394 0.013547
0.052802 0.059128 1.1217 7.8366e-39 213 235 0 0 0 -0.72345 0.019087 -0.69012 0.01385
-0.044309 0.061097 1.1217 7.7444e-39 288.5 235 0 0 0 0.78955 -0.043885 -0.61211 0.015675
0.05149 0.061753 1.1217 7.4678e-39 444 235 0 0 0 -0.72446 0.027122 -0.68878 0.013958
0.052778 0.061069 1.1212 7.2835e-39 379 235 0 0 0 -0.73353 0.020063 -0.67936 0.014115
-0.044309 0.063065 1.1217 7.4678e-39 471 235 0 0 0 0.78441 -0.039605 -0.61898 0.016789
0.05149 0.063065 1.1217 9.5883e-39 228 236 0 0 0 -0.73131 0.019496 -0.68177 0.014381
0.052754 0.063008 1.1207 9.3118e-39 229 236 0 0 0 -0.74647 0.0078171 -0.66537 0.015381
-0.044309 0.065034 1.1217 7.8366e-39 307 236 0 0 0 0.78278 -0.025882 -0.62175 0.01709
0.052778 0.065004 1.1212 7.2374e-39 396 236 0 0 0 -0.745 0.0040261 -0.66705 0.015748
-0.044309 0.067002 1.1217 5.7161e-39 513 236 0 0 0 0.77474 -0.025846 -0.63175 0.016503
0.054065 0.066941 1.1207 8.2054e-39 243 237 0 0 0 -0.76451 -0.0044981 -0.6446 0.016324
-0.044309 0.068971 1.1217 6.7764e-39 333.5 237 0 0 0 0.77478 -0.012654 -0.6321 0.016242
0.054114 0.068315 1.1217 7.3757e-39 346 237 0 0 0 -0.76144 0.017302 -0.648 0.016618
-0.044309 0.070939 1.1217 7.0069e-39 146 238 0 0 0 0.78164 -0.0067709 -0.6237 0.014204
0.055377 0.070875 1.1207 6.8225e-39 205 238 0 0 0 -0.79443 0.0073915 -0.60731 0.0174
-0.044309 0.072907 1.1217 8.5281e-39 254.5 238 0 0 0 0.79258 0.013438 -0.60961 0.0077442
0.055427 0.072251 1.1217 8.5742e-39 252 238 0 0 0 -0.79331 0.041305 -0.60742 0.016088
-0.044309 0.074876 1.1217 7.9288e-39 315 238 0 0 0 0.7923 0.032348 -0.60928 0.007416
-0.046934 0.077501 1.1217 7.0991e-39 405 238 0 0 0 0.785 0.054998 -0.61704 0.0083248
-0.0456 0.07681 1.1212 7.2374e-39 377.5 238 0 0 0 0.78513 0.051304 -0.6172 0.0079675
0.064554 0.083986 1.1207 6.5459e-39 146 239 0 0 0 -0.88319 0.15573 -0.44241 0.016699
0.050223 0.04736 1.1227 6.5459e-39 171 232 0 0 0 -0.66849 -0.08739 -0.73857 0.010459
-0.046976 0.048674 1.1227 5.5317e-39 176 232 0 0 0 0.81679 -0.062984 -0.57349 0.012005
0.05088 0.04933 1.1227 7.9058e-39 306 232 0 0 0 -0.67594 -0.054824 -0.73491 0.010484
0.052898 0.048718 1.1237 8.5742e-39 258 232 0 0 0 -0.67784 -0.061607 -0.73263 0.010974
-0.045252 0.050894 1.1234 7.3757e-39 360 232 0 0 0 0.80958 -0.054824 -0.58445 0.011638
0.050903 0.051325 1.1232 6.6381e-39 322 232.5 0 0 0 -0.68245 -0.018829 -0.73069 0.010951
0.052898 0.050691 1.1237 6.3154e-39 262.5 232.5 0 0 0 -0.68451 -0.030035 -0.72839 0.011077
-0.044814 0.053085 1.1234 7.1298e-39 232 233 0 0 0 0.80537 -0.059832 -0.58975 0.010447
0.050903 0.053296 1.1232 7.053e-39 322.5 233 0 0 0 -0.68806 0.0044531 -0.72564 0.01132
0.05285 0.052615 1.1227 7.0991e-39 275 233 0 0 0 -0.69509 -0.014503 -0.71878 0.011482
-0.04439 0.055292 1.1237 7.3757e-39 425 233 0 0 0 0.80693 -0.060902 -0.5875 0.0087057
0.050903 0.055267 1.1232 7.6061e-39 190 234 0 0 0 -0.69344 0.019495 -0.72025 0.01207
-0.044349 0.056555 1.1227 7.6522e-39 218 234 0 0 0 0.79956 -0.064556 -0.59711 0.0099059
-0.043075 0.057921 1.1237 6.2693e-39 319 234 0 0 0 0.80695 -0.052601 -0.58827 0.0074555
0.051114 0.05701 1.123 7.6522e-39 334.33 234 0 0 0 -0.6999 0.025246 -0.7138 0.012696
-0.043036 0.059182 1.1227 8.021e-39 453 234 0 0 0 0.80809 -0.049376 -0.58699 0.0075323
0.050903 0.059209 1.1232 7.6983e-39 211.5 235 0 0 0 -0.70275 0.045157 -0.71 0.013319
-0.043036 0.061152 1.1227 7.7905e-39 289.5 235 0 0 0 0.80646 -0.04433 -0.58963 0.0076036
0.050692 0.060971 1.1234 7.3142e-39 355.33 235 0 0 0 -0.7033 0.044479 -0.7095 0.013744
-0.043036 0.063123 1.1227 7.4678e-39 472 235 0 0 0 0.80375 -0.038649 -0.59371 0.0076645
-0.04176 0.06318 1.1237 7.1913e-39 473 235 0 0 0 0.80548 -0.04798 -0.59067 0.0062672
0.050269 0.06318 1.1237 9.404e-39 227 236 0 0 0 -0.70469 0.043763 -0.70817 0.013477
-0.043036 0.065093 1.1227 7.5601e-39 308 236 0 0 0 0.79924 -0.029988 -0.60026 0.007506
-0.04176 0.065152 1.1237 7.6061e-39 309 236 0 0 0 0.8014 -0.038901 -0.59686 0.0065604
0.051537 0.065093 1.1227 7.3296e-39 395 236 0 0 0 -0.72561 0.021392 -0.68778 0.014217
-0.043036 0.067063 1.1227 5.5317e-39 514 236 0 0 0 0.79936 -0.018241 -0.60058 0.0072336
-0.04176 0.067124 1.1237 6.6381e-39 150 237 0 0 0 0.80097 -0.023122 -0.59826 0.0064223
0.05285 0.067063 1.1227 8.482e-39 242 237 0 0 0 -0.74338 0.022875 -0.66847 0.013553
-0.043036 0.069034 1.1227 7.0991e-39 334.5 237 0 0 0 0.79788 -0.010052 -0.60274 0.0069259
-0.04176 0.069096 1.1237 7.053e-39 335.5 237 0 0 0 0.80027 -0.0079152 -0.59959 0.0060811
0.052898 0.068439 1.1237 7.1913e-39 344 237 0 0 0 -0.73989 0.045612 -0.67118 0.01412
0.054164 0.06969 1.1227 8.021e-39 469 237 0 0 0 -0.76353 0.039858 -0.64454 0.01505
-0.043036 0.071004 1.1227 6.8225e-39 147 238 0 0 0 0.79706 -0.00012357 -0.6039 0.0073381
-0.04176 0.071068 1.1237 6.6381e-39 150 238 0 0 0 0.79886 0.0017602 -0.60151 0.0065046
0.054213 0.071068 1.1237 7.2835e-39 204 238 0 0 0 -0.76518 0.061096 -0.64091 0.01473
-0.043036 0.072974 1.1227 8.7585e-39 255.5 238 0 0 0 0.79871 0.017512 -0.60147 0.0070784
-0.04176 0.072383 1.1237 9.7727e-39 233 238 0 0 0 0.79969 0.01226 -0.60028 0.0063924
-0.043075 0.075012 1.1237 7.7444e-39 316 238 0 0 0 0.79817 0.037566 -0.60127 0.0067922
-0.044349 0.076915 1.1227 7.0991e-39 378.5 238 0 0 0 0.79509 0.060972 -0.60342 0.0073481
-0.043075 0.076327 1.1237 7.3757e-39 351 238 0 0 0 0.79837 0.054344 -0.59971 0.006481
-0.047019 0.078956 1.1237 7.56e-39 440 238 0 0 0 0.7905 0.086929 -0.60626 0.0079971
-0.045663 0.078885 1.1227 7.3757e-39 441 238 0 0 0 0.79209 0.082552 -0.60479 0.0078884
-0.045788 0.048807 1.1258 5.9005e-39 177 232 0 0 0 0.80569 -0.063254 -0.58896 0.013525
-0.044471 0.050124 1.1258 7.8366e-39 272 232 0 0 0 0.80521 -0.064169 -0.5895 0.011993
-0.043154 0.051441 1.1258 6.6381e-39 406 232 0 0 0 0.79763 -0.057822 -0.60037 0.011031
-0.043154 0.052758 1.1258 6.6381e-39 200 233 0 0 0 0.80008 -0.062779 -0.5966 0.0093083
0.049043 0.052758 1.1258 7.9288e-39 272 233 0 0 0 -0.67052 0.01992 -0.74162 0.011979
-0.043154 0.054734 1.1258 7.4218e-39 363 233 0 0 0 0.80109 -0.056842 -0.59584 0.0083987
0.049043 0.054075 1.1258 6.6381e-39 370 233 0 0 0 -0.67311 0.039785 -0.73847 0.01255
-0.043114 0.056658 1.1247 8.3898e-39 219 234 0 0 0 0.80324 -0.059492 -0.59268 0.0075061
0.050315 0.057974 1.1247 7.4678e-39 421 234 0 0 0 -0.68602 0.049522 -0.72589 0.013115
-0.041818 0.058658 1.1252 7.1913e-39 387 234 0 0 0 0.80137 -0.050618 -0.59603 0.0065613
-0.041798 0.061264 1.1247 7.9288e-39 290.5 235 0 0 0 0.80425 -0.048112 -0.59233 0.0061077
0.049021 0.061292 1.1252 7.514e-39 376 235 0 0 0 -0.68669 0.062839 -0.72423 0.013272
0.049043 0.063295 1.1258 9.0352e-39 226 236 0 0 0 -0.68859 0.061276 -0.72256 0.013392
-0.040519 0.06527 1.1258 7.6522e-39 310 236 0 0 0 0.806 -0.049216 -0.58986 0.0052161
0.049043 0.064612 1.1258 6.6381e-39 327 236 0 0 0 -0.69247 0.06713 -0.71832 0.013242
0.050338 0.065241 1.1252 7.4679e-39 394 236 0 0 0 -0.70421 0.060032 -0.70745 0.012802
-0.040519 0.067246 1.1258 6.9147e-39 151 237 0 0 0 0.80566 -0.037322 -0.5912 0.0048726
0.051631 0.067185 1.1247 9.1274e-39 241 237 0 0 0 -0.72423 0.048976 -0.68781 0.012594
-0.040519 0.069222 1.1258 7.053e-39 336.5 237 0 0 0 0.80374 -0.010259 -0.59489 0.0055401
0.051678 0.068564 1.1258 6.8225e-39 343 237 0 0 0 -0.72614 0.062415 -0.68471 0.012879
0.052946 0.069817 1.1247 7.7444e-39 468 237 0 0 0 -0.74008 0.063973 -0.66947 0.014165
-0.040519 0.071198 1.1258 6.6381e-39 151 238 0 0 0 0.80412 0.00066929 -0.59447 0.0057429
0.052995 0.071198 1.1258 7.3757e-39 203 238 0 0 0 -0.7377 0.085239 -0.66973 0.014679
-0.040945 0.073371 1.1254 8.2976e-39 265 238 0 0 0 0.80373 0.022217 -0.59458 0.0062565
-0.041158 0.075115 1.1252 7.5139e-39 317.5 238 0 0 0 0.80288 0.04866 -0.59415 0.0060074
-0.043114 0.077712 1.1247 6.7303e-39 408 238 0 0 0 0.80095 0.079961 -0.59337 0.0061816
-0.041818 0.07709 1.1252 7.0069e-39 380.5 238 0 0 0 0.80113 0.06997 -0.59439 0.0060363
-0.04443 0.079028 1.1247 7.3757e-39 442 238 0 0 0 0.79802 0.10019 -0.59424 0.0068225
-0.047062 0.080344 1.1247 7.56e-39 461 238 0 0 0 0.79297 0.12026 -0.59728 0.0073952
-0.045108 0.081039 1.1252 7.1913e-39 469 238 0 0 0 0.79372 0.13432 -0.59327 0.0071646
-0.044552 0.048896 1.1278 5.8083e-39 178 232 0 0 0 0.7954 -0.040386 -0.60474 0.015528
-0.043232 0.050216 1.1278 7.4678e-39 273 232 0 0 0 0.79418 -0.042276 -0.60621 0.013356
-0.041913 0.051535 1.1278 6.5459e-39 407 232 0 0 0 0.78828 -0.034103 -0.61437 0.013258
0.047153 0.050875 1.1278 7.2143e-39 413.5 232 0 0 0 -0.66773 0.01504 -0.74425 0.011353
0.049088 0.050829 1.1268 7.2835e-39 415 232 0 0 0 -0.66555 0.0018332 -0.74636 0.012013
0.047153 0.052855 1.1278 8.5281e-39 270.5 233 0 0 0 -0.6681 0.033255 -0.74333 0.011502
0.047373 0.054614 1.1278 7.0684e-39 307.33 233.33 0 0 0 -0.66803 0.049456 -0.74249 0.012305
0.049088 0.055443 1.1268 7.0069e-39 186 234 0 0 0 -0.67086 0.05011 -0.73989 0.012953
-0.041913 0.056813 1.1278 8.7586e-39 220 234 0 0 0 0.80182 -0.051721 -0.59532 0.0071489
0.047813 0.056813 1.1278 7.8366e-39 288 234 0 0 0 -0.66753 0.069146 -0.74137 0.012719
0.049088 0.056761 1.1268 7.7444e-39 289 234 0 0 0 -0.67227 0.056207 -0.73817 0.013042
0.047813 0.059452 1.1278 7.0069e-39 209 235 0 0 0 -0.66832 0.078075 -0.73976 0.013465
0.049088 0.058739 1.1268 7.2835e-39 314.5 234.5 0 0 0 -0.67096 0.06413 -0.73871 0.013607
-0.040593 0.060772 1.1278 9.6805e-39 241 235 0 0 0 0.80148 -0.041515 -0.59657 0.0059618
0.047813 0.060772 1.1278 8.2054e-39 309 235 0 0 0 -0.67172 0.081093 -0.73635 0.013152
-0.040556 0.062694 1.1268 6.6381e-39 408 235 0 0 0 0.80511 -0.046643 -0.59129 0.0057025
0.047359 0.062512 1.1275 8.021e-39 368.67 235.33 0 0 0 -0.67516 0.077329 -0.7336 0.013872
-0.039274 0.06671 1.1278 7.0991e-39 257 236.5 0 0 0 0.80822 -0.049881 -0.58677 0.0054263
0.049133 0.06605 1.1278 8.3898e-39 459 236 0 0 0 -0.69124 0.075973 -0.71862 0.014331
0.050453 0.067369 1.1278 9.404e-39 240 237 0 0 0 -0.69703 0.073572 -0.71326 0.01463
-0.039274 0.068689 1.1278 7.0991e-39 274 237 0 0 0 0.8117 -0.024669 -0.58355 0.0042375
0.051725 0.069944 1.1268 7.9288e-39 467 237 0 0 0 -0.72182 0.083703 -0.687 0.014276
-0.039274 0.070668 1.1278 6.8225e-39 276.5 237.5 0 0 0 0.81087 -0.0096261 -0.58514 0.0047289
0.051725 0.071263 1.1268 6.8225e-39 202 238 0 0 0 -0.72716 0.09858 -0.67935 0.015385
-0.039274 0.073307 1.1278 8.2976e-39 258.5 238 0 0 0 0.80873 0.02156 -0.58778 0.0063641
-0.039274 0.075286 1.1278 6.8225e-39 319 238 0 0 0 0.80773 0.046116 -0.58775 0.0066367
-0.040574 0.07723 1.1273 7.5139e-39 382 238 0 0 0 0.80603 0.072698 -0.5874 0.0061401
-0.039274 0.076606 1.1278 7.0069e-39 354 238 0 0 0 0.80714 0.055404 -0.58776 0.0066038
-0.043193 0.079173 1.1268 7.4678e-39 443 238 0 0 0 0.80195 0.10918 -0.58733 0.005891
-0.041913 0.079245 1.1278 7.4678e-39 444 238 0 0 0 0.80499 0.10465 -0.58399 0.006138
-0.018847 0.037071 1.1294 7.5139e-39 462 228 0 0 0 0.43494 0.82672 -0.35688 0.0083323
-0.044593 0.04762 1.1289 6.8225e-39 409 231 0 0 0 0.78598 -0.033616 -0.61734 0.018599
-0.043312 0.047664 1.1299 7.3757e-39 410 231 0 0 0 0.77706 -0.022583 -0.62902 0.019111
-0.043272 0.048941 1.1289 6.2693e-39 179 232 0 0 0 0.78325 -0.029283 -0.62102 0.016751
0.047857 0.048941 1.1289 9.2196e-39 255 232 0 0 0 -0.66937 0.0016129 -0.74293 0.011367
-0.041329 0.050969 1.1299 6.9147e-39 341 232 0 0 0 0.78233 -0.026092 -0.62231 0.014548
-0.039346 0.05163 1.1299 6.8225e-39 409 232 0 0 0 0.77333 0.027634 -0.63341 0.021916
-0.041951 0.052903 1.1289 6.8225e-39 201 233 0 0 0 0.79061 -0.029739 -0.6116 0.012891
-0.039346 0.052951 1.1299 7.4678e-39 203 233 0 0 0 0.78573 -0.011752 -0.61846 0.013643
-0.041951 0.054884 1.1289 7.4679e-39 364 233 0 0 0 0.7961 -0.037508 -0.604 0.0099832
0.046536 0.055544 1.1289 6.6381e-39 184 234 0 0 0 -0.66927 0.072052 -0.73952 0.011947
0.046536 0.056865 1.1289 7.6522e-39 287 234 0 0 0 -0.66885 0.067685 -0.74031 0.012195
-0.040649 0.058873 1.1294 7.053e-39 388 234 0 0 0 0.79836 -0.043964 -0.60057 0.006826
-0.039346 0.059561 1.1299 7.8366e-39 456 234 0 0 0 0.79949 -0.040733 -0.59929 0.0069203
0.046976 0.058626 1.1289 7.0991e-39 347.67 234.33 0 0 0 -0.66682 0.082021 -0.74069 0.012939
-0.03931 0.060827 1.1289 9.1274e-39 242 235 0 0 0 0.80069 -0.037877 -0.59788 0.0065089
0.046536 0.060827 1.1289 8.021e-39 308 235 0 0 0 -0.66698 0.081132 -0.74065 0.014504
-0.03931 0.062808 1.1289 6.6842e-39 409 235 0 0 0 0.8025 -0.037741 -0.59546 0.0062467
0.046536 0.063469 1.1289 8.8508e-39 224 236 0 0 0 -0.67096 0.080664 -0.7371 0.015172
-0.03931 0.064789 1.1289 8.482e-39 260 236 0 0 0 0.80683 -0.048522 -0.58879 0.0056763
0.047218 0.064819 1.1294 6.8686e-39 325.5 236 0 0 0 -0.67251 0.080931 -0.73565 0.015587
0.047218 0.066141 1.1294 8.021e-39 457.5 236 0 0 0 -0.67304 0.080634 -0.7352 0.016474
0.049178 0.067431 1.1289 9.1274e-39 239 237 0 0 0 -0.68925 0.074382 -0.72069 0.015724
0.049223 0.068815 1.1299 6.5459e-39 341 237 0 0 0 -0.68301 0.088943 -0.72497 0.017513
0.050499 0.068752 1.1289 6.8225e-39 342 237 0 0 0 -0.69724 0.087586 -0.71147 0.015926
0.050545 0.070797 1.1299 7.4679e-39 333.5 237.5 0 0 0 -0.69941 0.11211 -0.70588 0.017736
0.051819 0.072714 1.1289 8.482e-39 251 238 0 0 0 -0.72371 0.13214 -0.67733 0.016946
0.051843 0.074729 1.1294 7.6522e-39 306.5 238 0 0 0 -0.72196 0.15974 -0.67324 0.018378
0.051867 0.076746 1.1299 6.3615e-39 359 238 0 0 0 -0.70961 0.20908 -0.67286 0.02066
-0.023504 0.039769 1.1309 6.8225e-39 446 229 0 0 0 0.53842 0.69354 -0.47865 0.027224
-0.034766 0.043758 1.1314 7.3296e-39 447.5 230 0 0 0 0.68199 0.31312 -0.66094 0.041812
-0.039418 0.045102 1.132 7.6522e-39 215 231 0 0 0 0.72598 0.16763 -0.66698 0.036253
-0.036769 0.045102 1.132 7.3757e-39 217 231 0 0 0 0.70606 0.24848 -0.66312 0.040357
-0.039418 0.047089 1.132 7.0991e-39 360 231 0 0 0 0.74309 0.10752 -0.66049 0.03047
-0.042028 0.049031 1.1309 6.5459e-39 180 232 0 0 0 0.77378 -0.0079159 -0.6334 0.018959
-0.040742 0.049076 1.132 6.2693e-39 181 232 0 0 0 0.76034 0.056677 -0.64705 0.025952
-0.039418 0.049076 1.132 5.9005e-39 182 232 0 0 0 0.75627 0.077972 -0.6496 0.026887
0.045299 0.049031 1.1309 9.4961e-39 254 232 0 0 0 -0.66663 0.009993 -0.74533 0.011678
-0.040705 0.050354 1.1309 7.2835e-39 275 232 0 0 0 0.77258 0.013 -0.63479 0.019567
-0.038738 0.051039 1.1314 7.1913e-39 343.5 232 0 0 0 0.76751 0.042845 -0.63961 0.022117
-0.036769 0.051724 1.132 7.56e-39 411 232 0 0 0 0.76246 0.063202 -0.64394 0.024092
0.042691 0.051724 1.132 7.7444e-39 471 232 0 0 0 -0.62681 0.02677 -0.77871 0.017591
0.045299 0.051015 1.1309 7.2374e-39 412 232 0 0 0 -0.66509 0.025024 -0.74635 0.011146
-0.040705 0.053 1.1309 7.1913e-39 202 233 0 0 0 0.78717 -0.018963 -0.61644 0.012713
0.042691 0.053049 1.132 8.7586e-39 265 233 0 0 0 -0.62629 0.033625 -0.77887 0.016227
0.045299 0.053 1.1309 8.6664e-39 269 233 0 0 0 -0.66503 0.036878 -0.74591 0.011168
-0.040705 0.054984 1.1309 7.3296e-39 365 233 0 0 0 0.79125 -0.020886 -0.61114 0.011419
-0.039382 0.054984 1.1309 7.3757e-39 366 233 0 0 0 0.79032 -0.017707 -0.61244 0.011358
0.04532 0.05501 1.1314 6.8686e-39 275 233.5 0 0 0 -0.65409 0.053003 -0.75456 0.01333
-0.040705 0.056969 1.1309 8.7586e-39 221 234 0 0 0 0.79513 -0.031119 -0.60565 0.0095637
-0.039382 0.056969 1.1309 8.3898e-39 222 234 0 0 0 0.79302 -0.02336 -0.60875 0.010202
0.04534 0.057022 1.132 7.6522e-39 286 234 0 0 0 -0.64781 0.064315 -0.75908 0.013943
-0.039382 0.058292 1.1309 6.5459e-39 322 234 0 0 0 0.79687 -0.035093 -0.60312 0.0081396
0.044899 0.059229 1.132 7.2527e-39 276.33 234.67 0 0 0 -0.63981 0.078791 -0.76448 0.014872
