# .PCD v.7 - Point Cloud Data file format
VERSION .7
FIELDS x y z rgb u v vx vy vz normal_x normal_y normal_z curvature
SIZE 4 4 4 4 4 4 4 4 4 4 4 4 4
TYPE F F F F F F F F F F F F F
COUNT 1 1 1 1 1 1 1 1 1 1 1 1 1
WIDTH 566
HEIGHT 1
VIEWPOINT 0 0 0 1 0 0 0
POINTS 566
DATA ascii
0.036453 0.2008 1.0192 7.7444e-39 385 348.33 0 0 0 0.67998 0.39801 -0.61581 0.0074395
-0.044983 0.20315 1.0181 6.0388e-39 293.5 349 0 0 0 -0.58515 0.38972 -0.71114 0.0071461
-0.042617 0.20324 1.0186 6.3154e-39 295.5 349 0 0 0 -0.57462 0.40292 -0.71237 0.0073038
0.033633 0.20375 1.0181 6.2693e-39 449 349 0 0 0 0.62094 0.42533 -0.65843 0.0034903
0.034853 0.20273 1.019 5.8083e-39 370 349 0 0 0 0.64113 0.41826 -0.64343 0.0045996
-0.04502 0.20511 1.019 7.0069e-39 467 349 0 0 0 -0.57926 0.42026 -0.69846 0.0092308
-0.042671 0.20528 1.0198 7.4678e-39 469 349 0 0 0 -0.56644 0.4381 -0.69801 0.0093359
-0.041409 0.20494 1.0181 8.021e-39 474 349 0 0 0 -0.56165 0.42816 -0.70797 0.0077432
0.033661 0.20511 1.019 5.3473e-39 150 350 0 0 0 0.62461 0.4246 -0.65542 0.0035321
0.034882 0.20409 1.0198 6.5459e-39 450 349 0 0 0 0.64318 0.41786 -0.64165 0.0045531
-0.045057 0.20648 1.0198 5.163e-39 174 350 0 0 0 -0.57185 0.44412 -0.68975 0.010744
-0.043828 0.20691 1.0189 6.6381e-39 211.5 350 0 0 0 -0.56478 0.44704 -0.69367 0.0099206
-0.041443 0.20691 1.0189 7.053e-39 213.5 350 0 0 0 -0.55841 0.45257 -0.69524 0.0087695
0.031251 0.20733 1.0181 7.9288e-39 413 350 0 0 0 0.60496 0.42762 -0.67169 0.0033526
0.032867 0.20671 1.019 7.0376e-39 291.67 350 0 0 0 0.61824 0.42505 -0.66114 0.0034304
-0.040218 0.20971 1.0181 5.9927e-39 516 350 0 0 0 -0.54757 0.49109 -0.67749 0.0079992
-0.039027 0.20971 1.0181 6.2693e-39 517 350 0 0 0 -0.54416 0.49238 -0.67931 0.0076212
0.030871 0.20943 1.0187 6.7917e-39 286 350.67 0 0 0 0.60436 0.42675 -0.67278 0.0033247
0.032495 0.20886 1.0198 7.1913e-39 494 350 0 0 0 0.6197 0.4242 -0.66032 0.0033981
-0.040284 0.21125 1.0198 5.6239e-39 199 351 0 0 0 -0.547 0.51498 -0.65999 0.00754
-0.039059 0.21107 1.019 5.6239e-39 200 351 0 0 0 -0.54272 0.51094 -0.66663 0.0072947
0.030693 0.21116 1.0194 5.7161e-39 370.5 351 0 0 0 0.60695 0.42465 -0.67177 0.0032756
-0.039091 0.21244 1.0198 7.4678e-39 386 351 0 0 0 -0.54036 0.52895 -0.65439 0.0065171
-0.037256 0.21278 1.0186 6.9146e-39 419.5 351 0 0 0 -0.53113 0.52751 -0.66305 0.0062249
-0.034858 0.21328 1.0181 5.8544e-39 453.5 351 0 0 0 -0.52424 0.5323 -0.6647 0.0056814
0.028868 0.21328 1.0181 5.7161e-39 513 351 0 0 0 0.58829 0.42798 -0.68611 0.003331
0.030109 0.21244 1.0198 7.0069e-39 436 351 0 0 0 0.60337 0.42435 -0.67518 0.0034315
-0.036705 0.21483 1.0198 5.9005e-39 138 352 0 0 0 -0.5305 0.54431 -0.64984 0.0058304
-0.034319 0.21483 1.0198 5.6239e-39 140 352 0 0 0 -0.5212 0.54781 -0.65441 0.0054298
0.025295 0.21566 1.0181 6.0849e-39 367 352 0 0 0 0.56296 0.43772 -0.70105 0.0031977
0.027092 0.21516 1.0186 5.7622e-39 277.5 352 0 0 0 0.57737 0.43154 -0.69312 0.0035053
0.028892 0.21465 1.019 5.6239e-39 188 352 0 0 0 0.59167 0.42661 -0.68405 0.0035686
-0.033126 0.21602 1.0198 5.4395e-39 213 352 0 0 0 -0.51672 0.56041 -0.64726 0.0049504
-0.03131 0.21703 1.019 7.7444e-39 388.5 352 0 0 0 -0.50935 0.56658 -0.64773 0.0047461
-0.029522 0.21703 1.019 7.9288e-39 390 352 0 0 0 -0.50768 0.56698 -0.64869 0.0048206
0.025316 0.21703 1.019 5.9005e-39 427 352 0 0 0 0.56238 0.44142 -0.6992 0.0036274
0.027115 0.21653 1.0194 5.8544e-39 398.5 352 0 0 0 0.57381 0.4357 -0.69347 0.0037988
-0.028727 0.21863 1.019 6.3615e-39 476 352 0 0 0 -0.50653 0.57122 -0.64586 0.0049379
-0.027115 0.21924 1.0181 7.9288e-39 524 352 0 0 0 -0.50647 0.57306 -0.64428 0.0047243
0.022913 0.21924 1.0181 6.2693e-39 166 353 0 0 0 0.54685 0.44853 -0.70695 0.0036044
0.024522 0.21863 1.019 7.1912e-39 385.33 352.33 0 0 0 0.55609 0.44437 -0.70235 0.0037869
0.02653 0.21841 1.0198 7.2835e-39 496 352 0 0 0 0.5666 0.44205 -0.69538 0.0041092
-0.028353 0.22079 1.0198 5.5317e-39 188 353 0 0 0 -0.50939 0.58362 -0.63238 0.0047272
-0.027149 0.2213 1.0194 6.131e-39 218.5 353 0 0 0 -0.50699 0.58305 -0.63484 0.0050011
-0.025924 0.22162 1.0181 7.6522e-39 249 353 0 0 0 -0.49793 0.58408 -0.64103 0.0049618
0.021131 0.22107 1.0183 7.2835e-39 305 353 0 0 0 0.53401 0.45492 -0.71266 0.0036187
0.022941 0.2213 1.0194 7.1452e-39 307 353 0 0 0 0.54643 0.45238 -0.70482 0.0042292
0.024144 0.22079 1.0198 6.3615e-39 228 353 0 0 0 0.55248 0.44936 -0.70203 0.0043528
-0.02536 0.22309 1.0194 7.8366e-39 405.5 353 0 0 0 -0.49985 0.58631 -0.63748 0.005298
-0.022946 0.22281 1.0181 8.3898e-39 407.5 353 0 0 0 -0.49662 0.58235 -0.64361 0.0053607
-0.021177 0.223 1.019 8.021e-39 409 353 0 0 0 -0.49957 0.57803 -0.64521 0.0055383
-0.019985 0.223 1.019 7.7444e-39 410 353 0 0 0 -0.49914 0.57484 -0.6484 0.0054323
0.018744 0.22281 1.0181 6.592e-39 434.5 353 0 0 0 0.51927 0.46225 -0.7188 0.0034821
0.021152 0.22309 1.0194 6.4537e-39 436.5 353 0 0 0 0.53306 0.45819 -0.71127 0.0040899
-0.024774 0.22437 1.0198 7.8366e-39 457 353 0 0 0 -0.50153 0.58605 -0.63641 0.005824
-0.022985 0.22437 1.0198 8.6664e-39 458.5 353 0 0 0 -0.50447 0.58404 -0.63593 0.0057931
-0.020001 0.22437 1.0198 8.8508e-39 461 353 0 0 0 -0.50188 0.57607 -0.64518 0.0062257
0.016957 0.2246 1.0181 7.2835e-39 313 353.5 0 0 0 0.5034 0.46977 -0.72519 0.0034418
0.018759 0.22479 1.019 6.7994e-39 314.5 353.5 0 0 0 0.51574 0.46794 -0.71766 0.0038382
0.020564 0.22437 1.0198 8.2976e-39 488 353 0 0 0 0.52909 0.46391 -0.71053 0.0043733
0.013384 0.22758 1.0181 7.0069e-39 219 354 0 0 0 0.47756 0.48331 -0.73373 0.0031791
0.015177 0.22707 1.0186 5.9697e-39 199.5 354 0 0 0 0.48397 0.48018 -0.73158 0.0032503
0.016978 0.22726 1.0194 5.9927e-39 201 354 0 0 0 0.49961 0.47744 -0.7228 0.0037998
0.018178 0.22676 1.0198 5.9927e-39 181 354 0 0 0 0.5061 0.47456 -0.72018 0.0040188
0.012793 0.22946 1.0186 8.0671e-39 320 354 0 0 0 0.47106 0.4895 -0.73382 0.0029683
0.01101 0.23015 1.019 7.8366e-39 388 354 0 0 0 0.47291 0.48629 -0.73477 0.003334
0.01281 0.23094 1.0198 7.0529e-39 402 354 0 0 0 0.4654 0.48527 -0.74021 0.0028555
-0.059423 0.1553 1.0206 5.8083e-39 456 334 0 0 0 -0.76385 -0.12622 -0.63293 0.11236
0.055256 0.15782 1.0215 5.9927e-39 454 335 0 0 0 0.83992 0.04779 -0.5406 0.040877
0.055256 0.15901 1.0215 6.3615e-39 172 336 0 0 0 0.83793 0.064197 -0.542 0.039515
0.054039 0.16074 1.021 5.6239e-39 419.5 336 0 0 0 0.81428 0.089764 -0.57348 0.032823
0.054061 0.16319 1.0215 5.6239e-39 284 337 0 0 0 0.79835 0.12602 -0.58886 0.026748
0.054061 0.16499 1.0215 6.2693e-39 470 337 0 0 0 0.76907 0.15298 -0.62058 0.021929
0.054061 0.16678 1.0215 5.8544e-39 295.5 338 0 0 0 0.77068 0.17254 -0.61341 0.021073
0.051628 0.16963 1.0206 6.7303e-39 219 339 0 0 0 0.77465 0.2082 -0.59714 0.015853
0.052822 0.16904 1.0206 5.9467e-39 360 338.5 0 0 0 0.76895 0.1978 -0.60793 0.016588
0.051671 0.17096 1.0215 7.4678e-39 429 339 0 0 0 0.78107 0.23587 -0.57818 0.014989
0.052866 0.17096 1.0215 7.56e-39 430 339 0 0 0 0.77753 0.23192 -0.58452 0.015805
0.050455 0.17268 1.021 5.2551e-39 276 340 0 0 0 0.7774 0.2439 -0.5798 0.012184
0.04924 0.1756 1.0206 6.0849e-39 217 341 0 0 0 0.78489 0.26954 -0.55794 0.0095568
0.048663 0.17746 1.021 6.5459e-39 302 341.5 0 0 0 0.78869 0.27734 -0.54868 0.0079612
0.048046 0.17918 1.0206 4.9786e-39 382 342 0 0 0 0.79257 0.28967 -0.53658 0.0073934
0.044463 0.18157 1.0206 5.9005e-39 228 343 0 0 0 0.78322 0.30465 -0.54199 0.0068224
0.04689 0.18172 1.0215 6.1771e-39 230 343 0 0 0 0.79577 0.30546 -0.52291 0.0066705
0.044463 0.18276 1.0206 7.0069e-39 433 343 0 0 0 0.78441 0.30949 -0.53751 0.0067496
0.0445 0.18411 1.0215 5.2552e-39 192 344 0 0 0 0.7871 0.3177 -0.52873 0.0063718
0.043305 0.19487 1.0215 7.56e-39 226 347 0 0 0 0.76132 0.35394 -0.54326 0.0082876
0.040881 0.19709 1.0206 6.2693e-39 519 347 0 0 0 0.72982 0.37157 -0.57384 0.0084343
0.04211 0.19606 1.0215 8.2054e-39 425 347 0 0 0 0.74608 0.36034 -0.55993 0.0078877
-0.046885 0.19888 1.0206 5.7622e-39 181.5 348 0 0 0 -0.61203 0.34323 -0.71247 0.0050514
0.03972 0.19965 1.0215 7.56e-39 400 348 0 0 0 0.72047 0.37435 -0.58376 0.0088671
0.040915 0.19845 1.0215 5.5317e-39 213 348 0 0 0 0.73093 0.36873 -0.57426 0.0085647
-0.046288 0.20127 1.0206 6.5459e-39 459.5 348 0 0 0 -0.60366 0.37135 -0.70547 0.0068354
0.037299 0.20187 1.0206 5.7161e-39 185 349 0 0 0 0.68634 0.39356 -0.6116 0.0074878
0.038493 0.20068 1.0206 8.8508e-39 487 348 0 0 0 0.70519 0.38183 -0.59742 0.0086104
-0.046905 0.20314 1.021 5.8544e-39 198.5 349 0 0 0 -0.60111 0.39161 -0.69664 0.0087992
0.036105 0.20306 1.0206 5.9927e-39 371 349 0 0 0 0.66685 0.40682 -0.62434 0.0061878
-0.046326 0.20503 1.0215 6.4076e-39 426 349 0 0 0 -0.59417 0.42528 -0.68271 0.011152
0.034911 0.20545 1.0206 6.0849e-39 151 350 0 0 0 0.64502 0.41684 -0.64046 0.004477
-0.045094 0.20784 1.0206 8.2976e-39 247 350 0 0 0 -0.57092 0.46835 -0.67431 0.011592
-0.042706 0.20665 1.0206 5.163e-39 176 350 0 0 0 -0.56506 0.4653 -0.68133 0.010369
0.034939 0.20682 1.0215 6.0849e-39 233 350 0 0 0 0.64694 0.41629 -0.63888 0.0043824
-0.045131 0.20921 1.0215 6.2693e-39 428 350 0 0 0 -0.56614 0.5002 -0.65519 0.011219
-0.043338 0.20861 1.0215 7.1913e-39 339 350 0 0 0 -0.56086 0.498 -0.66139 0.01023
-0.041512 0.20903 1.0206 6.5459e-39 431 350 0 0 0 -0.55433 0.49583 -0.66849 0.0090492
0.033744 0.20801 1.0215 7.2835e-39 415 350 0 0 0 0.63393 0.42017 -0.6493 0.0036652
0.032536 0.21091 1.021 5.9466e-39 278 351 0 0 0 0.62061 0.42087 -0.6616 0.0033751
-0.040335 0.2133 1.021 6.4537e-39 416.5 351 0 0 0 -0.54501 0.536 -0.64472 0.0064493
-0.039156 0.21399 1.0215 6.3615e-39 449 351 0 0 0 -0.54024 0.5437 -0.64229 0.0060728
-0.037929 0.21381 1.0206 6.6381e-39 450 351 0 0 0 -0.53358 0.5408 -0.65025 0.0059937
0.030744 0.2133 1.021 6.3154e-39 475.5 351 0 0 0 0.60813 0.42255 -0.67204 0.0033448
-0.035541 0.21501 1.0206 5.4395e-39 139 352 0 0 0 -0.52776 0.54969 -0.64754 0.0055801
-0.03318 0.21757 1.0215 7.8366e-39 387 352 0 0 0 -0.51243 0.57134 -0.64108 0.0048631
0.027746 0.21739 1.0206 5.9927e-39 429 352 0 0 0 0.58282 0.43443 -0.68673 0.0040239
0.02894 0.21679 1.0206 5.8083e-39 400 352 0 0 0 0.59245 0.42913 -0.6818 0.0039001
-0.031375 0.21868 1.021 6.4076e-39 450.5 352 0 0 0 -0.50932 0.57998 -0.63579 0.0047536
-0.029595 0.21996 1.0215 5.9005e-39 522 352 0 0 0 -0.51048 0.58402 -0.63113 0.0048018
0.025358 0.21978 1.0206 6.1771e-39 168 353 0 0 0 0.56056 0.44604 -0.69772 0.0044703
0.02716 0.21927 1.021 6.6381e-39 333 352.5 0 0 0 0.5736 0.44168 -0.68985 0.0045081
0.028964 0.21877 1.0215 6.3615e-39 498 352 0 0 0 0.58926 0.43441 -0.68122 0.0042367
0.025379 0.22116 1.0215 6.8225e-39 229 353 0 0 0 0.5604 0.44985 -0.69541 0.0047989
-0.028377 0.22217 1.0206 6.4537e-39 247 353 0 0 0 -0.50991 0.58709 -0.62874 0.0050372
-0.027205 0.22355 1.0215 7.56e-39 404 353 0 0 0 -0.51139 0.58914 -0.62561 0.0053722
0.02297 0.22336 1.0206 6.1771e-39 438 353 0 0 0 0.5446 0.4584 -0.70234 0.0048742
0.024184 0.22235 1.0215 7.56e-39 388 353 0 0 0 0.55378 0.45415 -0.69791 0.0049369
-0.02601 0.22474 1.0215 7.2835e-39 456 353 0 0 0 -0.50861 0.59247 -0.62474 0.0059254
-0.024794 0.22575 1.0206 6.1771e-39 503 353 0 0 0 -0.50307 0.58775 -0.63361 0.0063436
-0.023003 0.22575 1.0206 5.7622e-39 504.5 353 0 0 0 -0.51033 0.58173 -0.63337 0.0062508
-0.020826 0.22548 1.0212 6.6995e-39 491 353 0 0 0 -0.50891 0.57983 -0.63625 0.0066065
0.021383 0.22542 1.0209 6.3e-39 259.33 353.67 0 0 0 0.5297 0.46731 -0.70784 0.0049297
-0.023022 0.22713 1.0215 5.7622e-39 159 354 0 0 0 -0.51385 0.5779 -0.63403 0.0069299
-0.020035 0.22713 1.0215 6.4537e-39 163 354 0 0 0 -0.508 0.57284 -0.64326 0.0078599
0.019387 0.22695 1.0206 6.6381e-39 182 354 0 0 0 0.51608 0.47222 -0.71461 0.004568
0.020598 0.22713 1.0215 6.7303e-39 183 354 0 0 0 0.52369 0.47033 -0.71031 0.0050898
0.015208 0.22933 1.0206 8.8508e-39 252.5 354 0 0 0 0.48243 0.48261 -0.73099 0.0035062
0.017013 0.22952 1.0215 5.4395e-39 364 354 0 0 0 0.49948 0.48271 -0.71938 0.0044776
0.018798 0.22824 1.021 6.6381e-39 223.5 354 0 0 0 0.51227 0.4774 -0.71391 0.0046114
0.011029 0.23172 1.0206 7.3757e-39 413 354 0 0 0 0.46762 0.484 -0.73964 0.0031728
0.015221 0.23072 1.0215 7.3757e-39 391.5 354 0 0 0 0.47803 0.48344 -0.73333 0.0035245
0.05415 0.15688 1.0232 5.9005e-39 245 335 0 0 0 0.89203 -0.0027013 -0.45197 0.045518
0.055347 0.16047 1.0232 5.9005e-39 375 336 0 0 0 0.85134 0.064095 -0.52069 0.040169
0.051756 0.17245 1.0232 5.6239e-39 180 340 0 0 0 0.7991 0.26485 -0.53971 0.015679
0.052953 0.17245 1.0232 5.2552e-39 181 340 0 0 0 0.79745 0.26328 -0.54292 0.015558
0.050559 0.17484 1.0232 5.9005e-39 468 340 0 0 0 0.79397 0.277 -0.54118 0.011813
0.045733 0.18307 1.0223 6.5459e-39 434 343 0 0 0 0.79529 0.31333 -0.51898 0.0062422
0.044574 0.18561 1.0232 5.163e-39 391 344 0 0 0 0.79819 0.32215 -0.50903 0.0066533
0.044574 0.1892 1.0232 8.2054e-39 424 345 0 0 0 0.79163 0.3369 -0.50973 0.0071
0.044537 0.19144 1.0223 6.9147e-39 233 346 0 0 0 0.78453 0.34069 -0.51811 0.007373
0.044574 0.1928 1.0232 6.5459e-39 430 346 0 0 0 0.78304 0.34281 -0.51897 0.008082
0.042145 0.19742 1.0223 6.7303e-39 520 347 0 0 0 0.75444 0.3592 -0.54936 0.0093256
0.040983 0.19998 1.0232 7.8366e-39 401 348 0 0 0 0.74247 0.36346 -0.5627 0.0095237
-0.047561 0.20101 1.0223 8.021e-39 411 348 0 0 0 -0.61387 0.37071 -0.69694 0.0076041
0.039786 0.20117 1.0232 8.7586e-39 488 348 0 0 0 0.72384 0.37302 -0.58045 0.0084148
-0.047561 0.2022 1.0223 6.0849e-39 497 348 0 0 0 -0.61175 0.37984 -0.69389 0.0086059
0.03736 0.2034 1.0223 6.1771e-39 372 349 0 0 0 0.69212 0.39317 -0.6053 0.0072713
0.038557 0.2022 1.0223 5.9005e-39 186 349 0 0 0 0.7051 0.38696 -0.59422 0.0077323
-0.047561 0.2052 1.0223 6.0388e-39 425 349 0 0 0 -0.60214 0.41955 -0.67927 0.011118
0.036164 0.2046 1.0223 6.0849e-39 451 349 0 0 0 0.67332 0.40454 -0.61886 0.0059813
-0.046983 0.20707 1.0228 5.5778e-39 172.5 350 0 0 0 -0.5944 0.46447 -0.65647 0.0128
-0.042812 0.20955 1.0232 5.9927e-39 430 350 0 0 0 -0.56077 0.51474 -0.64852 0.0094345
0.033772 0.20938 1.0223 6.6381e-39 495 350 0 0 0 0.63591 0.41751 -0.64909 0.0036227
0.034997 0.20836 1.0232 7.2835e-39 416 350 0 0 0 0.65592 0.41391 -0.63123 0.0042941
-0.04158 0.21058 1.0223 5.8083e-39 515 350 0 0 0 -0.55404 0.5227 -0.64794 0.0081542
0.0338 0.21075 1.0232 5.9927e-39 185 351 0 0 0 0.63747 0.41728 -0.6477 0.0033532
0.032603 0.21315 1.0232 6.6381e-39 438 351 0 0 0 0.62931 0.41834 -0.65495 0.0033549
-0.038024 0.21554 1.0232 1.8439e-39 541 351 0 0 0 -0.53767 0.5569 -0.63307 0.0056076
0.030795 0.21485 1.0228 5.7161e-39 352.5 351.5 0 0 0 0.6157 0.42219 -0.66534 0.0036146
-0.036796 0.21656 1.0223 5.8083e-39 202 352 0 0 0 -0.52722 0.56184 -0.63748 0.0053184
-0.034404 0.21656 1.0223 5.7161e-39 212 352 0 0 0 -0.5178 0.56776 -0.63995 0.0049889
0.030209 0.21674 1.0232 5.5317e-39 371 352 0 0 0 0.6086 0.42761 -0.6684 0.0039199
-0.032038 0.22033 1.0232 6.1771e-39 520 352 0 0 0 -0.50964 0.59114 -0.62515 0.0047967
-0.030816 0.22015 1.0223 5.9005e-39 521 352 0 0 0 -0.50925 0.58845 -0.62801 0.0047569
-0.02962 0.22134 1.0223 5.5317e-39 187 353 0 0 0 -0.51073 0.58894 -0.62635 0.0049676
0.027206 0.22084 1.0228 6.8686e-39 200 353 0 0 0 0.57582 0.44722 -0.68442 0.0048753
0.028988 0.22015 1.0223 6.3615e-39 171 353 0 0 0 0.59185 0.43816 -0.67656 0.0047196
0.024813 0.22322 1.0228 6.8685e-39 414 353 0 0 0 0.55929 0.45753 -0.69127 0.0054253
-0.02725 0.22512 1.0232 6.7303e-39 455 353 0 0 0 -0.51442 0.59478 -0.61775 0.0057435
0.023008 0.22493 1.0223 8.482e-39 490 353 0 0 0 0.54372 0.46462 -0.69893 0.0053097
0.024224 0.22512 1.0232 8.482e-39 491 353 0 0 0 0.55346 0.46313 -0.69224 0.0056281
-0.026053 0.22631 1.0232 6.0849e-39 502 353 0 0 0 -0.51422 0.59292 -0.6197 0.0063633
-0.024835 0.22732 1.0223 5.7161e-39 156 354 0 0 0 -0.51644 0.58449 -0.62583 0.0067222
-0.021247 0.22732 1.0223 5.9005e-39 162 354 0 0 0 -0.51505 0.57199 -0.6384 0.0073591
0.021812 0.22732 1.0223 6.6381e-39 184 354 0 0 0 0.53226 0.47366 -0.70168 0.0056948
0.023027 0.22631 1.0232 6.1771e-39 146 354 0 0 0 0.54529 0.46992 -0.69414 0.0058869
-0.024856 0.22871 1.0232 5.8083e-39 193 354 0 0 0 -0.52333 0.5791 -0.62512 0.0070228
-0.023041 0.22852 1.0223 5.8544e-39 194.5 354 0 0 0 -0.51483 0.57728 -0.6338 0.0073052
-0.020649 0.22852 1.0223 5.7622e-39 196.5 354 0 0 0 -0.52031 0.56468 -0.64064 0.0079571
-0.018871 0.22871 1.0232 5.8083e-39 198 354 0 0 0 -0.50767 0.5633 -0.65189 0.0095526
0.018829 0.2298 1.0228 5.9466e-39 365.5 354 0 0 0 0.51207 0.48055 -0.71194 0.0051856
0.021223 0.22862 1.0228 7.053e-39 225.5 354 0 0 0 0.52597 0.47752 -0.7038 0.0056915
0.017041 0.2311 1.0232 7.56e-39 393 354 0 0 0 0.49906 0.48352 -0.71913 0.0047868
0.011047 0.2333 1.0223 6.1771e-39 440 354 0 0 0 0.461 0.4916 -0.73879 0.0034417
0.012841 0.2327 1.0223 5.9927e-39 428 354 0 0 0 0.46233 0.49115 -0.73826 0.0030233
0.014647 0.2323 1.0232 5.5317e-39 416 354 0 0 0 0.47085 0.48972 -0.73381 0.0035097
0.056591 0.15701 1.024 6.2693e-39 367 335 0 0 0 0.90807 -0.046334 -0.41626 0.042934
0.056591 0.15941 1.024 5.9927e-39 173 336 0 0 0 0.89684 0.031998 -0.44119 0.045797
0.055393 0.16181 1.024 5.6239e-39 466 336 0 0 0 0.86808 0.08062 -0.48984 0.043625
0.056614 0.16127 1.0245 5.7161e-39 421.5 336 0 0 0 0.89285 0.046178 -0.44798 0.045396
0.055393 0.163 1.024 5.9005e-39 187 337 0 0 0 0.85008 0.096181 -0.5178 0.037873
0.056638 0.16314 1.0249 5.6239e-39 188 337 0 0 0 0.88175 0.073415 -0.46596 0.045981
0.055439 0.16494 1.0249 5.9005e-39 427 337 0 0 0 0.8394 0.11456 -0.5313 0.036777
0.056638 0.16494 1.0249 5.5778e-39 428 337 0 0 0 0.84089 0.10547 -0.53084 0.037368
0.055439 0.16674 1.0249 6.4537e-39 199 338 0 0 0 0.82532 0.15114 -0.54406 0.03418
0.051842 0.17393 1.0249 5.6239e-39 375 340 0 0 0 0.81168 0.28765 -0.50837 0.01413
0.050643 0.17633 1.0249 6.6381e-39 218 341 0 0 0 0.79495 0.30711 -0.5232 0.010304
0.044648 0.18712 1.0249 8.482e-39 520 344 0 0 0 0.80566 0.3279 -0.49336 0.0071568
0.044648 0.18832 1.0249 6.1771e-39 228 345 0 0 0 0.80678 0.33124 -0.48928 0.007734
0.044685 0.19448 1.0257 5.9927e-39 138 347 0 0 0 0.79612 0.3362 -0.50315 0.0091902
0.043449 0.19671 1.0249 7.8366e-39 426 347 0 0 0 0.78121 0.34298 -0.52161 0.0097568
0.042215 0.19895 1.024 6.0849e-39 214 348 0 0 0 0.75479 0.35512 -0.55153 0.0093365
0.041051 0.20151 1.0249 8.3898e-39 489 348 0 0 0 0.74941 0.36135 -0.5548 0.008972
0.042285 0.20048 1.0257 7.7444e-39 402 348 0 0 0 0.76856 0.35138 -0.53464 0.010176
0.039237 0.20323 1.0245 6.0849e-39 280 349 0 0 0 0.71769 0.37781 -0.58496 0.008037
0.041085 0.20288 1.0257 6.0849e-39 188 349 0 0 0 0.75212 0.36321 -0.5499 0.0091863
0.037422 0.20494 1.024 5.8083e-39 452 349 0 0 0 0.69734 0.39353 -0.59904 0.0065989
0.038685 0.20528 1.0257 5.7161e-39 453 349 0 0 0 0.70703 0.38995 -0.58995 0.0066364
0.036654 0.2067 1.0249 6.0542e-39 179.67 350 0 0 0 0.68768 0.40072 -0.60541 0.0059041
-0.051319 0.20888 1.0257 5.8083e-39 242 350 0 0 0 -0.63528 0.49717 -0.59097 0.013923
-0.04706 0.20862 1.0245 8.1132e-39 245.5 350 0 0 0 -0.59394 0.50421 -0.6269 0.012513
0.035026 0.20973 1.024 6.3615e-39 496 350 0 0 0 0.65455 0.41306 -0.63321 0.0039859
0.036285 0.20888 1.0257 6.4537e-39 421 350 0 0 0 0.68036 0.40873 -0.60831 0.0043594
-0.046519 0.21008 1.0257 6.6381e-39 427 350 0 0 0 -0.58613 0.53136 -0.61164 0.010661
-0.044645 0.21093 1.024 5.9927e-39 508 350 0 0 0 -0.56469 0.53454 -0.62881 0.0090297
-0.042919 0.21128 1.0257 5.7161e-39 514 350 0 0 0 -0.56397 0.54804 -0.61773 0.0078366
0.035055 0.2111 1.0249 5.8083e-39 186 351 0 0 0 0.66358 0.41258 -0.62405 0.00363
-0.044919 0.21288 1.0257 6.3615e-39 257.67 351 0 0 0 -0.57129 0.55806 -0.60183 0.0075838
-0.041667 0.21281 1.0245 6.131e-39 291 351 0 0 0 -0.5562 0.54975 -0.62324 0.0071134
0.03387 0.21299 1.0253 5.7622e-39 406 351 0 0 0 0.65069 0.41738 -0.63435 0.0035055
0.035085 0.21248 1.0257 5.163e-39 374 351 0 0 0 0.66455 0.41678 -0.62021 0.0033693
-0.041719 0.21488 1.0257 5.9927e-39 447 351 0 0 0 -0.56126 0.56515 -0.60465 0.0061275
-0.039286 0.2159 1.0249 1.9361e-39 540 351 0 0 0 -0.55292 0.56271 -0.61452 0.0056534
0.031432 0.21572 1.024 5.2552e-39 190 352 0 0 0 0.62202 0.42397 -0.65829 0.0039338
0.032657 0.2153 1.0249 5.7162e-39 354 351.5 0 0 0 0.63512 0.42106 -0.64756 0.0036015
-0.040519 0.21608 1.0257 1.9361e-39 539 351 0 0 0 -0.55972 0.56995 -0.60157 0.0056746
-0.038118 0.21728 1.0257 5.7161e-39 201 352 0 0 0 -0.54595 0.5768 -0.60766 0.005109
-0.035659 0.21692 1.024 5.8083e-39 211 352 0 0 0 -0.52749 0.57054 -0.62948 0.0052206
0.031484 0.21728 1.0257 5.4395e-39 372 352 0 0 0 0.62894 0.42763 -0.64928 0.0038632
-0.03449 0.2183 1.0249 8.1132e-39 386 352 0 0 0 -0.51727 0.58717 -0.62263 0.0047814
-0.033263 0.21931 1.024 6.1771e-39 449 352 0 0 0 -0.51269 0.58721 -0.62636 0.00464
0.030246 0.2188 1.0245 6.2693e-39 465 352 0 0 0 0.61067 0.43588 -0.66113 0.0044991
-0.032705 0.22139 1.0253 6.1771e-39 352 352.5 0 0 0 -0.51553 0.59936 -0.61237 0.0052342
-0.030867 0.22171 1.024 5.7161e-39 186 353 0 0 0 -0.51176 0.59505 -0.61969 0.0049944
0.027838 0.22171 1.024 7.0991e-39 231 353 0 0 0 0.58405 0.45125 -0.67473 0.0051656
0.029036 0.22171 1.024 6.5459e-39 232 353 0 0 0 0.59466 0.44671 -0.66846 0.0050372
0.030284 0.22088 1.0257 5.8083e-39 172 353 0 0 0 0.61614 0.44372 -0.65076 0.0046454
-0.030893 0.22309 1.0249 6.7303e-39 245 353 0 0 0 -0.51389 0.60006 -0.61306 0.0052045
-0.029669 0.22291 1.024 6.6381e-39 246 353 0 0 0 -0.51409 0.59529 -0.61753 0.0052846
0.027262 0.22309 1.0249 7.6522e-39 390.5 353 0 0 0 0.58096 0.46125 -0.67063 0.005525
0.029084 0.22328 1.0257 7.6522e-39 392 353 0 0 0 0.60061 0.45839 -0.65509 0.0053901
-0.029082 0.22479 1.0245 7.2835e-39 428.5 353 0 0 0 -0.51603 0.59835 -0.61294 0.0056776
0.025453 0.22479 1.0245 7.3296e-39 466 353 0 0 0 0.569 0.46522 -0.67809 0.006061
0.026662 0.22429 1.0249 6.0849e-39 441 353 0 0 0 0.57823 0.46444 -0.67078 0.0058793
-0.028518 0.22688 1.0257 6.0849e-39 500 353 0 0 0 -0.52136 0.5949 -0.61178 0.0062606
-0.026685 0.22719 1.0245 5.9466e-39 328 353.5 0 0 0 -0.5179 0.59135 -0.61813 0.0064849
0.023046 0.2277 1.024 6.1771e-39 185 354 0 0 0 0.54465 0.476 -0.6905 0.0062203
0.024264 0.22669 1.0249 6.5459e-39 147 354 0 0 0 0.55472 0.47289 -0.68459 0.0062002
-0.026707 0.22859 1.0253 5.7622e-39 173 354 0 0 0 -0.52497 0.58524 -0.61798 0.0068878
0.023065 0.22909 1.0249 6.6381e-39 227 354 0 0 0 0.54457 0.47951 -0.68812 0.0064295
0.024284 0.22808 1.0257 5.7161e-39 186 354 0 0 0 0.55738 0.47812 -0.67877 0.0064162
-0.024907 0.23099 1.0253 5.8083e-39 302.5 354 0 0 0 -0.53508 0.56562 -0.6275 0.0077774
-0.023099 0.23088 1.0249 6.0619e-39 304 354 0 0 0 -0.52748 0.56044 -0.63849 0.0081379
-0.020705 0.23094 1.0251 6.0388e-39 306 354 0 0 0 -0.52674 0.55338 -0.64523 0.0097396
-0.018918 0.23048 1.0257 5.7161e-39 238 354 0 0 0 -0.51501 0.55983 -0.64912 0.011291
0.018853 0.23129 1.024 8.021e-39 394.5 354 0 0 0 0.51144 0.48444 -0.70975 0.005328
0.021267 0.23088 1.0249 7.0991e-39 382 354 0 0 0 0.52918 0.48205 -0.69828 0.0061951
0.015857 0.23249 1.024 5.7161e-39 417 354 0 0 0 0.4874 0.49395 -0.72004 0.0047101
0.01707 0.23268 1.0249 5.8083e-39 418 354 0 0 0 0.50042 0.49519 -0.71019 0.0052741
0.018884 0.23288 1.0257 5.9927e-39 419.5 354 0 0 0 0.51022 0.49432 -0.70379 0.0055663
0.055531 0.1574 1.0266 6.9147e-39 366 335 0 0 0 0.9454 -0.064279 -0.31952 0.04242
0.05678 0.15633 1.0274 5.4395e-39 166 335 0 0 0 0.9505 -0.09966 -0.2943 0.03784
0.051972 0.17557 1.0274 5.9005e-39 469 340 0 0 0 0.81556 0.31599 -0.48478 0.012665
0.047124 0.18383 1.0266 6.2693e-39 435 343 0 0 0 0.82788 0.31695 -0.46277 0.0071669
0.045923 0.18503 1.0266 5.4395e-39 193 344 0 0 0 0.82826 0.31789 -0.46145 0.0076979
0.043521 0.19824 1.0266 2.3049e-39 534 347 0 0 0 0.78747 0.33926 -0.51458 0.010444
-0.04896 0.20184 1.0266 8.1132e-39 409 348 0 0 0 -0.64529 0.38235 -0.66136 0.0096897
-0.04896 0.20304 1.0266 6.1771e-39 496 348 0 0 0 -0.64053 0.40817 -0.65048 0.011881
0.042355 0.20201 1.0274 7.7444e-39 490 348 0 0 0 0.77921 0.35249 -0.51824 0.010546
-0.04896 0.20485 1.0266 5.8544e-39 290.5 349 0 0 0 -0.63633 0.446 -0.62942 0.014164
0.039918 0.20425 1.0266 5.7161e-39 374 349 0 0 0 0.74439 0.37083 -0.55531 0.0090849
0.041153 0.20442 1.0274 5.3473e-39 375 349 0 0 0 0.76447 0.36312 -0.53267 0.0098381
-0.04896 0.20725 1.0266 6.1771e-39 317.5 349.5 0 0 0 -0.61893 0.49872 -0.6068 0.013753
0.037516 0.20785 1.0266 6.2693e-39 235 350 0 0 0 0.69641 0.40096 -0.59519 0.0057109
0.038749 0.20682 1.0274 5.3473e-39 154 350 0 0 0 0.72258 0.39127 -0.5699 0.0067473
-0.050783 0.20854 1.027 6.131e-39 206 350 0 0 0 -0.63435 0.50521 -0.58512 0.014074
-0.04896 0.20905 1.0266 6.8225e-39 244 350 0 0 0 -0.61665 0.51404 -0.59625 0.01295
0.037516 0.20905 1.0266 6.0849e-39 422 350 0 0 0 0.69578 0.40539 -0.59291 0.0050065
-0.046557 0.21145 1.0266 6.3615e-39 502 350 0 0 0 -0.58555 0.55345 -0.59231 0.0086614
0.036736 0.21077 1.0271 5.9927e-39 394 350.33 0 0 0 0.68888 0.40709 -0.59976 0.0040629
-0.042954 0.21265 1.0266 5.9927e-39 197 351 0 0 0 -0.56756 0.55893 -0.60454 0.0071281
-0.04299 0.21403 1.0274 5.9927e-39 383 351 0 0 0 -0.56834 0.56812 -0.59517 0.0065111
0.033913 0.21506 1.0266 6.4537e-39 518 351 0 0 0 0.658 0.42012 -0.62493 0.0030919
0.035143 0.21403 1.0274 5.9927e-39 440 351 0 0 0 0.67105 0.41768 -0.61257 0.0029624
-0.041788 0.21644 1.0274 9.3118e-39 525 351 0 0 0 -0.56519 0.57868 -0.58795 0.0053876
0.033326 0.21695 1.027 5.4395e-39 282.5 352 0 0 0 0.65238 0.42486 -0.62761 0.0032037
-0.036949 0.21866 1.0266 7.1913e-39 384 352 0 0 0 -0.53753 0.58927 -0.60317 0.0047026
-0.035778 0.21884 1.0274 7.7444e-39 385 352 0 0 0 -0.53129 0.59341 -0.60464 0.004647
0.031511 0.21866 1.0266 6.2693e-39 432 352 0 0 0 0.63121 0.43128 -0.64465 0.0038754
0.032739 0.21884 1.0274 6.1771e-39 433 352 0 0 0 0.64405 0.43211 -0.63125 0.0033515
-0.034576 0.22004 1.0274 5.9005e-39 448 352 0 0 0 -0.52232 0.60184 -0.60414 0.0047545
0.031537 0.22004 1.0274 5.9005e-39 500 352 0 0 0 0.63087 0.43879 -0.6399 0.0039801
-0.03276 0.22296 1.027 6.2232e-39 214 353 0 0 0 -0.51915 0.6066 -0.60209 0.0055635
0.030335 0.22245 1.0274 6.0849e-39 233 353 0 0 0 0.62026 0.45027 -0.64229 0.0048052
-0.032172 0.22485 1.0274 8.2976e-39 401 353 0 0 0 -0.52342 0.60767 -0.5973 0.0058644
-0.030944 0.22466 1.0266 8.1132e-39 402 353 0 0 0 -0.51961 0.60433 -0.60398 0.0059349
-0.029743 0.22586 1.0266 6.9147e-39 453 353 0 0 0 -0.52019 0.5983 -0.60945 0.0060646
0.027307 0.22526 1.0266 7.2835e-39 467.5 353 0 0 0 0.58959 0.47442 -0.65369 0.0063136
0.029108 0.22466 1.0266 6.2693e-39 443 353 0 0 0 0.60421 0.46354 -0.64812 0.0054043
-0.03097 0.22605 1.0274 6.7303e-39 452 353 0 0 0 -0.52689 0.60409 -0.59788 0.0064095
0.025505 0.22707 1.0266 6.4537e-39 148 354 0 0 0 0.57262 0.47654 -0.66709 0.0066039
0.02733 0.22665 1.0274 6.9608e-39 321.5 353.5 0 0 0 0.59197 0.48087 -0.64679 0.0065366
0.029133 0.22605 1.0274 7.9288e-39 495 353 0 0 0 0.60619 0.47019 -0.64145 0.0055869
-0.028554 0.22896 1.027 5.7622e-39 171.5 354 0 0 0 -0.53083 0.58955 -0.60881 0.0064604
-0.027341 0.22947 1.0266 5.5317e-39 191 354 0 0 0 -0.53023 0.58374 -0.6149 0.0069406
0.024916 0.22896 1.027 5.8544e-39 207.5 354 0 0 0 0.56806 0.48567 -0.6644 0.0069733
-0.026751 0.23076 1.027 6.6381e-39 231.5 354 0 0 0 -0.53819 0.57232 -0.61871 0.0068118
-0.018933 0.23187 1.0266 5.7161e-39 377 354 0 0 0 -0.51212 0.5601 -0.65117 0.012193
0.023103 0.23067 1.0266 5.6239e-39 369 354 0 0 0 0.5506 0.48619 -0.67858 0.0067006
0.024324 0.23086 1.0274 5.3473e-39 370 354 0 0 0 0.55582 0.48793 -0.67305 0.0067554
-0.026161 0.23206 1.0274 5.2552e-39 371 354 0 0 0 -0.54521 0.56806 -0.61649 0.0078602
-0.024939 0.23307 1.0266 7.4678e-39 399 354 0 0 0 -0.54537 0.56096 -0.62281 0.0087114
-0.023138 0.23307 1.0266 7.8827e-39 400.5 354 0 0 0 -0.53636 0.55812 -0.63311 0.0095996
-0.021336 0.23307 1.0266 8.2054e-39 402 354 0 0 0 -0.52894 0.55773 -0.63965 0.011658
0.020701 0.23307 1.0266 5.9005e-39 421 354 0 0 0 0.52969 0.49942 -0.68557 0.006355
0.023122 0.23206 1.0274 7.56e-39 398 354 0 0 0 0.54773 0.49395 -0.67528 0.0067087
0.055717 0.15672 1.03 5.3473e-39 165 335 0 0 0 0.97237 -0.064691 -0.2243 0.036651
0.047281 0.18565 1.03 5.9927e-39 194 344 0 0 0 0.85461 0.30944 -0.41699 0.0078104
0.046 0.18654 1.0283 5.6239e-39 392 344 0 0 0 0.83551 0.31589 -0.44959 0.0078787
0.046076 0.18806 1.03 1.9361e-39 534 344 0 0 0 0.85081 0.31038 -0.42401 0.007361
0.044815 0.19684 1.0287 6.9147e-39 327 347 0 0 0 0.81282 0.32471 -0.48362 0.0102
0.043593 0.19977 1.0283 6.2693e-39 215 348 0 0 0 0.79562 0.33728 -0.50322 0.010737
0.044834 0.19874 1.0291 2.0283e-39 535 347 0 0 0 0.80866 0.32902 -0.48767 0.010629
0.04363 0.20114 1.0291 7.6522e-39 403 348 0 0 0 0.79426 0.34493 -0.50018 0.01063
0.044871 0.20071 1.03 7.0991e-39 310 348 0 0 0 0.81108 0.33304 -0.48087 0.010985
0.043028 0.20295 1.0292 6.4076e-39 340 348.5 0 0 0 0.78986 0.35091 -0.50297 0.010845
-0.050866 0.20588 1.0287 5.5317e-39 382.5 349 0 0 0 -0.65438 0.47192 -0.59083 0.015419
0.039984 0.20579 1.0283 5.5317e-39 454 349 0 0 0 0.75264 0.37576 -0.54068 0.0083232
0.041222 0.20596 1.0291 5.7161e-39 455 349 0 0 0 0.77428 0.36777 -0.51501 0.0098373
0.042426 0.20476 1.0291 5.163e-39 376 349 0 0 0 0.78164 0.35926 -0.50988 0.010463
-0.050846 0.20699 1.0283 6.1771e-39 462.5 349 0 0 0 -0.64359 0.49082 -0.58727 0.014579
0.040637 0.20725 1.0295 5.4856e-39 155.5 350 0 0 0 0.76127 0.38082 -0.52484 0.0084541
-0.050244 0.2082 1.0283 6.1771e-39 170 350 0 0 0 -0.63346 0.51065 -0.58135 0.014045
0.038781 0.2088 1.0283 6.2232e-39 329.5 350 0 0 0 0.72505 0.39898 -0.56136 0.0058713
0.040653 0.20914 1.03 6.2693e-39 331 350 0 0 0 0.7475 0.39305 -0.53549 0.006284
0.037578 0.2118 1.0283 5.8083e-39 188 351 0 0 0 0.70146 0.40982 -0.5831 0.0039941
0.038814 0.21078 1.0291 6.0849e-39 499 350 0 0 0 0.72244 0.4038 -0.56128 0.0048953
-0.046635 0.21301 1.0283 5.9005e-39 194 351 0 0 0 -0.58602 0.56987 -0.57604 0.0075817
0.036993 0.2131 1.0287 5.163e-39 375.5 351 0 0 0 0.69251 0.41213 -0.5921 0.003076
0.038846 0.21216 1.03 5.5317e-39 189 351 0 0 0 0.72212 0.40631 -0.55987 0.0044567
-0.043026 0.21541 1.0283 6.1771e-39 446 351 0 0 0 -0.57244 0.57821 -0.58137 0.0060331
0.035201 0.21559 1.0291 6.4537e-39 519 351 0 0 0 0.6782 0.42199 -0.60164 0.002623
0.037038 0.21457 1.03 6.4537e-39 441.5 351 0 0 0 0.70566 0.41886 -0.57149 0.0035002
-0.043098 0.21698 1.03 8.5742e-39 524 351 0 0 0 -0.57379 0.59357 -0.56431 0.0054236
-0.040654 0.218 1.0291 5.5317e-39 199 352 0 0 0 -0.56732 0.58946 -0.57506 0.0048174
-0.039417 0.21782 1.0283 5.6239e-39 200 352 0 0 0 -0.56321 0.5845 -0.58408 0.0048067
0.033997 0.218 1.0291 5.0708e-39 374 352 0 0 0 0.66749 0.42695 -0.61005 0.0026586
0.035231 0.21698 1.03 5.9927e-39 193 352 0 0 0 0.68081 0.42545 -0.59623 0.0024021
-0.041893 0.21818 1.03 5.7161e-39 198 352 0 0 0 -0.57369 0.59467 -0.56325 0.0051312
-0.038214 0.21902 1.0283 6.9147e-39 383 352 0 0 0 -0.55107 0.59503 -0.58504 0.0043757
0.034026 0.21939 1.03 6.3615e-39 434 352 0 0 0 0.67136 0.43289 -0.60156 0.0024342
-0.037041 0.22041 1.0291 6.1771e-39 446 352 0 0 0 -0.5391 0.60599 -0.58493 0.0043444
-0.035236 0.22101 1.0292 6.1771e-39 482.5 352 0 0 0 -0.52946 0.61036 -0.58918 0.0046779
0.031563 0.22143 1.0283 5.4395e-39 173 353 0 0 0 0.635 0.44689 -0.63013 0.0039732
0.032779 0.22092 1.0287 5.4395e-39 337.5 352.5 0 0 0 0.64591 0.44207 -0.62239 0.0033873
-0.034633 0.22282 1.0291 6.4537e-39 183 353 0 0 0 -0.52995 0.61297 -0.58602 0.0051762
-0.033402 0.22383 1.0283 5.9005e-39 243 353 0 0 0 -0.52661 0.61197 -0.59006 0.0055025
0.031616 0.223 1.03 5.9005e-39 234 353 0 0 0 0.64195 0.45367 -0.61813 0.0038516
-0.034662 0.22421 1.03 5.5317e-39 242 353 0 0 0 -0.53381 0.61199 -0.58354 0.0054483
-0.033402 0.22504 1.0283 7.6522e-39 400 353 0 0 0 -0.52853 0.61079 -0.58957 0.0058049
0.030398 0.22471 1.0295 7.0991e-39 419.5 353 0 0 0 0.62792 0.46362 -0.62512 0.0045488
-0.032636 0.22689 1.0294 6.8225e-39 466 353 0 0 0 -0.53491 0.60798 -0.58672 0.0062422
-0.031021 0.22763 1.0291 7.0991e-39 498 353 0 0 0 -0.5348 0.60449 -0.5904 0.0067131
-0.029792 0.22744 1.0283 6.3615e-39 499 353 0 0 0 -0.53071 0.60082 -0.5978 0.0067433
0.027977 0.22763 1.0291 5.6239e-39 150 354 0 0 0 0.59986 0.48607 -0.63553 0.0064506
0.029181 0.22763 1.0291 5.6239e-39 151 354 0 0 0 0.61516 0.48158 -0.62423 0.0055044
-0.029817 0.22884 1.0291 5.9005e-39 152 354 0 0 0 -0.53835 0.5975 -0.59428 0.0067934
0.025548 0.22985 1.0283 6.6381e-39 229 354 0 0 0 0.57515 0.49194 -0.6536 0.0068953
0.027364 0.22874 1.0287 5.67e-39 188.5 354 0 0 0 0.59496 0.49164 -0.63586 0.006866
0.026773 0.23004 1.0291 6.9147e-39 230 354 0 0 0 0.59354 0.49808 -0.63215 0.0070941
0.05581 0.15578 1.0317 5.7161e-39 453 334 0 0 0 0.98969 -0.032025 -0.13962 0.033174
0.056969 0.15565 1.0309 5.9005e-39 454 334 0 0 0 0.98897 -0.023193 -0.14632 0.034079
0.058175 0.15565 1.0309 5.8083e-39 455 334 0 0 0 0.98326 -0.067778 -0.16915 0.033805
0.054557 0.15686 1.0309 5.3473e-39 164 335 0 0 0 0.98031 -0.053033 -0.1902 0.036157
0.046153 0.18958 1.0317 6.0849e-39 229 345 0 0 0 0.86127 0.29898 -0.41089 0.0075064
0.043703 0.20389 1.0309 5.4395e-39 190 349 0 0 0 0.79623 0.34868 -0.49441 0.011306
0.044946 0.20286 1.0317 6.4537e-39 492 348 0 0 0 0.81361 0.33324 -0.47644 0.011388
0.043739 0.20527 1.0317 5.163e-39 377 349 0 0 0 0.7957 0.35875 -0.48802 0.011035
0.042515 0.20699 1.0313 6.0388e-39 310 349.5 0 0 0 0.78504 0.36703 -0.499 0.010321
0.042532 0.20889 1.0317 5.7161e-39 239 350 0 0 0 0.78046 0.37767 -0.49824 0.009897
0.040688 0.21113 1.0309 6.2232e-39 500.5 350 0 0 0 0.74793 0.39481 -0.5336 0.0060651
0.038878 0.21354 1.0309 5.0708e-39 377 351 0 0 0 0.72079 0.41192 -0.55748 0.0037446
0.040721 0.21251 1.0317 5.3012e-39 190.5 351 0 0 0 0.74227 0.4025 -0.53574 0.0048323
0.037069 0.21595 1.0309 6.0849e-39 520.5 351 0 0 0 0.7075 0.42269 -0.56637 0.0033002
0.037101 0.21734 1.0317 6.2232e-39 194.5 352 0 0 0 0.70574 0.42737 -0.56505 0.003247
-0.041359 0.21975 1.0317 6.4537e-39 380.5 352 0 0 0 -0.56568 0.61006 -0.55483 0.0044326
-0.039515 0.21957 1.0309 6.8225e-39 382 352 0 0 0 -0.56627 0.60308 -0.56181 0.0041987
0.035275 0.21905 1.0313 5.9467e-39 405 352 0 0 0 0.68054 0.42908 -0.59393 0.0022617
-0.038309 0.22078 1.0309 6.3615e-39 443 352 0 0 0 -0.56169 0.60488 -0.56447 0.0039122
-0.037103 0.22198 1.0309 5.9927e-39 516 352 0 0 0 -0.54951 0.61021 -0.57069 0.0039126
-0.035897 0.22198 1.0309 6.2693e-39 517 352 0 0 0 -0.53577 0.61429 -0.5793 0.0049686
0.034054 0.22078 1.0309 6.0849e-39 502 352 0 0 0 0.67128 0.43723 -0.59851 0.0025893
-0.038341 0.22217 1.0317 5.7161e-39 514 352 0 0 0 -0.56116 0.61049 -0.55893 0.0038823
-0.037134 0.22338 1.0317 5.9927e-39 181 353 0 0 0 -0.55496 0.61142 -0.56408 0.004193
-0.035927 0.22338 1.0317 6.4537e-39 182 353 0 0 0 -0.53927 0.61756 -0.57255 0.0051807
0.032848 0.22319 1.0309 6.2693e-39 235 353 0 0 0 0.65367 0.45148 -0.60735 0.0033748
0.034083 0.22217 1.0317 4.9786e-39 175 353 0 0 0 0.66979 0.44268 -0.59617 0.0026945
-0.034691 0.2256 1.0309 7.4678e-39 399 353 0 0 0 -0.5368 0.61407 -0.57859 0.0059358
0.031642 0.2244 1.0309 8.1132e-39 394 353 0 0 0 0.64172 0.4622 -0.61202 0.0038827
0.032876 0.22458 1.0317 8.1132e-39 395 353 0 0 0 0.6525 0.45939 -0.60266 0.0033621
-0.03472 0.227 1.0317 6.0849e-39 449 353 0 0 0 -0.541 0.61192 -0.57696 0.006427
0.030436 0.22681 1.0309 7.8366e-39 496 353 0 0 0 0.62971 0.47602 -0.61389 0.004469
0.0474 0.18732 1.0326 5.9005e-39 393 344 0 0 0 0.88292 0.28977 -0.36943 0.0068142
0.04744 0.18869 1.0334 1.8439e-39 535 344 0 0 0 0.88094 0.28603 -0.377 0.0070631
0.046192 0.19094 1.0326 8.7586e-39 425 345 0 0 0 0.85866 0.30004 -0.41555 0.0084488
0.046231 0.19594 1.0334 5.7161e-39 139 347 0 0 0 0.87131 0.27898 -0.40372 0.012036
0.046231 0.19715 1.0334 6.2693e-39 228 347 0 0 0 0.8651 0.28975 -0.40946 0.012689
0.046231 0.19836 1.0334 6.5459e-39 428 347 0 0 0 0.86044 0.29612 -0.41467 0.013199
0.046231 0.20138 1.0334 6.9608e-39 311 348 0 0 0 0.8438 0.3119 -0.43672 0.013044
0.045003 0.20492 1.033 5.3012e-39 284.5 349 0 0 0 0.82131 0.34021 -0.45794 0.012005
0.043776 0.20665 1.0326 6.2693e-39 457 349 0 0 0 0.79491 0.36076 -0.48783 0.010894
0.043812 0.20864 1.0334 5.9927e-39 202.5 350 0 0 0 0.79472 0.37185 -0.47974 0.011399
0.043812 0.21045 1.0334 6.5459e-39 426 350 0 0 0 0.78681 0.37765 -0.48817 0.010697
0.042568 0.21269 1.0326 5.3473e-39 192 351 0 0 0 0.76271 0.39538 -0.51181 0.006851
0.038943 0.21511 1.0326 6.6381e-39 443 351 0 0 0 0.72364 0.41266 -0.55322 0.0036571
0.040789 0.21408 1.0334 5.4856e-39 378.5 351 0 0 0 0.74729 0.40147 -0.52951 0.0051452
0.042603 0.21408 1.0334 5.9927e-39 380 351 0 0 0 0.75196 0.39812 -0.52541 0.0054634
0.038976 0.21649 1.0334 6.0849e-39 522 351 0 0 0 0.72067 0.42117 -0.55067 0.0035079
-0.043206 0.21873 1.0326 5.9005e-39 197 352 0 0 0 -0.5761 0.60616 -0.54834 0.0056443
0.037147 0.21882 1.033 5.163e-39 376.5 352 0 0 0 0.70854 0.43037 -0.55924 0.0034725
-0.040824 0.22133 1.0334 6.2693e-39 441 352 0 0 0 -0.56838 0.61491 -0.54665 0.0043885
-0.039615 0.22133 1.0334 6.4537e-39 442 352 0 0 0 -0.56933 0.61237 -0.54851 0.0042247
0.035319 0.22115 1.0326 6.1771e-39 503 352 0 0 0 0.68247 0.43544 -0.58705 0.0024233
0.036558 0.22012 1.0334 7.0069e-39 436 352 0 0 0 0.70285 0.43307 -0.56432 0.0033185
-0.038373 0.22356 1.0326 5.6239e-39 180 353 0 0 0 -0.56856 0.60712 -0.55511 0.0038842
0.034111 0.22356 1.0326 6.5459e-39 236 353 0 0 0 0.66936 0.44705 -0.59339 0.0028438
-0.038406 0.22496 1.0334 5.6239e-39 239 353 0 0 0 -0.5765 0.60379 -0.55053 0.0042231
-0.037165 0.22477 1.0326 5.5317e-39 240 353 0 0 0 -0.56062 0.60806 -0.56212 0.0045208
-0.035957 0.22477 1.0326 5.5317e-39 241 353 0 0 0 -0.54775 0.61575 -0.56641 0.005378
0.031695 0.22598 1.0326 5.9927e-39 447 353 0 0 0 0.64581 0.46972 -0.60191 0.0036874
0.032903 0.22598 1.0326 5.9005e-39 448 353 0 0 0 0.65225 0.46747 -0.59669 0.0033507
-0.037196 0.22617 1.0334 7.7444e-39 397 353 0 0 0 -0.56874 0.60678 -0.55529 0.0044413
-0.035987 0.22617 1.0334 7.56e-39 398 353 0 0 0 -0.5542 0.6154 -0.56049 0.0055717
-0.059059 0.1345 1.0352 6.2693e-39 221 326 0 0 0 0.97348 0.0018624 -0.22878 0.085321
0.046269 0.19308 1.0343 6.4076e-39 191 346 0 0 0 0.88341 0.28154 -0.37459 0.010071
0.046269 0.19489 1.0343 6.4537e-39 431 346 0 0 0 0.88653 0.26323 -0.3805 0.0111
0.047519 0.19748 1.0352 6.4537e-39 229 347 0 0 0 0.89154 0.26209 -0.3694 0.011282
0.047102 0.19944 1.0349 3.2883e-39 500.67 347 0 0 0 0.87478 0.28566 -0.39135 0.012595
0.047519 0.20111 1.0352 6.3615e-39 218 348 0 0 0 0.87295 0.29228 -0.39056 0.012671
0.046269 0.20337 1.0343 6.1771e-39 493 348 0 0 0 0.85154 0.3136 -0.42016 0.014408
0.046308 0.20475 1.0352 5.2552e-39 192 349 0 0 0 0.85743 0.32488 -0.39908 0.013193
0.045059 0.207 1.0343 6.7303e-39 458 349 0 0 0 0.81675 0.35358 -0.45596 0.012451
0.045059 0.20821 1.0343 6.3615e-39 166 350 0 0 0 0.81181 0.36073 -0.45916 0.012547
0.043849 0.21305 1.0343 5.6239e-39 193 351 0 0 0 0.77048 0.39282 -0.50205 0.0081747
0.040824 0.21547 1.0343 6.4998e-39 444.5 351 0 0 0 0.74112 0.40826 -0.53298 0.0044305
0.043886 0.21444 1.0352 6.0849e-39 381 351 0 0 0 0.77194 0.38934 -0.50252 0.0085239
0.039009 0.21789 1.0343 6.1771e-39 196 352 0 0 0 0.71949 0.42606 -0.54846 0.0035597
0.040252 0.21686 1.0352 7.1913e-39 523 351 0 0 0 0.73051 0.41707 -0.54075 0.0038198
0.039041 0.21928 1.0352 5.4395e-39 378 352 0 0 0 0.71985 0.4278 -0.54663 0.0039604
-0.042068 0.22152 1.0343 6.0849e-39 440 352 0 0 0 -0.57043 0.61908 -0.53976 0.0045374
0.037193 0.22092 1.0343 6.3615e-39 470.5 352 0 0 0 0.71051 0.43594 -0.55239 0.0039733
-0.040892 0.22291 1.0352 5.4395e-39 507 352 0 0 0 -0.56561 0.62256 -0.54083 0.0045731
-0.039648 0.22273 1.0343 5.7161e-39 513 352 0 0 0 -0.57265 0.61175 -0.54574 0.0042094
0.035378 0.22273 1.0343 5.0708e-39 176 353 0 0 0 0.68388 0.43949 -0.58237 0.0026127
-0.039681 0.22412 1.0352 5.5317e-39 179 353 0 0 0 -0.58043 0.60613 -0.54379 0.0046055
-0.03847 0.22655 1.0352 8.1132e-39 396 353 0 0 0 -0.58513 0.59997 -0.54558 0.0047083
-0.057896 0.1334 1.036 7.2835e-39 445 325 0 0 0 0.96487 0.02388 -0.26165 0.083267
-0.059158 0.13594 1.0369 7.0991e-39 445 326 0 0 0 0.94874 -0.043207 -0.31308 0.065156
-0.057945 0.13473 1.0369 6.2693e-39 222 326 0 0 0 0.95163 -0.0059885 -0.3072 0.067075
0.056044 0.15522 1.036 5.8083e-39 369 334 0 0 0 -0.95316 -0.26102 -0.1528 0.02363
0.047639 0.19676 1.0378 5.5317e-39 140 347 0 0 0 0.91281 0.22739 -0.33924 0.0095132
-0.043351 0.22068 1.036 5.8083e-39 379 352 0 0 0 -0.56563 0.6214 -0.54215 0.0050852
-0.042139 0.2231 1.036 5.3473e-39 506 352 0 0 0 -0.56548 0.62069 -0.54312 0.0047954
-0.040943 0.22501 1.0365 5.8083e-39 207.5 353 0 0 0 -0.57604 0.61271 -0.54107 0.0053807
-0.039714 0.22552 1.036 5.7161e-39 238 353 0 0 0 -0.58246 0.60589 -0.54189 0.0050636
-0.060524 0.13385 1.0395 7.0069e-39 444 325 0 0 0 0.93663 -0.00061283 -0.35033 0.05671
-0.060473 0.13495 1.0387 6.7303e-39 220 326 0 0 0 0.93904 -0.0092137 -0.34369 0.058263
-0.061132 0.13628 1.0395 7.0069e-39 443.5 326 0 0 0 0.93201 -0.026977 -0.36143 0.05454
-0.056827 0.15075 1.0387 7.3757e-39 428 332 0 0 0 0.94655 -0.215 -0.24045 0.049305
0.056793 0.1544 1.0387 5.3012e-39 165.5 334 0 0 0 -0.88391 -0.35317 -0.30654 0.018052
0.058616 0.1544 1.0387 5.4395e-39 167 334 0 0 0 -0.8915 -0.34433 -0.29437 0.017917
0.046464 0.20787 1.0387 7.0991e-39 459 349 0 0 0 0.87005 0.33201 -0.36439 0.012523
0.046464 0.20908 1.0387 6.0849e-39 167 350 0 0 0 0.8625 0.34614 -0.36916 0.012429
0.046464 0.2103 1.0387 5.5317e-39 241 350 0 0 0 0.85809 0.35333 -0.3726 0.013013
0.037989 0.22264 1.0395 5.6239e-39 505 352 0 0 0 0.72712 0.44113 -0.52602 0.0057684
-0.042245 0.22488 1.0387 4.9786e-39 177 353 0 0 0 -0.57568 0.60704 -0.54781 0.0061658
-0.063009 0.13762 1.0404 6.6381e-39 220 327 0 0 0 0.93222 -0.037832 -0.35992 0.053387
-0.061209 0.13768 1.0409 6.2232e-39 221.5 327 0 0 0 0.92674 -0.028606 -0.37462 0.049328
-0.058189 0.13651 1.0413 7.3757e-39 446 326 0 0 0 0.92179 -0.020221 -0.38716 0.045165
-0.061844 0.14504 1.0413 6.0849e-39 241 330 0 0 0 0.92765 -0.069177 -0.36698 0.047131
0.057546 0.14504 1.0413 6.1771e-39 471 330 0 0 0 -0.84563 -0.29677 -0.44367 0.017089
-0.060981 0.14654 1.0404 5.9005e-39 391.33 330.33 0 0 0 0.93092 -0.082625 -0.35576 0.048161
0.056937 0.14687 1.0413 6.592e-39 340.5 331 0 0 0 -0.84149 -0.30649 -0.44493 0.016657
0.058764 0.14687 1.0413 6.1771e-39 342 331 0 0 0 -0.83864 -0.31658 -0.44325 0.018651
0.056937 0.14931 1.0413 6.9146e-39 312 332 0 0 0 -0.85885 -0.3173 -0.40211 0.023042
0.058764 0.1487 1.0413 5.9005e-39 200 332 0 0 0 -0.84866 -0.31853 -0.42228 0.020664
0.056937 0.15113 1.0413 5.9927e-39 157.5 333 0 0 0 -0.85502 -0.34453 -0.38761 0.022568
0.058764 0.15113 1.0413 5.7161e-39 159 333 0 0 0 -0.86039 -0.33916 -0.38039 0.02332
0.056888 0.15283 1.0404 6.0388e-39 346 333 0 0 0 -0.86522 -0.36201 -0.3469 0.019027
0.058739 0.1529 1.0409 6.6381e-39 410.5 333 0 0 0 -0.85512 -0.37038 -0.36275 0.020157
0.055063 0.15587 1.0404 6.0849e-39 368 334 0 0 0 -0.875 -0.35894 -0.32485 0.018868
0.047759 0.19239 1.0404 8.7586e-39 426 345 0 0 0 0.93501 0.17217 -0.31002 0.0060125
0.0478 0.19621 1.0413 5.9005e-39 432 346 0 0 0 0.93152 0.18114 -0.31537 0.00611
0.047759 0.20578 1.0404 5.5317e-39 193 349 0 0 0 0.8893 0.30162 -0.34375 0.010267
0.039272 0.22179 1.0413 6.4537e-39 438 352 0 0 0 0.75283 0.4629 -0.46794 0.0075943
-0.04357 0.22301 1.0413 6.0849e-39 439 352 0 0 0 -0.56916 0.61255 -0.54848 0.007428
-0.059458 0.13785 1.0422 6.2693e-39 223 327 0 0 0 0.91838 -0.016059 -0.39537 0.041945
-0.063115 0.13907 1.0422 5.9927e-39 464 327 0 0 0 0.92652 -0.034709 -0.37464 0.048933
-0.061312 0.13913 1.0426 5.8544e-39 465.5 327 0 0 0 0.91862 -0.022098 -0.39452 0.042294
-0.064444 0.14052 1.0439 6.2693e-39 225 328 0 0 0 0.92459 -0.038758 -0.379 0.046338
-0.063222 0.14114 1.0439 6.6381e-39 348.5 328 0 0 0 0.9182 -0.030328 -0.39495 0.04094
-0.061948 0.14102 1.043 6.8225e-39 349.5 328 0 0 0 0.91899 -0.030223 -0.39313 0.041563
0.05647 0.14175 1.0439 6.3615e-39 237 329 0 0 0 -0.84067 -0.236 -0.48742 0.0097216
-0.064444 0.14297 1.0439 6.8225e-39 238 329 0 0 0 0.92289 -0.04518 -0.3824 0.04362
-0.063222 0.14297 1.0439 6.8225e-39 239 329 0 0 0 0.91997 -0.0436 -0.38955 0.041544
-0.061541 0.14326 1.043 6.3e-39 318.67 329 0 0 0 0.91862 -0.039009 -0.39322 0.041026
0.057236 0.14326 1.043 6.2386e-39 394.67 329.33 0 0 0 -0.84115 -0.26721 -0.47017 0.01281
-0.063142 0.14461 1.0426 6.0849e-39 357 329.5 0 0 0 0.9242 -0.052579 -0.37828 0.04432
-0.060702 0.14461 1.0426 6.4076e-39 359 329.5 0 0 0 0.91931 -0.044473 -0.39102 0.040813
0.056399 0.14461 1.0426 6.4076e-39 354 330 0 0 0 -0.84904 -0.26539 -0.45683 0.013697
0.055249 0.14724 1.0439 6.7764e-39 339 331 0 0 0 -0.84819 -0.26606 -0.45802 0.013405
-0.059558 0.14907 1.0439 5.9927e-39 457 331 0 0 0 0.92164 -0.065094 -0.38254 0.040359
0.055249 0.14907 1.0439 6.1771e-39 197 332 0 0 0 -0.84513 -0.29151 -0.44809 0.014922
-0.058238 0.15004 1.0422 5.5317e-39 201 332 0 0 0 0.92513 -0.07731 -0.3717 0.043037
-0.057115 0.1503 1.0439 5.5317e-39 202 332 0 0 0 0.92244 -0.062436 -0.38106 0.039041
-0.055894 0.15152 1.0439 7.4678e-39 429 332 0 0 0 0.92244 -0.062436 -0.38106 0.039041
0.055202 0.15078 1.043 6.8685e-39 286.5 332.5 0 0 0 -0.83496 -0.32066 -0.44722 0.017566
0.058814 0.15004 1.0422 7.4678e-39 427 332 0 0 0 -0.84884 -0.31827 -0.4221 0.02014
0.055202 0.15322 1.043 6.1771e-39 344.5 333 0 0 0 -0.84028 -0.33419 -0.4269 0.019985
0.054592 0.15505 1.0431 5.3934e-39 163.5 334 0 0 0 -0.84358 -0.36793 -0.39114 0.021135
0.053371 0.15627 1.0431 6.8225e-39 366.5 334 0 0 0 -0.84097 -0.37684 -0.38827 0.020377
0.0479 0.19479 1.0434 6.1771e-39 192 346 0 0 0 0.94282 0.1427 -0.30122 0.0052468
0.049121 0.2009 1.0434 4.1027e-39 484 347 0 0 0 0.93004 0.18575 -0.31706 0.0066082
-0.064498 0.14187 1.0448 6.0849e-39 470 328 0 0 0 0.91864 -0.034332 -0.3936 0.040788
-0.060831 0.14126 1.0448 6.4537e-39 350.5 328 0 0 0 0.91432 -0.027336 -0.40406 0.036983
0.055343 0.14321 1.0457 6.2693e-39 471 329 0 0 0 -0.85171 -0.21635 -0.47726 0.0089444
0.055319 0.14498 1.0452 6.0388e-39 353 330 0 0 0 -0.84974 -0.25147 -0.46337 0.011179
-0.059634 0.14743 1.0452 5.9927e-39 352 330.5 0 0 0 0.9176 -0.035766 -0.3959 0.036905
-0.058411 0.14865 1.0452 6.1771e-39 344.5 331 0 0 0 0.91688 -0.036191 -0.39753 0.03523
0.054119 0.14872 1.0457 6.4537e-39 324 331.5 0 0 0 -0.85624 -0.25463 -0.44945 0.012111
-0.054765 0.15177 1.0457 7.8366e-39 430 332 0 0 0 0.90994 -0.090961 -0.40465 0.028685
0.052873 0.1511 1.0452 6.6842e-39 284.5 332.5 0 0 0 -0.84401 -0.2985 -0.44558 0.01435
0.054073 0.15103 1.0448 6.9146e-39 285.5 332.5 0 0 0 -0.83975 -0.30814 -0.44707 0.015679
0.052896 0.153 1.0457 6.3615e-39 235 333 0 0 0 -0.84039 -0.31064 -0.44412 0.015912
0.054073 0.15287 1.0448 6.1771e-39 236 333 0 0 0 -0.83705 -0.31735 -0.44568 0.016618
0.05106 0.15544 1.0457 5.9927e-39 160.5 334 0 0 0 -0.83709 -0.3214 -0.4427 0.016686
0.052873 0.15477 1.0452 6.592e-39 306 333.5 0 0 0 -0.83545 -0.3212 -0.44593 0.016944
0.054073 0.15409 1.0448 6.8225e-39 451 333 0 0 0 -0.83545 -0.3212 -0.44593 0.016945
0.049225 0.19949 1.0457 6.4537e-39 230 347 0 0 0 0.94282 0.14346 -0.30085 0.0055661
0.047961 0.20787 1.0448 5.7161e-39 379 349 0 0 0 0.90129 0.29362 -0.31852 0.0096333
0.048002 0.20927 1.0457 7.0069e-39 460 349 0 0 0 0.90131 0.29892 -0.3135 0.0099065
0.048002 0.2105 1.0457 5.8083e-39 168 350 0 0 0 0.90057 0.30297 -0.31173 0.0099854
-0.05976 0.13978 1.0475 5.7161e-39 467 327 0 0 0 0.90953 -0.017452 -0.41528 0.028917
0.055389 0.14088 1.0466 5.8083e-39 469 328 0 0 0 -0.85472 -0.16042 -0.49368 0.0095966
0.055389 0.14211 1.0466 6.2693e-39 236 329 0 0 0 -0.84913 -0.18208 -0.49581 0.0080702
-0.05976 0.14529 1.0475 6.5459e-39 360 329.5 0 0 0 0.91265 -0.020297 -0.40824 0.029635
-0.058485 0.147 1.0466 5.9927e-39 475 330 0 0 0 0.91415 -0.023163 -0.40471 0.030503
0.052985 0.14713 1.0475 6.3615e-39 223 331 0 0 0 -0.85636 -0.23559 -0.4595 0.0090293
0.054165 0.147 1.0466 6.3615e-39 224 331 0 0 0 -0.85248 -0.24783 -0.46028 0.010764
-0.057261 0.14945 1.0466 5.7161e-39 459 331 0 0 0 0.91421 -0.0325 -0.40393 0.030173
0.052963 0.1489 1.047 6.4075e-39 323 331.5 0 0 0 -0.85491 -0.24531 -0.4571 0.010505
0.051738 0.15135 1.047 6.4537e-39 283.5 332.5 0 0 0 -0.84595 -0.27057 -0.45953 0.010793
0.050928 0.15281 1.0472 5.9927e-39 204 333 0 0 0 -0.84091 -0.2851 -0.45999 0.011476
0.051104 0.15435 1.0466 7.9288e-39 448.5 333 0 0 0 -0.83228 -0.29855 -0.4671 0.013371
-0.058634 0.13879 1.0493 6.3615e-39 224 327 0 0 0 0.90501 -0.016811 -0.42505 0.025903
-0.059862 0.1437 1.0493 5.9927e-39 242 329 0 0 0 0.90597 -0.011892 -0.42317 0.0247
-0.058634 0.14492 1.0493 6.8225e-39 478 329 0 0 0 0.90599 -0.011834 -0.42314 0.024227
-0.058584 0.14603 1.0484 6.3615e-39 244 330 0 0 0 0.90724 -0.014389 -0.42036 0.025874
