# .PCD v.7 - Point Cloud Data file format
VERSION .7
FIELDS x y z rgb u v vx vy vz normal_x normal_y normal_z curvature
SIZE 4 4 4 4 4 4 4 4 4 4 4 4 4
TYPE F F F F F F F F F F F F F
COUNT 1 1 1 1 1 1 1 1 1 1 1 1 1
WIDTH 565
HEIGHT 1
VIEWPOINT 0 0 0 1 0 0 0
POINTS 565
DATA ascii
0.32117 0.16736 1.1171 6.3154e-39 399.5 374 0 0 0 0.34442 0.24517 -0.90624 0.0040204
0.32328 0.16679 1.1176 6.6842e-39 282 374 0 0 0 0.3462 0.2354 -0.90815 0.0038312
0.32502 0.16657 1.1176 7.1913e-39 243.67 374 0 0 0 0.34445 0.22987 -0.91023 0.0034867
0.3272 0.16679 1.1176 7.0069e-39 285 374 0 0 0 0.34408 0.22787 -0.91087 0.0033948
0.25136 0.16875 1.1176 6.8225e-39 458 374 0 0 0 -0.90877 0.10143 -0.40477 0.0028619
0.31515 0.1699 1.1166 6.5459e-39 207 375 0 0 0 0.35096 0.27891 -0.89389 0.0044823
0.31645 0.16925 1.1166 6.0388e-39 358 374.5 0 0 0 0.34612 0.27436 -0.89718 0.0043991
0.31873 0.16908 1.1169 6.761e-39 409.67 374.33 0 0 0 0.34347 0.26667 -0.90051 0.0043285
0.32131 0.16875 1.1176 7.1913e-39 511.5 374 0 0 0 0.34218 0.25867 -0.90333 0.0038382
0.32328 0.16875 1.1176 7.7444e-39 513 374 0 0 0 0.33947 0.25119 -0.90646 0.0036112
0.25136 0.17006 1.1176 5.9927e-39 158 375 0 0 0 -0.90898 0.10327 -0.40385 0.0027969
0.31384 0.17121 1.1166 7.7444e-39 440 375 0 0 0 0.35111 0.28702 -0.89126 0.0043911
0.31515 0.17121 1.1166 7.0991e-39 441 375 0 0 0 0.34842 0.28385 -0.89333 0.0042481
0.31674 0.17136 1.1176 6.7303e-39 442 375 0 0 0 0.3389 0.278 -0.89881 0.0041562
0.31848 0.17093 1.1176 6.7918e-39 365.33 375 0 0 0 0.33904 0.2758 -0.89944 0.0041332
0.32153 0.17049 1.1176 7.1913e-39 289.67 375 0 0 0 0.33844 0.26572 -0.90269 0.0039008
0.32328 0.17006 1.1176 6.7303e-39 213 375 0 0 0 0.33812 0.25807 -0.90503 0.0037758
0.31384 0.17252 1.1166 7.7444e-39 548 375 0 0 0 0.34652 0.28854 -0.89256 0.0043868
0.31481 0.17344 1.1169 6.8532e-39 332.67 375.67 0 0 0 0.34163 0.28658 -0.89508 0.0043339
0.31674 0.17333 1.1176 7.1913e-39 388 375.5 0 0 0 0.33757 0.28235 -0.89795 0.0042232
0.3187 0.17333 1.1176 7.2604e-39 390 375.5 0 0 0 0.33393 0.28144 -0.8996 0.0042701
0.31477 0.17529 1.1176 6.8686e-39 456.5 376 0 0 0 0.33858 0.28844 -0.89564 0.0046915
0.31674 0.17529 1.1176 7.6522e-39 458 376 0 0 0 0.33654 0.28851 -0.89638 0.0045845
0.3187 0.17529 1.1176 7.7444e-39 459.5 376 0 0 0 0.33312 0.28725 -0.89806 0.0047925
0.25136 0.17725 1.1176 6.3615e-39 345.5 376.5 0 0 0 -0.90098 0.1079 -0.42023 0.0045231
0.25244 0.17774 1.1166 7.2835e-39 182 377 0 0 0 -0.88803 0.11309 -0.44567 0.0075191
0.30992 0.17774 1.1166 6.8225e-39 230 377 0 0 0 0.35614 0.29874 -0.88539 0.004604
0.31123 0.17709 1.1166 7.2835e-39 393.5 376.5 0 0 0 0.34754 0.29861 -0.88885 0.0044329
0.31253 0.17709 1.1166 7.1451e-39 403 376.5 0 0 0 0.34194 0.29717 -0.8915 0.0043868
0.31499 0.17703 1.1176 7.4986e-39 461.67 376.33 0 0 0 0.33708 0.29334 -0.89461 0.0046189
0.31674 0.17725 1.1176 7.5139e-39 406 376.5 0 0 0 0.33445 0.2921 -0.896 0.0048159
0.25244 0.17905 1.1166 6.2693e-39 408 377 0 0 0 -0.88325 0.11763 -0.45391 0.0083764
0.30992 0.17905 1.1166 7.9288e-39 452 377 0 0 0 0.35405 0.29924 -0.88606 0.0045328
0.31151 0.17921 1.1176 7.7444e-39 453 377 0 0 0 0.34296 0.29699 -0.89116 0.0044767
0.31253 0.17905 1.1166 7.3757e-39 454 377 0 0 0 0.33981 0.29719 -0.8923 0.0044169
0.25256 0.18109 1.1171 6.5459e-39 339.5 377.5 0 0 0 -0.88348 0.11987 -0.45287 0.0082887
0.30339 0.18166 1.1166 6.0849e-39 217 378 0 0 0 0.37543 0.32671 -0.86736 0.0054587
0.30535 0.18166 1.1166 6.3615e-39 218.5 378 0 0 0 0.36573 0.31259 -0.87666 0.0052188
0.30731 0.18101 1.1166 7.0991e-39 383 377.5 0 0 0 0.36204 0.30387 -0.88124 0.0048472
0.30905 0.18079 1.1166 7.3756e-39 439 377.33 0 0 0 0.35351 0.29992 -0.88605 0.0045901
0.31107 0.18139 1.1176 6.8839e-39 332 377.67 0 0 0 0.34296 0.2947 -0.89193 0.0043083
0.31282 0.18117 1.1176 6.9608e-39 387.5 377.5 0 0 0 0.33839 0.2987 -0.89234 0.0046306
0.25267 0.18313 1.1176 7.1913e-39 406 378 0 0 0 -0.88062 0.1232 -0.45753 0.0078267
0.30339 0.18297 1.1166 8.021e-39 445 378 0 0 0 0.3695 0.32657 -0.86996 0.0057454
0.30535 0.18297 1.1166 7.5601e-39 446.5 378 0 0 0 0.36179 0.31483 -0.87749 0.0053643
0.30759 0.18313 1.1176 6.9147e-39 448 378 0 0 0 0.35599 0.3034 -0.88387 0.0048769
0.30889 0.18313 1.1176 7.0069e-39 449 378 0 0 0 0.34768 0.29658 -0.88947 0.004211
0.3102 0.18313 1.1176 7.6522e-39 450 378 0 0 0 0.34735 0.2975 -0.88929 0.0045328
0.31282 0.18313 1.1176 7.8366e-39 452 378 0 0 0 0.33918 0.29511 -0.89324 0.0045572
0.25267 0.18509 1.1176 6.5459e-39 340 378.5 0 0 0 -0.87538 0.13653 -0.46376 0.0078094
0.30078 0.18558 1.1166 6.4537e-39 223 379 0 0 0 0.37267 0.35028 -0.85932 0.0063289
0.30339 0.18492 1.1166 7.1913e-39 383.5 378.5 0 0 0 0.36093 0.33139 -0.87173 0.0058535
0.30542 0.18497 1.1169 7.3757e-39 389 378.5 0 0 0 0.35545 0.31512 -0.87998 0.0053083
0.30759 0.18509 1.1176 7.4679e-39 390.5 378.5 0 0 0 0.34733 0.30333 -0.88733 0.0046811
0.30889 0.18444 1.1176 7.56e-39 546 378 0 0 0 0.34503 0.29869 -0.8898 0.0043282
0.3102 0.18444 1.1176 7.7444e-39 547 378 0 0 0 0.34118 0.29457 -0.89265 0.0043886
0.25267 0.18706 1.1176 6.8225e-39 410 379 0 0 0 -0.86871 0.15431 -0.47067 0.0083977
0.30078 0.18689 1.1166 7.4678e-39 447 379 0 0 0 0.36738 0.34883 -0.86218 0.0063217
0.30287 0.18698 1.1171 7.1452e-39 448.5 379 0 0 0 0.34983 0.33063 -0.87653 0.005875
0.30497 0.18706 1.1176 7.3757e-39 450 379 0 0 0 0.34557 0.31803 -0.88286 0.005423
0.30694 0.18706 1.1176 7.4679e-39 451.5 379 0 0 0 0.3414 0.30747 -0.8882 0.0048453
0.25267 0.18902 1.1176 6.131e-39 347 379.5 0 0 0 -0.86158 0.16306 -0.48073 0.0089508
0.29947 0.18885 1.1166 7.2374e-39 390 379.5 0 0 0 0.37106 0.35684 -0.85731 0.0066663
0.30105 0.18902 1.1176 7.4218e-39 391 379.5 0 0 0 0.34891 0.3391 -0.87366 0.0065033
0.30287 0.18893 1.1171 7.5369e-39 392.5 379.5 0 0 0 0.34537 0.33202 -0.87777 0.0062307
0.30628 0.18902 1.1176 7.4679e-39 395 379.5 0 0 0 0.33501 0.31 -0.88976 0.0048962
0.25321 0.19089 1.1171 6.9608e-39 396.5 380 0 0 0 -0.84394 0.18322 -0.50417 0.011491
0.29895 0.19089 1.1171 7.8366e-39 431.5 380 0 0 0 0.3662 0.35329 -0.86086 0.0069934
0.30105 0.19098 1.1176 7.56e-39 433 380 0 0 0 0.34327 0.33323 -0.87813 0.0067197
0.30236 0.19098 1.1176 7.0069e-39 434 380 0 0 0 0.33673 0.32802 -0.88262 0.0062984
0.30628 0.19098 1.1176 6.5459e-39 437 380 0 0 0 0.3293 0.30792 -0.89261 0.0047931
0.25339 0.19261 1.1169 7.4371e-39 486.33 380 0 0 0 -0.82813 0.21376 -0.51818 0.01463
0.29895 0.19285 1.1171 6.6612e-39 326 380.5 0 0 0 0.36052 0.3518 -0.86387 0.0073296
0.30236 0.19229 1.1176 7.7444e-39 507 380 0 0 0 0.33361 0.32505 -0.8849 0.0065627
0.25375 0.19472 1.1166 5.3473e-39 171 381 0 0 0 -0.80668 0.2309 -0.54401 0.017703
0.29816 0.19472 1.1166 6.2693e-39 205 381 0 0 0 0.36307 0.36047 -0.85921 0.0076343
0.25375 0.19669 1.1166 6.7303e-39 314 381 0 0 0 -0.798 0.24116 -0.5523 0.020019
0.29137 0.19702 1.1173 7.0683e-39 369.67 381 0 0 0 0.39852 0.42271 -0.81394 0.00567
0.29307 0.19678 1.1171 6.7303e-39 344 381 0 0 0 0.39596 0.41476 -0.81926 0.0060312
0.29503 0.19678 1.1171 6.6381e-39 345.5 381 0 0 0 0.38589 0.40124 -0.83072 0.0068965
0.29699 0.19678 1.1171 6.7303e-39 347 381 0 0 0 0.3672 0.38384 -0.84725 0.0074843
0.29843 0.19686 1.1176 6.6842e-39 348 381 0 0 0 0.34961 0.3625 -0.86393 0.0078077
0.25375 0.19864 1.1166 7.4678e-39 431 381 0 0 0 -0.78682 0.25836 -0.5605 0.022779
0.28771 0.19995 1.1166 7.3757e-39 489 381 0 0 0 0.40048 0.45006 -0.79816 0.0036984
0.28902 0.19864 1.1166 8.5742e-39 458 381 0 0 0 0.39929 0.43888 -0.80496 0.0045987
0.29124 0.19882 1.1176 8.0671e-39 459.5 381 0 0 0 0.39497 0.43302 -0.81024 0.0055668
0.2932 0.19882 1.1176 7.56e-39 461 381 0 0 0 0.39017 0.42072 -0.819 0.0064521
0.29451 0.19882 1.1176 7.9288e-39 462 381 0 0 0 0.38486 0.41665 -0.82358 0.0069638
0.28706 0.20126 1.1166 9.2195e-39 517.5 381 0 0 0 0.3997 0.45924 -0.79331 0.0034864
0.28928 0.20013 1.1176 7.0991e-39 490 381 0 0 0 0.39731 0.44814 -0.80082 0.0045649
0.2551 0.07998 1.1196 5.5317e-39 202.5 332 0 0 0 -0.29095 -0.88554 -0.36218 0.025787
0.25706 0.07998 1.1196 5.3473e-39 204 332 0 0 0 -0.25139 -0.90391 -0.34604 0.022136
0.25903 0.07998 1.1196 5.6239e-39 205.5 332 0 0 0 -0.20517 -0.91927 -0.33593 0.016993
0.26075 0.079908 1.1186 6.1771e-39 207 332 0 0 0 -0.1589 -0.92937 -0.33319 0.014951
0.26266 0.079083 1.1193 7.4678e-39 318.33 331.33 0 0 0 -0.099786 -0.94329 -0.31662 0.0095179
0.26729 0.079908 1.1186 5.4395e-39 212 332 0 0 0 0.0018686 -0.94393 -0.33014 0.0088803
0.26885 0.07998 1.1196 5.7161e-39 213 332 0 0 0 0.028964 -0.9403 -0.33911 0.0084271
0.27016 0.07998 1.1196 6.0849e-39 214 332 0 0 0 0.042431 -0.93654 -0.34798 0.0081042
0.30421 0.07998 1.1196 6.5459e-39 248 332 0 0 0 -0.070951 -0.916 -0.39486 0.0066321
0.30683 0.07998 1.1196 5.9927e-39 250 332 0 0 0 -0.059694 -0.91178 -0.40632 0.0091505
0.30945 0.07998 1.1196 6.0849e-39 252 332 0 0 0 -0.047247 -0.90493 -0.42292 0.011507
0.31101 0.079495 1.1189 6.4844e-39 305.67 331.67 0 0 0 -0.036066 -0.9001 -0.43419 0.013135
0.31207 0.07867 1.1196 5.9005e-39 411 331 0 0 0 -0.039844 -0.89433 -0.44564 0.013903
0.34613 0.07998 1.1196 5.6239e-39 394 332 0 0 0 0.088012 -0.85108 -0.51761 0.037023
0.34974 0.079908 1.1186 6.4537e-39 397 332 0 0 0 0.17748 -0.82293 -0.53971 0.048915
0.35137 0.07867 1.1196 6.7303e-39 441 331 0 0 0 0.18659 -0.83786 -0.513 0.050079
0.35317 0.078635 1.1191 5.9927e-39 442.5 331 0 0 0 0.2239 -0.82428 -0.52004 0.055492
0.25421 0.081216 1.1186 6.0849e-39 443 332 0 0 0 -0.34245 -0.85809 -0.38264 0.032478
0.27253 0.081216 1.1186 6.9147e-39 457 332 0 0 0 0.079494 -0.92956 -0.36 0.006035
0.27409 0.08129 1.1196 7.0069e-39 458 332 0 0 0 0.093202 -0.92606 -0.36569 0.0055058
0.29897 0.08129 1.1196 5.7161e-39 196 333 0 0 0 -0.077497 -0.92036 -0.38331 0.004188
0.30001 0.081216 1.1186 6.0849e-39 197 333 0 0 0 -0.07402 -0.9237 -0.3759 0.0043218
0.30525 0.081216 1.1186 5.8083e-39 201 333 0 0 0 -0.057317 -0.9189 -0.39031 0.0081027
0.30786 0.081216 1.1186 5.5317e-39 203 333 0 0 0 -0.046114 -0.91246 -0.40655 0.010292
0.3131 0.081216 1.1186 6.2693e-39 207 333 0 0 0 -0.01425 -0.89055 -0.45467 0.014213
0.31441 0.081216 1.1186 6.1771e-39 208 333 0 0 0 -0.0055052 -0.88497 -0.46561 0.01445
0.316 0.08129 1.1196 6.2693e-39 209 333 0 0 0 -0.0060993 -0.87801 -0.4786 0.014088
0.31927 0.08129 1.1196 5.5778e-39 211.5 333 0 0 0 0.0014349 -0.8604 -0.50962 0.013078
0.33303 0.08129 1.1196 5.3473e-39 222 333 0 0 0 -0.010881 -0.86489 -0.50184 0.015487
0.335 0.08129 1.1196 5.5317e-39 223.5 333 0 0 0 -0.012878 -0.86909 -0.49448 0.017156
0.33746 0.081253 1.1191 5.9005e-39 225.5 333 0 0 0 -0.01542 -0.87186 -0.48952 0.019253
0.3422 0.08129 1.1196 5.4395e-39 229 333 0 0 0 0.034064 -0.8568 -0.51452 0.028268
0.24504 0.083834 1.1186 6.1771e-39 231 334 0 0 0 -0.65403 -0.58406 -0.48075 0.044725
0.24658 0.0826 1.1196 5.8083e-39 396 333 0 0 0 -0.5749 -0.67679 -0.45984 0.043901
0.24897 0.083834 1.1186 5.7161e-39 234 334 0 0 0 -0.56438 -0.68495 -0.46078 0.045889
0.25028 0.083834 1.1186 5.8083e-39 235 334 0 0 0 -0.5258 -0.72129 -0.45087 0.044563
0.2529 0.082525 1.1186 5.3473e-39 401 333 0 0 0 -0.41328 -0.81262 -0.41091 0.039739
0.2813 0.0826 1.1196 6.4076e-39 422.5 333 0 0 0 0.095017 -0.91867 -0.38343 0.005463
0.283 0.083834 1.1186 8.1132e-39 383 334 0 0 0 0.077235 -0.92643 -0.36846 0.0060844
0.28587 0.0826 1.1196 5.8083e-39 426 333 0 0 0 0.044174 -0.92123 -0.38649 0.0065562
0.28914 0.0826 1.1196 5.9927e-39 429.5 333 0 0 0 -0.00045141 -0.92307 -0.38462 0.0060853
0.29085 0.082525 1.1186 6.7303e-39 431 333 0 0 0 -0.019294 -0.92939 -0.36859 0.0055262
0.29242 0.0826 1.1196 6.9147e-39 432 333 0 0 0 -0.037283 -0.92376 -0.38115 0.0050854
0.29504 0.0826 1.1196 7.1913e-39 434 333 0 0 0 -0.059671 -0.92312 -0.37986 0.0045912
0.29609 0.082525 1.1186 7.3757e-39 435 333 0 0 0 -0.06853 -0.92681 -0.36923 0.0040696
0.31703 0.082525 1.1186 6.5459e-39 451 333 0 0 0 0.0087195 -0.87251 -0.48851 0.013976
0.31898 0.082525 1.1186 5.9466e-39 452.5 333 0 0 0 0.0063144 -0.86563 -0.50064 0.013255
0.32095 0.083834 1.1186 5.7161e-39 412 334 0 0 0 0.00026324 -0.866 -0.50004 0.013233
0.32289 0.083448 1.1193 6.2693e-39 427.33 333.67 0 0 0 -0.0036653 -0.8561 -0.5168 0.013049
0.32517 0.08391 1.1196 6.2693e-39 415 334 0 0 0 -0.017617 -0.85508 -0.5182 0.013958
0.32713 0.08391 1.1196 5.9005e-39 416.5 334 0 0 0 -0.019821 -0.85716 -0.51467 0.013913
0.32895 0.083217 1.1191 5.8083e-39 439 333.5 0 0 0 -0.014944 -0.85945 -0.511 0.014454
0.33092 0.083217 1.1191 5.6008e-39 291 334 0 0 0 -0.013982 -0.85927 -0.51134 0.014753
0.33288 0.083217 1.1191 5.4395e-39 292.5 334 0 0 0 -0.014216 -0.86072 -0.50888 0.015556
0.33469 0.082525 1.1186 5.163e-39 165.5 334 0 0 0 -0.016864 -0.85834 -0.51281 0.015874
0.24504 0.085143 1.1186 6.1771e-39 169 335 0 0 0 -0.67069 -0.56186 -0.48423 0.045891
0.24352 0.087403 1.1196 7.8674e-39 390.67 335.67 0 0 0 -0.75348 -0.43559 -0.49247 0.04217
0.24319 0.089109 1.1191 5.5317e-39 203.5 337 0 0 0 -0.78844 -0.36593 -0.49443 0.038118
0.2432 0.091073 1.1191 5.9466e-39 342.5 337.5 0 0 0 -0.82055 -0.29263 -0.49099 0.031512
0.24319 0.093037 1.1191 5.5317e-39 163.5 339 0 0 0 -0.84648 -0.23916 -0.47567 0.027952
0.24309 0.094958 1.1186 6.1771e-39 297 339.5 0 0 0 -0.8634 -0.17753 -0.47225 0.021891
0.24243 0.096921 1.1186 5.9005e-39 419 340 0 0 0 -0.87946 -0.11822 -0.46105 0.016115
0.24243 0.098884 1.1186 5.8544e-39 349 341 0 0 0 -0.89075 -0.069104 -0.4492 0.01126
0.24243 0.10085 1.1186 6.2693e-39 399 342 0 0 0 -0.89691 -0.022833 -0.44163 0.0064004
0.24265 0.10291 1.1196 5.4856e-39 344 343 0 0 0 -0.90028 0.017433 -0.43496 0.0043726
0.36545 0.10347 1.1186 6.0849e-39 253 344 0 0 0 0.43888 0.21567 -0.87228 0.0091499
0.24265 0.10487 1.1196 6.1771e-39 402 344 0 0 0 -0.90181 0.044303 -0.42985 0.0036625
0.36283 0.10477 1.1186 5.9005e-39 188 345 0 0 0 0.43024 0.23475 -0.87166 0.0083245
0.36479 0.10477 1.1186 5.5317e-39 189.5 345 0 0 0 0.42606 0.22373 -0.87659 0.009307
0.24319 0.10678 1.1191 7.6983e-39 347.5 345 0 0 0 -0.9014 0.057904 -0.4291 0.0035187
0.36316 0.10684 1.1196 6.2232e-39 342 345.5 0 0 0 0.40949 0.22997 -0.88285 0.0088032
0.36513 0.10618 1.1196 6.1771e-39 435.5 345 0 0 0 0.41369 0.22075 -0.88325 0.0092234
0.24374 0.1087 1.1186 6.3615e-39 412 346 0 0 0 -0.90256 0.066127 -0.42545 0.0033586
0.36152 0.1087 1.1186 5.8083e-39 191 347 0 0 0 0.4097 0.23737 -0.88079 0.0076348
0.24374 0.11066 1.1186 5.8544e-39 192.5 347.5 0 0 0 -0.90431 0.076269 -0.42 0.0029064
0.3576 0.11132 1.1186 7.0991e-39 379 348 0 0 0 0.41351 0.25168 -0.87502 0.0065958
0.36103 0.11072 1.1191 6.7072e-39 414.5 347.5 0 0 0 0.39574 0.24127 -0.8861 0.0068876
0.24396 0.11273 1.1196 6.2693e-39 423 348 0 0 0 -0.90584 0.084765 -0.41506 0.0024268
0.3576 0.11329 1.1186 6.7303e-39 323 349 0 0 0 0.40437 0.25586 -0.87808 0.0062725
0.35891 0.11329 1.1186 7.2374e-39 324 349 0 0 0 0.39421 0.25399 -0.88323 0.0062453
0.36119 0.11273 1.1196 7.6061e-39 200.5 349 0 0 0 0.38243 0.24306 -0.89144 0.0064397
0.24396 0.11469 1.1196 5.5779e-39 193 349.5 0 0 0 -0.9067 0.092072 -0.4116 0.0022363
0.3576 0.11524 1.1186 6.5459e-39 387 350 0 0 0 0.3946 0.25584 -0.88252 0.0059602
0.35891 0.11524 1.1186 6.5459e-39 388 350 0 0 0 0.38148 0.24946 -0.89008 0.005815
0.36119 0.1147 1.1196 6.6381e-39 420 349.5 0 0 0 0.36739 0.24217 -0.89799 0.005826
0.24396 0.11731 1.1196 6.3615e-39 337.5 350.5 0 0 0 -0.90896 0.092736 -0.40643 0.0022341
0.35738 0.1175 1.1193 6.6074e-39 375.67 351 0 0 0 0.37562 0.24984 -0.89246 0.005445
0.35891 0.1172 1.1186 6.9146e-39 333 351 0 0 0 0.36853 0.2481 -0.8959 0.0054616
0.36054 0.11731 1.1196 6.9608e-39 334 351 0 0 0 0.35578 0.24117 -0.90291 0.0052835
0.24396 0.11928 1.1196 6.1771e-39 183 352 0 0 0 -0.91059 0.09256 -0.40281 0.002276
0.35711 0.11923 1.1191 7.0991e-39 408.5 352 0 0 0 0.37136 0.24452 -0.89571 0.0050958
0.35891 0.11917 1.1186 6.5459e-39 410 352 0 0 0 0.3643 0.24335 -0.89893 0.0050118
0.36054 0.11928 1.1196 6.6381e-39 411 352 0 0 0 0.35196 0.23704 -0.9055 0.0048452
0.24396 0.12124 1.1196 7.0069e-39 423.5 352.5 0 0 0 -0.91196 0.089354 -0.40043 0.0022408
0.35302 0.12179 1.1186 9.7265e-39 481.5 353 0 0 0 0.38923 0.24342 -0.8884 0.0049886
0.35498 0.12179 1.1186 1.0695e-38 483 353 0 0 0 0.3809 0.24083 -0.8927 0.004833
0.35711 0.12119 1.1191 6.3384e-39 184.25 353.5 0 0 0 0.36894 0.23894 -0.89822 0.0046774
0.35923 0.12124 1.1196 6.131e-39 186 353.5 0 0 0 0.35557 0.234 -0.90488 0.0042728
0.36054 0.12124 1.1196 6.4997e-39 187 353.5 0 0 0 0.34967 0.23395 -0.90719 0.0043932
0.24396 0.12321 1.1196 6.2693e-39 201 354 0 0 0 -0.91303 0.086936 -0.39853 0.0023288
0.35302 0.1231 1.1186 6.8686e-39 427.5 354 0 0 0 0.38796 0.24235 -0.88924 0.0048239
0.35498 0.1231 1.1186 6.4537e-39 429 354 0 0 0 0.37711 0.23725 -0.89527 0.0045407
0.35661 0.12321 1.1196 6.1771e-39 430 354 0 0 0 0.36724 0.23335 -0.90038 0.0043118
0.24396 0.12517 1.1196 6.5459e-39 445 354.5 0 0 0 -0.91344 0.086772 -0.39762 0.0024329
0.34974 0.12571 1.1186 6.0849e-39 149 356 0 0 0 0.38521 0.23994 -0.89109 0.0040788
0.35105 0.12506 1.1186 6.0849e-39 195.5 355.5 0 0 0 0.38204 0.23825 -0.89291 0.0040909
0.35325 0.12515 1.1194 6.1771e-39 197.5 355.5 0 0 0 0.37876 0.23029 -0.89639 0.0038254
0.35514 0.12512 1.1191 6.4537e-39 204 355.5 0 0 0 0.37377 0.22832 -0.89898 0.0039845
0.35661 0.12452 1.1196 7.1913e-39 244 355 0 0 0 0.36348 0.2258 -0.90382 0.0037976
0.24396 0.12714 1.1196 6.1771e-39 233 356 0 0 0 -0.91404 0.085027 -0.3966 0.002589
0.34974 0.12702 1.1186 6.4537e-39 443 356 0 0 0 0.3834 0.23956 -0.89197 0.0038923
0.35137 0.12714 1.1196 6.7303e-39 444 356 0 0 0 0.37553 0.2318 -0.89735 0.0035147
0.35399 0.12714 1.1196 6.9147e-39 446 356 0 0 0 0.37182 0.22728 -0.90005 0.003429
0.3553 0.12714 1.1196 6.4537e-39 447 356 0 0 0 0.36734 0.22453 -0.90258 0.0034669
0.24396 0.12845 1.1196 5.4395e-39 142 357 0 0 0 -0.91486 0.086019 -0.39451 0.0027165
0.34713 0.12899 1.1186 5.9005e-39 296 357.5 0 0 0 0.38155 0.24528 -0.89121 0.0037456
0.34909 0.12899 1.1186 5.7852e-39 297.5 357.5 0 0 0 0.37522 0.23965 -0.89542 0.0036151
0.35137 0.12845 1.1196 5.9005e-39 393 357 0 0 0 0.37193 0.23341 -0.89843 0.0034312
0.35399 0.12911 1.1196 6.0849e-39 301 357.5 0 0 0 0.36883 0.2316 -0.90018 0.0033096
0.24504 0.13095 1.1186 6.0849e-39 394 358 0 0 0 -0.91615 0.086406 -0.39141 0.0029757
0.34582 0.13095 1.1186 5.9005e-39 481 358 0 0 0 0.38545 0.25178 -0.88772 0.0032393
0.34713 0.13095 1.1186 5.3473e-39 482 358 0 0 0 0.37653 0.24822 -0.89253 0.0035171
0.34844 0.13095 1.1186 5.163e-39 483 358 0 0 0 0.37365 0.2468 -0.89413 0.0034618
0.35006 0.13107 1.1196 5.8083e-39 484 358 0 0 0 0.36939 0.24249 -0.89708 0.0032348
0.24504 0.13291 1.1186 6.8224e-39 347.5 359 0 0 0 -0.91544 0.086201 -0.39311 0.0030482
0.24635 0.13357 1.1186 9.4961e-39 489 359 0 0 0 -0.91537 0.088348 -0.3928 0.003075
0.34582 0.13291 1.1186 6.8225e-39 412 359.5 0 0 0 0.38235 0.25128 -0.88919 0.003036
0.34744 0.13304 1.1196 6.5459e-39 416 359.5 0 0 0 0.37261 0.24942 -0.89384 0.0031254
0.34875 0.13304 1.1196 6.9608e-39 417 359.5 0 0 0 0.3695 0.24602 -0.89607 0.003087
0.35006 0.13304 1.1196 7.1452e-39 418 359.5 0 0 0 0.36764 0.2467 -0.89665 0.0032003
0.24504 0.13488 1.1186 7.3757e-39 446 360 0 0 0 -0.91524 0.085999 -0.39362 0.0031708
0.24635 0.13488 1.1186 6.9147e-39 447 360 0 0 0 -0.91551 0.086859 -0.39281 0.0031448
0.34582 0.13488 1.1186 5.9927e-39 199 361 0 0 0 0.38038 0.25403 -0.88926 0.002757
0.34744 0.135 1.1196 5.7161e-39 200 361 0 0 0 0.36962 0.25308 -0.89405 0.0029687
0.34875 0.135 1.1196 5.4395e-39 201 361 0 0 0 0.37039 0.255 -0.89319 0.0030996
0.35006 0.135 1.1196 5.5317e-39 202 361 0 0 0 0.37041 0.25591 -0.89292 0.0032801
0.24527 0.13697 1.1196 6.3154e-39 304 361.5 0 0 0 -0.91282 0.089429 -0.39846 0.0030253
0.24635 0.13684 1.1186 6.4537e-39 305 361.5 0 0 0 -0.91491 0.089693 -0.39357 0.0030228
0.34517 0.13684 1.1186 7.7214e-39 457 361.5 0 0 0 0.37996 0.25803 -0.88828 0.0028159
0.34744 0.13697 1.1196 7.2374e-39 458.5 361.5 0 0 0 0.37211 0.25836 -0.89151 0.0030687
0.34875 0.13631 1.1196 7.1913e-39 484 361 0 0 0 0.36955 0.25581 -0.8933 0.0031995
0.35006 0.13631 1.1196 6.5459e-39 485 361 0 0 0 0.37195 0.25766 -0.89178 0.0033288
0.24527 0.13893 1.1196 6.5459e-39 485 362 0 0 0 -0.91214 0.094913 -0.39874 0.0029157
0.24658 0.13893 1.1196 5.9927e-39 486 362 0 0 0 -0.91258 0.094422 -0.39785 0.0028516
0.34451 0.1388 1.1186 6.6381e-39 250 363 0 0 0 0.37596 0.25951 -0.88956 0.0029504
0.34679 0.13893 1.1196 6.8686e-39 251.5 363 0 0 0 0.37414 0.2609 -0.88992 0.003081
0.24658 0.1409 1.1196 6.8225e-39 341 363.5 0 0 0 -0.91206 0.098785 -0.39798 0.0027984
0.34189 0.14142 1.1186 6.9147e-39 451 364 0 0 0 0.37435 0.26042 -0.88997 0.0035242
0.3432 0.14142 1.1186 6.6381e-39 452 364 0 0 0 0.37479 0.25845 -0.89036 0.0032985
0.34451 0.14077 1.1186 6.6381e-39 302 364 0 0 0 0.37424 0.25817 -0.89067 0.0030913
0.34657 0.14068 1.1196 7.0991e-39 253 364 0 0 0 0.38001 0.2632 -0.88675 0.0032502
0.24766 0.14273 1.1186 7.56e-39 585 364 0 0 0 -0.91395 0.10189 -0.39284 0.002825
0.34123 0.14273 1.1186 7.0991e-39 247.5 365 0 0 0 0.37271 0.25913 -0.89103 0.0035648
0.3432 0.14273 1.1186 6.9147e-39 249 365 0 0 0 0.37342 0.26013 -0.89044 0.0035961
0.34482 0.14286 1.1196 6.5459e-39 250 365 0 0 0 0.37937 0.26296 -0.88709 0.0035921
0.34613 0.14286 1.1196 6.5459e-39 251 365 0 0 0 0.38332 0.26694 -0.8842 0.0039868
0.24777 0.14476 1.1191 6.7303e-39 326 365.5 0 0 0 -0.91305 0.10139 -0.39504 0.0029256
0.24897 0.14535 1.1186 6.1771e-39 218 366 0 0 0 -0.91512 0.10207 -0.39005 0.0028539
0.33666 0.14535 1.1186 6.1771e-39 416 366 0 0 0 0.36842 0.25534 -0.89391 0.0038693
0.33927 0.14469 1.1186 5.8083e-39 499 365.5 0 0 0 0.36953 0.25616 -0.89321 0.0039032
0.34073 0.14476 1.1191 6.131e-39 500 365.5 0 0 0 0.37188 0.25381 -0.89291 0.0039393
0.34286 0.14417 1.1196 7.053e-39 582.5 365 0 0 0 0.37661 0.25879 -0.88949 0.0039332
0.34482 0.14417 1.1196 7.4678e-39 584 365 0 0 0 0.38243 0.26391 -0.88549 0.004243
0.24789 0.14679 1.1196 7.3757e-39 475 366 0 0 0 -0.91188 0.10033 -0.39801 0.0030319
0.24897 0.14731 1.1186 6.8686e-39 360 366.5 0 0 0 -0.91391 0.1021 -0.39287 0.002937
0.33731 0.14731 1.1186 7.1682e-39 313.5 367 0 0 0 0.37041 0.24642 -0.89559 0.0043166
0.33927 0.14731 1.1186 7.0069e-39 315 367 0 0 0 0.37439 0.24869 -0.8933 0.0046887
0.34089 0.14679 1.1196 7.0069e-39 189 367 0 0 0 0.37948 0.25477 -0.88943 0.0050618
0.24789 0.14875 1.1196 5.5318e-39 369.5 367 0 0 0 -0.91025 0.099548 -0.40192 0.0030733
0.24897 0.14927 1.1186 5.4395e-39 497 367 0 0 0 -0.91321 0.10059 -0.39489 0.0028877
0.33273 0.14927 1.1186 7.1913e-39 196 368 0 0 0 0.36963 0.23805 -0.89817 0.0041237
0.33666 0.14927 1.1186 6.3615e-39 199 368 0 0 0 0.37215 0.24023 -0.89654 0.0047043
0.33893 0.14941 1.1196 6.1771e-39 200.5 368 0 0 0 0.38116 0.24694 -0.89092 0.0055594
0.34089 0.14875 1.1196 6.7303e-39 322.5 367.5 0 0 0 0.38263 0.25081 -0.8892 0.0056653
0.24789 0.15072 1.1196 7.3757e-39 253 368 0 0 0 -0.90928 0.099578 -0.40409 0.0030314
0.24897 0.15123 1.1186 6.0388e-39 414 368 0 0 0 -0.91219 0.10065 -0.39721 0.0028093
0.33273 0.15123 1.1186 7.053e-39 322 368.5 0 0 0 0.36447 0.22835 -0.90279 0.0039836
0.33469 0.15123 1.1186 6.7995e-39 323.5 368.5 0 0 0 0.37366 0.23031 -0.89852 0.0046742
0.33666 0.15123 1.1186 6.8686e-39 325 368.5 0 0 0 0.37445 0.23215 -0.89772 0.0050556
0.33893 0.15072 1.1196 6.9608e-39 450.5 368 0 0 0 0.384 0.23901 -0.89186 0.0060182
0.34089 0.15072 1.1196 6.9147e-39 452 368 0 0 0 0.39368 0.25062 -0.88443 0.0067244
0.24789 0.15269 1.1196 6.0389e-39 379 368.5 0 0 0 -0.90896 0.10109 -0.40445 0.0029743
0.24897 0.1532 1.1186 7.0069e-39 256 369 0 0 0 -0.9117 0.10182 -0.39804 0.002845
0.33142 0.1532 1.1186 7.0069e-39 446 369 0 0 0 0.36409 0.2201 -0.90498 0.0039831
0.33273 0.1532 1.1186 6.7303e-39 447 369 0 0 0 0.36815 0.22344 -0.90252 0.0042612
0.33469 0.1532 1.1186 6.9147e-39 448.5 369 0 0 0 0.37142 0.22202 -0.90153 0.0046468
0.33696 0.15334 1.1196 7.1913e-39 450 369 0 0 0 0.38305 0.22698 -0.89541 0.0061786
0.33893 0.15203 1.1196 7.2374e-39 202.5 369 0 0 0 0.38783 0.2387 -0.89029 0.0066068
0.24897 0.15517 1.1186 5.6239e-39 402.5 369.5 0 0 0 -0.91089 0.10303 -0.39958 0.0029328
0.33142 0.15517 1.1186 6.8686e-39 317 370 0 0 0 0.36575 0.21396 -0.90579 0.0039832
0.33273 0.15517 1.1186 6.7303e-39 318 370 0 0 0 0.36672 0.21296 -0.90563 0.0041984
0.33469 0.15517 1.1186 6.7073e-39 319.5 370 0 0 0 0.37446 0.21608 -0.90172 0.0048971
0.33696 0.1553 1.1196 6.9147e-39 321 370 0 0 0 0.38955 0.22171 -0.89392 0.0063603
0.2492 0.15727 1.1196 6.4537e-39 493 370 0 0 0 -0.91082 0.10067 -0.40034 0.0029442
0.33142 0.15712 1.1186 7.56e-39 180 371 0 0 0 0.3662 0.20812 -0.90696 0.0038766
0.33273 0.15712 1.1186 7.2835e-39 181 371 0 0 0 0.36735 0.20761 -0.90662 0.0040124
0.33469 0.15712 1.1186 7.0991e-39 182.5 371 0 0 0 0.37771 0.20951 -0.90191 0.0049169
0.33696 0.15727 1.1196 7.0991e-39 184 371 0 0 0 0.39628 0.21739 -0.89202 0.0063193
0.2492 0.15924 1.1196 6.7303e-39 350.5 371 0 0 0 -0.91071 0.10011 -0.40074 0.0029849
0.25028 0.15909 1.1186 6.8225e-39 351.5 371 0 0 0 -0.91138 0.10012 -0.39921 0.0029227
0.33142 0.15909 1.1186 6.3154e-39 283 371.5 0 0 0 0.36651 0.2022 -0.90818 0.0037506
0.33288 0.15916 1.1191 6.592e-39 284 371.5 0 0 0 0.37086 0.20277 -0.90628 0.0042359
0.33477 0.15912 1.1188 6.7072e-39 285.5 371.5 0 0 0 0.38183 0.20609 -0.90096 0.0049989
0.2492 0.1612 1.1196 7.1913e-39 199 372 0 0 0 -0.91151 0.097565 -0.39953 0.002981
0.25028 0.16105 1.1186 7.0069e-39 200 372 0 0 0 -0.91038 0.098554 -0.40187 0.0029746
0.33142 0.16105 1.1186 6.0849e-39 389 372 0 0 0 0.36498 0.20185 -0.90887 0.0037685
0.33303 0.1612 1.1196 5.9927e-39 390 372 0 0 0 0.37807 0.20591 -0.90259 0.0046184
0.335 0.1612 1.1196 6.0849e-39 391.5 372 0 0 0 0.39449 0.20622 -0.89546 0.0053596
0.2492 0.16251 1.1196 7.4678e-39 439 372 0 0 0 -0.91148 0.098008 -0.39949 0.0028581
0.25039 0.16309 1.1191 6.9608e-39 300.5 372.5 0 0 0 -0.90979 0.098108 -0.4033 0.002873
0.3288 0.16302 1.1186 6.0849e-39 360.5 372.5 0 0 0 0.35215 0.20807 -0.91252 0.0033416
0.33142 0.16302 1.1186 5.209e-39 362.5 372.5 0 0 0 0.36473 0.20726 -0.90775 0.0041539
0.33303 0.16317 1.1196 4.9325e-39 363.5 372.5 0 0 0 0.37767 0.20922 -0.90199 0.0047422
0.33434 0.16317 1.1196 5.209e-39 364.5 372.5 0 0 0 0.39034 0.20969 -0.89647 0.0052651
0.25051 0.16513 1.1196 6.9147e-39 399 373 0 0 0 -0.91143 0.099428 -0.39926 0.0026979
0.3288 0.16498 1.1186 6.8225e-39 459 373 0 0 0 0.35026 0.21558 -0.91151 0.0035446
0.33142 0.16498 1.1186 7.7444e-39 461 373 0 0 0 0.36612 0.21581 -0.9052 0.0044468
0.33303 0.16513 1.1196 8.021e-39 462 373 0 0 0 0.38216 0.22377 -0.89659 0.0052499
0.33434 0.16513 1.1196 7.8366e-39 463 373 0 0 0 0.39326 0.22343 -0.89187 0.005537
0.25051 0.1671 1.1196 5.1168e-39 377.5 373.5 0 0 0 -0.91166 0.10129 -0.39828 0.0024994
0.32619 0.16759 1.1186 7.0991e-39 403 374 0 0 0 0.34193 0.2392 -0.90877 0.0035792
0.3288 0.16694 1.1186 6.6842e-39 286 374 0 0 0 0.35153 0.23013 -0.90745 0.0040801
0.33092 0.16702 1.1191 6.569e-39 287.5 374 0 0 0 0.36583 0.23867 -0.89956 0.005073
0.25051 0.16906 1.1196 6.4537e-39 457 374 0 0 0 -0.91213 0.10213 -0.39698 0.0022705
0.32488 0.1689 1.1186 4.0566e-39 530 374 0 0 0 0.34152 0.25508 -0.9046 0.0038157
0.32684 0.1689 1.1186 3.4573e-39 531.5 374 0 0 0 0.34441 0.25907 -0.90236 0.0043271
0.3291 0.16906 1.1196 3.2268e-39 533 374 0 0 0 0.35806 0.25934 -0.89696 0.004957
0.33106 0.16906 1.1196 3.0886e-39 534.5 374 0 0 0 0.36686 0.26193 -0.89264 0.0055811
0.25105 0.17094 1.1191 6.0388e-39 274.5 375 0 0 0 -0.91179 0.10333 -0.39744 0.0022234
0.32095 0.17152 1.1186 7.7444e-39 445 375 0 0 0 0.33503 0.27386 -0.90153 0.0041065
0.32357 0.17152 1.1186 6.6381e-39 447 375 0 0 0 0.33951 0.27448 -0.89966 0.0044253
0.32503 0.17095 1.1191 6.7303e-39 331 375 0 0 0 0.34424 0.27767 -0.89688 0.004551
0.32692 0.1709 1.1188 7.2143e-39 332.5 375 0 0 0 0.34745 0.2789 -0.89526 0.0049695
0.3291 0.17103 1.1196 7.1452e-39 334 375 0 0 0 0.35629 0.28521 -0.88978 0.005667
0.33041 0.17037 1.1196 6.2693e-39 218 375 0 0 0 0.36637 0.27549 -0.88875 0.0060897
0.25159 0.17283 1.1186 7.56e-39 499 375 0 0 0 -0.91059 0.10256 -0.40039 0.0024849
0.32095 0.17283 1.1186 7.6522e-39 553 375 0 0 0 0.33689 0.2819 -0.89835 0.0045658
0.32292 0.17283 1.1186 7.7444e-39 554.5 375 0 0 0 0.34011 0.28207 -0.89709 0.0048769
0.32517 0.17299 1.1196 7.56e-39 556 375 0 0 0 0.35116 0.2952 -0.88856 0.0056156
0.32713 0.17299 1.1196 7.7444e-39 575.5 375 0 0 0 0.35363 0.3018 -0.88536 0.0059554
0.25105 0.17487 1.1191 6.7764e-39 291.5 376 0 0 0 -0.9106 0.10172 -0.40057 0.0023756
0.32095 0.1748 1.1186 7.1451e-39 345.5 376 0 0 0 0.33925 0.28797 -0.89554 0.005189
0.32299 0.17484 1.1188 7.099e-39 347 376 0 0 0 0.34759 0.29646 -0.88954 0.0058766
0.32517 0.17496 1.1196 6.8225e-39 348.5 376 0 0 0 0.35575 0.30888 -0.88206 0.0063492
0.32713 0.1743 1.1196 7.2374e-39 234.5 376 0 0 0 0.35967 0.309 -0.88043 0.0063903
0.25051 0.17692 1.1196 5.3473e-39 509 376 0 0 0 -0.91041 0.10254 -0.40079 0.002392
0.31898 0.17676 1.1186 7.6061e-39 578.5 376 0 0 0 0.33874 0.29598 -0.89311 0.0056307
0.32124 0.17692 1.1196 7.8366e-39 580 376 0 0 0 0.34787 0.30599 -0.8862 0.0065419
0.3232 0.17692 1.1196 8.2515e-39 582.5 376 0 0 0 0.35657 0.3134 -0.88013 0.0068668
0.25087 0.17905 1.1193 7.0684e-39 331 377 0 0 0 -0.90834 0.10262 -0.40544 0.002653
0.31485 0.17893 1.1186 7.0069e-39 381.33 377 0 0 0 0.33374 0.29821 -0.89425 0.0047463
0.31703 0.17937 1.1186 7.6522e-39 457 377 0 0 0 0.3403 0.30265 -0.89028 0.0058586
0.31906 0.17876 1.1188 7.8136e-39 347.5 377 0 0 0 0.34414 0.3078 -0.88703 0.0064765
0.32124 0.17823 1.1196 7.0069e-39 238 377 0 0 0 0.35267 0.31437 -0.88136 0.0071077
0.32255 0.17888 1.1196 7.2374e-39 350 377 0 0 0 0.35861 0.32288 -0.87587 0.0075877
0.25123 0.18117 1.1189 6.8532e-39 393 377.33 0 0 0 -0.90306 0.10951 -0.41531 0.0037231
0.31528 0.18112 1.1186 7.2527e-39 444.67 377.33 0 0 0 0.33779 0.30487 -0.89048 0.00559
0.31703 0.18134 1.1186 7.3296e-39 392.5 377.5 0 0 0 0.34356 0.31052 -0.88631 0.0064559
0.31913 0.18077 1.1191 7.9749e-39 554.5 377 0 0 0 0.34905 0.31794 -0.88152 0.0073183
0.25159 0.1833 1.1186 6.9147e-39 405 378 0 0 0 -0.89533 0.12058 -0.42877 0.0048213
0.31179 0.1833 1.1186 7.9288e-39 451 378 0 0 0 0.34037 0.29544 -0.89267 0.0046536
0.31469 0.18281 1.1196 7.4679e-39 341.5 378 0 0 0 0.34293 0.31178 -0.88611 0.0062938
0.31666 0.18346 1.1196 7.5601e-39 454.5 378 0 0 0 0.34988 0.3236 -0.87913 0.0076685
0.31862 0.18281 1.1196 7.2374e-39 344.5 378 0 0 0 0.35688 0.32803 -0.87466 0.0080255
0.25159 0.18527 1.1186 6.7303e-39 339 378.5 0 0 0 -0.89115 0.13151 -0.43423 0.0052059
0.30917 0.18592 1.1186 7.8366e-39 237 379 0 0 0 0.33964 0.29659 -0.89257 0.0043676
0.31135 0.18548 1.1186 7.5293e-39 341.67 378.67 0 0 0 0.34265 0.29631 -0.89151 0.0048898
0.3131 0.18527 1.1186 7.4679e-39 394.5 378.5 0 0 0 0.34244 0.30052 -0.89018 0.0056791
0.31469 0.18477 1.1196 7.6522e-39 550 378 0 0 0 0.34741 0.31385 -0.88363 0.0072092
0.31666 0.18477 1.1196 7.5139e-39 551.5 378 0 0 0 0.3516 0.32537 -0.87779 0.0077688
0.25159 0.18723 1.1186 6.4537e-39 409 379 0 0 0 -0.88533 0.14423 -0.44203 0.0057177
0.30917 0.18723 1.1186 7.8366e-39 453 379 0 0 0 0.34149 0.29648 -0.8919 0.0046306
0.31113 0.18723 1.1186 7.6061e-39 454.5 379 0 0 0 0.33812 0.29423 -0.89393 0.0049348
0.3131 0.18723 1.1186 7.8366e-39 456 379 0 0 0 0.34861 0.30899 -0.88487 0.0065995
0.25159 0.18918 1.1186 6.4076e-39 346 379.5 0 0 0 -0.88076 0.15613 -0.44708 0.0058636
0.30525 0.18918 1.1186 7.4679e-39 394 379.5 0 0 0 0.33359 0.31138 -0.88981 0.0049655
0.30786 0.18918 1.1186 7.6061e-39 396 379.5 0 0 0 0.32784 0.29764 -0.89662 0.0041612
0.30917 0.18918 1.1186 7.5601e-39 397 379.5 0 0 0 0.3346 0.29713 -0.89429 0.0046856
0.31076 0.1887 1.1196 8.2054e-39 555 379 0 0 0 0.34605 0.30156 -0.88843 0.005817
0.31273 0.1887 1.1196 7.9749e-39 567.5 379 0 0 0 0.35006 0.31089 -0.88363 0.0070726
0.25159 0.19115 1.1186 6.2693e-39 395 380 0 0 0 -0.87307 0.16957 -0.45716 0.0068678
0.30394 0.19115 1.1186 6.5459e-39 435 380 0 0 0 0.32701 0.3165 -0.89045 0.0053437
0.30525 0.19115 1.1186 6.5459e-39 436 380 0 0 0 0.32955 0.3113 -0.89134 0.0050185
0.30786 0.19115 1.1186 6.9147e-39 438 380 0 0 0 0.32063 0.29518 -0.90004 0.0040343
0.30945 0.19132 1.1196 7.3757e-39 439 380 0 0 0 0.3339 0.3021 -0.89289 0.005602
0.31076 0.19067 1.1196 7.2374e-39 340.5 380 0 0 0 0.34673 0.30374 -0.88742 0.0064067
0.31273 0.19001 1.1196 7.6061e-39 242.5 380 0 0 0 0.35175 0.30999 -0.88328 0.0075748
0.2517 0.1932 1.1191 7.4679e-39 495.5 380 0 0 0 -0.86722 0.19015 -0.46019 0.0073948
0.2529 0.19377 1.1186 7.7444e-39 529 380 0 0 0 -0.84708 0.20593 -0.48995 0.010516
0.30132 0.19311 1.1186 6.4997e-39 327.5 380.5 0 0 0 0.33394 0.3261 -0.88439 0.006773
0.3035 0.19333 1.1186 6.3e-39 269.67 380.67 0 0 0 0.32325 0.31126 -0.89366 0.0058548
0.30552 0.19328 1.1196 6.8224e-39 330.5 380.5 0 0 0 0.31799 0.29908 -0.89969 0.0043803
0.30699 0.1929 1.1186 6.8839e-39 391.33 380.33 0 0 0 0.3155 0.29524 -0.90183 0.0041393
0.25182 0.19525 1.1196 5.9927e-39 169 381 0 0 0 -0.86766 0.20982 -0.45072 0.0076905
0.2529 0.19508 1.1186 5.7161e-39 170 381 0 0 0 -0.84022 0.22078 -0.49526 0.01206
0.30066 0.19508 1.1186 6.3154e-39 207.5 381 0 0 0 0.32931 0.32787 -0.88547 0.0068813
0.30263 0.19508 1.1186 5.0708e-39 210 381 0 0 0 0.31569 0.31163 -0.89623 0.005817
0.30421 0.19525 1.1196 5.8083e-39 216 381 0 0 0 0.30924 0.29779 -0.90316 0.0046508
0.25182 0.19721 1.1196 6.4076e-39 312 381 0 0 0 -0.85804 0.21544 -0.46621 0.009363
0.2529 0.19704 1.1186 6.6381e-39 313 381 0 0 0 -0.83841 0.22197 -0.4978 0.012714
0.30066 0.19639 1.1186 6.0388e-39 389.5 381 0 0 0 0.3207 0.32083 -0.89119 0.0063717
0.2529 0.199 1.1186 7.7444e-39 430 381 0 0 0 -0.82689 0.2548 -0.50133 0.015385
0.29609 0.199 1.1186 8.1132e-39 463 381 0 0 0 0.36784 0.39627 -0.84123 0.0073413
0.29085 0.20031 1.1186 7.1913e-39 491 381 0 0 0 0.39171 0.44352 -0.80613 0.0051922
0.29216 0.20031 1.1186 7.7444e-39 492 381 0 0 0 0.38591 0.43453 -0.81379 0.0055405
0.26408 0.077501 1.1217 7.1913e-39 424 330 0 0 0 -0.065108 -0.94499 -0.32057 0.007865
0.31133 0.077501 1.1217 5.6239e-39 460 330 0 0 0 -0.05842 -0.89868 -0.4347 0.012527
0.31264 0.077501 1.1217 4.7942e-39 461 330 0 0 0 -0.055115 -0.893 -0.44667 0.013792
0.32051 0.077501 1.1217 5.3473e-39 171 331 0 0 0 -0.017907 -0.85782 -0.51363 0.013865
0.32314 0.076844 1.1217 5.7162e-39 204.5 330.5 0 0 0 -0.012317 -0.85455 -0.51923 0.013831
0.32576 0.077501 1.1217 4.9786e-39 175 331 0 0 0 -0.015542 -0.85019 -0.52625 0.014403
0.32708 0.077501 1.1217 4.9786e-39 176 331 0 0 0 -0.0084524 -0.85162 -0.5241 0.015457
0.32839 0.077501 1.1217 4.9786e-39 177 331 0 0 0 -0.0047257 -0.85495 -0.51869 0.015578
0.35267 0.077501 1.1217 5.2091e-39 204.5 331 0 0 0 0.12998 -0.87069 -0.47434 0.045127
0.35431 0.07743 1.1207 5.8083e-39 206 331 0 0 0 0.16194 -0.86022 -0.48353 0.051911
0.26122 0.078742 1.1207 7.6522e-39 372 331 0 0 0 -0.13021 -0.9385 -0.31978 0.0099346
0.26516 0.078742 1.1207 7.7444e-39 375 331 0 0 0 -0.039457 -0.94372 -0.32839 0.0086962
0.26647 0.078742 1.1207 7.3757e-39 376 331 0 0 0 -0.017361 -0.94401 -0.32945 0.0087814
0.30477 0.078813 1.1217 5.7161e-39 405 331 0 0 0 -0.077642 -0.91302 -0.40045 0.0063743
0.30711 0.078742 1.1207 5.4395e-39 407 331 0 0 0 -0.066054 -0.91122 -0.40659 0.0086616
0.30922 0.078777 1.1212 5.3012e-39 408.5 331 0 0 0 -0.058126 -0.9065 -0.41819 0.011126
0.31395 0.078813 1.1217 6.2693e-39 412 331 0 0 0 -0.042698 -0.88715 -0.45951 0.01477
0.31527 0.078813 1.1217 6.5459e-39 413 331 0 0 0 -0.03075 -0.8828 -0.46874 0.014864
0.31658 0.078813 1.1217 6.6381e-39 414 331 0 0 0 -0.025265 -0.87939 -0.47543 0.014725
0.32051 0.078813 1.1217 6.4537e-39 417 331 0 0 0 -0.017115 -0.85882 -0.51199 0.014016
0.32314 0.078813 1.1217 5.9005e-39 419 331 0 0 0 -0.013011 -0.85041 -0.52596 0.013641
0.32576 0.078813 1.1217 6.0849e-39 421 331 0 0 0 -0.013765 -0.85008 -0.52647 0.014212
0.32708 0.078813 1.1217 6.4537e-39 422 331 0 0 0 -0.0097993 -0.85367 -0.52071 0.015193
0.32904 0.078813 1.1217 7.2374e-39 423.5 331 0 0 0 -0.0045849 -0.85573 -0.5174 0.015412
0.33101 0.078813 1.1217 6.5459e-39 425 331 0 0 0 0.0082414 -0.86676 -0.49866 0.017156
0.33233 0.078813 1.1217 6.1771e-39 426 331 0 0 0 0.00042302 -0.86869 -0.49536 0.016514
0.33495 0.078813 1.1217 5.9927e-39 428 331 0 0 0 -0.006414 -0.87518 -0.48376 0.017405
0.33626 0.078813 1.1217 5.9927e-39 429 331 0 0 0 -0.0037505 -0.877 -0.48048 0.017846
0.35038 0.078742 1.1207 6.7303e-39 440 331 0 0 0 0.13239 -0.85799 -0.49632 0.043734
0.25348 0.080744 1.1212 5.9927e-39 321.5 332 0 0 0 -0.35229 -0.85757 -0.37478 0.03243
0.27171 0.080053 1.1207 5.9005e-39 215 332 0 0 0 0.059976 -0.92852 -0.3664 0.0075502
0.27565 0.081364 1.1207 6.3615e-39 459 332 0 0 0 0.10128 -0.91715 -0.38546 0.0054552
0.27696 0.081364 1.1207 5.5317e-39 460 332 0 0 0 0.10454 -0.91469 -0.39039 0.0051621
0.27917 0.081438 1.1217 5.0247e-39 164.5 333 0 0 0 0.10253 -0.90994 -0.40186 0.0048533
0.29741 0.081401 1.1212 5.6239e-39 194.5 333 0 0 0 -0.0702 -0.91631 -0.39427 0.0041593
0.30135 0.080089 1.1212 6.9147e-39 245.5 332 0 0 0 -0.079185 -0.91635 -0.39246 0.0043544
0.30318 0.080053 1.1207 7.1913e-39 247 332 0 0 0 -0.073911 -0.91659 -0.39293 0.0055505
0.3058 0.080053 1.1207 6.1771e-39 249 332 0 0 0 -0.065747 -0.91245 -0.40387 0.0079891
0.30842 0.080053 1.1207 5.9005e-39 251 332 0 0 0 -0.053833 -0.90772 -0.41611 0.010717
0.31367 0.080053 1.1207 8.021e-39 255 332 0 0 0 -0.032298 -0.89009 -0.45464 0.013958
0.31498 0.080053 1.1207 8.1132e-39 370 332 0 0 0 -0.023732 -0.87979 -0.47476 0.014556
0.31726 0.080514 1.121 7.2834e-39 317.67 332.33 0 0 0 -0.012607 -0.87194 -0.48946 0.014164
0.3192 0.080125 1.1217 8.2054e-39 373 332 0 0 0 -0.015746 -0.86403 -0.50319 0.014072
0.32129 0.080539 1.1214 7.3449e-39 320.67 332.33 0 0 0 -0.01213 -0.85363 -0.52073 0.013233
0.32285 0.080709 1.1207 6.8685e-39 295 332.5 0 0 0 -0.01073 -0.8532 -0.52148 0.013283
0.32523 0.080976 1.1214 6.3615e-39 269.67 332.67 0 0 0 -0.0090391 -0.85202 -0.52343 0.01362
0.32693 0.080744 1.1212 6.3615e-39 298 332.5 0 0 0 -0.012301 -0.85322 -0.52141 0.01449
0.3289 0.080744 1.1212 6.5689e-39 299.5 332.5 0 0 0 -0.009587 -0.85629 -0.51641 0.015514
0.33086 0.080744 1.1212 7.0068e-39 301 332.5 0 0 0 -0.006986 -0.86189 -0.50705 0.015599
0.33246 0.08049 1.1207 7.4678e-39 329.33 332.33 0 0 0 -0.0016975 -0.86993 -0.49317 0.015949
0.33531 0.080053 1.1207 6.8685e-39 385.5 332 0 0 0 -0.0094917 -0.87213 -0.48918 0.017611
0.33727 0.080053 1.1207 5.7161e-39 387 332 0 0 0 -0.0079776 -0.87768 -0.47918 0.019184
0.33924 0.080709 1.1207 5.4856e-39 307.5 332.5 0 0 0 -0.0067108 -0.88137 -0.47238 0.019576
0.34151 0.080125 1.1217 5.8083e-39 390 332 0 0 0 0.001016 -0.88814 -0.45957 0.020707
0.34479 0.080125 1.1217 6.2232e-39 392.5 332 0 0 0 0.02962 -0.88222 -0.4699 0.025529
0.34776 0.080053 1.1207 5.5317e-39 395 332 0 0 0 0.11491 -0.85587 -0.50426 0.039359
0.34907 0.080053 1.1207 5.9005e-39 396 332 0 0 0 0.15749 -0.84186 -0.5162 0.044952
0.24549 0.082675 1.1207 5.7161e-39 395 333 0 0 0 -0.61216 -0.64248 -0.46096 0.045479
0.24888 0.082713 1.1212 5.9466e-39 397.5 333 0 0 0 -0.54379 -0.71052 -0.44659 0.045834
0.25096 0.08275 1.1217 5.5317e-39 399 333 0 0 0 -0.45331 -0.79253 -0.40793 0.042286
0.25205 0.082675 1.1207 5.2552e-39 400 333 0 0 0 -0.42129 -0.81283 -0.40228 0.04112
0.28377 0.08275 1.1217 6.9147e-39 424 333 0 0 0 0.065896 -0.91238 -0.404 0.0059718
0.28482 0.082675 1.1207 6.4537e-39 425 333 0 0 0 0.053457 -0.91633 -0.39683 0.0062792
0.28745 0.082675 1.1207 5.7161e-39 427 333 0 0 0 0.022895 -0.91633 -0.39977 0.0063571
0.294 0.082675 1.1207 6.8225e-39 433 333 0 0 0 -0.050095 -0.91864 -0.3919 0.004917
0.32153 0.082675 1.1207 5.9005e-39 454 333 0 0 0 -0.006069 -0.85507 -0.51848 0.013296
0.32482 0.082675 1.1207 6.7764e-39 456.5 333 0 0 0 -0.0073061 -0.84623 -0.53276 0.013481
0.32678 0.082675 1.1207 7.1913e-39 458 333 0 0 0 -0.015437 -0.85021 -0.52622 0.014274
0.32809 0.082675 1.1207 6.4537e-39 459 333 0 0 0 -0.009695 -0.85806 -0.51347 0.014746
0.24298 0.084679 1.1212 5.3934e-39 198 334.5 0 0 0 -0.69583 -0.53429 -0.47995 0.045676
0.24429 0.084679 1.1212 5.7161e-39 199 334.5 0 0 0 -0.68045 -0.55711 -0.47604 0.046305
0.24178 0.087999 1.1217 8.2054e-39 373 336 0 0 0 -0.78924 -0.37436 -0.48679 0.039046
0.24287 0.086608 1.1207 5.9927e-39 422 335 0 0 0 -0.74911 -0.43931 -0.49583 0.041554
0.24156 0.089231 1.1207 5.6239e-39 202 337 0 0 0 -0.80919 -0.31812 -0.49396 0.033846
0.24156 0.091198 1.1207 5.6239e-39 341 337.5 0 0 0 -0.84134 -0.24529 -0.48165 0.0275
0.24156 0.093164 1.1207 5.8083e-39 162 339 0 0 0 -0.85544 -0.2075 -0.47452 0.025465
0.24119 0.095378 1.121 6.5459e-39 264.33 339.67 0 0 0 -0.87766 -0.13984 -0.45843 0.01967
0.24101 0.097141 1.1212 5.67e-39 417.5 340 0 0 0 -0.88695 -0.088665 -0.45327 0.013817
0.24096 0.099086 1.1209 5.9235e-39 346.5 341 0 0 0 -0.89568 -0.046262 -0.44229 0.009145
0.24091 0.10103 1.1207 6.1771e-39 397.5 342 0 0 0 -0.90076 -0.010773 -0.43419 0.0056624
0.24091 0.103 1.1207 5.9927e-39 342.5 343 0 0 0 -0.90347 0.021871 -0.42809 0.0036998
0.24101 0.10501 1.1212 6.7764e-39 400.5 344 0 0 0 -0.90522 0.048899 -0.42212 0.003144
0.24178 0.10637 1.1217 6.3615e-39 223 345 0 0 0 -0.9041 0.06113 -0.42294 0.0029553
0.24287 0.10759 1.1207 9.0352e-39 470 345 0 0 0 -0.90494 0.066482 -0.42031 0.0029917
0.3648 0.10759 1.1207 6.5459e-39 251 346 0 0 0 0.40179 0.22152 -0.88853 0.0087189
0.36611 0.10759 1.1207 6.2693e-39 252 346 0 0 0 0.3934 0.21384 -0.89415 0.0086857
0.24287 0.1089 1.1207 6.5459e-39 411 346 0 0 0 -0.90423 0.07184 -0.42097 0.0030247
0.36349 0.1089 1.1207 6.2693e-39 192 347 0 0 0 0.39526 0.22774 -0.88989 0.0082687
0.3648 0.1089 1.1207 6.7303e-39 193 347 0 0 0 0.39304 0.2227 -0.89215 0.0083996
0.36645 0.109 1.1217 7.1913e-39 194 347 0 0 0 0.38388 0.21414 -0.89821 0.0078753
0.24287 0.11086 1.1207 5.8083e-39 191.5 347.5 0 0 0 -0.90476 0.082137 -0.41793 0.002688
0.36349 0.11086 1.1207 6.7303e-39 416 347.5 0 0 0 0.38284 0.22994 -0.89474 0.0073672
0.36497 0.11092 1.1212 6.9608e-39 417 347.5 0 0 0 0.37218 0.22488 -0.90051 0.0072036
0.24309 0.11293 1.1217 5.9927e-39 422 348 0 0 0 -0.90573 0.089708 -0.41426 0.0022546
0.36349 0.11283 1.1207 7.2835e-39 202 349 0 0 0 0.36859 0.23643 -0.89902 0.0065412
0.36513 0.11293 1.1217 7.0991e-39 203 349 0 0 0 0.35859 0.22428 -0.90615 0.0065531
0.24309 0.1149 1.1217 5.7162e-39 192 349.5 0 0 0 -0.90609 0.095198 -0.41223 0.0021226
0.36349 0.11479 1.1207 6.4998e-39 421.5 349.5 0 0 0 0.35217 0.23434 -0.90613 0.0056639
0.36497 0.11485 1.1212 6.5459e-39 422.5 349.5 0 0 0 0.3476 0.22712 -0.90972 0.0058206
0.36645 0.1149 1.1217 6.6381e-39 423.5 349.5 0 0 0 0.33438 0.21715 -0.91708 0.0057023
0.24309 0.11687 1.1217 7.1913e-39 426 350 0 0 0 -0.90715 0.096924 -0.40949 0.0021515
0.36283 0.11676 1.1207 6.8225e-39 203.5 351 0 0 0 0.34281 0.23371 -0.90987 0.005204
0.36513 0.11687 1.1217 6.4537e-39 206 351 0 0 0 0.3295 0.22355 -0.91731 0.005159
0.36645 0.11687 1.1217 6.5459e-39 207 351 0 0 0 0.32231 0.21886 -0.92099 0.0050179
0.24309 0.11884 1.1217 5.67e-39 210 351.5 0 0 0 -0.90807 0.096549 -0.40755 0.002202
0.36283 0.11874 1.1207 6.8686e-39 440 351.5 0 0 0 0.34177 0.23293 -0.91046 0.0049879
0.36497 0.11879 1.1212 6.3615e-39 441.5 351.5 0 0 0 0.32572 0.22208 -0.91901 0.0047798
0.36645 0.11884 1.1217 6.1771e-39 442.5 351.5 0 0 0 0.32257 0.22134 -0.9203 0.005042
0.24309 0.12081 1.1217 6.7303e-39 449 352 0 0 0 -0.90888 0.094607 -0.40619 0.0022695
0.36283 0.1207 1.1207 7.1452e-39 231.5 353 0 0 0 0.33422 0.22805 -0.91449 0.0043248
0.3648 0.1207 1.1207 6.6381e-39 233 353 0 0 0 0.33066 0.22503 -0.91653 0.0048625
0.36611 0.1207 1.1207 6.6381e-39 234 353 0 0 0 0.32679 0.21982 -0.91918 0.0048341
0.35891 0.12332 1.1207 6.2232e-39 431.5 354 0 0 0 0.35578 0.22861 -0.90618 0.0040067
0.36087 0.12332 1.1207 6.8225e-39 433 354 0 0 0 0.34808 0.22761 -0.90941 0.0041166
0.36292 0.12269 1.1209 6.3615e-39 290 354 0 0 0 0.34367 0.22991 -0.91051 0.0044826
0.3648 0.12267 1.1207 6.4537e-39 291.5 354 0 0 0 0.3383 0.22629 -0.91343 0.0048888
0.36611 0.12267 1.1207 6.1771e-39 292.5 354 0 0 0 0.33649 0.22496 -0.91442 0.0053046
0.35694 0.12594 1.1207 5.5317e-39 166 356 0 0 0 0.36173 0.22561 -0.90457 0.0036664
0.35891 0.12463 1.1207 6.6842e-39 245.5 355 0 0 0 0.35412 0.22589 -0.90751 0.0038243
0.36087 0.12463 1.1207 5.7161e-39 247 355 0 0 0 0.3482 0.22606 -0.90975 0.0041842
0.36316 0.12474 1.1217 5.5778e-39 248.5 355 0 0 0 0.34697 0.22878 -0.90955 0.0047584
0.3648 0.12463 1.1207 6.1771e-39 250 355 0 0 0 0.34449 0.22606 -0.91116 0.0051174
0.353 0.12725 1.1207 7.0991e-39 445 356 0 0 0 0.36955 0.22669 -0.90113 0.0033735
0.35694 0.12725 1.1207 6.3615e-39 448 356 0 0 0 0.36096 0.22278 -0.90558 0.003521
0.35923 0.12672 1.1217 5.8774e-39 308.5 356 0 0 0 0.35688 0.2237 -0.90697 0.0039394
0.3612 0.12672 1.1217 6.3154e-39 310 356 0 0 0 0.35383 0.22552 -0.90771 0.0044285
0.36513 0.12606 1.1217 5.5317e-39 172 356 0 0 0 0.35247 0.22734 -0.90779 0.0053379
0.24418 0.12988 1.1207 6.2693e-39 443 357 0 0 0 -0.91086 0.085927 -0.40366 0.0025676
0.35169 0.12988 1.1207 5.9005e-39 205 358 0 0 0 0.36983 0.23662 -0.89846 0.0032806
0.353 0.12922 1.1207 5.9466e-39 300 357.5 0 0 0 0.36778 0.23249 -0.90038 0.0032718
0.35562 0.12922 1.1207 6.2693e-39 302 357.5 0 0 0 0.36503 0.23002 -0.90213 0.0034208
0.35726 0.12934 1.1217 6.2232e-39 303 357.5 0 0 0 0.36242 0.23112 -0.9029 0.0037487
0.24418 0.13119 1.1207 5.9005e-39 393 358 0 0 0 -0.91086 0.08471 -0.40393 0.0027017
0.35169 0.13119 1.1207 6.7303e-39 485 358 0 0 0 0.36894 0.24101 -0.89766 0.0033492
0.353 0.13119 1.1207 7.6522e-39 486 358 0 0 0 0.36818 0.2409 -0.898 0.0034026
0.35513 0.13125 1.1212 8.6203e-39 487.5 358 0 0 0 0.36648 0.24242 -0.89829 0.0036489
0.35726 0.13131 1.1217 9.8649e-39 489 358 0 0 0 0.36449 0.24374 -0.89874 0.0040717
0.24429 0.13321 1.1212 6.3154e-39 346.5 359 0 0 0 -0.90905 0.085736 -0.40778 0.0027612
0.35258 0.13324 1.1215 6.7073e-39 419.5 359.5 0 0 0 0.36936 0.24981 -0.89508 0.0036139
0.35447 0.13321 1.1212 6.9147e-39 421 359.5 0 0 0 0.37079 0.25219 -0.89382 0.003843
0.2444 0.13524 1.1217 7.7444e-39 445 360 0 0 0 -0.90822 0.087739 -0.4092 0.0027196
0.35267 0.13524 1.1217 5.8544e-39 203.5 361 0 0 0 0.37226 0.26347 -0.88995 0.0039179
0.35463 0.13524 1.1217 6.0849e-39 205 361 0 0 0 0.37338 0.26505 -0.88901 0.0042586
0.2444 0.13721 1.1217 5.8544e-39 303 361.5 0 0 0 -0.90778 0.091808 -0.40927 0.0026732
0.34907 0.13774 1.1207 7.0069e-39 435 362 0 0 0 0.37456 0.2631 -0.88909 0.0033189
0.35038 0.13774 1.1207 6.9147e-39 436 362 0 0 0 0.37612 0.26683 -0.88732 0.0036439
0.35267 0.13721 1.1217 5.9697e-39 462 361.5 0 0 0 0.37603 0.27323 -0.88541 0.0040853
0.35463 0.13655 1.1217 5.163e-39 488 361 0 0 0 0.37836 0.27491 -0.8839 0.00458
0.2444 0.13918 1.1217 7.0991e-39 484 362 0 0 0 -0.9074 0.096623 -0.40902 0.0026145
0.34907 0.13905 1.1207 7.0069e-39 253 363 0 0 0 0.37612 0.26846 -0.88683 0.003549
0.35038 0.13905 1.1207 7.0069e-39 254 363 0 0 0 0.38095 0.27059 -0.88411 0.0036686
0.35267 0.13918 1.1217 6.7303e-39 255.5 363 0 0 0 0.3857 0.27897 -0.87944 0.0042326
0.24513 0.14084 1.121 7.1298e-39 368.67 363.33 0 0 0 -0.90873 0.098703 -0.40554 0.0027572
0.34776 0.14168 1.1207 7.7444e-39 455 364 0 0 0 0.38011 0.27137 -0.88423 0.0041096
0.34907 0.14102 1.1207 7.0068e-39 306.5 364 0 0 0 0.37986 0.27132 -0.88436 0.0039096
0.35038 0.14102 1.1207 6.7764e-39 308.5 364 0 0 0 0.38704 0.27737 -0.87935 0.0039403
0.35267 0.14114 1.1217 6.8686e-39 310.5 364 0 0 0 0.39376 0.28831 -0.87283 0.0044334
0.24549 0.14299 1.1207 7.1913e-39 583 364 0 0 0 -0.90829 0.10064 -0.40606 0.0028534
0.2468 0.14299 1.1207 7.3757e-39 584 364 0 0 0 -0.90925 0.099885 -0.4041 0.0029124
0.34776 0.14299 1.1207 6.7303e-39 252 365 0 0 0 0.38594 0.27537 -0.88047 0.0042982
0.34907 0.14299 1.1207 6.7303e-39 253 365 0 0 0 0.38844 0.28239 -0.87714 0.0044681
0.35038 0.14299 1.1207 6.5459e-39 254 365 0 0 0 0.39254 0.28509 -0.87444 0.0045702
0.24571 0.14509 1.1217 6.638e-39 324 365.5 0 0 0 -0.90581 0.099608 -0.4118 0.0029382
0.24691 0.14502 1.1212 6.6842e-39 325 365.5 0 0 0 -0.90793 0.10094 -0.40677 0.0030667
0.34317 0.14561 1.1207 6.8686e-39 420.5 366 0 0 0 0.38366 0.26335 -0.88513 0.0048996
0.34514 0.14561 1.1207 6.7303e-39 422 366 0 0 0 0.39176 0.27339 -0.87851 0.0052224
0.34645 0.14496 1.1207 7.1451e-39 504 365.5 0 0 0 0.39439 0.27778 -0.87595 0.0049774
0.34873 0.14443 1.1217 5.163e-39 139.5 366 0 0 0 0.39853 0.29135 -0.86965 0.005007
0.3507 0.14443 1.1217 5.163e-39 141 366 0 0 0 0.40366 0.29601 -0.8657 0.005013
0.24571 0.14705 1.1217 7.6522e-39 473 366 0 0 0 -0.9041 0.096909 -0.41619 0.0029698
