# .PCD v.7 - Point Cloud Data file format
VERSION .7
FIELDS x y z rgb u v vx vy vz normal_x normal_y normal_z curvature
SIZE 4 4 4 4 4 4 4 4 4 4 4 4 4
TYPE F F F F F F F F F F F F F
COUNT 1 1 1 1 1 1 1 1 1 1 1 1 1
WIDTH 558
HEIGHT 1
VIEWPOINT 0 0 0 1 0 0 0
POINTS 558
DATA ascii
0.057196 0.13243 1.0573 4.7942e-39 178 327 0 0 0 -0.80668 -0.29769 -0.51054 0.011528
0.060907 0.13676 1.0573 5.209e-39 296.5 329 0 0 0 -0.81926 -0.24496 -0.51846 0.025247
0.059619 0.13974 1.0564 5.9005e-39 453 330 0 0 0 -0.85464 -0.15936 -0.49416 0.041319
0.060907 0.13862 1.0573 6.4537e-39 214 330 0 0 0 -0.83044 -0.21994 -0.51185 0.032997
0.057196 0.14109 1.0573 8.8508e-39 239 331 0 0 0 -0.85039 -0.16352 -0.5001 0.040861
0.058433 0.14109 1.0573 8.5742e-39 240 331 0 0 0 -0.85232 -0.15216 -0.5004 0.038762
-0.055327 0.14344 1.0564 6.3615e-39 154 332 0 0 0 0.83133 -0.44786 -0.32912 0.015758
0.057147 0.14221 1.0564 6.0849e-39 482 331 0 0 0 -0.86055 -0.15927 -0.48382 0.046176
0.058383 0.14221 1.0564 6.0849e-39 483 331 0 0 0 -0.87194 -0.12823 -0.47253 0.050356
-0.054138 0.1448 1.0573 5.5317e-39 399 332 0 0 0 0.84027 -0.42178 -0.34066 0.01876
0.055934 0.14536 1.0568 5.3473e-39 294.5 333 0 0 0 -0.88963 -0.040565 -0.45487 0.056627
0.055911 0.14715 1.0564 6.4537e-39 198 334 0 0 0 -0.91323 0.029501 -0.40638 0.065365
-0.051023 0.14907 1.0568 6.4537e-39 323.5 334 0 0 0 0.85254 -0.40578 -0.32943 0.017423
0.053439 0.14962 1.0564 6.0849e-39 198 335 0 0 0 -0.91475 0.032463 -0.40272 0.067932
0.054721 0.14851 1.0573 6.2693e-39 423 334 0 0 0 -0.90105 0.04953 -0.43087 0.059916
0.063326 0.1589 1.0564 5.8083e-39 430 338 0 0 0 -0.99277 0.10564 -0.057061 0.07288
0.064974 0.1591 1.0564 5.7776e-39 447.33 338 0 0 0 -0.99316 0.1024 -0.056053 0.07383
0.063326 0.16137 1.0564 7.2835e-39 340.5 339 0 0 0 -0.99464 0.094744 0.04146 0.068764
0.064562 0.16137 1.0564 6.9147e-39 341.5 339 0 0 0 -0.99566 0.092517 0.0097234 0.070738
0.060855 0.16322 1.0564 6.2693e-39 210 340 0 0 0 0.9934 -0.065721 -0.093985 0.064421
0.063381 0.16336 1.0573 6.1771e-39 212 340 0 0 0 -0.99672 0.078334 0.020413 0.068696
0.064618 0.16336 1.0573 6.4537e-39 213 340 0 0 0 0.99606 -0.063604 -0.06179 0.069635
0.060855 0.16507 1.0564 5.5317e-39 286.5 340.5 0 0 0 0.98785 -0.021208 -0.15398 0.06085
0.062736 0.16514 1.0568 5.4626e-39 288 340.5 0 0 0 0.98596 -0.011899 -0.16656 0.064445
0.065798 0.16445 1.0564 5.9927e-39 421 340 0 0 0 0.9643 0.054618 -0.25912 0.058525
0.063381 0.16707 1.0573 7.0069e-39 253 341 0 0 0 0.92557 0.11291 -0.36135 0.04384
0.064618 0.16707 1.0573 6.8225e-39 254 341 0 0 0 0.91907 0.14417 -0.36678 0.040671
0.060855 0.1694 1.0564 6.2693e-39 166 342 0 0 0 0.91429 0.15212 -0.37541 0.02766
0.063354 0.16886 1.0568 6.3154e-39 315.5 341.5 0 0 0 0.91274 0.16462 -0.37391 0.023303
0.06459 0.16886 1.0568 6.2232e-39 316.5 341.5 0 0 0 0.91434 0.19 -0.3576 0.013294
0.060855 0.17125 1.0564 5.2551e-39 456 342 0 0 0 0.91584 0.18515 -0.35632 0.012563
0.059619 0.17311 1.0564 8.2054e-39 233 343 0 0 0 0.92166 0.17508 -0.34625 0.013665
0.060907 0.17326 1.0573 7.8366e-39 234 343 0 0 0 0.91729 0.17348 -0.35846 0.014474
0.062091 0.17311 1.0564 7.3757e-39 235 343 0 0 0 0.92166 0.17508 -0.34625 0.013665
0.059027 0.17441 1.0568 6.7303e-39 446.5 343 0 0 0 0.92693 0.16265 -0.33815 0.014499
0.060907 0.17511 1.0573 6.7303e-39 328.5 343.5 0 0 0 0.92984 0.16319 -0.3298 0.015887
0.062091 0.17496 1.0564 6.592e-39 329.5 343.5 0 0 0 0.92613 0.16248 -0.34041 0.014953
0.060907 0.17697 1.0573 6.0849e-39 433 344 0 0 0 0.94423 0.15423 -0.29094 0.016204
0.062091 0.17681 1.0564 5.9005e-39 434 344 0 0 0 0.94803 0.15442 -0.27819 0.015696
0.060907 0.17882 1.0573 6.3615e-39 303.5 345 0 0 0 0.95996 0.1558 -0.2328 0.014538
0.062144 0.17882 1.0573 5.9927e-39 304.5 345 0 0 0 0.96032 0.15746 -0.2302 0.015697
0.05967 0.1813 1.0573 6.0388e-39 284.5 346 0 0 0 0.95375 0.14969 -0.26067 0.011913
0.060855 0.18114 1.0564 5.6239e-39 286 346 0 0 0 0.95315 0.15037 -0.26249 0.011178
0.059619 0.18299 1.0564 5.8083e-39 148 347 0 0 0 0.94793 0.1553 -0.27806 0.011755
0.059026 0.18493 1.0568 7.053e-39 387.5 347 0 0 0 0.94634 0.17648 -0.27075 0.014173
0.057147 0.1867 1.0564 7.4678e-39 245 348 0 0 0 0.94483 0.1983 -0.26073 0.016614
0.058433 0.18686 1.0573 7.0991e-39 246 348 0 0 0 0.94857 0.19864 -0.24648 0.016688
0.058433 0.18872 1.0573 6.8224e-39 445.5 348.5 0 0 0 0.9468 0.2182 -0.23657 0.019645
0.057147 0.19041 1.0564 8.943e-39 526 349 0 0 0 0.94338 0.23989 -0.22911 0.019926
0.058383 0.19041 1.0564 6.9147e-39 138 350 0 0 0 0.94284 0.23096 -0.24023 0.019971
0.055317 0.20162 1.0568 6.0388e-39 373.5 354 0 0 0 0.89579 0.36388 -0.25525 0.022183
0.057196 0.20171 1.0573 5.6239e-39 386 354 0 0 0 0.90127 0.35953 -0.24175 0.022985
0.052247 0.20294 1.0573 7.56e-39 153 355 0 0 0 0.88382 0.3846 -0.26636 0.022862
0.05101 0.20418 1.0573 6.1771e-39 374 355 0 0 0 0.86991 0.40642 -0.27943 0.021432
0.056054 0.13142 1.0592 5.163e-39 218 326 0 0 0 -0.81414 -0.28558 -0.50559 0.0076719
0.056674 0.13328 1.0592 5.4396e-39 298.5 327 0 0 0 -0.80672 -0.29195 -0.51378 0.0091534
0.057294 0.13514 1.0592 8.482e-39 231 328 0 0 0 -0.80468 -0.28298 -0.52194 0.013701
0.059772 0.13514 1.0592 9.3118e-39 233 328 0 0 0 -0.81112 -0.26505 -0.52138 0.017027
0.060959 0.13502 1.0582 8.943e-39 234 328 0 0 0 -0.81379 -0.26049 -0.51951 0.019365
0.057294 0.137 1.0592 5.4395e-39 293.5 329 0 0 0 -0.80363 -0.28615 -0.52182 0.016283
0.059747 0.13694 1.0587 5.3934e-39 295.5 329 0 0 0 -0.81363 -0.26018 -0.51992 0.022224
0.057245 0.13936 1.0582 5.8544e-39 331 330 0 0 0 -0.82089 -0.24036 -0.51805 0.027963
0.058912 0.13919 1.0585 5.7468e-39 292.33 330 0 0 0 -0.82511 -0.22734 -0.51721 0.028288
-0.05547 0.14133 1.0592 6.1771e-39 456 330 0 0 0 0.82446 -0.4213 -0.37784 0.021053
0.056054 0.14071 1.0592 7.6983e-39 344 330.5 0 0 0 -0.82253 -0.21916 -0.5248 0.026035
-0.054826 0.14313 1.0587 7.4218e-39 200 331.5 0 0 0 0.84147 -0.4008 -0.36232 0.021205
0.056006 0.14307 1.0582 5.4857e-39 434.5 331.5 0 0 0 -0.85268 -0.14848 -0.5009 0.040999
-0.052992 0.14505 1.0592 5.2552e-39 400 332 0 0 0 0.84643 -0.38218 -0.37081 0.023148
-0.051708 0.1474 1.0582 6.8225e-39 431 333 0 0 0 0.85161 -0.3951 -0.34446 0.020333
0.053576 0.14753 1.0592 5.7161e-39 196 334 0 0 0 -0.87912 -0.014515 -0.47638 0.048804
0.054792 0.14685 1.0587 5.9927e-39 308 333.5 0 0 0 -0.8789 -0.012304 -0.47685 0.049556
-0.050513 0.14877 1.0592 5.9927e-39 211 334 0 0 0 0.86132 -0.35707 -0.36143 0.024219
0.05353 0.14864 1.0582 5.5317e-39 422 334 0 0 0 -0.89044 0.007419 -0.45503 0.05607
-0.049274 0.15001 1.0592 6.4537e-39 438 334 0 0 0 0.8635 -0.35159 -0.3616 0.022964
0.064673 0.16535 1.0582 5.3473e-39 289.5 340.5 0 0 0 0.93599 0.081511 -0.34245 0.066344
0.059102 0.17588 1.0582 6.131e-39 207.5 344 0 0 0 0.9326 0.15873 -0.32414 0.015717
0.059102 0.17712 1.0582 6.0849e-39 431.5 344 0 0 0 0.94962 0.15387 -0.27304 0.016676
0.05914 0.17909 1.059 5.9696e-39 302 345 0 0 0 0.96458 0.1569 -0.21203 0.017181
0.058483 0.18083 1.0582 5.9005e-39 166 346 0 0 0 0.95506 0.15022 -0.25552 0.012154
0.058483 0.18269 1.0582 5.8544e-39 269.5 346.5 0 0 0 0.95177 0.15349 -0.26568 0.011804
0.058483 0.18455 1.0582 6.3615e-39 253 347 0 0 0 0.9538 0.17514 -0.24411 0.013759
0.053576 0.20329 1.0592 7.3757e-39 154 355 0 0 0 0.89583 0.37339 -0.24099 0.025894
0.054815 0.20329 1.0592 7.1913e-39 155 355 0 0 0 0.89419 0.37653 -0.24219 0.025383
0.057245 0.20312 1.0582 6.2693e-39 169 355 0 0 0 0.89381 0.37763 -0.24187 0.024159
0.056127 0.13469 1.0605 7.0069e-39 324.5 327.5 0 0 0 -0.80653 -0.28415 -0.51843 0.01035
0.058633 0.13537 1.061 9.0352e-39 232 328 0 0 0 -0.80441 -0.28393 -0.52183 0.011619
0.056103 0.13711 1.0601 5.4856e-39 292.5 329 0 0 0 -0.8023 -0.28235 -0.52592 0.014459
0.058583 0.13711 1.0601 5.3473e-39 294.5 329 0 0 0 -0.81058 -0.25886 -0.52531 0.018943
0.056103 0.13897 1.0601 5.8083e-39 210 330 0 0 0 -0.80205 -0.28455 -0.52512 0.018581
-0.054371 0.1417 1.0619 6.5459e-39 457 330 0 0 0 0.82196 -0.36934 -0.43356 0.025357
0.054957 0.1417 1.0619 8.8508e-39 237 331 0 0 0 -0.81694 -0.22217 -0.53222 0.022288
-0.054277 0.1427 1.0601 8.943e-39 246 331 0 0 0 0.83995 -0.37994 -0.38746 0.024373
-0.053128 0.14294 1.0619 8.8508e-39 247 331 0 0 0 0.83465 -0.35389 -0.42204 0.02678
0.054957 0.14294 1.0619 5.9005e-39 480 331 0 0 0 -0.82904 -0.16529 -0.5342 0.026769
-0.053083 0.14406 1.061 6.1771e-39 156 332 0 0 0 0.83857 -0.36296 -0.40627 0.025446
-0.051841 0.1453 1.061 5.3473e-39 411 332 0 0 0 0.8551 -0.33706 -0.39396 0.027456
0.053691 0.14474 1.0615 4.9325e-39 276.5 332.5 0 0 0 -0.83553 -0.12469 -0.5351 0.027968
0.054885 0.14462 1.0605 4.8403e-39 277.5 332.5 0 0 0 -0.85277 -0.10181 -0.51227 0.036006
-0.051198 0.1471 1.0605 6.4537e-39 316 333 0 0 0 0.86516 -0.31623 -0.38923 0.026325
0.052855 0.147 1.0613 5.9927e-39 343.33 333.33 0 0 0 -0.84997 -0.074497 -0.52153 0.034048
-0.049359 0.14902 1.061 5.9005e-39 212 334 0 0 0 0.85827 -0.3238 -0.39814 0.026755
0.056103 0.20347 1.0601 6.9147e-39 156 355 0 0 0 0.89877 0.37339 -0.22977 0.026324
0.051142 0.20595 1.0601 7.1913e-39 475 355 0 0 0 0.84049 0.45317 -0.29702 0.026243
0.052427 0.20488 1.061 5.8083e-39 375 355 0 0 0 0.87174 0.41218 -0.2649 0.028691
0.054957 0.20506 1.0619 5.163e-39 377 355 0 0 0 0.89291 0.392 -0.22146 0.029659
0.057392 0.20488 1.061 5.163e-39 378 355 0 0 0 0.89612 0.38697 -0.21732 0.028877
0.051186 0.20737 1.061 6.3615e-39 253 356 0 0 0 0.82844 0.47992 -0.28874 0.023945
0.051186 0.20861 1.061 7.56e-39 460 356 0 0 0 0.84323 0.46008 -0.27802 0.022638
0.05123 0.21003 1.0619 5.5317e-39 241 357 0 0 0 0.7938 0.5254 -0.30633 0.022969
0.055027 0.13131 1.0633 7.2374e-39 235 325.5 0 0 0 -0.80761 -0.27681 -0.52072 0.0061583
0.055004 0.13312 1.0628 5.2552e-39 176 327 0 0 0 -0.80758 -0.29086 -0.51305 0.0061691
0.055051 0.1351 1.0637 7.0069e-39 323.5 327.5 0 0 0 -0.8034 -0.29809 -0.51545 0.0061681
0.055051 0.13696 1.0637 5.9005e-39 170 329 0 0 0 -0.80293 -0.28272 -0.52476 0.0090066
0.055004 0.13871 1.0628 5.8544e-39 311 329.5 0 0 0 -0.80432 -0.28095 -0.52359 0.010759
-0.053174 0.14182 1.0628 6.8225e-39 458 330 0 0 0 0.82678 -0.36098 -0.43144 0.02684
0.053377 0.14149 1.0634 7.8981e-39 303.67 330.67 0 0 0 -0.80875 -0.26011 -0.52751 0.013977
0.055004 0.14058 1.0628 5.9005e-39 441 330 0 0 0 -0.80397 -0.26469 -0.53251 0.014829
-0.051975 0.14319 1.0637 8.482e-39 248 331 0 0 0 0.83678 -0.3129 -0.44933 0.029345
0.053162 0.14312 1.0633 6.3615e-39 478.5 331 0 0 0 -0.81769 -0.21817 -0.53271 0.020427
-0.05193 0.14431 1.0628 5.5317e-39 162 332 0 0 0 0.84673 -0.32233 -0.42327 0.027537
0.052517 0.14493 1.0628 5.3473e-39 275.5 332.5 0 0 0 -0.82551 -0.18308 -0.53386 0.024151
-0.050731 0.14692 1.0637 5.9005e-39 201 333 0 0 0 0.85382 -0.29609 -0.42815 0.027561
0.053807 0.20541 1.0637 5.4395e-39 376 355 0 0 0 0.87346 0.42606 -0.23567 0.031116
0.055004 0.2071 1.0628 7.053e-39 366 355.5 0 0 0 0.85213 0.45352 -0.26115 0.029507
0.0539 0.13346 1.0655 5.5317e-39 175 327 0 0 0 -0.80256 -0.28872 -0.52206 0.0052061
0.0539 0.13595 1.0655 8.2054e-39 228 328 0 0 0 -0.80438 -0.29465 -0.5159 0.0051843
0.0539 0.1372 1.0655 5.8083e-39 169 329 0 0 0 -0.80606 -0.29674 -0.51207 0.0050703
0.053453 0.1392 1.0649 5.8083e-39 271.33 329.67 0 0 0 -0.80655 -0.28081 -0.52021 0.0077652
-0.053312 0.14094 1.0655 6.2693e-39 216 330 0 0 0 0.80498 -0.37766 -0.45759 0.03096
0.052608 0.14082 1.0646 5.6239e-39 439 330 0 0 0 -0.80641 -0.2745 -0.52378 0.008008
-0.05202 0.14207 1.0646 7.0069e-39 459 330 0 0 0 0.82853 -0.33063 -0.4519 0.032778
-0.050774 0.1458 1.0646 5.7161e-39 412 332 0 0 0 0.84488 -0.28548 -0.45242 0.029096
-0.049572 0.14593 1.0655 5.8083e-39 413 332 0 0 0 0.84003 -0.27086 -0.47009 0.029553
-0.049529 0.14705 1.0646 5.7161e-39 202 333 0 0 0 0.84962 -0.26442 -0.45632 0.027286
-0.048283 0.14954 1.0646 6.0849e-39 213 334 0 0 0 0.85938 -0.23913 -0.45198 0.026285
0.0539 0.20951 1.0655 7.4678e-39 461 356 0 0 0 0.5903 0.65365 -0.47358 0.019644
0.053345 0.13301 1.0669 5.3473e-39 195 326.5 0 0 0 -0.80329 -0.2851 -0.52292 0.0048701
0.053946 0.13482 1.0665 5.8083e-39 417 327 0 0 0 -0.803 -0.28838 -0.52157 0.005011
0.052722 0.13675 1.0669 6.7764e-39 197.5 328.5 0 0 0 -0.8083 -0.28509 -0.51514 0.0046214
-0.053404 0.13869 1.0674 4.7942e-39 183 329 0 0 0 0.77367 -0.40852 -0.4843 0.040132
0.052699 0.13857 1.0665 5.8083e-39 398 329 0 0 0 -0.80757 -0.2893 -0.51395 0.00471
-0.05211 0.14106 1.0665 6.1771e-39 217 330 0 0 0 0.8135 -0.33447 -0.47576 0.035903
-0.050906 0.14305 1.0674 7.3296e-39 354.5 330.5 0 0 0 0.81843 -0.31268 -0.48209 0.034798
-0.049657 0.14305 1.0674 6.9607e-39 355.5 330.5 0 0 0 0.82609 -0.28634 -0.48538 0.034415
0.051495 0.14305 1.0674 7.7905e-39 355.5 331 0 0 0 -0.81797 -0.27271 -0.5065 0.0047898
-0.050862 0.14481 1.0665 5.3473e-39 163 332 0 0 0 0.83653 -0.2793 -0.47138 0.033049
-0.049614 0.14481 1.0665 5.163e-39 164 332 0 0 0 0.83341 -0.27895 -0.47709 0.03193
0.051451 0.14481 1.0665 5.7161e-39 384 332 0 0 0 -0.8175 -0.25795 -0.51494 0.0070263
-0.048388 0.14674 1.0669 5.9005e-39 308.5 332.5 0 0 0 0.84863 -0.22236 -0.47998 0.028302
0.05105 0.14651 1.0668 5.5625e-39 248.33 333 0 0 0 -0.81748 -0.26146 -0.51319 0.0064
-0.048367 0.14855 1.0665 6.4537e-39 433 333 0 0 0 0.85591 -0.22194 -0.46707 0.028116
0.051451 0.14855 1.0665 6.0849e-39 194 334 0 0 0 -0.82188 -0.13868 -0.55252 0.020255
-0.04716 0.15118 1.0674 6.0849e-39 439 334 0 0 0 0.85941 -0.17238 -0.48136 0.024907
0.053946 0.20719 1.0665 7.6522e-39 476 355 0 0 0 0.77987 0.52144 -0.34627 0.030837
0.053946 0.20844 1.0665 6.1771e-39 254 356 0 0 0 0.62493 0.63299 -0.45693 0.02079
0.050247 0.21361 1.0674 6.4537e-39 219 358 0 0 0 0.47911 0.70656 -0.52079 0.018676
0.048998 0.21611 1.0674 6.4537e-39 189 359 0 0 0 0.51451 0.67688 -0.52642 0.022532
0.05404 0.13131 1.0683 9.6805e-39 252 325 0 0 0 -0.80384 -0.27436 -0.5278 0.0051285
0.051584 0.13392 1.0692 5.8083e-39 173 327 0 0 0 -0.80486 -0.27171 -0.52761 0.0042461
0.05279 0.13256 1.0683 5.0708e-39 215 326 0 0 0 -0.80346 -0.27919 -0.52583 0.0046287
0.05279 0.13506 1.0683 5.2552e-39 416 327 0 0 0 -0.80552 -0.28023 -0.52212 0.0044985
0.051584 0.13705 1.0692 6.3615e-39 196.5 328.5 0 0 0 -0.80831 -0.2721 -0.5221 0.0042709
-0.052245 0.13893 1.0692 5.163e-39 184 329 0 0 0 0.7787 -0.36902 -0.5074 0.039043
0.051584 0.13893 1.0692 5.8083e-39 397 329 0 0 0 -0.81161 -0.26873 -0.51872 0.004345
-0.0522 0.14006 1.0683 5.5317e-39 420 329 0 0 0 0.8035 -0.34886 -0.48237 0.040525
-0.050994 0.14143 1.0692 6.4537e-39 218 330 0 0 0 0.80945 -0.32036 -0.4921 0.038684
-0.049096 0.14075 1.0688 6.2923e-39 321 329.5 0 0 0 0.80826 -0.31583 -0.49696 0.037751
0.051138 0.14093 1.0686 6.0542e-39 360.33 330 0 0 0 -0.81695 -0.26502 -0.5122 0.0044883
-0.04845 0.14319 1.0683 6.9147e-39 356.5 330.5 0 0 0 0.82205 -0.28367 -0.49372 0.038474
0.049083 0.14393 1.0692 6.5459e-39 475 331 0 0 0 -0.82416 -0.24409 -0.51105 0.0047759
0.050312 0.14325 1.0688 7.6061e-39 354.5 331 0 0 0 -0.8204 -0.26044 -0.50904 0.0046462
-0.04845 0.14506 1.0683 5.0708e-39 165 332 0 0 0 0.84019 -0.24466 -0.48396 0.033475
-0.047241 0.14518 1.0692 4.9786e-39 166 332 0 0 0 0.83523 -0.20142 -0.51169 0.031865
0.049083 0.14518 1.0692 5.6239e-39 382 332 0 0 0 -0.82513 -0.2474 -0.50789 0.0049608
0.05029 0.14506 1.0683 5.8083e-39 383 332 0 0 0 -0.82356 -0.25455 -0.5069 0.0048004
-0.047221 0.147 1.0688 5.9927e-39 309.5 332.5 0 0 0 0.84485 -0.20144 -0.49563 0.029404
0.049083 0.14643 1.0692 5.2552e-39 163 333 0 0 0 -0.8282 -0.23827 -0.50727 0.0049455
-0.047201 0.14881 1.0683 6.6381e-39 434 333 0 0 0 0.85239 -0.18479 -0.48916 0.026548
-0.047201 0.15006 1.0683 6.7303e-39 214 334 0 0 0 0.85504 -0.17871 -0.4868 0.026311
-0.047201 0.15256 1.0683 6.1771e-39 213 335 0 0 0 0.86018 -0.16253 -0.48339 0.023808
0.05404 0.2113 1.0683 5.7161e-39 242 357 0 0 0 0.45457 0.72155 -0.52223 0.015453
0.052881 0.13154 1.0702 9.5883e-39 251 325 0 0 0 -0.80229 -0.2744 -0.53013 0.0045177
0.051629 0.13279 1.0702 5.3473e-39 214 326 0 0 0 -0.8041 -0.26953 -0.52988 0.0043932
0.051629 0.13529 1.0702 4.8864e-39 415 327 0 0 0 -0.8054 -0.26975 -0.52779 0.0041284
-0.05229 0.1378 1.0702 8.6664e-39 235 328 0 0 0 0.76449 -0.38214 -0.51915 0.03839
-0.048576 0.13792 1.0711 8.8508e-39 238 328 0 0 0 0.76274 -0.25118 -0.59593 0.04121
-0.051083 0.13917 1.0711 5.2552e-39 185 329 0 0 0 0.78658 -0.30361 -0.53769 0.039112
-0.04916 0.13905 1.0702 5.8083e-39 186.5 329 0 0 0 0.7825 -0.27509 -0.55859 0.038894
-0.047323 0.13917 1.0711 5.5317e-39 188 329 0 0 0 0.76986 -0.23731 -0.59245 0.040353
0.049168 0.13917 1.0711 5.0708e-39 395 329 0 0 0 -0.81522 -0.24273 -0.52583 0.0046526
0.050421 0.13917 1.0711 5.4395e-39 396 329 0 0 0 -0.8138 -0.25074 -0.52427 0.0045268
-0.051038 0.1403 1.0702 5.4395e-39 421 329 0 0 0 0.8029 -0.30779 -0.51051 0.039448
-0.046905 0.14125 1.0711 6.3615e-39 289 329.67 0 0 0 0.7945 -0.19592 -0.57479 0.038312
0.049147 0.14099 1.0706 6.131e-39 320 330 0 0 0 -0.81779 -0.2438 -0.52133 0.0046901
0.050377 0.1403 1.0702 5.6239e-39 205 330 0 0 0 -0.81605 -0.2559 -0.51824 0.0043889
-0.046676 0.14287 1.0706 6.7764e-39 463.5 330 0 0 0 0.80426 -0.19349 -0.56189 0.03674
0.047915 0.14293 1.0711 8.2976e-39 231 331 0 0 0 -0.82391 -0.22578 -0.51981 0.0050626
0.049125 0.1428 1.0702 8.3898e-39 232 331 0 0 0 -0.82273 -0.23826 -0.51609 0.0047948
-0.046474 0.14456 1.0708 6.3923e-39 224 331.33 0 0 0 0.81767 -0.17668 -0.54791 0.036326
0.047483 0.14497 1.0708 5.4088e-39 411.67 331.67 0 0 0 -0.82825 -0.21934 -0.51565 0.0046794
-0.04603 0.14718 1.0702 5.9927e-39 310.5 332.5 0 0 0 0.82966 -0.16313 -0.5339 0.031251
0.047065 0.14706 1.0708 6.0234e-39 244.67 333 0 0 0 -0.83151 -0.22057 -0.50984 0.0044785
-0.04603 0.14906 1.0702 6.7303e-39 435 333 0 0 0 0.83466 -0.14577 -0.53112 0.027892
0.046661 0.14919 1.0711 6.3615e-39 193 334 0 0 0 -0.83691 -0.20679 -0.50678 0.0048067
-0.04603 0.15095 1.0702 6.4076e-39 327.5 334 0 0 0 0.83907 -0.13327 -0.52745 0.024359
-0.04603 0.15282 1.0702 6.8225e-39 214 335 0 0 0 0.84152 -0.12476 -0.52562 0.022741
0.051629 0.21417 1.0702 6.3615e-39 220 358 0 0 0 0.51451 0.67688 -0.52642 0.022532
0.051741 0.13119 1.0725 7.6983e-39 213 325 0 0 0 -0.79939 -0.26993 -0.53676 0.0048686
0.049296 0.13325 1.0739 5.7161e-39 212 326 0 0 0 -0.80541 -0.25007 -0.53738 0.005423
0.050552 0.13325 1.0739 5.6239e-39 213 326 0 0 0 -0.80323 -0.25756 -0.5371 0.0053513
-0.048703 0.13576 1.0739 5.163e-39 183 327 0 0 0 0.72967 -0.27025 -0.62813 0.038936
-0.04617 0.13508 1.0734 5.3934e-39 204.5 326.5 0 0 0 0.71661 -0.25334 -0.64984 0.037134
0.049253 0.13501 1.073 5.7622e-39 284.5 327 0 0 0 -0.80605 -0.24399 -0.53922 0.0048052
0.050486 0.13495 1.0725 5.3473e-39 293 327 0 0 0 -0.80654 -0.24558 -0.53777 0.0045359
-0.048619 0.13678 1.072 5.4395e-39 427 327 0 0 0 0.74087 -0.27877 -0.61106 0.039898
-0.046778 0.1369 1.073 5.3934e-39 428.5 327 0 0 0 0.74675 -0.23196 -0.62334 0.037685
-0.044934 0.13702 1.0739 5.5317e-39 430 327 0 0 0 0.73526 -0.18926 -0.65082 0.034278
0.048647 0.13696 1.0734 6.2693e-39 223.5 328 0 0 0 -0.80983 -0.22897 -0.54014 0.0057754
0.050465 0.13678 1.072 6.6381e-39 225 328 0 0 0 -0.80796 -0.25001 -0.53357 0.0042701
-0.051127 0.13803 1.072 8.482e-39 236 328 0 0 0 0.75574 -0.29306 -0.58564 0.04087
-0.049873 0.13803 1.072 8.482e-39 237 328 0 0 0 0.76176 -0.25734 -0.59456 0.041397
-0.046528 0.13845 1.072 7.8059e-39 224 328.33 0 0 0 0.76496 -0.21983 -0.6054 0.038715
-0.044934 0.1389 1.0739 7.0991e-39 217.5 328.5 0 0 0 0.75586 -0.15771 -0.63546 0.034638
0.04739 0.13947 1.0734 5.209e-39 393.5 329 0 0 0 -0.81199 -0.21299 -0.54342 0.0061399
0.048625 0.13815 1.073 6.131e-39 321 328.5 0 0 0 -0.81182 -0.22371 -0.53935 0.0052025
0.050465 0.13803 1.072 5.3473e-39 166 329 0 0 0 -0.81169 -0.24515 -0.53016 0.0045143
-0.04611 0.14054 1.072 5.9927e-39 425 329 0 0 0 0.77962 -0.18484 -0.59835 0.038137
-0.044914 0.14136 1.0734 6.1771e-39 324.5 329.5 0 0 0 0.77181 -0.13931 -0.6204 0.035103
0.045527 0.14079 1.0739 5.8083e-39 201 330 0 0 0 -0.80625 -0.1988 -0.55716 0.0081515
0.04736 0.14126 1.0727 6.2002e-39 318.5 330 0 0 0 -0.81862 -0.21562 -0.53232 0.0054447
-0.044895 0.14318 1.073 6.3615e-39 465 330 0 0 0 0.78537 -0.12246 -0.60679 0.034975
-0.043259 0.14288 1.0739 6.4844e-39 385.67 330 0 0 0 0.7727 -0.10214 -0.62649 0.033016
0.045507 0.14261 1.0734 7.1452e-39 331 330.5 0 0 0 -0.8109 -0.20527 -0.548 0.0074161
0.046702 0.14305 1.072 8.021e-39 230 331 0 0 0 -0.82188 -0.21798 -0.52631 0.0055736
-0.044895 0.14506 1.073 5.9928e-39 211 331.5 0 0 0 0.79373 -0.11745 -0.59683 0.034772
-0.043049 0.14518 1.0739 5.0017e-39 274 331.5 0 0 0 0.7804 -0.090014 -0.61877 0.03238
0.044879 0.14512 1.0734 5.7162e-39 425 331.5 0 0 0 -0.81665 -0.19137 -0.54449 0.0081964
0.046702 0.14431 1.072 6.2693e-39 473 331 0 0 0 -0.82359 -0.20844 -0.52749 0.0053106
-0.044895 0.14694 1.073 6.1771e-39 417 332 0 0 0 0.80337 -0.10984 -0.58526 0.033986
-0.043049 0.14707 1.0739 5.7622e-39 418.5 332 0 0 0 0.78365 -0.090524 -0.61457 0.0325
0.044859 0.14694 1.073 6.2693e-39 157.5 333 0 0 0 -0.82105 -0.19418 -0.53681 0.0074596
-0.044856 0.14869 1.072 6.2693e-39 321 333 0 0 0 0.81806 -0.12426 -0.56154 0.029238
-0.043031 0.14889 1.0734 6.5459e-39 322.5 333 0 0 0 0.79498 -0.079077 -0.60146 0.027542
0.044859 0.14883 1.073 5.7622e-39 292 333.5 0 0 0 -0.82491 -0.17211 -0.53842 0.0073657
-0.044876 0.15127 1.0725 6.1771e-39 330 334 0 0 0 0.816 -0.085496 -0.57169 0.022441
-0.043049 0.15084 1.0739 6.2693e-39 217.5 334 0 0 0 0.79527 -0.059297 -0.60335 0.024315
0.044879 0.15078 1.0734 5.4395e-39 420.5 334 0 0 0 -0.82604 -0.14718 -0.54406 0.0078998
-0.044895 0.15322 1.073 7.1913e-39 215 335 0 0 0 0.81618 -0.062746 -0.57438 0.019916
-0.043678 0.15272 1.0739 6.1771e-39 330.5 334.5 0 0 0 0.80227 -0.056191 -0.5943 0.020796
-0.04611 0.15434 1.072 6.6381e-39 432 335 0 0 0 0.8301 -0.080324 -0.5518 0.019758
0.049382 0.12971 1.0758 5.2552e-39 209 324 0 0 0 -0.7905 -0.27601 -0.54674 0.0066009
0.049339 0.13085 1.0748 5.7161e-39 174 325 0 0 0 -0.8006 -0.26189 -0.53894 0.0062112
0.05064 0.13096 1.0758 5.8083e-39 175 325 0 0 0 -0.8016 -0.26344 -0.5367 0.0059733
0.048528 0.1326 1.0755 7.7137e-39 235.33 325.33 0 0 0 -0.79749 -0.24829 -0.54987 0.0067246
0.050596 0.13211 1.0748 9.5883e-39 249 325 0 0 0 -0.80099 -0.26027 -0.53915 0.0055487
-0.047509 0.13531 1.0753 5.3012e-39 203.5 326.5 0 0 0 0.71729 -0.24063 -0.65391 0.035578
-0.044992 0.13531 1.0753 5.8083e-39 205.5 326.5 0 0 0 0.70687 -0.20622 -0.67661 0.032661
0.048081 0.13525 1.0748 5.9927e-39 283.5 327 0 0 0 -0.80475 -0.2309 -0.54686 0.0067333
-0.052518 0.13714 1.0748 5.3473e-39 422 327 0 0 0 0.7329 -0.30095 -0.61015 0.041897
-0.050632 0.13714 1.0748 5.8544e-39 425.5 327 0 0 0 0.73515 -0.26589 -0.62358 0.03969
-0.043754 0.13726 1.0758 5.6239e-39 431 327 0 0 0 0.72145 -0.13951 -0.67826 0.031695
0.046865 0.13726 1.0758 5.9927e-39 222 328 0 0 0 -0.8021 -0.20942 -0.55927 0.0094351
-0.043105 0.13908 1.0753 7.053e-39 219 328.5 0 0 0 0.73178 -0.11212 -0.67225 0.031763
0.045173 0.13931 1.0755 5.5932e-39 417 328.67 0 0 0 -0.79436 -0.19954 -0.57374 0.010544
0.046824 0.1384 1.0748 6.3615e-39 473 328 0 0 0 -0.80581 -0.20688 -0.55486 0.0082317
-0.043087 0.14091 1.0748 5.7622e-39 427.5 329 0 0 0 0.7509 -0.11066 -0.65108 0.03276
0.044347 0.14103 1.0758 5.9005e-39 200 330 0 0 0 -0.79091 -0.18596 -0.583 0.011716
-0.042458 0.14217 1.0748 6.9147e-39 225 330 0 0 0 0.75461 -0.086803 -0.65041 0.032184
-0.041237 0.14292 1.0758 7.0529e-39 347 330 0 0 0 0.73816 -0.059294 -0.67202 0.031085
0.044309 0.1428 1.0748 7.1452e-39 330 330.5 0 0 0 -0.8012 -0.18668 -0.56853 0.010041
-0.041237 0.14481 1.0758 4.8864e-39 380 331 0 0 0 0.7446 -0.053218 -0.66539 0.030889
-0.041237 0.1467 1.0758 5.2551e-39 295.5 332 0 0 0 0.75152 -0.047681 -0.65799 0.030219
-0.041237 0.14921 1.0758 6.4076e-39 324 333 0 0 0 0.76103 -0.03898 -0.64754 0.025263
-0.041237 0.1511 1.0758 6.6381e-39 219 334 0 0 0 0.7618 -0.013632 -0.64767 0.018669
-0.042458 0.15286 1.0748 6.1771e-39 331.5 334.5 0 0 0 0.78237 -0.017525 -0.62257 0.016149
-0.044973 0.15474 1.0748 6.3615e-39 433 335 0 0 0 0.80451 -0.039378 -0.59263 0.016531
-0.043125 0.15488 1.0758 6.0388e-39 434.5 335 0 0 0 0.78655 0.011363 -0.61742 0.01135
-0.045012 0.15676 1.0758 6.131e-39 308 336 0 0 0 0.79704 0.02115 -0.60355 0.0092509
-0.043754 0.15614 1.0758 5.8083e-39 202 336 0 0 0 0.78979 0.019665 -0.61306 0.0098554
0.048165 0.12919 1.0767 5.1168e-39 220.5 323.5 0 0 0 -0.78204 -0.29616 -0.54836 0.0093697
0.048165 0.13108 1.0767 5.6239e-39 173 325 0 0 0 -0.78668 -0.2776 -0.55142 0.0094844
-0.047612 0.13371 1.0776 8.3898e-39 255 325 0 0 0 0.67491 -0.27198 -0.68595 0.0362
-0.048831 0.13486 1.0767 5.5317e-39 222 326 0 0 0 0.69908 -0.27209 -0.66125 0.037138
0.046946 0.13498 1.0776 5.9005e-39 169 327 0 0 0 -0.78802 -0.23552 -0.56882 0.01215
-0.050765 0.13624 1.0776 5.3934e-39 181 327 0 0 0 0.71225 -0.26033 -0.65186 0.04005
-0.042569 0.1375 1.0776 5.8083e-39 432 327 0 0 0 0.69964 -0.094062 -0.70827 0.030854
0.045252 0.13704 1.0773 6.0235e-39 278 327.67 0 0 0 -0.78036 -0.21509 -0.58718 0.013861
0.046906 0.13612 1.0767 5.6239e-39 396 327 0 0 0 -0.79105 -0.22593 -0.5685 0.009698
-0.041272 0.13927 1.0767 7.4679e-39 220.5 328.5 0 0 0 0.70928 -0.074331 -0.701 0.02987
0.044386 0.13864 1.0767 6.1771e-39 466 328 0 0 0 -0.78528 -0.19624 -0.58721 0.012747
-0.041272 0.14116 1.0767 5.7161e-39 429 329 0 0 0 0.72479 -0.059602 -0.68639 0.030065
0.043164 0.14128 1.0776 6.0849e-39 199 330 0 0 0 -0.77478 -0.17989 -0.6061 0.014737
-0.040048 0.14317 1.0776 7.3296e-39 348 330 0 0 0 0.70889 -0.029374 -0.70471 0.028141
0.043145 0.14311 1.0771 7.0991e-39 329 330.5 0 0 0 -0.78057 -0.16577 -0.60269 0.01335
-0.040048 0.14506 1.0776 4.9786e-39 381 331 0 0 0 0.71711 -0.021873 -0.69662 0.027796
0.043126 0.14493 1.0767 6.8225e-39 470 331 0 0 0 -0.78485 -0.1523 -0.60068 0.01259
-0.040048 0.14695 1.0776 5.3473e-39 296.5 332 0 0 0 0.72196 -0.016802 -0.69173 0.027381
0.043126 0.14682 1.0767 6.6842e-39 205 332.5 0 0 0 -0.7843 -0.13334 -0.60588 0.012575
-0.040048 0.14884 1.0776 6.3615e-39 210 333 0 0 0 0.72891 -0.011686 -0.68451 0.022383
0.043126 0.14934 1.0767 5.3934e-39 290.5 333.5 0 0 0 -0.78818 -0.11187 -0.60519 0.011462
-0.040048 0.1501 1.0776 6.2693e-39 440 333 0 0 0 0.73492 -0.017241 -0.67794 0.022605
0.043126 0.15123 1.0767 5.6239e-39 419 334 0 0 0 -0.79104 -0.09434 -0.60444 0.0099837
-0.041272 0.15312 1.0767 6.2693e-39 332.5 334.5 0 0 0 0.75622 0.004697 -0.65431 0.01525
-0.042964 0.15716 1.077 5.7468e-39 345.33 336 0 0 0 0.77176 0.053491 -0.63365 0.0065231
-0.0432 0.15893 1.0776 5.3934e-39 158.5 337 0 0 0 0.77183 0.070116 -0.63195 0.0051517
0.045766 0.13395 1.0795 5.3473e-39 209 326 0 0 0 -0.76928 -0.2361 -0.59369 0.014834
0.047008 0.13326 1.0791 6.9146e-39 228 325.5 0 0 0 -0.77289 -0.25818 -0.57964 0.012628
0.045726 0.13509 1.0786 5.5317e-39 168 327 0 0 0 -0.77429 -0.2377 -0.58649 0.014311
-0.040732 0.13768 1.0791 6.592e-39 433.5 327 0 0 0 0.67684 -0.05749 -0.73388 0.029592
0.044464 0.13635 1.0786 8.2054e-39 255 327 0 0 0 -0.77551 -0.2095 -0.59556 0.015807
-0.040083 0.13888 1.0786 9.2196e-39 245 328 0 0 0 0.68222 -0.045315 -0.72974 0.029315
-0.038855 0.139 1.0795 8.7586e-39 246 328 0 0 0 0.66379 -0.023523 -0.74755 0.028639
0.04324 0.139 1.0795 6.4537e-39 464 328 0 0 0 -0.76334 -0.19766 -0.61501 0.018218
-0.040083 0.14077 1.0786 5.9927e-39 314 329 0 0 0 0.69203 -0.040629 -0.72073 0.028256
0.043202 0.14014 1.0786 4.9786e-39 388 329 0 0 0 -0.77034 -0.18298 -0.61082 0.015672
-0.038855 0.14279 1.0795 8.2054e-39 228 330 0 0 0 0.68665 -0.012768 -0.72688 0.026516
0.041977 0.14279 1.0795 5.9005e-39 430 330 0 0 0 -0.75639 -0.15117 -0.63641 0.018337
-0.038855 0.14469 1.0795 6.0849e-39 426 330.5 0 0 0 0.69285 -0.0071178 -0.72105 0.02608
0.041977 0.14469 1.0795 7.1913e-39 347.5 331 0 0 0 -0.75595 -0.13791 -0.63994 0.017299
-0.038855 0.14721 1.0795 5.3012e-39 302.5 332 0 0 0 0.7004 0.00078546 -0.71375 0.025497
0.041977 0.14721 1.0795 6.6842e-39 204 332.5 0 0 0 -0.7535 -0.11595 -0.64715 0.015927
-0.038855 0.1491 1.0795 5.9927e-39 211 333 0 0 0 0.70763 0.0036168 -0.70658 0.021256
0.04194 0.14897 1.0786 5.4395e-39 411 333 0 0 0 -0.758 -0.094817 -0.64533 0.014389
-0.040083 0.1515 1.0786 6.7303e-39 220 334 0 0 0 0.72616 0.0094959 -0.68746 0.016082
0.041958 0.15093 1.0791 5.3473e-39 293 334 0 0 0 -0.74751 -0.066984 -0.66087 0.013515
-0.040083 0.15276 1.0786 6.2693e-39 450 334 0 0 0 0.73209 0.034928 -0.68032 0.011512
-0.040714 0.15465 1.0786 6.4537e-39 327.5 335 0 0 0 0.74506 0.058908 -0.66439 0.0073656
-0.041345 0.15718 1.0786 5.5317e-39 311 336 0 0 0 0.75535 0.062807 -0.6523 0.0064687
-0.041345 0.15907 1.0786 5.5317e-39 160 337 0 0 0 0.75316 0.071522 -0.65394 0.007178
-0.042606 0.16096 1.0786 5.5779e-39 271.5 337.5 0 0 0 0.76071 0.082112 -0.64388 0.0067957
-0.041381 0.1611 1.0795 5.624e-39 272.5 337.5 0 0 0 0.74218 0.050915 -0.66827 0.010868
0.045846 0.12912 1.0814 5.163e-39 231 323 0 0 0 -0.72781 -0.34938 -0.59011 0.018601
0.045846 0.13292 1.0814 8.7586e-39 245 325 0 0 0 -0.7482 -0.28266 -0.60025 0.019003
-0.05031 0.13545 1.0814 5.7161e-39 221 326 0 0 0 0.67062 -0.26572 -0.69258 0.038802
-0.040821 0.13545 1.0814 6.9608e-39 226.5 326 0 0 0 0.64356 -0.064734 -0.76265 0.031846
0.04456 0.13476 1.081 5.4395e-39 187.5 326.5 0 0 0 -0.75146 -0.24311 -0.61335 0.018409
-0.040153 0.13659 1.0805 5.5317e-39 187 327 0 0 0 0.64985 -0.051845 -0.75829 0.030729
-0.038889 0.13786 1.0805 6.8225e-39 435 327 0 0 0 0.65306 -0.027801 -0.75679 0.028614
0.043296 0.13728 1.081 7.1452e-39 236.5 327.5 0 0 0 -0.74653 -0.20852 -0.63184 0.021359
-0.038889 0.14102 1.0805 5.9466e-39 315 329 0 0 0 0.66721 -0.012302 -0.74477 0.02665
0.042032 0.14108 1.081 5.6701e-39 292.5 329.5 0 0 0 -0.7419 -0.17319 -0.64776 0.021924
-0.037658 0.14304 1.0814 8.021e-39 229 330 0 0 0 0.66601 0.0049355 -0.74593 0.025
-0.037658 0.14493 1.0814 6.3154e-39 427 330.5 0 0 0 0.67559 0.011529 -0.73719 0.02433
0.040785 0.1443 1.0814 7.2835e-39 225 331 0 0 0 -0.7272 -0.12724 -0.67453 0.021117
-0.037658 0.14683 1.0814 4.9786e-39 184 332 0 0 0 0.67876 0.015383 -0.7342 0.023801
-0.037658 0.14874 1.0814 5.9927e-39 317.5 332.5 0 0 0 0.68796 0.016147 -0.72557 0.020192
0.040785 0.14937 1.0814 5.2552e-39 402 333 0 0 0 -0.72766 -0.078132 -0.68147 0.016558
-0.038906 0.1512 1.081 6.2693e-39 333 333.5 0 0 0 0.70912 0.023053 -0.70471 0.015267
-0.037658 0.15063 1.0814 6.6381e-39 450 333 0 0 0 0.6996 0.029229 -0.71393 0.015009
0.040785 0.15063 1.0814 4.7942e-39 167 334 0 0 0 -0.72672 -0.062147 -0.68412 0.015608
-0.038923 0.15316 1.0814 5.9927e-39 451 334 0 0 0 0.71585 0.061359 -0.69556 0.0088417
0.042013 0.15303 1.0805 5.7161e-39 197 335 0 0 0 -0.74479 -0.05877 -0.6647 0.012451
-0.040153 0.15555 1.0805 6.3615e-39 437 335 0 0 0 0.72948 0.068896 -0.68052 0.0080643
-0.040153 0.15682 1.0805 5.7161e-39 205 336 0 0 0 0.73006 0.064439 -0.68034 0.0085827
-0.040188 0.15885 1.0814 5.4395e-39 290 336.5 0 0 0 0.72139 0.050865 -0.69066 0.011169
-0.040188 0.16265 1.0814 5.8544e-39 270.5 338 0 0 0 0.7161 0.013903 -0.69786 0.017346
0.043391 0.12935 1.0833 6.1771e-39 229 323 0 0 0 -0.67772 -0.40201 -0.6157 0.028005
0.04462 0.12924 1.0824 5.6239e-39 230 323 0 0 0 -0.71388 -0.36574 -0.59717 0.022728
-0.036456 0.13125 1.0833 5.3473e-39 223 323.5 0 0 0 0.56141 -0.025836 -0.82713 0.035629
-0.035158 0.13114 1.0824 5.67e-39 224 323.5 0 0 0 0.55418 -0.028061 -0.83192 0.035853
0.043391 0.13125 1.0833 5.67e-39 320.5 324 0 0 0 -0.70234 -0.33204 -0.62966 0.027299
0.045293 0.13125 1.0833 5.7852e-39 322 324 0 0 0 -0.73281 -0.31505 -0.6031 0.023452
0.047173 0.1312 1.0828 5.67e-39 323.5 324 0 0 0 -0.74272 -0.32105 -0.58762 0.021252
-0.040258 0.13315 1.0833 4.7942e-39 178 325 0 0 0 0.60786 -0.054577 -0.79216 0.034298
-0.036456 0.13315 1.0833 4.9786e-39 180 325 0 0 0 0.57499 -0.017283 -0.81797 0.033277
-0.035189 0.13315 1.0833 5.4395e-39 181 325 0 0 0 0.56017 -0.0094496 -0.82832 0.033121
0.043391 0.13315 1.0833 9.3118e-39 243 325 0 0 0 -0.71804 -0.28359 -0.63561 0.026744
0.04462 0.13303 1.0824 9.4961e-39 244 325 0 0 0 -0.74147 -0.28299 -0.60839 0.022191
-0.051665 0.13569 1.0833 6.0849e-39 220 326 0 0 0 0.63431 -0.32866 -0.69974 0.045452
-0.040874 0.13436 1.0828 7.0991e-39 313 325 0 0 0 0.62383 -0.058779 -0.77935 0.033737
-0.036456 0.13442 1.0833 5.3473e-39 416 325 0 0 0 0.57932 -0.0039579 -0.81509 0.032449
-0.035189 0.13506 1.0833 6.8224e-39 323.5 325.5 0 0 0 0.57602 -0.00097464 -0.81743 0.031507
0.043353 0.13493 1.0824 5.5779e-39 186.5 326.5 0 0 0 -0.73345 -0.24025 -0.63587 0.025018
-0.03709 0.13695 1.0833 5.2091e-39 188.5 327 0 0 0 0.61272 -0.0067651 -0.79027 0.030034
-0.035189 0.13695 1.0833 5.3473e-39 190 327 0 0 0 0.58571 0.012096 -0.81043 0.0295
0.042124 0.13695 1.0833 8.021e-39 253 327 0 0 0 -0.72011 -0.22059 -0.65786 0.027489
-0.037082 0.13882 1.0831 7.3526e-39 342 327.5 0 0 0 0.62694 0.004715 -0.77906 0.027417
-0.035189 0.13885 1.0833 7.1452e-39 343.5 327.5 0 0 0 0.60199 0.019898 -0.79825 0.027522
0.040856 0.13949 1.0833 6.5459e-39 462 328 0 0 0 -0.71329 -0.18853 -0.67504 0.025929
0.042087 0.13873 1.0824 6.1771e-39 340.5 328 0 0 0 -0.72657 -0.19564 -0.65865 0.024565
-0.037691 0.14127 1.0824 5.9466e-39 316 329 0 0 0 0.6454 0.010292 -0.76377 0.025606
0.040821 0.14127 1.0824 5.5779e-39 291.5 329.5 0 0 0 -0.71779 -0.1648 -0.67648 0.024014
0.040821 0.14316 1.0824 5.7161e-39 429 330 0 0 0 -0.72305 -0.155 -0.67318 0.023555
0.040821 0.1457 1.0824 6.3615e-39 468 331 0 0 0 -0.7178 -0.10867 -0.68772 0.01954
0.040821 0.14696 1.0824 7.0069e-39 252 332 0 0 0 -0.72194 -0.11075 -0.68303 0.019581
0.039589 0.14963 1.0833 5.163e-39 401 333 0 0 0 -0.69609 -0.060959 -0.71537 0.017681
0.040821 0.14823 1.0824 5.9927e-39 154 333 0 0 0 -0.72435 -0.094239 -0.68296 0.017154
0.039589 0.15089 1.0833 4.8864e-39 166 334 0 0 0 -0.70268 -0.053158 -0.70952 0.015578
-0.037691 0.15266 1.0824 6.2693e-39 337 334 0 0 0 0.70302 0.05585 -0.70897 0.010197
0.039589 0.15216 1.0833 5.9005e-39 416 334 0 0 0 -0.69939 -0.050213 -0.71297 0.015332
0.040839 0.15273 1.0828 5.7622e-39 306.5 334.5 0 0 0 -0.7146 -0.048168 -0.69788 0.014561
-0.038957 0.15519 1.0824 6.5459e-39 329 335 0 0 0 0.71063 0.06011 -0.70099 0.0086319
-0.037724 0.15533 1.0833 6.3615e-39 330 335 0 0 0 0.69572 0.051639 -0.71645 0.0098528
0.040856 0.1547 1.0833 5.8083e-39 416 335 0 0 0 -0.71178 -0.049446 -0.70066 0.014885
-0.038957 0.15709 1.0824 5.9927e-39 206 336 0 0 0 0.70556 0.052792 -0.70668 0.0099823
-0.037724 0.15723 1.0833 6.4537e-39 207 336 0 0 0 0.69416 0.048276 -0.7182 0.011702
-0.038957 0.159 1.0824 5.3934e-39 291 336.5 0 0 0 0.71014 0.037405 -0.70306 0.013135
-0.037724 0.1585 1.0833 5.4395e-39 421 336 0 0 0 0.69383 0.042333 -0.71889 0.012922
-0.040223 0.16089 1.0824 5.2552e-39 399 337 0 0 0 0.71696 0.025103 -0.69666 0.01506
-0.038991 0.16103 1.0833 5.3473e-39 400 337 0 0 0 0.69533 0.026474 -0.7182 0.015352
-0.038974 0.16287 1.0828 5.9005e-39 271.5 338 0 0 0 0.6961 0.0068713 -0.71791 0.01749
0.044737 0.12831 1.0852 1.0418e-38 227 322 0 0 0 -0.67918 -0.43998 -0.58748 0.028601
0.046621 0.12889 1.0847 8.7125e-39 230 322.5 0 0 0 -0.7051 -0.39956 -0.58581 0.02502
-0.037757 0.132 1.0843 5.4395e-39 211 324 0 0 0 0.57308 -0.02479 -0.81912 0.034887
-0.041599 0.13338 1.0852 5.163e-39 177 325 0 0 0 0.59893 -0.045789 -0.79949 0.035496
-0.037757 0.13327 1.0843 4.7942e-39 179 325 0 0 0 0.58121 -0.021536 -0.81347 0.033341
-0.033966 0.13269 1.0847 5.3473e-39 198 324.5 0 0 0 0.53316 0.012209 -0.84593 0.031695
0.042198 0.13275 1.0852 7.3757e-39 339 324.5 0 0 0 -0.69153 -0.33017 -0.64247 0.034626
-0.050442 0.13454 1.0843 8.7586e-39 254 325 0 0 0 0.62929 -0.30426 -0.71514 0.045693
-0.037334 0.13538 1.0843 6.5459e-39 290.67 325.67 0 0 0 0.58775 -0.0016281 -0.80904 0.031386
-0.033966 0.13523 1.0847 7.0069e-39 324.5 325.5 0 0 0 0.55752 0.022823 -0.82985 0.030532
0.039659 0.13592 1.0852 6.0849e-39 455 326 0 0 0 -0.68078 -0.25848 -0.68537 0.034766
0.040928 0.13529 1.0852 5.9466e-39 330.5 326 0 0 0 -0.69168 -0.27734 -0.66683 0.033722
0.042161 0.13517 1.0843 5.9927e-39 331.5 326 0 0 0 -0.70796 -0.25477 -0.65869 0.030634
-0.033981 0.13719 1.0852 5.4395e-39 193 327 0 0 0 0.5653 0.036927 -0.82406 0.028338
0.039659 0.13719 1.0852 8.482e-39 251 327 0 0 0 -0.68513 -0.25025 -0.68409 0.034966
0.040892 0.13707 1.0843 8.2054e-39 252 327 0 0 0 -0.7001 -0.23467 -0.67438 0.030086
-0.033966 0.13904 1.0847 7.0991e-39 344.5 327.5 0 0 0 0.58037 0.03934 -0.8134 0.026685
0.039212 0.13923 1.0846 6.1771e-39 379 328 0 0 0 -0.68936 -0.20083 -0.69603 0.029201
0.040892 0.13834 1.0843 5.6239e-39 217 328 0 0 0 -0.70391 -0.2106 -0.67835 0.028592
-0.036488 0.14088 1.0843 6.0849e-39 201 329 0 0 0 0.61525 0.020634 -0.78806 0.025275
-0.03522 0.14088 1.0843 5.9927e-39 202 329 0 0 0 0.61166 0.029761 -0.79056 0.02491
-0.033951 0.14088 1.0843 5.7161e-39 203 329 0 0 0 0.59644 0.035175 -0.80189 0.024858
0.039007 0.14094 1.0847 5.2551e-39 384.5 329 0 0 0 -0.68572 -0.17142 -0.70739 0.027396
-0.036488 0.14278 1.0843 7.1913e-39 331.5 329.5 0 0 0 0.62841 0.028075 -0.77738 0.02386
-0.03522 0.14278 1.0843 7.514e-39 332.5 329.5 0 0 0 0.61615 0.037197 -0.78675 0.023239
-0.033951 0.14278 1.0843 7.7905e-39 333.5 329.5 0 0 0 0.61013 0.048557 -0.79081 0.019593
0.039007 0.14285 1.0847 5.5086e-39 311.5 330 0 0 0 -0.6819 -0.14704 -0.71651 0.026082
-0.036488 0.14531 1.0843 6.0388e-39 428 330.5 0 0 0 0.64401 0.034018 -0.76426 0.022347
-0.03522 0.14531 1.0843 5.9466e-39 429 330.5 0 0 0 0.63462 0.042463 -0.77165 0.019165
-0.033981 0.14481 1.0852 6.1771e-39 474 330 0 0 0 0.61721 0.05644 -0.78477 0.017443
0.039212 0.14515 1.0846 6.6688e-39 304.67 331 0 0 0 -0.68996 -0.11816 -0.71414 0.023576
-0.036488 0.14722 1.0843 5.163e-39 185 332 0 0 0 0.65595 0.033762 -0.75405 0.01926
-0.035251 0.14735 1.0852 5.5317e-39 186 332 0 0 0 0.6446 0.054289 -0.76259 0.015536
-0.033981 0.14672 1.0852 5.3473e-39 289.5 331.5 0 0 0 0.64087 0.071059 -0.76435 0.012262
0.038801 0.14688 1.0849 6.9454e-39 322.33 331.67 0 0 0 -0.67822 -0.090583 -0.72925 0.020915
-0.036488 0.14912 1.0843 6.0849e-39 318.5 332.5 0 0 0 0.67609 0.050196 -0.73511 0.012986
-0.035251 0.14926 1.0852 6.2693e-39 319.5 332.5 0 0 0 0.6609 0.063502 -0.74778 0.01083
-0.033981 0.14862 1.0852 5.9005e-39 426 332 0 0 0 0.64697 0.065641 -0.75969 0.011555
0.039007 0.14919 1.0847 5.624e-39 276.5 333 0 0 0 -0.67974 -0.064645 -0.7306 0.018463
-0.036488 0.15103 1.0843 6.4537e-39 451 333 0 0 0 0.68545 0.051452 -0.7263 0.011042
-0.035251 0.15116 1.0852 6.0849e-39 452 333 0 0 0 0.65895 0.064172 -0.74944 0.009914
0.038389 0.15116 1.0852 4.8864e-39 165 334 0 0 0 -0.66572 -0.038798 -0.74519 0.015364
-0.03652 0.15306 1.0852 6.3615e-39 338 334 0 0 0 0.67565 0.063032 -0.73453 0.0086008
0.039007 0.15299 1.0847 6.0388e-39 305 334.5 0 0 0 -0.67835 -0.03174 -0.73405 0.015233
-0.03652 0.15497 1.0852 6.7303e-39 222 335 0 0 0 0.67489 0.056402 -0.73576 0.0093371
0.039624 0.15483 1.0843 6.2693e-39 415 335 0 0 0 -0.69036 -0.032574 -0.72273 0.015667
-0.03652 0.15687 1.0852 6.2693e-39 324 335.5 0 0 0 0.67395 0.048288 -0.73719 0.011255
-0.037138 0.15935 1.0847 5.4856e-39 292.5 336.5 0 0 0 0.67486 0.037221 -0.73701 0.013367
-0.037155 0.16069 1.0852 5.0708e-39 282.5 337 0 0 0 0.67347 0.029901 -0.73861 0.013941
-0.03779 0.16322 1.0852 5.8544e-39 273 338 0 0 0 0.66969 0.0079492 -0.7426 0.016519
-0.03779 0.16513 1.0852 4.6098e-39 519 338 0 0 0 0.67029 -0.014411 -0.74196 0.018119
-0.027657 0.12588 1.0862 4.5176e-39 262 318 0 0 0 0.44382 0.045758 -0.89495 0.015115
-0.02641 0.12726 1.0871 4.9786e-39 260 319 0 0 0 0.46455 0.051916 -0.88402 0.012209
-0.034026 0.12911 1.0867 9.9108e-39 246 321 0 0 0 0.50038 0.015266 -0.86567 0.02951
0.042908 0.12916 1.0871 6.4537e-39 227 322.5 0 0 0 -0.63067 -0.47283 -0.61538 0.03705
-0.034011 0.13096 1.0862 6.2693e-39 236 323 0 0 0 0.50968 0.0099927 -0.86031 0.033175
-0.027681 0.13108 1.0871 7.0069e-39 241 323 0 0 0 0.49782 0.066575 -0.86472 0.013681
0.039728 0.13108 1.0871 4.8864e-39 201 324 0 0 0 -0.62132 -0.42202 -0.66019 0.042585
0.041 0.13108 1.0871 4.8864e-39 202 324 0 0 0 -0.63326 -0.4221 -0.6487 0.040723
0.042235 0.13096 1.0862 5.0708e-39 203 324 0 0 0 -0.66551 -0.3951 -0.63324 0.036232
-0.041635 0.13223 1.0862 5.163e-39 210 324 0 0 0 0.583 -0.056837 -0.81048 0.038185
-0.032769 0.13298 1.0871 5.1168e-39 199 324.5 0 0 0 0.51988 0.040504 -0.85328 0.024904
-0.031497 0.13298 1.0871 4.8864e-39 200 324.5 0 0 0 0.51924 0.053147 -0.85298 0.022005
-0.027681 0.13298 1.0871 5.1629e-39 203 324.5 0 0 0 0.51205 0.081641 -0.85507 0.013048
0.039281 0.13312 1.0865 7.4371e-39 304.33 324.67 0 0 0 -0.64418 -0.348 -0.68113 0.038816
0.040964 0.13286 1.0862 7.2835e-39 338 324.5 0 0 0 -0.66653 -0.35251 -0.65687 0.036638
-0.03274 0.13477 1.0862 5.5317e-39 421 325 0 0 0 0.54026 0.043925 -0.84035 0.024627
-0.031497 0.13489 1.0871 5.4395e-39 422 325 0 0 0 0.53669 0.063866 -0.84136 0.020595
0.039075 0.13483 1.0867 5.4856e-39 203.5 326 0 0 0 -0.65558 -0.31521 -0.68619 0.038452
-0.053072 0.13604 1.0862 5.8083e-39 219 326 0 0 0 0.5708 -0.43863 -0.69412 0.062813
-0.032769 0.1368 1.0871 6.9147e-39 213 326.5 0 0 0 0.54892 0.060308 -0.8337 0.022572
-0.031497 0.1368 1.0871 7.053e-39 214 326.5 0 0 0 0.549 0.069487 -0.83293 0.019844
0.037185 0.1368 1.0871 7.3757e-39 346 326.5 0 0 0 -0.63364 -0.26885 -0.72541 0.038652
0.038423 0.13668 1.0862 7.514e-39 352 326.5 0 0 0 -0.66357 -0.25993 -0.70151 0.03502
-0.032754 0.13928 1.0867 7.0991e-39 345.5 327.5 0 0 0 0.56754 0.061992 -0.82101 0.021028
-0.031497 0.13935 1.0871 6.8224e-39 346.5 327.5 0 0 0 0.56765 0.074934 -0.81985 0.016893
0.035277 0.13935 1.0871 6.0619e-39 335 328 0 0 0 -0.62284 -0.21223 -0.75301 0.03593
0.037168 0.13928 1.0867 6.3615e-39 336.5 328 0 0 0 -0.65563 -0.21759 -0.72305 0.035922
0.038423 0.13859 1.0862 5.5317e-39 215 328 0 0 0 -0.66882 -0.23266 -0.70607 0.034685
-0.032769 0.14125 1.0871 5.6239e-39 204 329 0 0 0 0.5816 0.065014 -0.81087 0.017519
-0.031497 0.14125 1.0871 5.5317e-39 205 329 0 0 0 0.58379 0.081455 -0.80781 0.0141
0.035277 0.14125 1.0871 5.2551e-39 381.5 329 0 0 0 -0.62756 -0.16044 -0.76186 0.028063
0.037152 0.14113 1.0862 5.3473e-39 383 329 0 0 0 -0.65709 -0.16286 -0.73601 0.027685
-0.032754 0.1431 1.0867 7.8827e-39 334.5 329.5 0 0 0 0.59426 0.069308 -0.80128 0.015964
-0.031497 0.14316 1.0871 7.7444e-39 335.5 329.5 0 0 0 0.59123 0.085783 -0.80193 0.012553
0.033369 0.14252 1.0871 5.163e-39 185 330 0 0 0 -0.60281 -0.14241 -0.78507 0.024922
0.035277 0.14316 1.0871 5.8544e-39 305.5 330 0 0 0 -0.62302 -0.13708 -0.7701 0.026675
0.037152 0.14303 1.0862 5.4856e-39 310 330 0 0 0 -0.65633 -0.1392 -0.74153 0.028219
-0.032769 0.14507 1.0871 6.4537e-39 475 330 0 0 0 0.61186 0.080744 -0.78684 0.011659
-0.031497 0.14507 1.0871 6.8225e-39 476 330 0 0 0 0.59964 0.084421 -0.79581 0.011369
0.035277 0.14507 1.0871 6.9608e-39 220.5 331 0 0 0 -0.61886 -0.10706 -0.77817 0.022744
0.037152 0.14494 1.0862 6.5459e-39 222 331 0 0 0 -0.64266 -0.11344 -0.7577 0.024863
-0.032769 0.14697 1.0871 5.3473e-39 290.5 331.5 0 0 0 0.62046 0.075369 -0.78061 0.011
0.035277 0.14697 1.0871 7.8136e-39 355.5 331.5 0 0 0 -0.62895 -0.076653 -0.77366 0.018469
0.037185 0.14697 1.0871 7.1452e-39 357 331.5 0 0 0 -0.64405 -0.085076 -0.76024 0.020396
-0.032769 0.14888 1.0871 5.7161e-39 427 332 0 0 0 0.62517 0.072515 -0.77711 0.01043
0.035913 0.14888 1.0871 6.6381e-39 150 333 0 0 0 -0.63672 -0.04917 -0.76953 0.015541
0.037185 0.14888 1.0871 6.8225e-39 151 333 0 0 0 -0.64615 -0.052846 -0.76138 0.016249
0.038423 0.14875 1.0862 6.6381e-39 152 333 0 0 0 -0.65308 -0.056701 -0.75517 0.017671
-0.034011 0.15066 1.0862 6.2232e-39 334 333 0 0 0 0.64006 0.061036 -0.7659 0.010258
0.035913 0.15079 1.0871 5.5778e-39 280.5 333.5 0 0 0 -0.63141 -0.027896 -0.77494 0.013777
0.037168 0.15072 1.0867 5.3012e-39 281.5 333.5 0 0 0 -0.64949 -0.036398 -0.7595 0.015121
-0.034662 0.15326 1.0867 7.076e-39 339.5 334 0 0 0 0.6514 0.066008 -0.75585 0.00889
0.035913 0.15334 1.0871 5.5318e-39 289.5 334.5 0 0 0 -0.63279 -0.0057746 -0.7743 0.012986
0.037152 0.15319 1.0862 5.8083e-39 290.5 334.5 0 0 0 -0.65286 -0.013962 -0.75735 0.014476
0.038423 0.15383 1.0862 6.2693e-39 194 335 0 0 0 -0.66578 -0.022623 -0.74581 0.014985
-0.034662 0.15518 1.0867 7.2374e-39 223.5 335 0 0 0 0.65288 0.060441 -0.75504 0.01003
0.035913 0.15524 1.0871 5.9927e-39 412 335 0 0 0 -0.62918 0.0056915 -0.77724 0.012518
0.037185 0.15524 1.0871 6.4537e-39 413 335 0 0 0 -0.64007 -0.0022983 -0.76831 0.0136
0.038423 0.15511 1.0862 6.5459e-39 414 335 0 0 0 -0.65994 -0.010972 -0.75124 0.014559
-0.034662 0.15708 1.0867 6.2002e-39 327 335.5 0 0 0 0.65441 0.049654 -0.75451 0.011066
0.035913 0.15715 1.0871 5.7161e-39 274.5 336 0 0 0 -0.63283 0.014102 -0.77416 0.01268
0.037185 0.15715 1.0871 5.7622e-39 275.5 336 0 0 0 -0.64196 0.0058824 -0.76672 0.013711
0.038423 0.15701 1.0862 5.9005e-39 276.5 336 0 0 0 -0.65488 -0.0043074 -0.75572 0.014836
-0.034662 0.15899 1.0867 6.5459e-39 423.5 336 0 0 0 0.65267 0.039291 -0.75662 0.012191
0.035913 0.15906 1.0871 5.4395e-39 481 336 0 0 0 -0.63612 0.014689 -0.77145 0.012723
0.037185 0.15906 1.0871 5.6239e-39 482 336 0 0 0 -0.6416 0.0058842 -0.76702 0.013533
0.038423 0.15892 1.0862 5.9927e-39 483 336 0 0 0 -0.66036 -0.011106 -0.75086 0.015534
-0.036552 0.16146 1.0862 4.9786e-39 402 337 0 0 0 0.65933 0.025833 -0.75141 0.014316
-0.034879 0.16071 1.0868 5.163e-39 244.67 337 0 0 0 0.65168 0.032569 -0.75779 0.012971
0.035913 0.16096 1.0871 7.1452e-39 357 337 0 0 0 -0.64071 0.00095446 -0.76778 0.012631
0.037152 0.16082 1.0862 7.0991e-39 358 337 0 0 0 -0.65379 -0.0089168 -0.75663 0.014614
0.038423 0.16082 1.0862 6.7303e-39 359 337 0 0 0 -0.65737 -0.021269 -0.75327 0.014997
-0.036552 0.16273 1.0862 5.6239e-39 152 338 0 0 0 0.66139 0.022505 -0.74971 0.015316
-0.035313 0.16287 1.0871 5.6239e-39 153 338 0 0 0 0.65127 0.016784 -0.75866 0.014681
0.035913 0.16287 1.0871 7.2835e-39 236 338 0 0 0 -0.63878 -0.012595 -0.76929 0.012597
0.037152 0.16273 1.0862 7.1913e-39 237 338 0 0 0 -0.65796 -0.02911 -0.75249 0.014345
0.038457 0.16287 1.0871 7.7444e-39 238 338 0 0 0 -0.66053 -0.041127 -0.74967 0.015066
-0.036552 0.16464 1.0862 5.209e-39 458 338 0 0 0 0.66195 -0.0034659 -0.74954 0.016525
-0.035313 0.16478 1.0871 5.1169e-39 459 338 0 0 0 0.64581 -0.0012428 -0.76349 0.015417
0.035913 0.16414 1.0871 6.3615e-39 458 338 0 0 0 -0.64957 -0.030643 -0.75969 0.012881
0.029553 0.16796 1.0871 5.9005e-39 166 340 0 0 0 -0.63618 -0.039846 -0.77051 0.01079
0.030825 0.16796 1.0871 5.6239e-39 167 340 0 0 0 -0.6401 -0.045193 -0.76696 0.011463
0.032097 0.16796 1.0871 5.4395e-39 168 340 0 0 0 -0.64339 -0.056253 -0.76347 0.012094
0.028281 0.16923 1.0871 5.9927e-39 395 340 0 0 0 -0.63441 -0.060413 -0.77063 0.011156
0.030825 0.16923 1.0871 5.4395e-39 396 340 0 0 0 -0.64608 -0.071751 -0.75989 0.01227
0.032097 0.16923 1.0871 5.0708e-39 397 340 0 0 0 -0.64838 -0.077788 -0.75733 0.012946
-0.02641 0.1705 1.0871 6.4537e-39 449 340 0 0 0 0.59908 -0.044438 -0.79946 0.01548
-0.025116 0.17162 1.0862 5.9927e-39 205 341 0 0 0 0.60004 -0.064488 -0.79737 0.017149
0.030798 0.17035 1.0862 5.9005e-39 481 340 0 0 0 -0.65316 -0.092532 -0.75155 0.013571
-0.030889 0.12737 1.0881 5.0708e-39 256.5 319 0 0 0 0.46387 0.040065 -0.885 0.016954
-0.029004 0.12748 1.089 5.0708e-39 258 319 0 0 0 0.45965 0.054846 -0.8864 0.01331
-0.027706 0.12737 1.0881 4.8864e-39 259 319 0 0 0 0.46598 0.05147 -0.88329 0.012839
-0.02516 0.12737 1.0881 5.3473e-39 261 319 0 0 0 0.46227 0.059999 -0.88471 0.010691
-0.023908 0.12748 1.089 5.8083e-39 262 319 0 0 0 0.46645 0.07016 -0.88176 0.010088
-0.032812 0.12934 1.0885 7.56e-39 223.5 321.5 0 0 0 0.47395 0.034445 -0.87988 0.02157
-0.030896 0.12931 1.0883 5.4165e-39 225 321.5 0 0 0 0.48846 0.053002 -0.87098 0.016724
-0.029004 0.12876 1.089 4.5176e-39 220 321 0 0 0 0.47489 0.05299 -0.87845 0.013571
-0.027081 0.12934 1.0885 5.1169e-39 228 321.5 0 0 0 0.48155 0.071332 -0.87351 0.011148
0.039763 0.12992 1.0881 3.6878e-39 226 323 0 0 0 -0.59125 -0.45225 -0.66775 0.04462
0.041036 0.12992 1.0881 4.8864e-39 227 323 0 0 0 -0.61532 -0.45491 -0.64377 0.042589
-0.032798 0.13119 1.0881 6.0849e-39 237 323 0 0 0 0.49502 0.042158 -0.86786 0.024781
-0.030889 0.13119 1.0881 6.4537e-39 238.5 323 0 0 0 0.51102 0.060308 -0.85745 0.016553
-0.028991 0.13061 1.0885 6.085e-39 236.5 322.5 0 0 0 0.4926 0.067489 -0.86763 0.014384
-0.026433 0.13119 1.0881 7.4678e-39 242 323 0 0 0 0.49074 0.083791 -0.86727 0.010553
-0.025171 0.13061 1.0885 6.592e-39 239.5 322.5 0 0 0 0.48767 0.091613 -0.86821 0.0096812
-0.023897 0.13061 1.0885 6.2693e-39 240.5 322.5 0 0 0 0.48673 0.094219 -0.86846 0.0092809
