# .PCD v.7 - Point Cloud Data file format
VERSION .7
FIELDS x y z rgb u v vx vy vz normal_x normal_y normal_z curvature
SIZE 4 4 4 4 4 4 4 4 4 4 4 4 4
TYPE F F F F F F F F F F F F F
COUNT 1 1 1 1 1 1 1 1 1 1 1 1 1
WIDTH 552
HEIGHT 1
VIEWPOINT 0 0 0 1 0 0 0
POINTS 552
DATA ascii
0.29604 0.1583 0.88402 7.8366e-39 409 339 0 0 0 -0.014997 -0.87256 -0.48827 0.05421
0.29905 0.15853 0.88528 7.9288e-39 411.5 339 0 0 0 -0.020067 -0.8871 -0.46114 0.052533
0.30102 0.15899 0.88497 6.7303e-39 288.5 339.5 0 0 0 -0.033269 -0.88893 -0.45683 0.056044
0.30322 0.15914 0.88486 6.884e-39 249 339.67 0 0 0 -0.023515 -0.90037 -0.43449 0.054225
0.30475 0.15956 0.88528 6.5459e-39 167 340 0 0 0 -0.016837 -0.90667 -0.42151 0.051988
0.30652 0.15968 0.88592 5.9466e-39 172 340 0 0 0 -0.0078029 -0.92436 -0.38145 0.040423
0.30808 0.15968 0.88592 5.9005e-39 177 340 0 0 0 -0.021551 -0.93538 -0.35299 0.034266
0.31015 0.15968 0.88592 6.4537e-39 179 340 0 0 0 0.017117 -0.96379 -0.26612 0.0081354
0.25107 0.16071 0.88592 5.5317e-39 222 340 0 0 0 -0.27276 -0.070922 -0.95946 0.028281
0.2528 0.16106 0.88592 5.5932e-39 292.67 340 0 0 0 -0.25262 -0.069284 -0.96508 0.027825
0.2547 0.16123 0.88592 5.9927e-39 329.25 340 0 0 0 -0.23476 -0.084498 -0.96837 0.033568
0.25686 0.16099 0.88515 5.4211e-39 311.2 340 0 0 0 -0.21114 -0.12022 -0.97003 0.040133
0.25871 0.16121 0.88486 5.962e-39 368 340 0 0 0 -0.20188 -0.1394 -0.96944 0.044516
0.26097 0.16094 0.88433 5.4703e-39 336 340 0 0 0 -0.18511 -0.18022 -0.96605 0.053968
0.26295 0.16089 0.88402 5.1168e-39 338 340 0 0 0 -0.17718 -0.2156 -0.96027 0.061417
0.30535 0.16037 0.88402 5.7161e-39 392 340 0 0 0 -0.04277 -0.88149 -0.47027 0.07045
0.3069 0.16037 0.88402 6.7764e-39 393.5 340 0 0 0 -0.023726 -0.89453 -0.44638 0.064918
0.30931 0.16054 0.88497 6.9147e-39 395.5 340 0 0 0 -0.045049 -0.91496 -0.40102 0.047657
0.2547 0.16279 0.88592 6.0388e-39 188.5 341 0 0 0 -0.25092 -0.052388 -0.96659 0.029993
0.25678 0.1633 0.88592 7.3296e-39 298 341 0 0 0 -0.22858 -0.061192 -0.9716 0.034203
0.25861 0.16316 0.88512 7.076e-39 300 341 0 0 0 -0.22018 -0.083103 -0.97191 0.038339
0.26103 0.16305 0.88455 7.0376e-39 302.5 341 0 0 0 -0.21066 -0.11693 -0.97054 0.046702
0.26295 0.16296 0.88402 6.9146e-39 304.5 341 0 0 0 -0.19759 -0.15832 -0.96742 0.055707
0.25729 0.16538 0.88592 6.3154e-39 264 342 0 0 0 -0.23938 -0.01806 -0.97076 0.029847
0.25875 0.16532 0.8856 5.8544e-39 265.5 342 0 0 0 -0.23513 -0.029286 -0.97152 0.031768
0.26106 0.16514 0.88465 5.6085e-39 268 342 0 0 0 -0.22981 -0.068549 -0.97082 0.041189
0.26295 0.16451 0.88402 5.6239e-39 162 342 0 0 0 -0.22395 -0.10517 -0.96891 0.048514
0.25729 0.16693 0.88592 6.5459e-39 456 342 0 0 0 -0.26245 0.028531 -0.96452 0.019882
0.2589 0.1672 0.88549 6.0849e-39 378 342.33 0 0 0 -0.25249 0.0091267 -0.96756 0.02574
0.261 0.16717 0.88444 5.6085e-39 340.83 342.5 0 0 0 -0.25112 -0.017813 -0.96779 0.03175
0.25937 0.16901 0.88592 7.7444e-39 399 343 0 0 0 -0.27011 0.043909 -0.96183 0.020884
0.26064 0.16934 0.88497 6.7764e-39 270.5 343.5 0 0 0 -0.27581 0.044948 -0.96016 0.021005
0.26253 0.16922 0.88433 6.5458e-39 272.5 343.5 0 0 0 -0.27059 0.0071292 -0.96267 0.028772
0.25937 0.17056 0.88592 3.9183e-39 366.5 343.5 0 0 0 -0.28431 0.084126 -0.95503 0.013897
0.26073 0.17147 0.88528 5.9005e-39 330 344 0 0 0 -0.29163 0.090346 -0.95225 0.013318
0.26307 0.17131 0.88444 5.9312e-39 332.5 344 0 0 0 -0.2954 0.066202 -0.95308 0.017875
0.25937 0.17211 0.88592 6.6381e-39 427 344 0 0 0 -0.29658 0.11806 -0.94768 0.010457
0.26073 0.17303 0.88528 5.3473e-39 190.5 345 0 0 0 -0.30066 0.13503 -0.94412 0.0083935
0.26313 0.17316 0.88465 6.1771e-39 246 345 0 0 0 -0.30504 0.12191 -0.9445 0.009994
0.26473 0.17351 0.88423 7.3756e-39 336 345 0 0 0 -0.31106 0.12478 -0.94216 0.01016
0.26605 0.1733 0.88402 6.8685e-39 302 345 0 0 0 -0.30587 0.094551 -0.94737 0.01545
0.26092 0.1747 0.88592 6.7533e-39 276 345.5 0 0 0 -0.31313 0.17688 -0.9331 0.0048614
0.2627 0.17479 0.88549 6.5766e-39 235.67 345.67 0 0 0 -0.31453 0.16431 -0.93492 0.0059641
0.26459 0.17491 0.88433 6.1771e-39 156.5 346 0 0 0 -0.31562 0.15577 -0.93601 0.0064761
0.2668 0.17523 0.88423 5.8698e-39 232.33 346 0 0 0 -0.31888 0.15164 -0.93559 0.0077503
0.26144 0.17626 0.88592 6.1771e-39 374 346 0 0 0 -0.31664 0.19819 -0.92761 0.0035037
0.26295 0.17675 0.88576 6.0158e-39 431 346 0 0 0 -0.32064 0.19956 -0.92594 0.0033171
0.26473 0.17656 0.88481 6.0388e-39 433 346 0 0 0 -0.32155 0.1885 -0.92794 0.0038892
0.26652 0.17666 0.88444 6.2078e-39 453.33 346 0 0 0 -0.32377 0.18525 -0.92782 0.0040175
0.26812 0.17795 0.88402 5.2552e-39 237 347 0 0 0 -0.32747 0.20165 -0.92309 0.0030022
0.26351 0.17833 0.88592 5.5317e-39 232 347 0 0 0 -0.32303 0.21668 -0.92125 0.0026931
0.26497 0.17879 0.8856 5.8544e-39 341 347 0 0 0 -0.32413 0.22081 -0.91988 0.0024067
0.2669 0.17869 0.88512 5.8544e-39 343 347 0 0 0 -0.32665 0.2162 -0.92008 0.0023304
0.26873 0.17905 0.88433 6.2693e-39 452.5 347 0 0 0 -0.32901 0.21723 -0.919 0.0022536
0.26507 0.18041 0.88592 5.67e-39 198.5 348 0 0 0 -0.32724 0.23326 -0.9157 0.0023898
0.26705 0.18086 0.8856 6.2693e-39 309 348 0 0 0 -0.32857 0.23729 -0.91419 0.0021473
0.26882 0.18067 0.88465 5.9466e-39 311 348 0 0 0 -0.32885 0.23108 -0.91567 0.0019594
0.27019 0.18105 0.88402 5.9005e-39 421 348 0 0 0 -0.32643 0.2346 -0.91564 0.0019485
0.26757 0.18293 0.8856 6.6842e-39 276.5 349 0 0 0 -0.32864 0.2545 -0.90952 0.0017778
0.26897 0.18283 0.88512 6.7764e-39 278 349 0 0 0 -0.32739 0.25049 -0.91108 0.00169
0.2708 0.18267 0.88433 6.6842e-39 280 349 0 0 0 -0.32439 0.24941 -0.91245 0.0016109
0.27277 0.18312 0.88402 7.7905e-39 393.5 349 0 0 0 -0.31913 0.25336 -0.91322 0.001508
0.26766 0.18455 0.88592 6.5459e-39 502 349 0 0 0 -0.32857 0.26634 -0.90615 0.0015608
0.26938 0.1849 0.88592 6.5766e-39 419.33 349.33 0 0 0 -0.32768 0.2682 -0.90592 0.0014165
0.27109 0.18494 0.88528 7.1221e-39 379 349.5 0 0 0 -0.32295 0.26648 -0.90813 0.001279
0.27306 0.18488 0.88497 6.2463e-39 198 350 0 0 0 -0.31741 0.26517 -0.91046 0.0012622
0.27139 0.18693 0.88571 6.5459e-39 383 350.33 0 0 0 -0.32183 0.27835 -0.90496 0.0011957
0.27336 0.18714 0.88592 6.6612e-39 343.5 350.5 0 0 0 -0.31529 0.27999 -0.90675 0.0011283
0.27494 0.18681 0.88433 6.1541e-39 345.5 350.5 0 0 0 -0.31126 0.27605 -0.90935 0.0011123
0.27649 0.18681 0.88433 5.8544e-39 348 350.5 0 0 0 -0.30778 0.27671 -0.91033 0.0012145
0.2718 0.1887 0.88592 6.5459e-39 433 351 0 0 0 -0.32074 0.2871 -0.90261 0.0011633
0.27284 0.1887 0.88592 6.8225e-39 434 351 0 0 0 -0.31705 0.2872 -0.90388 0.0010946
0.27519 0.18905 0.88512 6.4537e-39 312.5 351.5 0 0 0 -0.31063 0.28618 -0.90643 0.0010392
0.27711 0.18894 0.88465 5.9696e-39 314.5 351.5 0 0 0 -0.30513 0.28676 -0.90811 0.0012191
0.27846 0.18933 0.88402 5.8083e-39 192 352 0 0 0 -0.30073 0.28871 -0.90896 0.0013696
0.28053 0.18933 0.88402 6.0849e-39 194 352 0 0 0 -0.29489 0.29002 -0.91046 0.0016278
0.27534 0.19122 0.8856 6.8455e-39 276 352.5 0 0 0 -0.31042 0.29332 -0.90421 0.0011152
0.2772 0.19108 0.88497 6.6842e-39 278 352.5 0 0 0 -0.3033 0.29332 -0.90663 0.0012772
0.27907 0.19095 0.88433 7.0991e-39 280 352.5 0 0 0 -0.29752 0.29401 -0.90832 0.0014382
0.28094 0.1911 0.88423 6.8225e-39 239.33 352.67 0 0 0 -0.29457 0.29529 -0.90886 0.0015532
0.27526 0.19319 0.88592 6.1156e-39 404.33 353 0 0 0 -0.31074 0.29619 -0.90317 0.001258
0.2774 0.19277 0.8856 5.5778e-39 371.5 353 0 0 0 -0.3034 0.29652 -0.90555 0.0013821
0.27906 0.19333 0.88528 7.4125e-39 436.2 353 0 0 0 -0.29721 0.29926 -0.9067 0.0015438
0.2813 0.19312 0.88481 7.514e-39 428 353 0 0 0 -0.29248 0.29894 -0.90835 0.0016821
0.28311 0.19346 0.88402 9.2196e-39 482.5 353 0 0 0 -0.28811 0.29864 -0.90984 0.0017974
0.27901 0.19514 0.88576 6.2463e-39 281.25 354 0 0 0 -0.29703 0.30123 -0.90611 0.0016824
0.28122 0.19545 0.88554 6.2324e-39 358 354 0 0 0 -0.29302 0.30014 -0.90778 0.001852
0.28326 0.19512 0.88449 6.131e-39 339 354 0 0 0 -0.28703 0.30224 -0.90899 0.0019585
0.28477 0.19508 0.88433 5.624e-39 340.5 354 0 0 0 -0.28623 0.30187 -0.90937 0.0020317
0.28107 0.19694 0.88571 6.3615e-39 188 355 0 0 0 -0.29375 0.29875 -0.908 0.002003
0.28328 0.19715 0.88507 6.8839e-39 258 355 0 0 0 -0.28775 0.30101 -0.90917 0.0022032
0.28508 0.19733 0.88465 7.5232e-39 314 355 0 0 0 -0.28568 0.30099 -0.90983 0.0022379
0.28708 0.19726 0.88402 7.6522e-39 329.67 355 0 0 0 -0.28345 0.30025 -0.91077 0.0022882
0.28061 0.19803 0.88592 7.3296e-39 390.5 355 0 0 0 -0.29291 0.29588 -0.90921 0.0022125
0.28251 0.19872 0.88592 8.2361e-39 461.67 355 0 0 0 -0.28868 0.29697 -0.91021 0.0023619
0.28482 0.19931 0.88515 7.1175e-39 395.2 355.4 0 0 0 -0.28668 0.29612 -0.91111 0.0025275
0.28704 0.19937 0.88497 7.0991e-39 371.5 355.5 0 0 0 -0.28359 0.29655 -0.91194 0.0024934
0.28896 0.19926 0.88449 7.3987e-39 373.5 355.5 0 0 0 -0.28205 0.29499 -0.91292 0.0024846
0.29097 0.19948 0.88433 5.9236e-39 310.75 355.75 0 0 0 -0.2789 0.29426 -0.91413 0.0025321
0.29346 0.19967 0.88402 5.0247e-39 248.5 356 0 0 0 -0.27522 0.29521 -0.91493 0.0025256
0.29501 0.19967 0.88402 5.5317e-39 250 356 0 0 0 -0.27422 0.29317 -0.91589 0.002609
0.2832 0.20062 0.88592 5.5779e-39 343.5 356 0 0 0 -0.28751 0.29124 -0.91243 0.0027423
0.28466 0.20107 0.8856 6.0388e-39 450.5 356 0 0 0 -0.28663 0.29075 -0.91286 0.0027676
0.28663 0.20099 0.88528 6.6381e-39 452.5 356 0 0 0 -0.28452 0.29185 -0.91316 0.0026869
0.28859 0.20092 0.88497 6.2693e-39 454.5 356 0 0 0 -0.28247 0.29123 -0.914 0.0026338
0.29101 0.20132 0.88444 7.0376e-39 330.5 356.5 0 0 0 -0.27896 0.29155 -0.91498 0.0026783
0.29328 0.20105 0.88402 7.5293e-39 375 356.33 0 0 0 -0.27597 0.29056 -0.9162 0.0025985
0.29487 0.20154 0.88465 7.2527e-39 292 356.67 0 0 0 -0.27456 0.28982 -0.91685 0.0026316
0.29604 0.20174 0.88402 7.1913e-39 209 357 0 0 0 -0.27461 0.28993 -0.9168 0.0026268
0.28471 0.20266 0.88576 7.7214e-39 299.5 357 0 0 0 -0.2858 0.28478 -0.915 0.0029396
0.28668 0.20258 0.88544 7.2604e-39 301.5 357 0 0 0 -0.28556 0.28602 -0.91469 0.0028432
0.28875 0.20258 0.88544 6.6612e-39 303.5 357 0 0 0 -0.28165 0.28675 -0.91567 0.0027857
0.29067 0.20299 0.88497 6.6381e-39 407.5 357 0 0 0 -0.27978 0.28619 -0.91642 0.0027328
0.29258 0.2034 0.88449 5.8083e-39 282 357.5 0 0 0 -0.27773 0.28763 -0.91659 0.0027263
0.2946 0.20331 0.88486 5.6546e-39 326.33 357.33 0 0 0 -0.27446 0.28714 -0.91773 0.002702
0.29672 0.2034 0.88449 6.0618e-39 286 357.5 0 0 0 -0.27057 0.28807 -0.91859 0.0027085
0.28493 0.20459 0.88592 5.7161e-39 183.67 358 0 0 0 -0.28536 0.27813 -0.91718 0.0029219
0.287 0.20459 0.88592 6.6073e-39 185.67 358 0 0 0 -0.28417 0.27956 -0.91711 0.0029579
0.28886 0.20473 0.88576 6.2923e-39 231.75 358 0 0 0 -0.2815 0.28092 -0.91752 0.0028269
0.29082 0.20465 0.88544 6.131e-39 259.5 358 0 0 0 -0.27918 0.28217 -0.91784 0.0027541
0.29274 0.20506 0.88497 7.2374e-39 368.5 358 0 0 0 -0.27699 0.28186 -0.9186 0.002715
0.29515 0.20484 0.88549 6.9454e-39 299.33 358 0 0 0 -0.27307 0.28432 -0.91902 0.0027626
0.29699 0.20514 0.88528 8.0671e-39 372.5 358 0 0 0 -0.26915 0.28709 -0.91931 0.0028743
0.29811 0.20484 0.88402 8.7586e-39 374 358 0 0 0 -0.26741 0.28937 -0.91911 0.0028476
0.28735 0.20632 0.88592 8.943e-39 480 358 0 0 0 -0.28322 0.27477 -0.91885 0.0028941
0.28942 0.20632 0.88592 8.8508e-39 482 358 0 0 0 -0.2804 0.27544 -0.91951 0.0027421
0.29098 0.20684 0.88592 7.6753e-39 359.5 358.5 0 0 0 -0.27828 0.27642 -0.91987 0.0027438
0.29289 0.20673 0.88544 7.1913e-39 361.5 358.5 0 0 0 -0.27429 0.27866 -0.92039 0.0028332
0.29501 0.20676 0.8856 7.0069e-39 363.75 358.5 0 0 0 -0.27236 0.28031 -0.92046 0.0028222
0.29709 0.20677 0.8856 7.1913e-39 366 358.5 0 0 0 -0.2682 0.28278 -0.92093 0.0029932
0.29879 0.20702 0.88449 7.1451e-39 361.5 358.75 0 0 0 -0.26005 0.28908 -0.92131 0.0031002
0.30018 0.20794 0.88402 9.2196e-39 459 359 0 0 0 -0.24794 0.29118 -0.92398 0.0035217
0.2915 0.20839 0.88592 7.7444e-39 450 359 0 0 0 -0.27629 0.27277 -0.92155 0.0027574
0.29322 0.20874 0.88592 8.0825e-39 373.67 359.33 0 0 0 -0.27295 0.27351 -0.92233 0.0027899
0.29495 0.20874 0.88592 7.9903e-39 375.33 359.33 0 0 0 -0.27091 0.27411 -0.92275 0.0028005
0.29737 0.20874 0.88592 7.7752e-39 377.67 359.33 0 0 0 -0.2625 0.27901 -0.92371 0.0030578
0.29895 0.20898 0.8855 7.2527e-39 301.33 359.67 0 0 0 -0.25474 0.2824 -0.92485 0.0032606
0.3008 0.20906 0.88433 6.4537e-39 225.5 360 0 0 0 -0.24263 0.29025 -0.92568 0.003683
0.29461 0.21046 0.88592 6.7303e-39 434 360 0 0 0 -0.2688 0.27273 -0.92378 0.0028204
0.29772 0.21046 0.88592 6.0849e-39 437 360 0 0 0 -0.25812 0.27886 -0.92499 0.0030811
0.2993 0.21071 0.88549 6.9762e-39 360.33 360.33 0 0 0 -0.24978 0.28246 -0.92619 0.0033633
0.30097 0.21072 0.88481 7.0991e-39 323 360.5 0 0 0 -0.23599 0.28703 -0.9284 0.0040058
0.29957 0.21291 0.88528 6.0849e-39 294 361.5 0 0 0 -0.24108 0.28286 -0.92837 0.0035255
0.30113 0.21291 0.88528 6.3154e-39 297.25 361.5 0 0 0 -0.23034 0.28667 -0.92993 0.0040152
0.29979 0.21513 0.88592 6.4998e-39 272.5 362.5 0 0 0 -0.2366 0.28338 -0.92936 0.0035904
0.30123 0.21506 0.8856 6.3845e-39 274 362.5 0 0 0 -0.22246 0.28522 -0.93229 0.0042677
0.30259 0.21484 0.88402 6.1464e-39 235.33 362.67 0 0 0 -0.21354 0.28815 -0.93347 0.0049098
0.30134 0.2172 0.88592 7.514e-39 432 363 0 0 0 -0.2222 0.28662 -0.93192 0.0042508
0.30292 0.21685 0.88449 7.2835e-39 434 363 0 0 0 -0.20454 0.28667 -0.93594 0.0050726
0.30484 0.21674 0.88402 7.3757e-39 436 363 0 0 0 -0.19732 0.29068 -0.93625 0.0054554
0.3069 0.21725 0.88402 6.131e-39 500.5 363 0 0 0 -0.19136 0.2933 -0.93667 0.0058064
0.30949 0.21725 0.88402 5.9005e-39 505 363 0 0 0 -0.18613 0.29935 -0.93581 0.0060045
0.31932 0.21725 0.88402 5.3473e-39 148.5 364 0 0 0 -0.10632 0.32186 -0.9408 0.005525
0.32098 0.21681 0.88433 6.3615e-39 269.5 363.5 0 0 0 -0.085658 0.32754 -0.94095 0.0051636
0.32213 0.21689 0.88465 6.4537e-39 270.5 363.5 0 0 0 -0.065276 0.32582 -0.94318 0.0049263
0.30331 0.21919 0.8856 7.9288e-39 347.5 364 0 0 0 -0.2012 0.29011 -0.9356 0.0051103
0.30516 0.21904 0.88497 7.4909e-39 351.25 364 0 0 0 -0.19187 0.28961 -0.93772 0.0052966
0.30734 0.21912 0.88528 7.7444e-39 355 364 0 0 0 -0.18823 0.2916 -0.93784 0.0055436
0.30919 0.21896 0.88465 7.5601e-39 357.25 364 0 0 0 -0.18647 0.29155 -0.93821 0.0058861
0.31126 0.21896 0.88465 7.3296e-39 359.5 364 0 0 0 -0.17842 0.29481 -0.93875 0.0062181
0.31322 0.2194 0.88433 9.1274e-39 472.5 364 0 0 0 -0.16599 0.29578 -0.94073 0.0063327
0.31517 0.21932 0.88402 9.3579e-39 474.5 364 0 0 0 -0.15151 0.29747 -0.94263 0.0065714
0.31742 0.21898 0.88402 7.6523e-39 406.67 364 0 0 0 -0.12765 0.30473 -0.94385 0.0062599
0.31914 0.21904 0.88497 6.8225e-39 373 364 0 0 0 -0.10428 0.30739 -0.94585 0.0057783
0.32075 0.21908 0.88512 6.4076e-39 374.5 364 0 0 0 -0.080293 0.31329 -0.94626 0.0055023
0.32236 0.21912 0.88528 7.4218e-39 428.5 364 0 0 0 -0.055969 0.31487 -0.94748 0.0055748
0.30359 0.22118 0.88592 8.3899e-39 291.67 365 0 0 0 -0.19998 0.29234 -0.93517 0.0051218
0.30497 0.22135 0.88592 8.8971e-39 328.5 365 0 0 0 -0.19393 0.29084 -0.93691 0.00528
0.30635 0.22118 0.88592 8.3898e-39 294.33 365 0 0 0 -0.19114 0.29084 -0.93749 0.0053995
0.30878 0.22115 0.88554 7.5969e-39 311 365 0 0 0 -0.18767 0.29046 -0.9383 0.0058132
0.31084 0.22152 0.88592 8.2669e-39 369.67 365 0 0 0 -0.17522 0.2902 -0.94079 0.0060882
0.31292 0.22111 0.88497 8.4206e-39 336.5 365 0 0 0 -0.16543 0.29079 -0.94238 0.0063751
0.31534 0.22099 0.88449 8.2054e-39 339 365 0 0 0 -0.1448 0.29607 -0.94413 0.0062968
0.31747 0.22103 0.88465 7.8366e-39 341 365 0 0 0 -0.11931 0.29748 -0.94724 0.0060476
0.31925 0.22119 0.88528 7.9749e-39 342.5 365 0 0 0 -0.096829 0.29952 -0.94916 0.0059558
0.32081 0.22119 0.88528 8.1363e-39 344 365 0 0 0 -0.07404 0.29892 -0.9514 0.0056923
0.32213 0.22103 0.88465 8.1133e-39 347 365 0 0 0 -0.057961 0.30268 -0.95133 0.0055265
0.30877 0.22325 0.88592 7.4371e-39 282.67 366 0 0 0 -0.18532 0.29244 -0.93815 0.0057216
0.31067 0.2229 0.88592 7.56e-39 213.5 366 0 0 0 -0.1802 0.28911 -0.94018 0.0060342
0.31264 0.22334 0.8856 8.3667e-39 322 366 0 0 0 -0.16483 0.28813 -0.9433 0.0059941
0.31486 0.22312 0.88515 8.2976e-39 303 366 0 0 0 -0.147 0.28934 -0.94587 0.0061178
0.31676 0.22338 0.88507 8.8508e-39 361.67 366 0 0 0 -0.12116 0.29088 -0.94906 0.0059004
0.31885 0.22334 0.8856 8.7585e-39 328 366 0 0 0 -0.095664 0.29336 -0.9512 0.0056582
0.32086 0.2233 0.88544 8.4589e-39 330 366 0 0 0 -0.068576 0.29667 -0.95251 0.0057157
0.32213 0.2231 0.88465 8.1593e-39 331.5 366 0 0 0 -0.055483 0.29651 -0.95342 0.005617
0.30912 0.22498 0.88592 5.6239e-39 200 367 0 0 0 -0.18433 0.29187 -0.93853 0.0058757
0.31274 0.22498 0.88592 6.0849e-39 203.5 367 0 0 0 -0.16369 0.29019 -0.94286 0.0059702
0.31471 0.2249 0.8856 5.4395e-39 205.5 367 0 0 0 -0.14833 0.28681 -0.94644 0.0058954
0.31684 0.22516 0.88528 6.3001e-39 278.33 367 0 0 0 -0.12351 0.28653 -0.95008 0.0057684
0.31885 0.2249 0.8856 5.3012e-39 209.5 367 0 0 0 -0.090775 0.28992 -0.95274 0.0054199
0.32092 0.2249 0.8856 6.2693e-39 211.5 367 0 0 0 -0.072043 0.29 -0.95431 0.0057408
0.32236 0.22533 0.88528 7.9288e-39 319 367 0 0 0 -0.05732 0.28727 -0.95613 0.0058659
0.31326 0.22601 0.88592 6.9147e-39 416 367 0 0 0 -0.16051 0.29118 -0.94311 0.0060235
0.31482 0.22653 0.88592 7.0299e-39 304 367.5 0 0 0 -0.15103 0.28815 -0.9456 0.006144
0.31672 0.2267 0.88592 7.222e-39 268 367.67 0 0 0 -0.13074 0.28596 -0.94928 0.0058274
0.31879 0.22636 0.88592 8.2054e-39 345.67 367.33 0 0 0 -0.10135 0.2809 -0.95437 0.0054034
0.32155 0.22601 0.88592 8.943e-39 424 367 0 0 0 -0.065099 0.28407 -0.95659 0.0056108
0.32259 0.22705 0.88592 6.0849e-39 198 368 0 0 0 -0.057442 0.27542 -0.95961 0.0057883
0.31741 0.22809 0.88592 5.9927e-39 405 368 0 0 0 -0.1229 0.28223 -0.95144 0.0058778
0.32259 0.22861 0.88592 5.8544e-39 295.5 368.5 0 0 0 -0.05787 0.26416 -0.96274 0.0053125
0.32259 0.23067 0.88592 5.6239e-39 276 369.5 0 0 0 -0.072018 0.25191 -0.96507 0.0043114
0.25058 0.14963 0.88783 7.4678e-39 429 335 0 0 0 -0.16394 -0.6003 -0.78279 0.065282
0.24954 0.15171 0.88783 7.3757e-39 375 336 0 0 0 -0.20516 -0.48886 -0.8479 0.067155
0.25105 0.15116 0.88767 6.3154e-39 273.5 336 0 0 0 -0.17166 -0.54356 -0.82163 0.067858
0.25317 0.15171 0.88783 5.7622e-39 378.5 336 0 0 0 -0.1318 -0.53987 -0.83137 0.070715
0.25542 0.15136 0.88783 5.6239e-39 313 336 0 0 0 -0.07162 -0.64621 -0.75979 0.073837
0.25709 0.15106 0.88703 5.8774e-39 281.5 336 0 0 0 -0.053898 -0.66358 -0.74616 0.071875
0.24919 0.15344 0.88783 5.8083e-39 291.33 336.67 0 0 0 -0.23741 -0.40799 -0.88158 0.063291
0.25096 0.15319 0.88735 5.9927e-39 336.25 336.5 0 0 0 -0.20603 -0.41344 -0.88692 0.06169
0.25308 0.15321 0.88751 5.8083e-39 341.5 336.5 0 0 0 -0.16686 -0.45263 -0.87595 0.068097
0.25516 0.15321 0.88751 5.8083e-39 343.5 336.5 0 0 0 -0.13231 -0.51726 -0.84554 0.072129
0.2571 0.15313 0.88703 5.5548e-39 345.5 336.5 0 0 0 -0.091773 -0.55686 -0.82552 0.076873
0.25917 0.15313 0.88703 5.4165e-39 347.5 336.5 0 0 0 -0.059308 -0.61616 -0.78539 0.076881
0.26139 0.15373 0.88751 5.2551e-39 223.5 337 0 0 0 -0.022733 -0.70017 -0.71362 0.080084
0.24694 0.15535 0.88783 6.6842e-39 281.5 337.5 0 0 0 -0.29257 -0.26499 -0.91879 0.054477
0.24889 0.15526 0.88735 6.8916e-39 283.5 337.5 0 0 0 -0.26196 -0.2861 -0.9217 0.05162
0.25078 0.15515 0.88671 6.7303e-39 285.5 337.5 0 0 0 -0.23475 -0.27657 -0.93188 0.048129
0.25286 0.15515 0.88671 6.7533e-39 287.5 337.5 0 0 0 -0.20499 -0.32884 -0.92187 0.055643
0.25477 0.15499 0.88676 7.0069e-39 332 337.33 0 0 0 -0.17559 -0.36694 -0.91352 0.060262
0.25748 0.15461 0.88655 7.3757e-39 420 337 0 0 0 -0.12028 -0.4214 -0.89886 0.064581
0.25955 0.15461 0.88655 7.56e-39 422 337 0 0 0 -0.0858 -0.49719 -0.86339 0.072146
0.26121 0.15466 0.88687 8.2054e-39 423.5 337 0 0 0 -0.046763 -0.59004 -0.80602 0.076043
0.26307 0.15533 0.88676 6.2693e-39 259.33 337.67 0 0 0 -0.03936 -0.60768 -0.79321 0.083617
0.26499 0.15476 0.8874 7.222e-39 427 337 0 0 0 -0.006697 -0.71253 -0.70161 0.080942
0.267 0.15472 0.88719 7.2835e-39 429 337 0 0 0 -0.01698 -0.73376 -0.67919 0.076464
0.26856 0.15523 0.88719 6.4537e-39 306 337.5 0 0 0 -0.019945 -0.74866 -0.66265 0.072944
0.27074 0.15581 0.88751 5.5778e-39 183.5 338 0 0 0 -0.039252 -0.76621 -0.6414 0.069397
0.24685 0.15737 0.88751 6.2232e-39 428.5 338 0 0 0 -0.31113 -0.1723 -0.93462 0.042932
0.24884 0.15731 0.88719 6.3615e-39 430.5 338 0 0 0 -0.28131 -0.1761 -0.94332 0.041295
0.25022 0.1572 0.88655 5.9466e-39 432 338 0 0 0 -0.26569 -0.18602 -0.94594 0.041538
0.25229 0.15668 0.88655 5.9005e-39 382 338 0 0 0 -0.23892 -0.22857 -0.94376 0.046093
0.25437 0.1572 0.88655 5.4395e-39 262 338.5 0 0 0 -0.20109 -0.24974 -0.9472 0.04981
0.26992 0.15668 0.88655 6.9147e-39 399 338 0 0 0 -0.064012 -0.71308 -0.69816 0.078935
0.27271 0.15679 0.88719 7.6522e-39 401.5 338 0 0 0 -0.066017 -0.76179 -0.64446 0.070529
0.27459 0.15668 0.88655 7.8366e-39 403.5 338 0 0 0 -0.054895 -0.77586 -0.62851 0.064016
0.27687 0.15679 0.88719 8.482e-39 405.5 338 0 0 0 -0.056804 -0.79725 -0.60097 0.055524
0.27911 0.15714 0.88719 7.3756e-39 326.33 338.33 0 0 0 -0.044198 -0.80494 -0.59171 0.049402
0.28102 0.15679 0.88719 7.9288e-39 409.5 338 0 0 0 -0.030517 -0.83017 -0.55668 0.040455
0.28299 0.15674 0.88687 8.2515e-39 411.5 338 0 0 0 -0.023348 -0.83854 -0.54433 0.038991
0.28537 0.15691 0.88783 7.6061e-39 413.5 338 0 0 0 -0.0076387 -0.85636 -0.51632 0.033246
0.28745 0.15691 0.88783 7.4218e-39 415.5 338 0 0 0 -0.0021789 -0.8682 -0.4962 0.030867
0.28932 0.15679 0.88719 7.4218e-39 417.5 338 0 0 0 0.0049208 -0.87216 -0.48919 0.031932
0.29607 0.15783 0.88719 6.0849e-39 197 339 0 0 0 0.015436 -0.8947 -0.44639 0.033355
0.29836 0.15794 0.88783 6.0849e-39 199 339 0 0 0 0.021745 -0.90488 -0.42512 0.030637
0.30044 0.15794 0.88783 6.4537e-39 201 339 0 0 0 0.029638 -0.91753 -0.39657 0.027918
0.30874 0.15794 0.88783 5.9005e-39 209 339 0 0 0 0.019854 -0.95296 -0.30243 0.010407
0.31082 0.15794 0.88783 5.3473e-39 211 339 0 0 0 -0.00080185 -0.95217 -0.30558 0.01092
0.24538 0.15898 0.88783 6.2693e-39 243 339 0 0 0 -0.32688 -0.12291 -0.93704 0.039678
0.24699 0.15925 0.8874 7.0069e-39 314.67 339 0 0 0 -0.30697 -0.099273 -0.94653 0.03282
0.24875 0.15933 0.88687 6.8224e-39 356 339 0 0 0 -0.28607 -0.11106 -0.95175 0.033391
0.25022 0.15927 0.88655 6.9146e-39 357.5 339 0 0 0 -0.27485 -0.11537 -0.95454 0.033098
0.25437 0.15875 0.88655 8.1132e-39 368 339 0 0 0 -0.21445 -0.175 -0.96093 0.043612
0.30312 0.15875 0.88655 7.1913e-39 415 339 0 0 0 0.0020341 -0.92045 -0.39085 0.038004
0.30519 0.15875 0.88655 7.3757e-39 417 339 0 0 0 0.002556 -0.93052 -0.36623 0.033541
0.30696 0.15887 0.88719 7.6061e-39 418.5 339 0 0 0 0.037996 -0.95674 -0.28845 0.0108
0.30907 0.15914 0.88676 7.0376e-39 339.67 339.33 0 0 0 0.031039 -0.96206 -0.27105 0.008021
0.31114 0.15914 0.88676 7.4678e-39 341.67 339.33 0 0 0 -0.0033184 -0.96123 -0.27572 0.0083056
0.3131 0.15925 0.8874 7.3756e-39 343.67 339.33 0 0 0 -0.027209 -0.95877 -0.28288 0.0092873
0.24538 0.16054 0.88783 6.131e-39 334.5 339.5 0 0 0 -0.32352 -0.064094 -0.94405 0.030644
0.24685 0.161 0.88751 6.7764e-39 328.5 339.75 0 0 0 -0.30947 -0.057417 -0.94917 0.027466
0.24875 0.1614 0.88687 6.7994e-39 323 340 0 0 0 -0.29827 -0.044813 -0.95343 0.025241
0.25062 0.16156 0.88676 6.1771e-39 359.33 340 0 0 0 -0.28318 -0.051042 -0.95771 0.027229
0.25229 0.16187 0.88655 5.8083e-39 430 340 0 0 0 -0.26279 -0.045612 -0.96378 0.025532
0.24538 0.16262 0.88783 6.9608e-39 300.5 340.5 0 0 0 -0.32412 -0.013265 -0.94592 0.024036
0.24671 0.16275 0.88762 7.0683e-39 261 340.67 0 0 0 -0.31596 -0.011036 -0.94871 0.022668
0.24884 0.16302 0.88719 5.5317e-39 182.5 341 0 0 0 -0.29977 -0.0052109 -0.954 0.020367
0.25082 0.16296 0.88687 5.5317e-39 184.5 341 0 0 0 -0.28315 -0.014941 -0.95896 0.021637
0.25281 0.16342 0.88655 6.9838e-39 294 341 0 0 0 -0.27317 -0.019263 -0.96177 0.022995
0.25489 0.16394 0.88655 7.9749e-39 403.5 341 0 0 0 -0.24952 -0.019258 -0.96818 0.026016
0.24538 0.1647 0.88783 6.4537e-39 268.5 341.5 0 0 0 -0.32304 0.030825 -0.94588 0.019191
0.24694 0.1647 0.88783 6.7533e-39 270 341.5 0 0 0 -0.31573 0.031874 -0.94832 0.018092
0.24889 0.16461 0.88735 6.6611e-39 272 341.5 0 0 0 -0.30511 0.025271 -0.95198 0.018202
0.25091 0.16458 0.88719 6.9377e-39 274 341.5 0 0 0 -0.2887 0.013529 -0.95732 0.019894
0.2529 0.16504 0.88687 5.8544e-39 150.5 342 0 0 0 -0.27517 0.019974 -0.96119 0.018608
0.25489 0.16498 0.88655 5.5317e-39 152.5 342 0 0 0 -0.25405 0.0076444 -0.96716 0.02013
0.25644 0.16498 0.88655 5.7161e-39 154 342 0 0 0 -0.24014 -0.015928 -0.97061 0.028257
0.24893 0.16671 0.88751 7.099e-39 349.5 342 0 0 0 -0.30732 0.080386 -0.9482 0.010628
0.25105 0.16674 0.88767 7.0991e-39 379.5 342 0 0 0 -0.29463 0.072757 -0.95284 0.011591
0.25299 0.16665 0.88719 7.1452e-39 409.5 342 0 0 0 -0.27921 0.053075 -0.95876 0.015597
0.25489 0.16654 0.88655 7.537e-39 411.5 342 0 0 0 -0.26579 0.041351 -0.96314 0.016547
0.25644 0.16654 0.88655 7.3296e-39 413 342 0 0 0 -0.2581 0.02899 -0.96568 0.019935
0.24954 0.16885 0.88783 5.7161e-39 294 343 0 0 0 -0.30763 0.12659 -0.94305 0.0073081
0.2511 0.16885 0.88783 5.9927e-39 295.5 343 0 0 0 -0.30227 0.11435 -0.94634 0.0078636
0.25308 0.16879 0.88751 7.2374e-39 297.5 343 0 0 0 -0.28928 0.099268 -0.95208 0.0094613
0.25502 0.1687 0.88703 7.3065e-39 299.5 343 0 0 0 -0.28063 0.085295 -0.95602 0.011174
0.25701 0.16864 0.88671 6.8685e-39 301.5 343 0 0 0 -0.26873 0.06013 -0.96134 0.016753
0.25851 0.16861 0.88655 6.7303e-39 303 343 0 0 0 -0.26788 0.045403 -0.96238 0.020274
0.24954 0.17093 0.88783 5.8083e-39 352.5 343.5 0 0 0 -0.31406 0.16849 -0.93433 0.0052783
0.25093 0.17076 0.88783 6.0849e-39 398.33 343.33 0 0 0 -0.30956 0.16028 -0.93727 0.0059373
0.25317 0.17093 0.88783 5.67e-39 356 343.5 0 0 0 -0.30589 0.15611 -0.93918 0.0061908
0.25512 0.17084 0.88735 6.0157e-39 360.25 343.5 0 0 0 -0.29469 0.12743 -0.94706 0.0085486
0.25705 0.17074 0.88687 5.2091e-39 364 343.5 0 0 0 -0.2883 0.10878 -0.95134 0.010874
0.25851 0.17068 0.88655 4.241e-39 365.5 343.5 0 0 0 -0.28269 0.092883 -0.9547 0.013385
0.24954 0.17249 0.88783 7.7444e-39 417 344 0 0 0 -0.31781 0.1937 -0.92816 0.0043464
0.25369 0.173 0.88783 6.6381e-39 302 344.5 0 0 0 -0.31162 0.19019 -0.93098 0.004816
0.25516 0.17294 0.88751 6.3615e-39 303.5 344.5 0 0 0 -0.30817 0.18036 -0.93408 0.0051216
0.25719 0.17291 0.88735 6.569e-39 305.5 344.5 0 0 0 -0.30434 0.16217 -0.93866 0.0062679
0.25886 0.17293 0.88655 6.3308e-39 267.67 344.67 0 0 0 -0.29952 0.14734 -0.94264 0.0075312
0.25536 0.17487 0.88762 7.2834e-39 312.33 345.33 0 0 0 -0.31584 0.20982 -0.92532 0.0039317
0.25728 0.17505 0.88767 7.2143e-39 272 345.5 0 0 0 -0.31605 0.20438 -0.92647 0.0040476
0.25912 0.1749 0.88687 7.3065e-39 274 345.5 0 0 0 -0.31371 0.19049 -0.93021 0.0042629
0.25577 0.17716 0.88783 6.2693e-39 420.5 346 0 0 0 -0.32214 0.23858 -0.91614 0.0033098
0.25733 0.17716 0.88783 5.8775e-39 422.5 346 0 0 0 -0.32164 0.23149 -0.91813 0.0033674
0.25912 0.17697 0.88687 6.131e-39 426 346 0 0 0 -0.32136 0.22266 -0.92041 0.0033589
0.26094 0.17708 0.88655 5.8698e-39 447.33 346 0 0 0 -0.32113 0.21564 -0.92216 0.0030671
0.25577 0.17872 0.88783 5.9005e-39 224 347 0 0 0 -0.32536 0.24909 -0.91219 0.0031541
0.25932 0.17917 0.88751 6.2002e-39 335 347 0 0 0 -0.32924 0.2419 -0.91273 0.0030984
0.2612 0.17904 0.88687 5.7161e-39 337 347 0 0 0 -0.32657 0.2356 -0.91534 0.0029542
0.26301 0.17915 0.88655 5.7161e-39 374.67 347 0 0 0 -0.32516 0.22861 -0.91761 0.0027155
0.25936 0.18128 0.88767 6.7303e-39 301 348 0 0 0 -0.33293 0.25827 -0.90689 0.0028426
0.2613 0.18118 0.88719 7.0068e-39 303 348 0 0 0 -0.3318 0.25055 -0.90947 0.0027397
0.26327 0.18112 0.88687 6.8224e-39 305 348 0 0 0 -0.33002 0.2469 -0.91111 0.0026006
0.26526 0.18157 0.88655 7.053e-39 415.5 348 0 0 0 -0.32715 0.24382 -0.91297 0.0022634
0.25958 0.18322 0.88783 6.0542e-39 231 349 0 0 0 -0.33627 0.26882 -0.90258 0.0025018
0.26144 0.18336 0.88767 6.3385e-39 270 349 0 0 0 -0.33566 0.26775 -0.90313 0.0023692
0.26337 0.18326 0.88719 6.4767e-39 272 349 0 0 0 -0.33207 0.2637 -0.90564 0.0022532
0.26526 0.18313 0.88655 6.6611e-39 274 349 0 0 0 -0.32953 0.25876 -0.90799 0.0020013
0.26681 0.18313 0.88655 6.5458e-39 275.5 349 0 0 0 -0.32972 0.25636 -0.90861 0.0018541
0.26131 0.1853 0.88783 7.3449e-39 411 349.33 0 0 0 -0.33642 0.27788 -0.89978 0.0020848
0.26346 0.18541 0.88751 6.5689e-39 371 349.5 0 0 0 -0.33478 0.27707 -0.90064 0.001921
0.26545 0.18534 0.88719 5.8544e-39 373 349.5 0 0 0 -0.33195 0.27374 -0.90271 0.0017252
0.26728 0.18547 0.88698 5.7468e-39 332.67 349.67 0 0 0 -0.32999 0.27215 -0.9039 0.0015921
0.26889 0.18572 0.88655 5.8083e-39 250 350 0 0 0 -0.32823 0.27248 -0.90444 0.0014389
0.26506 0.18698 0.88762 6.7918e-39 459 350 0 0 0 -0.3337 0.28189 -0.89955 0.0016702
0.2672 0.18703 0.88783 6.5459e-39 461 350 0 0 0 -0.33151 0.28139 -0.90051 0.0014969
0.26895 0.18732 0.88676 7.0376e-39 339 350.5 0 0 0 -0.32806 0.28044 -0.90207 0.0013755
0.27096 0.1878 0.88655 7.3757e-39 217 351 0 0 0 -0.3242 0.28284 -0.90271 0.0012577
0.2646 0.18859 0.88783 7.1913e-39 318 351 0 0 0 -0.33425 0.28698 -0.89773 0.0016119
0.26668 0.18859 0.88783 7.1451e-39 320 351 0 0 0 -0.3318 0.28873 -0.89808 0.0014556
0.26846 0.1889 0.88687 6.3154e-39 429.5 351 0 0 0 -0.32883 0.28891 -0.89911 0.0013639
0.27054 0.1889 0.88687 6.4998e-39 431.5 351 0 0 0 -0.32523 0.28852 -0.90055 0.001264
0.27252 0.18987 0.88655 6.1771e-39 185.5 352 0 0 0 -0.3207 0.29108 -0.90134 0.0011556
0.27407 0.18935 0.88655 6.5459e-39 311 351.5 0 0 0 -0.3146 0.28898 -0.90417 0.0011017
0.26616 0.19014 0.88783 6.4537e-39 172 352 0 0 0 -0.33031 0.29132 -0.89779 0.0014298
0.26866 0.1906 0.88751 7.2374e-39 289 352 0 0 0 -0.32824 0.29457 -0.89749 0.0013204
0.27069 0.19056 0.88735 7.0069e-39 291 352 0 0 0 -0.32548 0.29377 -0.89876 0.0012423
0.27252 0.19091 0.88655 7.8827e-39 400.5 352 0 0 0 -0.32103 0.29356 -0.90042 0.0011801
0.27407 0.19143 0.88655 7.3296e-39 274.5 352.5 0 0 0 -0.31522 0.29436 -0.90221 0.0011555
0.2687 0.19271 0.88767 5.9927e-39 289.75 352.75 0 0 0 -0.32807 0.29508 -0.89739 0.0013232
0.27074 0.19267 0.88751 6.0849e-39 200 353 0 0 0 -0.32472 0.2951 -0.8986 0.0012869
0.27271 0.1926 0.88719 6.4998e-39 229 353 0 0 0 -0.32098 0.29555 -0.89979 0.0012479
0.27427 0.19312 0.88719 6.2693e-39 368 353 0 0 0 -0.31615 0.29588 -0.90139 0.0012104
0.26927 0.1943 0.88783 7.0991e-39 468 353 0 0 0 -0.32742 0.29478 -0.89772 0.0013376
0.27135 0.19482 0.88783 7.3296e-39 345 353.5 0 0 0 -0.32341 0.29572 -0.89886 0.0013063
0.27286 0.19478 0.88767 6.9838e-39 346.5 353.5 0 0 0 -0.32 0.29678 -0.89974 0.0012909
0.27462 0.19485 0.88719 7.1605e-39 306.67 353.67 0 0 0 -0.31323 0.29696 -0.90206 0.0013597
0.27666 0.19454 0.88655 7.7214e-39 350.5 353.5 0 0 0 -0.30604 0.29783 -0.90423 0.0014756
0.27274 0.19673 0.88783 6.0542e-39 343.67 354.33 0 0 0 -0.31916 0.29399 -0.90095 0.0013163
0.27484 0.19679 0.88735 6.2923e-39 304.5 354.5 0 0 0 -0.31365 0.29412 -0.90284 0.0014405
0.27676 0.19668 0.88687 6.6151e-39 311 354.5 0 0 0 -0.30465 0.2955 -0.90547 0.0016781
0.27857 0.19678 0.88655 6.3308e-39 270.33 354.67 0 0 0 -0.29912 0.29749 -0.90666 0.0018452
0.27503 0.1987 0.8874 7.683e-39 419 355 0 0 0 -0.31248 0.29051 -0.90441 0.0014928
0.27687 0.19883 0.88719 8.021e-39 438 355 0 0 0 -0.30191 0.291 -0.90784 0.0019114
0.27884 0.19876 0.88687 8.021e-39 440.25 355 0 0 0 -0.29605 0.29184 -0.9095 0.0021312
0.28082 0.19921 0.88655 8.3898e-39 494.5 355 0 0 0 -0.29118 0.29337 -0.91057 0.0023689
0.27551 0.20105 0.88783 6.4076e-39 335.5 356 0 0 0 -0.31051 0.28279 -0.90753 0.001745
0.27701 0.20101 0.88767 6.131e-39 337 356 0 0 0 -0.3027 0.28327 -0.91002 0.0020297
0.27899 0.20094 0.88735 6.0388e-39 339 356 0 0 0 -0.2947 0.28345 -0.91258 0.0024802
0.28087 0.2008 0.88671 5.9005e-39 341 356 0 0 0 -0.28992 0.28827 -0.9126 0.0026465
0.28237 0.20076 0.88655 5.6701e-39 342.5 356 0 0 0 -0.28622 0.28988 -0.91326 0.0027413
0.27758 0.20261 0.88783 6.7303e-39 190 357 0 0 0 -0.30011 0.27845 -0.91236 0.0022608
0.27914 0.20313 0.88783 7.1913e-39 293.5 357 0 0 0 -0.29467 0.27785 -0.91431 0.0024787
0.28102 0.20298 0.88719 7.2374e-39 295.5 357 0 0 0 -0.28706 0.27881 -0.91644 0.0026973
0.28289 0.20284 0.88655 7.5831e-39 297.5 357 0 0 0 -0.28646 0.2824 -0.91553 0.002852
0.28133 0.20499 0.88762 5.3166e-39 179.67 358 0 0 0 -0.28745 0.2727 -0.91816 0.0026677
0.28304 0.20502 0.88703 5.4165e-39 200 358 0 0 0 -0.28431 0.27449 -0.9186 0.0028188
0.28445 0.20543 0.88655 5.163e-39 257 358 0 0 0 -0.28397 0.27559 -0.91837 0.0029232
0.28652 0.20543 0.88655 6.7303e-39 259 358 0 0 0 -0.28315 0.2769 -0.91823 0.002965
0.28174 0.20676 0.88783 9.0352e-39 472 358 0 0 0 -0.28553 0.27275 -0.91874 0.0026592
0.2832 0.20721 0.88751 8.1593e-39 350.5 358.5 0 0 0 -0.2844 0.27212 -0.91928 0.0027721
0.28501 0.20702 0.88671 8.3668e-39 352.5 358.5 0 0 0 -0.28293 0.27237 -0.91966 0.0028619
0.28687 0.20716 0.88655 7.7137e-39 314 358.67 0 0 0 -0.28262 0.27211 -0.91983 0.0028865
0.28894 0.20716 0.88655 7.5908e-39 316 358.67 0 0 0 -0.2798 0.27437 -0.92002 0.002801
0.28278 0.20936 0.88783 6.7764e-39 324 359.5 0 0 0 -0.28509 0.26821 -0.92021 0.0027804
0.28522 0.20925 0.88735 7.3987e-39 326.5 359.5 0 0 0 -0.2845 0.2693 -0.92008 0.0028726
0.28714 0.20914 0.88687 7.6061e-39 328.5 359.5 0 0 0 -0.28232 0.26911 -0.9208 0.0029183
0.28916 0.2091 0.88671 7.3296e-39 330.5 359.5 0 0 0 -0.27931 0.27003 -0.92145 0.0027705
0.29102 0.20923 0.88655 7.3756e-39 293.33 359.67 0 0 0 -0.27665 0.27053 -0.92211 0.0026984
0.29274 0.20958 0.88655 7.6522e-39 217 360 0 0 0 -0.27388 0.27128 -0.92271 0.0027293
0.29585 0.20958 0.88655 7.0991e-39 220 360 0 0 0 -0.26774 0.27359 -0.92383 0.0028702
0.29689 0.20958 0.88655 6.7303e-39 221 360 0 0 0 -0.2634 0.2754 -0.92454 0.0029997
0.28548 0.21122 0.88762 6.5459e-39 341.67 360.33 0 0 0 -0.28444 0.26737 -0.92066 0.0028739
0.28729 0.21133 0.88735 6.3384e-39 306.25 360.5 0 0 0 -0.28333 0.26867 -0.92062 0.002855
0.28932 0.21129 0.88719 6.2232e-39 309 360.5 0 0 0 -0.27711 0.2689 -0.92244 0.0027512
0.29129 0.21121 0.88687 6.592e-39 312 360.5 0 0 0 -0.27422 0.26955 -0.92312 0.0027155
0.29331 0.21117 0.88671 6.6151e-39 314 360.5 0 0 0 -0.27132 0.27108 -0.92353 0.0027351
0.29551 0.21131 0.88655 6.3308e-39 278 360.67 0 0 0 -0.26617 0.27309 -0.92443 0.0028585
0.29724 0.21131 0.88655 6.3e-39 279.67 360.67 0 0 0 -0.25924 0.27579 -0.9256 0.0030394
0.29897 0.21165 0.88655 6.8225e-39 203 361 0 0 0 -0.25062 0.27941 -0.92689 0.0032661
0.28589 0.213 0.88783 6.2693e-39 401 361 0 0 0 -0.28402 0.26774 -0.92068 0.0029398
0.28748 0.21324 0.8874 5.839e-39 322 361.33 0 0 0 -0.28195 0.26906 -0.92093 0.0028467
0.28915 0.21319 0.88719 6.0542e-39 323.67 361.33 0 0 0 -0.27918 0.26959 -0.92162 0.0027308
0.2914 0.21336 0.88719 6.5229e-39 285.5 361.5 0 0 0 -0.27284 0.2717 -0.9229 0.0027178
0.29337 0.21328 0.88687 5.9235e-39 287.5 361.5 0 0 0 -0.26878 0.27438 -0.9233 0.0028544
0.29533 0.21321 0.88655 5.9696e-39 289.5 361.5 0 0 0 -0.26396 0.27551 -0.92435 0.0028964
0.29741 0.21321 0.88655 5.9927e-39 291.5 361.5 0 0 0 -0.25559 0.27877 -0.92572 0.0030626
0.29897 0.21321 0.88655 5.9005e-39 293 361.5 0 0 0 -0.248 0.28089 -0.92714 0.0032403
0.28589 0.21403 0.88783 6.4537e-39 159 362 0 0 0 -0.28448 0.26895 -0.92018 0.0029942
0.28728 0.21472 0.88783 5.4703e-39 307.67 362 0 0 0 -0.28264 0.27062 -0.92026 0.0029336
0.28901 0.21507 0.88783 5.0708e-39 383 362 0 0 0 -0.27904 0.27328 -0.92057 0.0028155
0.29096 0.21498 0.88745 5.8267e-39 292.2 362.2 0 0 0 -0.27335 0.27467 -0.92186 0.0027966
0.29342 0.2154 0.88703 6.2002e-39 266 362.5 0 0 0 -0.26671 0.27751 -0.92296 0.0029613
0.29516 0.21511 0.88655 6.7303e-39 308.33 362.33 0 0 0 -0.26224 0.27778 -0.92416 0.0029742
0.29714 0.21542 0.88668 6.4352e-39 245.4 362.6 0 0 0 -0.25387 0.28068 -0.92562 0.0031568
0.29897 0.21528 0.88655 6.5919e-39 271.5 362.5 0 0 0 -0.24554 0.28134 -0.92766 0.0033098
0.28762 0.21646 0.88783 5.7469e-39 298.33 362.67 0 0 0 -0.28022 0.27648 -0.91926 0.0030774
0.28901 0.21663 0.88783 5.3934e-39 196.5 363 0 0 0 -0.27646 0.27778 -0.92001 0.0030798
0.29057 0.21663 0.88783 5.2782e-39 198 363 0 0 0 -0.27212 0.27905 -0.92092 0.00306
0.29309 0.2171 0.88762 5.0401e-39 257 363 0 0 0 -0.26678 0.28265 -0.92138 0.0031802
0.29503 0.217 0.88719 5.3473e-39 259 363 0 0 0 -0.26154 0.28283 -0.92282 0.0031989
0.29726 0.21718 0.88687 8.3206e-39 396.5 363 0 0 0 -0.25226 0.28497 -0.92475 0.0033326
0.29918 0.217 0.88719 8.2054e-39 367 363 0 0 0 -0.245 0.28467 -0.92679 0.0035364
0.3 0.21736 0.88655 8.021e-39 430.5 363 0 0 0 -0.23401 0.28588 -0.92925 0.0038654
0.28762 0.21854 0.88783 8.144e-39 387.33 363.33 0 0 0 -0.27951 0.28518 -0.91681 0.0031475
0.28901 0.21819 0.88783 8.482e-39 470 363 0 0 0 -0.27595 0.28347 -0.91842 0.0031948
0.29109 0.21819 0.88783 8.6664e-39 472 363 0 0 0 -0.26989 0.28545 -0.91961 0.003245
0.29309 0.21866 0.88762 8.0979e-39 352 363.5 0 0 0 -0.26667 0.28798 -0.91976 0.0033083
0.29503 0.21855 0.88719 8.2516e-39 354 363.5 0 0 0 -0.26084 0.28883 -0.92116 0.0033711
0.29686 0.21862 0.88706 7.726e-39 336.2 363.6 0 0 0 -0.2534 0.28771 -0.92359 0.0034829
0.29918 0.21855 0.88719 7.6983e-39 364 363.5 0 0 0 -0.24583 0.28596 -0.92617 0.0035385
0.30077 0.21931 0.88676 7.8674e-39 308.67 364 0 0 0 -0.23045 0.29086 -0.9286 0.0041121
0.30208 0.21943 0.88655 7.9749e-39 345.5 364 0 0 0 -0.21496 0.29192 -0.93197 0.0046062
0.29213 0.22027 0.88783 9.2196e-39 442 364 0 0 0 -0.26648 0.295 -0.91758 0.0033731
0.29467 0.22075 0.88767 8.5512e-39 328 364.5 0 0 0 -0.26118 0.29478 -0.91918 0.0035015
0.2968 0.22079 0.88783 8.5511e-39 330 364.5 0 0 0 -0.25474 0.29687 -0.92031 0.0036092
0.29866 0.22063 0.88719 8.2055e-39 332 364.5 0 0 0 -0.2477 0.29381 -0.92321 0.0036806
0.30049 0.22075 0.88698 8.1747e-39 295 364.67 0 0 0 -0.23325 0.2941 -0.92688 0.0040883
0.30208 0.22099 0.88655 7.8366e-39 219 365 0 0 0 -0.21668 0.29342 -0.9311 0.0047034
0.29732 0.22234 0.88783 8.021e-39 427 365 0 0 0 -0.25333 0.29855 -0.92016 0.0036376
0.29882 0.22282 0.88767 7.1913e-39 315 365.5 0 0 0 -0.24942 0.29991 -0.92079 0.003806
0.3008 0.22274 0.88735 7.537e-39 317 365.5 0 0 0 -0.23544 0.29875 -0.92483 0.0042723
0.30271 0.22262 0.88687 7.56e-39 319 365.5 0 0 0 -0.21194 0.29535 -0.93158 0.0049273
0.30467 0.22306 0.88655 5.1169e-39 207.5 366 0 0 0 -0.19768 0.2925 -0.93561 0.005254
0.30692 0.22272 0.88655 6.8225e-39 285.33 365.67 0 0 0 -0.18934 0.29146 -0.93766 0.0055677
0.29888 0.22494 0.88783 5.9927e-39 302 366.5 0 0 0 -0.24904 0.30475 -0.9193 0.0038143
0.30095 0.22494 0.88783 6.3615e-39 304 366.5 0 0 0 -0.2363 0.30419 -0.92284 0.0041147
0.30282 0.22478 0.88719 6.7073e-39 306 366.5 0 0 0 -0.21543 0.30139 -0.92884 0.0048793
0.30467 0.22462 0.88655 7.0991e-39 308 366.5 0 0 0 -0.19885 0.29603 -0.93425 0.0052863
0.30686 0.2247 0.88687 7.3296e-39 310 366.5 0 0 0 -0.19281 0.29347 -0.93632 0.0054589
0.3083 0.22462 0.88655 7.1913e-39 311.5 366.5 0 0 0 -0.18605 0.29169 -0.93825 0.0056361
0.3109 0.22462 0.88655 7.1682e-39 314 366.5 0 0 0 -0.17776 0.29067 -0.94017 0.0059508
0.30095 0.2265 0.88783 5.9005e-39 403.5 367 0 0 0 -0.23643 0.30413 -0.92282 0.0041886
0.30313 0.22679 0.88762 5.9005e-39 330 367.33 0 0 0 -0.21589 0.30403 -0.92788 0.0049085
0.30489 0.22686 0.88719 5.9235e-39 294 367.5 0 0 0 -0.20488 0.30052 -0.93151 0.005247
0.30702 0.2269 0.88735 5.8774e-39 296 367.5 0 0 0 -0.19395 0.29996 -0.93403 0.0055496
0.30898 0.22681 0.88703 5.9927e-39 298 367.5 0 0 0 -0.18633 0.29618 -0.93678 0.0058399
0.31095 0.22673 0.88671 6.4768e-39 300 367.5 0 0 0 -0.17848 0.29481 -0.93874 0.0059404
0.3128 0.22686 0.88655 6.3308e-39 264 367.67 0 0 0 -0.16681 0.29348 -0.9413 0.0061823
0.31971 0.22721 0.88655 6.2693e-39 195 368 0 0 0 -0.088873 0.27887 -0.95621 0.0052238
0.32117 0.22692 0.88676 7.2835e-39 272 367.67 0 0 0 -0.072113 0.27748 -0.95802 0.0052989
0.30511 0.2291 0.88783 5.8083e-39 278 368.5 0 0 0 -0.2072 0.30622 -0.92914 0.0048897
0.30719 0.2291 0.88783 6.2923e-39 280 368.5 0 0 0 -0.19536 0.30331 -0.93265 0.0056016
0.30915 0.22901 0.88751 6.3615e-39 282 368.5 0 0 0 -0.1869 0.30183 -0.93486 0.0058743
0.31112 0.22893 0.88719 6.2232e-39 284 368.5 0 0 0 -0.18062 0.29811 -0.93729 0.0062038
0.31302 0.22881 0.88671 6.3615e-39 286 368.5 0 0 0 -0.17104 0.29329 -0.9406 0.0065495
0.31504 0.22877 0.88655 6.108e-39 288 368.5 0 0 0 -0.15567 0.28802 -0.94489 0.0065328
0.31695 0.22894 0.88655 5.962e-39 251.67 368.67 0 0 0 -0.13003 0.28304 -0.95025 0.006207
0.31925 0.22881 0.88671 5.9005e-39 292 368.5 0 0 0 -0.10261 0.27216 -0.95677 0.0052559
0.32139 0.22885 0.88687 5.9235e-39 294 368.5 0 0 0 -0.074702 0.26419 -0.96157 0.0049947
0.30667 0.23065 0.88783 7.7444e-39 377 369 0 0 0 -0.20162 0.30761 -0.9299 0.0051833
0.30926 0.23117 0.88783 6.7994e-39 262.5 369.5 0 0 0 -0.1894 0.30405 -0.93364 0.0059843
0.31123 0.23109 0.88751 6.3384e-39 264.5 369.5 0 0 0 -0.18189 0.30082 -0.93617 0.0063302
0.31319 0.23101 0.88719 6.3154e-39 266.5 369.5 0 0 0 -0.17264 0.29678 -0.93921 0.0066107
0.31521 0.23097 0.88703 6.3845e-39 268.5 369.5 0 0 0 -0.15889 0.29274 -0.9429 0.0069218
0.31723 0.23093 0.88687 6.0388e-39 270.5 369.5 0 0 0 -0.14233 0.27513 -0.95081 0.0065149
0.31931 0.23093 0.88687 5.6239e-39 272.5 369.5 0 0 0 -0.11237 0.26778 -0.9569 0.00514
0.32144 0.23097 0.88703 5.7161e-39 274.5 369.5 0 0 0 -0.085104 0.2576 -0.9625 0.0044145
0.30702 0.23342 0.88783 7.4986e-39 395.67 370 0 0 0 -0.20699 0.31068 -0.9277 0.0049809
0.30943 0.23308 0.88783 6.4844e-39 326.33 370 0 0 0 -0.19647 0.3073 -0.93111 0.0057496
0.31123 0.23317 0.88751 6.615e-39 364 370 0 0 0 -0.18669 0.30211 -0.93481 0.0064039
0.31331 0.23317 0.88751 6.592e-39 366 370 0 0 0 -0.17879 0.29753 -0.93782 0.0067585
0.31527 0.23308 0.88719 7.1452e-39 419 370 0 0 0 -0.16669 0.29139 -0.94197 0.0070863
0.3174 0.23312 0.88735 6.8917e-39 421 370 0 0 0 -0.14643 0.28134 -0.94837 0.0067083
0.3189 0.23308 0.88719 6.592e-39 422.5 370 0 0 0 -0.12634 0.27213 -0.95393 0.0059437
0.32083 0.23291 0.88751 6.5228e-39 396 370 0 0 0 -0.098453 0.25972 -0.96065 0.004599
0.30667 0.23481 0.88783 5.9927e-39 218 371 0 0 0 -0.21151 0.31096 -0.92659 0.0048762
0.31144 0.2351 0.88762 7.4986e-39 292.67 371 0 0 0 -0.19412 0.30061 -0.93378 0.0062125
0.31342 0.23533 0.88783 8.1824e-39 329.5 371 0 0 0 -0.1915 0.2965 -0.93564 0.0066282
0.31533 0.2352 0.88735 8.7817e-39 331.5 371 0 0 0 -0.17479 0.28627 -0.94207 0.007447
0.31705 0.23533 0.88783 8.8046e-39 333 371 0 0 0 -0.16238 0.28261 -0.94539 0.0074445
0.31849 0.23524 0.88751 8.5742e-39 334.5 371 0 0 0 -0.14052 0.27736 -0.95043 0.0068584
0.31186 0.23689 0.88783 6.0849e-39 195 372 0 0 0 -0.20202 0.29934 -0.93251 0.0061196
0.3129 0.23689 0.88783 6.4537e-39 196 372 0 0 0 -0.1996 0.29674 -0.93387 0.0064889
0.31602 0.23689 0.88783 6.2693e-39 199 372 0 0 0 -0.18043 0.2885 -0.94033 0.0075009
0.25094 0.14985 0.88911 7.2835e-39 429 335 0 0 0 -0.1164 -0.67961 -0.72428 0.073013
0.2532 0.14996 0.88975 7.8366e-39 431 335 0 0 0 -0.047414 -0.76904 -0.63744 0.0759
0.24551 0.15131 0.88954 6.9147e-39 231.33 336 0 0 0 -0.2647 -0.54221 -0.79746 0.07542
0.2473 0.15141 0.88911 6.7303e-39 268 336 0 0 0 -0.22114 -0.54769 -0.80693 0.074179
0.24909 0.15116 0.88868 6.4229e-39 235 336 0 0 0 -0.18464 -0.57014 -0.80053 0.071538
0.25336 0.15078 0.88847 5.7161e-39 175.5 336 0 0 0 -0.094148 -0.67632 -0.73057 0.069325
0.25491 0.15078 0.88847 5.6239e-39 177 336 0 0 0 -0.061175 -0.6868 -0.72426 0.070005
0.26072 0.15188 0.88879 5.8544e-39 385.5 336 0 0 0 0.014532 -0.78855 -0.6148 0.069628
0.24383 0.15308 0.88975 6.1771e-39 445 336 0 0 0 -0.31437 -0.44757 -0.83717 0.075144
0.2451 0.15266 0.88932 7.1298e-39 421 336 0 0 0 -0.28886 -0.47138 -0.83328 0.07361
0.24712 0.15338 0.88847 6.4998e-39 329 336.5 0 0 0 -0.26213 -0.39229 -0.8817 0.063393
0.24868 0.15286 0.88847 6.2693e-39 450 336 0 0 0 -0.2265 -0.44411 -0.86687 0.066758
0.26115 0.15286 0.88847 5.8083e-39 475 336 0 0 0 -0.001355 -0.74709 -0.66473 0.075703
0.26266 0.15293 0.8889 6.1156e-39 362.67 336.33 0 0 0 0.0062404 -0.78666 -0.61736 0.070869
0.26479 0.1539 0.88847 5.5778e-39 226.5 337 0 0 0 0.0016632 -0.77991 -0.62589 0.072832
0.24383 0.15464 0.88975 6.9146e-39 306 337 0 0 0 -0.33332 -0.35556 -0.8732 0.070523
0.24513 0.15499 0.88879 6.5459e-39 255.5 337.33 0 0 0 -0.31274 -0.29368 -0.90329 0.060581
0.26706 0.15401 0.88911 5.2552e-39 228.5 337 0 0 0 0.0036949 -0.801 -0.59865 0.067044
0.26914 0.15453 0.88911 6.5919e-39 330.5 337 0 0 0 -0.0085508 -0.8111 -0.58485 0.062273
0.27132 0.1551 0.88943 7.1913e-39 432.5 337 0 0 0 -0.033236 -0.81916 -0.5726 0.058216
0.27518 0.15598 0.88847 5.7161e-39 192 338 0 0 0 -0.043123 -0.82361 -0.56551 0.049963
0.27726 0.15598 0.88847 6.131e-39 198.5 338 0 0 0 -0.037584 -0.83167 -0.554 0.043572
0.23967 0.15672 0.88975 7.053e-39 257.5 338 0 0 0 -0.37505 -0.24568 -0.89385 0.060777
0.24119 0.15669 0.88959 6.9377e-39 259 338 0 0 0 -0.36618 -0.24447 -0.89786 0.061069
0.24323 0.15666 0.88943 6.4306e-39 261 338 0 0 0 -0.34231 -0.25459 -0.90444 0.0635
0.24504 0.15702 0.88847 6.592e-39 374.5 338 0 0 0 -0.32142 -0.20188 -0.92517 0.049827
0.2733 0.15609 0.88911 5.3934e-39 185.5 338 0 0 0 -0.046703 -0.81967 -0.57092 0.0547
0.27902 0.15609 0.88911 6.3615e-39 200 338 0 0 0 -0.028326 -0.84993 -0.52613 0.034056
0.28069 0.15615 0.88943 6.3154e-39 201.5 338 0 0 0 -0.014867 -0.86033 -0.50952 0.028437
0.29276 0.15724 0.88975 7.4678e-39 420 338 0 0 0 0.033463 -0.90206 -0.43032 0.018367
0.30919 0.15713 0.88911 6.2693e-39 436 338 0 0 0 0.012765 -0.94079 -0.33874 0.011579
0.31086 0.15719 0.88943 6.4076e-39 437.5 338 0 0 0 -0.0053202 -0.93942 -0.34273 0.011737
0.31253 0.15724 0.88975 5.7161e-39 439 338 0 0 0 -0.025056 -0.93101 -0.36415 0.010666
0.31566 0.15724 0.88975 5.7161e-39 442 338 0 0 0 -0.0575 -0.93281 -0.35575 0.010031
0.23915 0.15881 0.88975 5.3473e-39 354.5 338.5 0 0 0 -0.37043 -0.12934 -0.91981 0.040029
0.2411 0.15872 0.88927 5.6469e-39 356.5 338.5 0 0 0 -0.3608 -0.13152 -0.92332 0.042163
0.24305 0.15863 0.88879 5.6009e-39 358.5 338.5 0 0 0 -0.34632 -0.1365 -0.92813 0.042394
0.24487 0.15841 0.88847 5.6854e-39 399.67 338.33 0 0 0 -0.32905 -0.14803 -0.93264 0.043371
0.29493 0.15806 0.88847 5.4395e-39 186.5 339 0 0 0 0.028952 -0.89072 -0.45363 0.030407
0.29796 0.15829 0.88975 5.9005e-39 198 339 0 0 0 0.042825 -0.91425 -0.40288 0.019492
0.29961 0.15806 0.88847 6.1771e-39 200 339 0 0 0 0.034678 -0.91777 -0.3956 0.024682
0.30169 0.15806 0.88847 6.6381e-39 202 339 0 0 0 0.04445 -0.93017 -0.36443 0.020965
0.30336 0.15811 0.88879 6.0388e-39 203.5 339 0 0 0 0.047635 -0.94597 -0.32073 0.01151
0.30533 0.15806 0.88847 5.9466e-39 205.5 339 0 0 0 0.044708 -0.95094 -0.30613 0.010306
0.30741 0.15806 0.88847 6.4076e-39 207.5 339 0 0 0 0.034706 -0.94985 -0.31077 0.010942
0.31001 0.15806 0.88847 5.5317e-39 210 339 0 0 0 0.0021509 -0.95018 -0.31168 0.010761
0.31272 0.15811 0.88879 5.3934e-39 212.5 339 0 0 0 -0.023228 -0.94981 -0.31196 0.010901
0.3148 0.15811 0.88879 6.0849e-39 214.5 339 0 0 0 -0.052928 -0.94588 -0.32018 0.0099815
0.31647 0.15817 0.88911 5.8083e-39 216 339 0 0 0 -0.067229 -0.94074 -0.3324 0.0097301
0.23915 0.16089 0.88975 6.4306e-39 327.5 339.5 0 0 0 -0.36174 -0.082799 -0.9286 0.036092
0.24114 0.16083 0.88943 5.9927e-39 329.5 339.5 0 0 0 -0.35729 -0.077908 -0.93074 0.03421
0.2431 0.16074 0.88895 6.108e-39 331.5 339.5 0 0 0 -0.34543 -0.078277 -0.93517 0.033987
0.24452 0.16066 0.88847 6.3154e-39 333 339.5 0 0 0 -0.33546 -0.077512 -0.93886 0.033328
0.23915 0.16297 0.88975 6.6381e-39 289.5 340.5 0 0 0 -0.35775 -0.02562 -0.93347 0.027839
0.24114 0.16291 0.88943 7.1221e-39 291.5 340.5 0 0 0 -0.35199 -0.031497 -0.93547 0.030067
0.24314 0.16285 0.88911 7.1913e-39 293.5 340.5 0 0 0 -0.34136 -0.020564 -0.93971 0.026117
0.24452 0.16274 0.88847 7.0991e-39 295 340.5 0 0 0 -0.33112 -0.013388 -0.94349 0.02371
0.23967 0.16505 0.88975 4.2871e-39 444.5 341 0 0 0 -0.34689 0.028354 -0.93748 0.019601
0.24119 0.16502 0.88959 5.9466e-39 264 341.5 0 0 0 -0.34316 0.031621 -0.93874 0.019272
0.2431 0.1649 0.88895 5.7622e-39 266 341.5 0 0 0 -0.33673 0.035776 -0.94092 0.017942
0.24452 0.16481 0.88847 6.085e-39 267.5 341.5 0 0 0 -0.33048 0.029305 -0.94336 0.01972
0.24175 0.16713 0.88975 6.0388e-39 342 342 0 0 0 -0.34037 0.087116 -0.93625 0.011961
0.24323 0.16707 0.88943 6.2923e-39 343.5 342 0 0 0 -0.32951 0.087726 -0.94007 0.011949
0.24513 0.16695 0.88879 6.5689e-39 345.5 342 0 0 0 -0.32355 0.084193 -0.94246 0.011627
0.24712 0.16689 0.88847 7.0069e-39 347.5 342 0 0 0 -0.31423 0.082066 -0.94579 0.012022
0.24175 0.16922 0.88975 5.7622e-39 286 343 0 0 0 -0.33327 0.1463 -0.93141 0.0060745
0.24323 0.16916 0.88943 5.6239e-39 287.5 343 0 0 0 -0.33022 0.14752 -0.93231 0.0061798
0.24513 0.16903 0.88879 6.2002e-39 289.5 343 0 0 0 -0.32326 0.14451 -0.93521 0.0062505
