# .PCD v.7 - Point Cloud Data file format
VERSION .7
FIELDS x y z rgb u v vx vy vz normal_x normal_y normal_z curvature
SIZE 4 4 4 4 4 4 4 4 4 4 4 4 4
TYPE F F F F F F F F F F F F F
COUNT 1 1 1 1 1 1 1 1 1 1 1 1 1
WIDTH 556
HEIGHT 1
VIEWPOINT 0 0 0 1 0 0 0
POINTS 556
DATA ascii
0.033081 0.12736 1.0916 6.7917e-39 408.33 324.67 0 0 0 -0.61882 -0.2656 -0.73927 0.024665
0.034763 0.12771 1.091 6.5459e-39 387 325 0 0 0 -0.64675 -0.26301 -0.71592 0.021177
0.03604 0.12643 1.091 6.7303e-39 456 324 0 0 0 -0.64677 -0.2879 -0.70625 0.021434
-0.046966 0.1291 1.0919 6.6381e-39 400 325 0 0 0 0.16782 -0.74288 -0.64805 0.12629
-0.034131 0.12887 1.09 6.0849e-39 410 325 0 0 0 0.33588 -0.32783 -0.88301 0.063117
-0.032856 0.12887 1.09 6.2693e-39 411 325 0 0 0 0.33905 -0.30367 -0.89041 0.059783
-0.030942 0.12887 1.09 6.0388e-39 412.5 325 0 0 0 0.36931 -0.24174 -0.89731 0.048508
-0.029081 0.1291 1.0919 5.4395e-39 414 325 0 0 0 0.37071 -0.16693 -0.91362 0.042611
-0.027804 0.1291 1.0919 5.3473e-39 415 325 0 0 0 0.36952 -0.1538 -0.9164 0.038717
0.032834 0.12893 1.0905 5.0247e-39 468.5 325 0 0 0 -0.62679 -0.24291 -0.74036 0.022913
0.034733 0.12887 1.09 5.3473e-39 470 325 0 0 0 -0.65424 -0.25369 -0.71247 0.020042
-0.032856 0.13015 1.09 7.6522e-39 221 326 0 0 0 0.36248 -0.27077 -0.89179 0.059763
-0.030305 0.13015 1.09 4.7942e-39 223 326 0 0 0 0.38719 -0.18989 -0.90223 0.043536
-0.029043 0.13084 1.0905 5.7162e-39 332 326 0 0 0 0.4012 -0.15043 -0.90355 0.039505
-0.027141 0.1309 1.091 5.6931e-39 333.5 326 0 0 0 0.39888 -0.11727 -0.90947 0.035587
-0.025238 0.13096 1.0914 5.8544e-39 335 326 0 0 0 0.39919 -0.08414 -0.913 0.033235
-0.023961 0.13096 1.0914 5.8544e-39 336 326 0 0 0 0.40237 -0.058509 -0.9136 0.030144
-0.020139 0.13166 1.0919 6.7303e-39 453 326 0 0 0 0.40502 -0.0055685 -0.91429 0.024541
0.030962 0.13102 1.0919 6.4998e-39 308 326.5 0 0 0 -0.58468 -0.20736 -0.78432 0.027303
0.032182 0.13079 1.09 7.514e-39 309 326.5 0 0 0 -0.62915 -0.22557 -0.74383 0.021507
-0.029043 0.1334 1.0905 6.4998e-39 426 327 0 0 0 0.43197 -0.11444 -0.8946 0.037317
-0.027345 0.1332 1.0906 6.9147e-39 413 327 0 0 0 0.42269 -0.091996 -0.90159 0.033328
-0.025249 0.13293 1.0919 7.0069e-39 386 327 0 0 0 0.41829 -0.053457 -0.90674 0.031176
-0.023971 0.13293 1.0919 6.6381e-39 387 327 0 0 0 0.42137 -0.029507 -0.90641 0.027619
0.030934 0.13282 1.091 7.3757e-39 430 327 0 0 0 -0.6059 -0.19033 -0.77244 0.023871
0.032182 0.13333 1.09 6.7303e-39 338.5 327.5 0 0 0 -0.64322 -0.18894 -0.742 0.019912
-0.02903 0.13525 1.09 5.7161e-39 409 328 0 0 0 0.45348 -0.096796 -0.88599 0.03437
-0.026928 0.13494 1.091 6.2386e-39 430.67 327.67 0 0 0 0.44041 -0.060199 -0.89578 0.030889
-0.025249 0.13485 1.0919 6.2693e-39 442.5 327.5 0 0 0 0.43613 -0.031406 -0.89934 0.026511
-0.023971 0.13421 1.0919 5.9005e-39 474 327 0 0 0 0.42767 -0.020121 -0.90371 0.027049
0.029658 0.13473 1.091 5.7622e-39 345 328 0 0 0 -0.59383 -0.17011 -0.7864 0.023923
0.030934 0.13473 1.091 6.0849e-39 350.5 328 0 0 0 -0.61543 -0.17609 -0.76827 0.021951
0.032182 0.13525 1.09 5.7161e-39 457 328 0 0 0 -0.64931 -0.1743 -0.74028 0.018976
-0.02903 0.13716 1.09 8.9431e-39 327 329 0 0 0 0.4722 -0.078603 -0.87798 0.031673
-0.027361 0.13711 1.0913 9.1273e-39 290.67 329 0 0 0 0.46438 -0.041742 -0.88465 0.027696
0.029658 0.13728 1.091 4.3793e-39 459 329 0 0 0 -0.60488 -0.14248 -0.78347 0.021318
0.030934 0.13728 1.091 4.5176e-39 460 329 0 0 0 -0.62801 -0.14696 -0.7642 0.020194
0.032182 0.13716 1.09 4.6098e-39 461 329 0 0 0 -0.65731 -0.15584 -0.73733 0.018258
-0.02903 0.13907 1.09 5.7161e-39 376 330 0 0 0 0.4981 -0.055531 -0.86534 0.025878
-0.026936 0.13881 1.0913 6.0542e-39 399 329.67 0 0 0 0.48115 -0.027386 -0.87621 0.024052
-0.025249 0.13932 1.0919 5.7161e-39 379 330 0 0 0 0.47426 -0.0030831 -0.88038 0.020314
0.027129 0.13932 1.0919 7.1913e-39 420 330 0 0 0 -0.5795 -0.12075 -0.80598 0.02214
0.029019 0.13919 1.091 7.514e-39 421.5 330 0 0 0 -0.61012 -0.12146 -0.78294 0.020013
0.030907 0.13907 1.09 8.021e-39 423 330 0 0 0 -0.63813 -0.1239 -0.75989 0.018379
-0.030305 0.14162 1.09 6.4537e-39 410 331 0 0 0 0.52991 -0.034023 -0.84737 0.0219
-0.029056 0.14111 1.091 6.4537e-39 442 330.5 0 0 0 0.51812 -0.027797 -0.85485 0.021834
-0.027779 0.14111 1.091 6.7764e-39 443.5 330.5 0 0 0 0.51235 -0.010295 -0.85871 0.018831
0.025851 0.1406 1.0919 5.2552e-39 223 331 0 0 0 -0.55859 -0.094134 -0.82408 0.020591
0.027117 0.14118 1.0914 5.4395e-39 339.5 331 0 0 0 -0.58286 -0.082494 -0.80837 0.016417
0.029006 0.14105 1.0905 5.5548e-39 341 331 0 0 0 -0.61272 -0.091243 -0.78502 0.015299
0.030907 0.14098 1.09 5.6239e-39 342.5 331 0 0 0 -0.63797 -0.093093 -0.76441 0.014602
-0.030305 0.1429 1.09 8.8508e-39 218 332 0 0 0 0.54754 -0.0085048 -0.83674 0.015679
-0.029056 0.14303 1.091 8.482e-39 219 332 0 0 0 0.54113 0.0093367 -0.84089 0.014073
-0.027779 0.14303 1.091 7.56e-39 220 332 0 0 0 0.52833 0.019341 -0.84882 0.013707
0.027105 0.14303 1.091 6.1771e-39 395 332 0 0 0 -0.59301 -0.05133 -0.80356 0.01266
0.029006 0.14297 1.0905 6.2693e-39 396.5 332 0 0 0 -0.61511 -0.055086 -0.78652 0.011711
0.030907 0.1429 1.09 6.8225e-39 398 332 0 0 0 -0.63899 -0.063575 -0.76658 0.011998
-0.030305 0.14545 1.09 7.0991e-39 392 333 0 0 0 0.57025 0.03816 -0.82058 0.0096498
-0.029043 0.14488 1.0905 6.2693e-39 423.5 332.5 0 0 0 0.55883 0.040836 -0.82828 0.0098316
-0.027767 0.14488 1.0905 6.131e-39 424.5 332.5 0 0 0 0.54585 0.048879 -0.83646 0.0092592
0.027129 0.14507 1.0919 6.7764e-39 320 333 0 0 0 -0.58674 -0.017671 -0.80958 0.0095012
0.029006 0.14488 1.0905 6.4076e-39 321.5 333 0 0 0 -0.61999 -0.02834 -0.7841 0.0092433
0.030907 0.14481 1.09 6.6381e-39 323 333 0 0 0 -0.64039 -0.036066 -0.7672 0.009262
-0.030305 0.14673 1.09 5.9927e-39 199 334 0 0 0 0.57857 0.059788 -0.81344 0.0080526
-0.029056 0.14686 1.091 5.6239e-39 200 334 0 0 0 0.56739 0.070398 -0.82044 0.0071454
-0.027779 0.14686 1.091 5.4395e-39 201 334 0 0 0 0.55627 0.079679 -0.82717 0.0064764
0.027129 0.14699 1.0919 6.3615e-39 375 334 0 0 0 -0.59568 -0.0024131 -0.80322 0.0082628
0.029006 0.1468 1.0905 5.9005e-39 376.5 334 0 0 0 -0.62278 -0.006614 -0.78237 0.0078565
0.030907 0.14673 1.09 5.8083e-39 378 334 0 0 0 -0.64423 -0.011564 -0.76475 0.0073344
-0.030305 0.14864 1.09 6.6841e-39 341 334.5 0 0 0 0.58887 0.077912 -0.80446 0.0065712
-0.029056 0.14877 1.091 6.5458e-39 342 334.5 0 0 0 0.57827 0.084925 -0.81141 0.005908
-0.027804 0.1489 1.0919 6.7303e-39 403.5 334.5 0 0 0 0.56366 0.092806 -0.82077 0.0053391
0.027129 0.1489 1.0919 4.9325e-39 471 334.5 0 0 0 -0.59893 0.011585 -0.80072 0.0068477
0.029006 0.14871 1.0905 4.702e-39 472.5 334.5 0 0 0 -0.62116 0.011842 -0.78359 0.0061835
0.030907 0.14864 1.09 4.6098e-39 474 334.5 0 0 0 -0.63914 0.0051945 -0.76907 0.0057309
-0.030305 0.15119 1.09 6.3154e-39 432.5 335.5 0 0 0 0.59801 0.081447 -0.79734 0.0060513
-0.029056 0.15132 1.091 6.4537e-39 433.5 335.5 0 0 0 0.58851 0.082597 -0.80426 0.0063558
-0.027804 0.15082 1.0919 6.3615e-39 477 335 0 0 0 0.57291 0.094584 -0.81414 0.0051882
0.027129 0.15082 1.0919 6.4537e-39 210 336 0 0 0 -0.59591 0.023799 -0.8027 0.0059302
0.029013 0.15129 1.0907 6.131e-39 324.5 336 0 0 0 -0.6176 0.023141 -0.78615 0.0048312
0.030907 0.15119 1.09 5.6239e-39 326 336 0 0 0 -0.63693 0.022601 -0.77059 0.0049611
-0.030305 0.1531 1.09 5.8083e-39 524 336 0 0 0 0.60474 0.07024 -0.79332 0.0067965
-0.029056 0.15324 1.091 4.241e-39 525 336 0 0 0 0.58823 0.077548 -0.80497 0.006318
-0.027804 0.15273 1.0919 4.8403e-39 459 336 0 0 0 0.57549 0.081293 -0.81376 0.0063221
0.02902 0.15324 1.091 5.5317e-39 222.5 337 0 0 0 -0.61763 0.036042 -0.78565 0.0044494
0.030907 0.1531 1.09 5.5317e-39 224 337 0 0 0 -0.63466 0.033966 -0.77205 0.0044838
-0.03073 0.15523 1.09 5.962e-39 481.67 337 0 0 0 0.6065 0.068568 -0.79212 0.0069288
-0.029068 0.15522 1.0914 4.702e-39 461.5 337 0 0 0 0.58862 0.072457 -0.80515 0.0064841
-0.027804 0.15465 1.0919 6.2693e-39 398 337 0 0 0 0.57702 0.075113 -0.81327 0.006502
0.029026 0.15519 1.0912 5.5087e-39 330 337.5 0 0 0 -0.61339 0.041421 -0.78869 0.0042776
0.030907 0.15501 1.09 5.5317e-39 331.5 337.5 0 0 0 -0.63139 0.039568 -0.77446 0.0043226
0.032182 0.15565 1.09 5.6239e-39 217 338 0 0 0 -0.64053 0.040233 -0.76688 0.0040772
-0.030956 0.157 1.0905 6.592e-39 381.5 338 0 0 0 0.60758 0.064235 -0.79166 0.0069884
-0.029081 0.15721 1.0919 7.0069e-39 383 338 0 0 0 0.58798 0.06008 -0.80664 0.0070824
0.029045 0.15721 1.0919 6.7764e-39 428.5 338 0 0 0 -0.60885 0.042594 -0.79214 0.0041405
0.030907 0.15693 1.09 6.0849e-39 430 338 0 0 0 -0.63073 0.04497 -0.7747 0.0039379
0.032182 0.15693 1.09 5.7161e-39 431 338 0 0 0 -0.64138 0.043125 -0.76601 0.0039948
-0.032856 0.15948 1.09 5.9005e-39 214 339 0 0 0 0.61898 0.050688 -0.78377 0.0081017
-0.030963 0.15894 1.0907 5.9236e-39 342 338.5 0 0 0 0.60632 0.052013 -0.79352 0.0074367
-0.029081 0.15848 1.0919 6.4537e-39 470 338 0 0 0 0.587 0.053321 -0.80783 0.0074389
0.029684 0.15912 1.0919 9.4959e-39 281.5 339 0 0 0 -0.61143 0.043609 -0.7901 0.0041456
0.030934 0.15898 1.091 8.5281e-39 282.5 339 0 0 0 -0.62497 0.041406 -0.77955 0.0040114
0.032196 0.15891 1.0905 7.053e-39 283.5 339 0 0 0 -0.6365 0.041974 -0.77014 0.00395
-0.032856 0.16075 1.09 8.1132e-39 418 339 0 0 0 0.61906 0.046278 -0.78398 0.0084547
-0.030984 0.16097 1.0914 8.7125e-39 419.5 339 0 0 0 0.60222 0.041693 -0.79724 0.0081673
0.029684 0.16104 1.0919 5.3473e-39 467 339 0 0 0 -0.61246 0.032978 -0.78981 0.0042641
0.030934 0.1609 1.091 5.6239e-39 468 339 0 0 0 -0.62537 0.034286 -0.77958 0.004015
0.032182 0.16075 1.09 5.9005e-39 469 339 0 0 0 -0.63813 0.03413 -0.76917 0.0041451
-0.034131 0.16266 1.09 3.9183e-39 451.5 339.5 0 0 0 0.62413 0.041478 -0.78022 0.0096675
-0.032871 0.16274 1.0905 3.78e-39 452.5 339.5 0 0 0 0.61291 0.035866 -0.78934 0.0093619
-0.030984 0.16288 1.0914 4.4715e-39 256 340 0 0 0 0.59895 0.033567 -0.80008 0.008719
0.029045 0.16296 1.0919 7.3526e-39 317 340 0 0 0 -0.61084 0.023679 -0.7914 0.0046393
0.030934 0.16281 1.091 7.2835e-39 318.5 340 0 0 0 -0.62984 0.022938 -0.77639 0.0042181
0.032182 0.16266 1.09 7.053e-39 319.5 340 0 0 0 -0.63758 0.026245 -0.76994 0.0042519
-0.034146 0.16529 1.0905 6.6381e-39 329.5 340.5 0 0 0 0.61704 0.032301 -0.78627 0.010922
-0.032885 0.16536 1.091 6.4537e-39 330.5 340.5 0 0 0 0.60767 0.024249 -0.79382 0.010548
-0.030984 0.16544 1.0914 6.1541e-39 332 340.5 0 0 0 0.60029 0.020738 -0.79951 0.0098655
0.028393 0.16543 1.0914 4.5176e-39 198.5 341 0 0 0 -0.61337 0.0085628 -0.78975 0.0052663
0.03092 0.16528 1.0905 4.4253e-39 199.5 341 0 0 0 -0.63066 0.009634 -0.776 0.0045765
0.032182 0.16522 1.09 4.5176e-39 257.5 341 0 0 0 -0.64169 0.0068077 -0.76694 0.0046155
-0.034161 0.16728 1.091 7.9288e-39 405 341 0 0 0 0.6092 0.018767 -0.7928 0.012142
-0.032885 0.16728 1.091 8.021e-39 406 341 0 0 0 0.60532 0.018067 -0.79578 0.011532
-0.03097 0.16728 1.091 8.0671e-39 407.5 341 0 0 0 0.59945 0.012083 -0.80032 0.010644
-0.026526 0.16743 1.0919 7.9288e-39 411 341 0 0 0 0.5627 -0.0067657 -0.82663 0.011522
0.028381 0.16728 1.091 5.8083e-39 451 341 0 0 0 -0.61882 -0.0092424 -0.78548 0.0055665
0.030907 0.16713 1.09 6.3615e-39 452 341 0 0 0 -0.63889 -0.0080403 -0.76926 0.0048203
0.032182 0.16713 1.09 6.8225e-39 453 341 0 0 0 -0.64588 -0.0071181 -0.76341 0.0049505
-0.03097 0.16855 1.091 3.0425e-39 142.5 342 0 0 0 0.59534 0.0091768 -0.80342 0.011019
-0.029081 0.1687 1.0919 3.4112e-39 144 342 0 0 0 0.57965 -0.0017135 -0.81486 0.010999
-0.026491 0.16912 1.0905 4.702e-39 259.5 342 0 0 0 0.56727 -0.018463 -0.82333 0.012481
-0.025226 0.16919 1.091 4.702e-39 260.5 342 0 0 0 0.55697 -0.018063 -0.83034 0.012919
0.028356 0.16841 1.09 6.7303e-39 207 342 0 0 0 -0.62387 -0.011082 -0.78145 0.0059025
0.032182 0.16905 1.09 7.1913e-39 309 342 0 0 0 -0.65221 -0.026392 -0.75757 0.0050858
0.030907 0.17096 1.09 5.9927e-39 522 342 0 0 0 -0.65036 -0.039808 -0.75858 0.0056682
0.032182 0.17096 1.09 5.8083e-39 523 342 0 0 0 -0.65777 -0.037465 -0.75228 0.0056247
-0.035532 0.12549 1.0939 7.4678e-39 455 323 0 0 0 0.201 -0.48066 -0.85356 0.073594
-0.031053 0.12549 1.0939 5.9466e-39 458.5 323 0 0 0 0.27724 -0.3284 -0.90293 0.055741
-0.029133 0.12549 1.0939 5.4395e-39 460 323 0 0 0 0.30467 -0.2659 -0.91459 0.048898
-0.027853 0.12549 1.0939 5.3473e-39 461 323 0 0 0 0.31887 -0.2099 -0.92426 0.041341
-0.024867 0.12506 1.0939 5.8698e-39 437.67 323 0 0 0 0.33296 -0.17136 -0.92724 0.03762
-0.020796 0.12474 1.0929 5.9005e-39 429 323 0 0 0 0.36391 -0.10647 -0.92533 0.032504
-0.018895 0.12549 1.0939 5.2552e-39 468 323 0 0 0 0.37845 -0.065155 -0.92332 0.029743
-0.017615 0.12485 1.0939 5.4856e-39 431.5 323 0 0 0 0.37977 -0.064634 -0.92282 0.028041
0.032296 0.12549 1.0939 6.1771e-39 375 324 0 0 0 -0.57253 -0.28818 -0.76757 0.033469
0.036135 0.12421 1.0939 6.7303e-39 441 323 0 0 0 -0.62816 -0.33487 -0.70233 0.025402
-0.04577 0.12677 1.0939 6.6381e-39 382 324 0 0 0 0.033875 -0.80407 -0.59357 0.10877
-0.038057 0.12666 1.0929 6.9147e-39 389 324 0 0 0 0.20849 -0.5218 -0.8272 0.08791
-0.034222 0.12666 1.0929 5.9927e-39 392 324 0 0 0 0.2647 -0.38125 -0.88576 0.065538
-0.032943 0.12666 1.0929 5.8083e-39 393 324 0 0 0 0.27964 -0.34305 -0.89673 0.059332
-0.029107 0.12666 1.0929 5.9927e-39 396 324 0 0 0 0.32633 -0.23911 -0.91451 0.048138
-0.026984 0.12712 1.0932 5.9313e-39 438 324 0 0 0 0.35269 -0.16673 -0.92077 0.036589
-0.024859 0.12716 1.0936 5.962e-39 439.67 324 0 0 0 0.35478 -0.13593 -0.92501 0.035283
-0.023992 0.12794 1.0929 3.6878e-39 521 324 0 0 0 0.36784 -0.10031 -0.92446 0.034307
-0.020801 0.12733 1.0932 4.9325e-39 463 324 0 0 0 0.38347 -0.063535 -0.92136 0.028971
-0.017615 0.12677 1.0939 6.0849e-39 405 324 0 0 0 0.38681 -0.040122 -0.92129 0.025752
0.032268 0.12666 1.0929 6.8225e-39 446 324 0 0 0 -0.58608 -0.27128 -0.76349 0.02956
0.034825 0.12666 1.0929 7.1913e-39 455 324 0 0 0 -0.62529 -0.28339 -0.72712 0.024159
-0.02655 0.12921 1.0929 5.5317e-39 416 325 0 0 0 0.38037 -0.11783 -0.9173 0.035202
-0.025271 0.12921 1.0929 5.9927e-39 417 325 0 0 0 0.37836 -0.10461 -0.91973 0.034873
-0.023992 0.12921 1.0929 6.4537e-39 418 325 0 0 0 0.37684 -0.090156 -0.92188 0.032995
-0.020806 0.12927 1.0934 6.0849e-39 420.5 325 0 0 0 0.39377 -0.034741 -0.91855 0.027194
-0.018895 0.12805 1.0939 8.482e-39 212 325 0 0 0 0.39551 -0.027412 -0.91805 0.025191
-0.017615 0.12805 1.0939 8.021e-39 213 325 0 0 0 0.38878 -0.021206 -0.92108 0.024158
0.030989 0.12921 1.0929 5.0708e-39 467 325 0 0 0 -0.5757 -0.22147 -0.7871 0.029169
-0.022724 0.13119 1.0934 5.9005e-39 337 326 0 0 0 0.39795 -0.027623 -0.91699 0.028192
-0.021009 0.13092 1.0929 5.8698e-39 302.33 326 0 0 0 0.39958 -0.014811 -0.91658 0.026407
-0.018895 0.13125 1.0939 6.4537e-39 349 326 0 0 0 0.39824 0.008613 -0.91724 0.022445
0.029723 0.13119 1.0934 5.9466e-39 307 326.5 0 0 0 -0.56107 -0.20028 -0.80318 0.028856
-0.022734 0.13317 1.0939 6.4537e-39 388 327 0 0 0 0.41175 -0.0056261 -0.91128 0.025113
-0.020796 0.13305 1.0929 6.592e-39 389.5 327 0 0 0 0.41107 0.0098415 -0.91155 0.023253
-0.018895 0.13317 1.0939 6.4537e-39 391 327 0 0 0 0.40275 0.022307 -0.91504 0.020924
0.02971 0.13305 1.0929 7.3757e-39 429 327 0 0 0 -0.57215 -0.17792 -0.80062 0.026531
-0.023153 0.13526 1.0936 5.9005e-39 447 327.67 0 0 0 0.4306 0.0026827 -0.90254 0.022915
-0.021015 0.1348 1.0932 6.3308e-39 482 327.33 0 0 0 0.42037 0.01876 -0.90716 0.020749
0.025897 0.13573 1.0939 6.1771e-39 452 328 0 0 0 -0.52779 -0.13416 -0.83871 0.028541
0.027165 0.13503 1.0934 5.8544e-39 342 328 0 0 0 -0.54659 -0.15084 -0.8237 0.026828
0.028445 0.13503 1.0934 6.0388e-39 344 328 0 0 0 -0.56062 -0.15427 -0.81358 0.025797
-0.025271 0.13689 1.0929 9.4961e-39 217 329 0 0 0 0.44925 -0.016012 -0.89326 0.024659
-0.023992 0.13689 1.0929 9.6805e-39 218 329 0 0 0 0.44593 -0.0012227 -0.89507 0.0224
0.025897 0.13701 1.0939 6.4537e-39 393 329 0 0 0 -0.53172 -0.12908 -0.83703 0.027387
0.027153 0.13689 1.0929 5.7161e-39 394 329 0 0 0 -0.55812 -0.13136 -0.81929 0.024627
0.028432 0.13689 1.0929 5.6239e-39 395 329 0 0 0 -0.57325 -0.13689 -0.80786 0.023719
-0.025271 0.13816 1.0929 6.5459e-39 443 329 0 0 0 0.46328 -0.0050697 -0.8862 0.021932
-0.023573 0.13906 1.0932 6.1464e-39 401.67 329.67 0 0 0 0.45875 0.016032 -0.88842 0.019217
-0.021454 0.13957 1.0939 7.0069e-39 382 330 0 0 0 0.44346 0.040084 -0.8954 0.0169
0.025886 0.13886 1.0934 6.3615e-39 469 329.5 0 0 0 -0.54044 -0.11329 -0.83372 0.025351
0.027153 0.13816 1.0929 5.163e-39 520 329 0 0 0 -0.56882 -0.1213 -0.81347 0.023445
0.028432 0.13816 1.0929 3.8722e-39 521 329 0 0 0 -0.58 -0.12548 -0.8049 0.02249
-0.02655 0.14072 1.0929 6.2693e-39 476 330 0 0 0 0.48684 -0.0047319 -0.87348 0.0197
-0.024643 0.14078 1.0934 6.3615e-39 477.5 330 0 0 0 0.47852 0.018782 -0.87788 0.017525
-0.02655 0.14264 1.0929 6.8224e-39 317 331.5 0 0 0 0.5065 0.031813 -0.86165 0.013505
-0.024643 0.1427 1.0934 6.3845e-39 318.5 331.5 0 0 0 0.49323 0.052959 -0.86828 0.011682
0.025874 0.14264 1.0929 6.0388e-39 424 331.5 0 0 0 -0.56271 -0.059124 -0.82454 0.016106
-0.02655 0.1452 1.0929 6.1771e-39 425.5 332.5 0 0 0 0.52823 0.074663 -0.84581 0.0075472
-0.024859 0.14507 1.0936 6.0542e-39 437 332.33 0 0 0 0.51474 0.089572 -0.85265 0.0068994
0.025886 0.14526 1.0934 6.7764e-39 319 333 0 0 0 -0.56541 -0.017204 -0.82463 0.011284
0.025897 0.14725 1.0939 6.6381e-39 374 334 0 0 0 -0.56485 1.0045e-05 -0.82519 0.0097344
-0.026573 0.14981 1.0939 6.2693e-39 373 335 0 0 0 0.54609 0.10341 -0.83132 0.005474
0.025897 0.14917 1.0939 5.1168e-39 470 334.5 0 0 0 -0.56962 0.015617 -0.82176 0.0081898
-0.026573 0.15108 1.0939 5.9005e-39 484 335 0 0 0 0.54864 0.093201 -0.83085 0.0056831
-0.026573 0.153 1.0939 4.702e-39 460 336 0 0 0 0.55332 0.082373 -0.82888 0.0067134
-0.025293 0.15236 1.0939 7.2835e-39 394 336 0 0 0 0.54478 0.085017 -0.83426 0.0066494
0.027153 0.15287 1.0929 5.8083e-39 328.5 336.5 0 0 0 -0.58813 0.034832 -0.80801 0.0054469
-0.026573 0.15492 1.0939 7.0069e-39 399 337 0 0 0 0.55187 0.071144 -0.83089 0.0072012
0.027153 0.15479 1.0929 4.9786e-39 444 337 0 0 0 -0.58806 0.039925 -0.80783 0.0050267
-0.027201 0.15677 1.0934 4.3793e-39 456 337.5 0 0 0 0.56293 0.062812 -0.82412 0.0073623
0.027177 0.1562 1.0939 5.8083e-39 213 338 0 0 0 -0.58576 0.042516 -0.80937 0.0051016
-0.029107 0.1599 1.0929 5.7161e-39 217 339 0 0 0 0.58274 0.046374 -0.81134 0.0076103
-0.027201 0.15869 1.0934 5.9005e-39 471.5 338 0 0 0 0.56374 0.054606 -0.82415 0.0078513
0.028432 0.15926 1.0929 8.897e-39 280.5 339 0 0 0 -0.59829 0.044646 -0.80004 0.0045778
-0.029133 0.16132 1.0939 8.021e-39 421 339 0 0 0 0.57831 0.03882 -0.8149 0.0083429
0.028432 0.16118 1.0929 5.4395e-39 466 339 0 0 0 -0.59824 0.037291 -0.80045 0.0049212
-0.029133 0.16324 1.0939 4.6559e-39 257.5 340 0 0 0 0.57244 0.027164 -0.8195 0.0092891
-0.029133 0.16516 1.0939 5.3473e-39 460 340 0 0 0 0.57219 0.010483 -0.82006 0.0099508
-0.029107 0.16693 1.0929 7.6983e-39 308 341 0 0 0 0.57197 0.00094532 -0.82028 0.01055
-0.027201 0.16701 1.0934 7.4218e-39 309.5 341 0 0 0 0.55907 -0.007697 -0.82908 0.011387
-0.025293 0.16772 1.0939 7.1913e-39 412 341 0 0 0 0.54415 -0.010199 -0.83892 0.012353
-0.027828 0.16885 1.0929 3.2268e-39 145 342 0 0 0 0.56448 -0.012627 -0.82535 0.012129
-0.027828 0.17013 1.0929 6.4537e-39 372 342 0 0 0 0.56509 -0.020876 -0.82477 0.013283
-0.021454 0.17028 1.0939 6.1771e-39 377 342 0 0 0 0.49764 -0.031353 -0.86681 0.01692
-0.020842 0.12182 1.0953 5.209e-39 222.5 321 0 0 0 0.34264 -0.1449 -0.92823 0.036259
-0.02021 0.12315 1.0958 7.8366e-39 434 322 0 0 0 0.35553 -0.12267 -0.92658 0.035125
-0.018928 0.12315 1.0958 6.7303e-39 440 322 0 0 0 0.36533 -0.10689 -0.92472 0.032337
-0.017005 0.12315 1.0958 6.7303e-39 441.5 322 0 0 0 0.37407 -0.086305 -0.92338 0.028544
-0.043287 0.12571 1.0958 6.5459e-39 442 323 0 0 0 -0.0054026 -0.80419 -0.59435 0.090345
-0.040723 0.12571 1.0958 6.3615e-39 444 323 0 0 0 0.076273 -0.73327 -0.67565 0.095766
-0.0388 0.12571 1.0958 6.6842e-39 445.5 323 0 0 0 0.10477 -0.65047 -0.75228 0.094212
-0.03686 0.12501 1.0953 7.0991e-39 415 323 0 0 0 0.13868 -0.57627 -0.80541 0.082097
-0.034282 0.1256 1.0948 7.4678e-39 456 323 0 0 0 0.2227 -0.41431 -0.88247 0.065026
-0.033031 0.12571 1.0958 7.0991e-39 457 323 0 0 0 0.25547 -0.36695 -0.89447 0.059902
-0.030467 0.12443 1.0958 6.5459e-39 382 323 0 0 0 0.25373 -0.3164 -0.91406 0.053044
-0.029184 0.12443 1.0958 6.6381e-39 383 323 0 0 0 0.27346 -0.28186 -0.91966 0.050184
-0.027032 0.12478 1.0951 6.1771e-39 410.33 323 0 0 0 0.31817 -0.2017 -0.92633 0.039836
-0.024035 0.12432 1.0948 6.1771e-39 387 323 0 0 0 0.33084 -0.16418 -0.9293 0.038768
-0.022764 0.12501 1.0953 6.4998e-39 427.5 323 0 0 0 0.34908 -0.12753 -0.92837 0.036199
-0.018911 0.12432 1.0948 5.7161e-39 393 323 0 0 0 0.37636 -0.079606 -0.92305 0.030751
-0.01635 0.12496 1.0948 5.4856e-39 432.5 323 0 0 0 0.38068 -0.044609 -0.92363 0.025119
0.033606 0.1256 1.0948 6.1771e-39 376 324 0 0 0 -0.58476 -0.29141 -0.75705 0.032251
-0.041968 0.12688 1.0948 6.1771e-39 386 324 0 0 0 0.10743 -0.70595 -0.70007 0.099725
-0.022754 0.12688 1.0948 6.2693e-39 401 324 0 0 0 0.36378 -0.093623 -0.92677 0.033715
-0.018911 0.12688 1.0948 6.1771e-39 404 324 0 0 0 0.38482 -0.042172 -0.92203 0.027085
-0.01635 0.12688 1.0948 6.0849e-39 406 324 0 0 0 0.38063 -0.023129 -0.92444 0.023178
-0.022754 0.1288 1.0948 4.9325e-39 470.5 324.5 0 0 0 0.37382 -0.062077 -0.92542 0.032073
-0.018911 0.12944 1.0948 6.3615e-39 422 325 0 0 0 0.39191 -0.011113 -0.91994 0.023495
-0.016998 0.12886 1.0953 7.0069e-39 318.5 325 0 0 0 0.38322 -0.0077181 -0.92362 0.02207
0.029763 0.12944 1.0948 5.4395e-39 466 325 0 0 0 -0.54416 -0.22154 -0.8092 0.031485
0.031044 0.12816 1.0948 6.7303e-39 384 325 0 0 0 -0.56023 -0.23834 -0.79331 0.031721
-0.017005 0.13084 1.0958 5.9927e-39 245.5 326 0 0 0 0.37932 0.016328 -0.92512 0.021153
-0.017005 0.13276 1.0958 6.2002e-39 424 326.5 0 0 0 0.37999 0.031637 -0.92445 0.020269
0.025943 0.1334 1.0958 7.7444e-39 426 327 0 0 0 -0.50354 -0.15155 -0.85058 0.032147
0.027213 0.13271 1.0953 6.8685e-39 318 327 0 0 0 -0.52408 -0.17229 -0.83406 0.030486
0.028507 0.13276 1.0958 6.4998e-39 319 327 0 0 0 -0.53801 -0.17926 -0.82365 0.029607
-0.020192 0.13585 1.0948 6.3615e-39 416 328 0 0 0 0.41415 0.030268 -0.90971 0.019195
-0.01892 0.13527 1.0953 6.9147e-39 467 327.5 0 0 0 0.40249 0.033191 -0.91482 0.019052
0.025291 0.13527 1.0953 5.6701e-39 340.5 328 0 0 0 -0.50165 -0.13034 -0.8552 0.030966
-0.022754 0.13713 1.0948 1.0234e-38 219 329 0 0 0 0.43391 0.016411 -0.90081 0.020805
-0.020841 0.13719 1.0953 8.1593e-39 220.5 329 0 0 0 0.41984 0.033545 -0.90698 0.018159
-0.022754 0.13841 1.0948 6.1771e-39 445 329 0 0 0 0.44295 0.02502 -0.8962 0.019404
-0.020625 0.13888 1.0951 6.6688e-39 425.33 329.33 0 0 0 0.42988 0.04174 -0.90192 0.016446
-0.018928 0.13981 1.0958 6.9147e-39 384 330 0 0 0 0.41782 0.063909 -0.90628 0.013689
0.024639 0.13969 1.0948 7.2835e-39 418 330 0 0 0 -0.509 -0.10061 -0.85487 0.027764
-0.022754 0.14097 1.0948 6.3615e-39 515 330 0 0 0 0.46391 0.043454 -0.88481 0.014826
-0.020851 0.1411 1.0958 6.592e-39 516.5 330 0 0 0 0.4408 0.057788 -0.89574 0.013481
0.024639 0.14097 1.0948 5.3473e-39 222 331 0 0 0 -0.51514 -0.096792 -0.85162 0.024499
-0.022774 0.14366 1.0958 5.2552e-39 224 332 0 0 0 0.47631 0.096588 -0.87396 0.0077851
0.024639 0.14289 1.0948 6.2693e-39 423 331.5 0 0 0 -0.52356 -0.046683 -0.85071 0.017529
0.024661 0.14494 1.0958 5.8083e-39 201 333 0 0 0 -0.52563 -0.017856 -0.85053 0.015216
-0.026597 0.14738 1.0948 5.4395e-39 202 334 0 0 0 0.53464 0.1007 -0.83906 0.0055343
-0.024675 0.14674 1.0948 5.8544e-39 300 333.5 0 0 0 0.51609 0.10548 -0.85001 0.0062908
0.02465 0.1468 1.0953 7.0991e-39 404 333.5 0 0 0 -0.53715 0.0065035 -0.84346 0.011667
-0.026597 0.14866 1.0948 7.3757e-39 436 334 0 0 0 0.5424 0.10498 -0.83354 0.0051522
-0.025316 0.1493 1.0948 6.7764e-39 405.5 334.5 0 0 0 0.53259 0.11311 -0.83878 0.0054972
0.024661 0.14879 1.0958 2.4893e-39 525 334 0 0 0 -0.54167 0.02254 -0.84029 0.010208
-0.025316 0.15122 1.0948 5.9927e-39 515 335 0 0 0 0.53626 0.096057 -0.83857 0.0062037
0.025081 0.15088 1.0955 7.4064e-39 276.67 335.67 0 0 0 -0.55062 0.031826 -0.83415 0.008704
-0.025316 0.15378 1.0948 1.7517e-39 528 336 0 0 0 0.53818 0.07788 -0.83922 0.0073963
0.025296 0.15325 1.0955 5.8313e-39 327 336.5 0 0 0 -0.5563 0.038294 -0.8301 0.0075199
-0.025316 0.15506 1.0948 8.1132e-39 400 337 0 0 0 0.53788 0.069912 -0.84012 0.0076577
0.025302 0.1552 1.0958 5.2552e-39 442.5 337 0 0 0 -0.55429 0.046389 -0.83103 0.0076005
-0.025327 0.15705 1.0953 4.3793e-39 457.5 337.5 0 0 0 0.53504 0.062758 -0.84249 0.0085894
0.027201 0.15762 1.0948 7.2835e-39 427 338 0 0 0 -0.58399 0.045318 -0.81049 0.0052636
-0.025338 0.15905 1.0958 5.6239e-39 473 338 0 0 0 0.5312 0.048592 -0.84585 0.0094129
0.027225 0.15905 1.0958 1.0787e-38 177 339 0 0 0 -0.57597 0.047061 -0.81612 0.0060318
-0.027249 0.1609 1.0953 6.9147e-39 320.5 339 0 0 0 0.55679 0.034284 -0.82995 0.0089381
0.027225 0.16097 1.0958 5.9005e-39 423.5 339 0 0 0 -0.57464 0.042029 -0.81733 0.0066178
-0.027261 0.16289 1.0958 2.9503e-39 141.5 340 0 0 0 0.55193 0.022009 -0.8336 0.010126
0.027225 0.16289 1.0958 5.9005e-39 212 340 0 0 0 -0.57777 0.031133 -0.81561 0.0067765
-0.02725 0.16474 1.0953 5.7622e-39 419 340 0 0 0 0.55392 0.010175 -0.83251 0.010513
0.027213 0.16474 1.0953 6.0389e-39 281 340.5 0 0 0 -0.58348 0.018971 -0.81191 0.0067508
-0.027878 0.16659 1.0948 6.9147e-39 208 341 0 0 0 0.55738 -0.0044728 -0.83025 0.01145
-0.025316 0.16659 1.0948 6.1771e-39 210 341 0 0 0 0.54041 -0.0020898 -0.8414 0.011907
-0.024035 0.17043 1.0948 6.1771e-39 375 342 0 0 0 0.5247 -0.031797 -0.85069 0.015518
-0.022754 0.17043 1.0948 5.9927e-39 376 342 0 0 0 0.51017 -0.032913 -0.85945 0.016405
-0.025383 0.12337 1.0978 4.9786e-39 418 322 0 0 0 0.31337 -0.1912 -0.93019 0.040972
-0.021511 0.12326 1.0968 5.5317e-39 423 322 0 0 0 0.3445 -0.11984 -0.9311 0.036122
-0.015095 0.12326 1.0968 6.7303e-39 443 322 0 0 0 0.37008 -0.058956 -0.92713 0.025457
-0.013183 0.12337 1.0978 6.7764e-39 444.5 322 0 0 0 0.37113 -0.039794 -0.92773 0.023156
-0.011256 0.12337 1.0978 7.0069e-39 446 322 0 0 0 0.36437 -0.016618 -0.93111 0.01975
0.032411 0.12337 1.0978 6.2693e-39 370 323 0 0 0 -0.53027 -0.34108 -0.7762 0.043599
-0.038834 0.12454 1.0968 5.9005e-39 371.5 323 0 0 0 0.042004 -0.7371 -0.67448 0.087689
-0.035 0.1246 1.0973 6.8225e-39 378.5 323 0 0 0 0.1421 -0.53533 -0.83261 0.068931
-0.033089 0.12465 1.0978 6.2693e-39 380 323 0 0 0 0.1907 -0.42509 -0.88483 0.06562
-0.031777 0.12454 1.0968 6.2693e-39 381 323 0 0 0 0.23357 -0.34977 -0.90725 0.056086
-0.015095 0.12518 1.0968 5.7622e-39 433.5 323 0 0 0 0.36819 -0.035235 -0.92908 0.023281
-0.013179 0.12527 1.0976 6.3615e-39 435 323 0 0 0 0.3609 -0.023767 -0.9323 0.02189
-0.011256 0.12529 1.0978 6.592e-39 436.5 323 0 0 0 0.35684 -0.013346 -0.93407 0.019169
0.032411 0.12465 1.0978 6.6381e-39 438 323 0 0 0 -0.53171 -0.31961 -0.78431 0.042009
0.034949 0.12582 1.0968 6.6381e-39 378 324 0 0 0 -0.59402 -0.32015 -0.738 0.029975
-0.015109 0.12722 1.0978 5.8083e-39 407 324 0 0 0 0.36941 -0.0061435 -0.92925 0.021093
-0.013183 0.12722 1.0978 5.7622e-39 408.5 324 0 0 0 0.36192 0.0018054 -0.93221 0.019917
-0.011256 0.12722 1.0978 5.9927e-39 410 324 0 0 0 0.35106 -0.0011548 -0.93635 0.018947
0.029842 0.12722 1.0978 6.1771e-39 444 324 0 0 0 -0.51617 -0.26024 -0.81599 0.037993
0.031099 0.12711 1.0968 6.3615e-39 445 324 0 0 0 -0.54229 -0.26701 -0.79664 0.035059
-0.048458 0.12967 1.0968 7.0069e-39 399 325 0 0 0 -0.15961 -0.87645 -0.45427 0.10648
-0.047175 0.12839 1.0968 5.5317e-39 465 324 0 0 0 -0.12253 -0.87793 -0.46285 0.10346
-0.016379 0.12967 1.0968 7.4678e-39 424 325 0 0 0 0.37678 0.010652 -0.92624 0.021166
-0.015109 0.12914 1.0978 7.514e-39 320 325 0 0 0 0.37017 0.011664 -0.92889 0.020316
-0.013825 0.1285 1.0978 7.1913e-39 216 325 0 0 0 0.35801 0.0038957 -0.93371 0.020461
0.027249 0.12967 1.0968 6.0849e-39 464 325 0 0 0 -0.49934 -0.19192 -0.84488 0.036526
0.029816 0.12839 1.0968 6.8225e-39 383 325 0 0 0 -0.52936 -0.22791 -0.81722 0.03459
-0.049741 0.13096 1.0968 3.4112e-39 524 325 0 0 0 -0.16188 -0.86971 -0.46626 0.12451
-0.015109 0.13107 1.0978 6.4537e-39 368 326 0 0 0 0.36763 0.034962 -0.92932 0.019746
0.025989 0.13107 1.0978 6.5459e-39 400 326 0 0 0 -0.47421 -0.16892 -0.86405 0.035628
0.027249 0.13096 1.0968 6.2693e-39 401 326 0 0 0 -0.50251 -0.18358 -0.84485 0.034524
0.028533 0.13096 1.0968 6.1771e-39 402 326 0 0 0 -0.53014 -0.19658 -0.82481 0.031788
-0.051024 0.13224 1.0968 7.4678e-39 423 326 0 0 0 -0.20514 -0.86945 -0.44942 0.12101
-0.015109 0.133 1.0978 5.8083e-39 425.5 326.5 0 0 0 0.36659 0.043258 -0.92938 0.01848
0.025125 0.13275 1.0975 7.5293e-39 280 327 0 0 0 -0.46626 -0.14925 -0.87197 0.0346
-0.017021 0.13481 1.0968 5.6701e-39 518.5 327 0 0 0 0.38316 0.042299 -0.92271 0.018004
-0.015109 0.13493 1.0978 4.0566e-39 520 327 0 0 0 0.3694 0.053119 -0.92775 0.016687
0.023421 0.13493 1.0978 5.7161e-39 228 328 0 0 0 -0.44699 -0.1186 -0.88664 0.032532
0.024683 0.13481 1.0968 5.3473e-39 229 328 0 0 0 -0.47394 -0.12937 -0.871 0.032603
-0.018945 0.13737 1.0968 5.3473e-39 222 329 0 0 0 0.4037 0.046837 -0.91369 0.017027
-0.017249 0.13664 1.0978 6.7917e-39 353.33 328.33 0 0 0 0.38508 0.050239 -0.92152 0.016644
0.020852 0.13685 1.0978 6.7303e-39 418.5 328.5 0 0 0 -0.39747 -0.10112 -0.91203 0.030479
0.022778 0.13685 1.0978 6.6381e-39 420 328.5 0 0 0 -0.43187 -0.1085 -0.89539 0.031411
0.024683 0.13737 1.0968 6.9147e-39 392 329 0 0 0 -0.48441 -0.10841 -0.86809 0.029701
-0.018945 0.13866 1.0968 6.7303e-39 448 329 0 0 0 0.40841 0.053744 -0.91122 0.016143
-0.017669 0.13936 1.0973 6.6842e-39 417 329.5 0 0 0 0.40043 0.068458 -0.91377 0.013127
0.020852 0.13878 1.0978 6.4537e-39 515 329 0 0 0 -0.40251 -0.081618 -0.91177 0.028224
0.022768 0.13936 1.0973 6.8917e-39 466.5 329.5 0 0 0 -0.44702 -0.088451 -0.89014 0.029581
0.024683 0.13866 1.0968 6.0849e-39 518 329 0 0 0 -0.48537 -0.1093 -0.86745 0.028773
-0.018945 0.14122 1.0968 5.9927e-39 518 330 0 0 0 0.42468 0.078875 -0.9019 0.011028
-0.017677 0.14135 1.0978 5.8083e-39 519 330 0 0 0 0.398 0.09042 -0.91292 0.010677
0.020852 0.1407 1.0978 8.6205e-39 317 330.5 0 0 0 -0.41425 -0.062738 -0.908 0.02674
0.022758 0.14122 1.0968 7.6061e-39 220.5 331 0 0 0 -0.46557 -0.076207 -0.88172 0.026726
-0.022795 0.14251 1.0968 7.56e-39 416 331 0 0 0 0.46351 0.069903 -0.88333 0.011368
-0.02087 0.14315 1.0968 6.3845e-39 321.5 331.5 0 0 0 0.45296 0.09885 -0.88604 0.0080993
-0.018945 0.14315 1.0968 6.3154e-39 323 331.5 0 0 0 0.43066 0.1045 -0.89644 0.0085888
0.020852 0.14327 1.0978 6.3615e-39 420 331.5 0 0 0 -0.43513 -0.020258 -0.90014 0.021185
0.022763 0.14318 1.097 6.4306e-39 421.5 331.5 0 0 0 -0.47652 -0.040253 -0.87824 0.021668
-0.022795 0.14507 1.0968 5.5317e-39 459 332 0 0 0 0.48197 0.11228 -0.86897 0.0070652
-0.02087 0.14507 1.0968 5.3012e-39 460.5 332 0 0 0 0.4576 0.11465 -0.88174 0.0077279
-0.018962 0.1452 1.0978 5.8083e-39 462 332 0 0 0 0.42894 0.12097 -0.8952 0.008845
0.022758 0.14507 1.0968 6.131e-39 199.5 333 0 0 0 -0.48745 -0.0097363 -0.8731 0.017605
-0.024078 0.14764 1.0968 5.7161e-39 204 334 0 0 0 0.50426 0.11546 -0.8558 0.0064065
-0.022805 0.14706 1.0973 6.1771e-39 301.5 333.5 0 0 0 0.48623 0.12154 -0.86534 0.0067729
-0.020884 0.14709 1.0976 6.3845e-39 303 333.5 0 0 0 0.45688 0.12528 -0.88066 0.0083506
-0.018962 0.14648 1.0978 6.5459e-39 401 333 0 0 0 0.42659 0.12519 -0.89574 0.0090471
0.022759 0.14699 1.0968 6.8224e-39 372 333.5 0 0 0 -0.49684 0.017659 -0.86766 0.014476
-0.024078 0.14892 1.0968 6.3615e-39 438 334 0 0 0 0.50788 0.11787 -0.85333 0.0064928
-0.022815 0.14905 1.0978 5.5317e-39 439 334 0 0 0 0.4858 0.12028 -0.86576 0.0073962
-0.02153 0.14905 1.0978 5.163e-39 440 334 0 0 0 0.46622 0.12111 -0.87634 0.0085677
0.022768 0.14898 1.0973 4.7481e-39 523.5 334 0 0 0 -0.50201 0.027359 -0.86443 0.01306
-0.024078 0.15084 1.0968 6.3154e-39 445.5 335 0 0 0 0.51522 0.096941 -0.85156 0.0071292
-0.022815 0.15098 1.0978 6.3154e-39 446.5 335 0 0 0 0.48968 0.097891 -0.86639 0.0084269
-0.021102 0.15119 1.0978 5.9927e-39 471.33 335 0 0 0 0.464 0.10209 -0.87993 0.0096392
0.022768 0.15091 1.0973 7.2604e-39 309 335.5 0 0 0 -0.50829 0.038345 -0.86033 0.011598
-0.024078 0.15277 1.0968 7.0991e-39 395 336 0 0 0 0.51547 0.080154 -0.85315 0.0083059
-0.022815 0.15291 1.0978 6.3615e-39 396 336 0 0 0 0.48935 0.085621 -0.86787 0.008829
-0.020888 0.15291 1.0978 5.8544e-39 397.5 336 0 0 0 0.46396 0.085159 -0.88175 0.010264
0.0234 0.15277 1.0968 7.0991e-39 433 336 0 0 0 -0.52224 0.04215 -0.85176 0.010613
-0.024078 0.1547 1.0968 4.9785e-39 465 336.5 0 0 0 0.51664 0.070237 -0.85332 0.0087838
-0.022815 0.15484 1.0978 4.9785e-39 466 336.5 0 0 0 0.49199 0.071024 -0.8677 0.00986
-0.02153 0.15484 1.0978 4.9325e-39 467 336.5 0 0 0 0.47429 0.071878 -0.87743 0.010995
0.0234 0.1547 1.0968 5.3473e-39 329.5 337 0 0 0 -0.52667 0.045255 -0.84887 0.010024
-0.024099 0.15676 1.0978 1.8439e-39 530 337 0 0 0 0.50822 0.062294 -0.85897 0.0096472
0.023421 0.15676 1.0978 6.7303e-39 210 338 0 0 0 -0.51989 0.052258 -0.85263 0.010554
0.025538 0.15705 1.0968 6.6381e-39 283 338 0 0 0 -0.55547 0.047421 -0.83018 0.0075062
-0.024099 0.15868 1.0978 6.3615e-39 430.5 338 0 0 0 0.5115 0.052236 -0.85769 0.010176
0.025125 0.15885 1.0975 4.6098e-39 236 338.67 0 0 0 -0.5448 0.049011 -0.83713 0.0086108
-0.025372 0.16118 1.0973 7.0991e-39 322 339 0 0 0 0.52535 0.033647 -0.85022 0.01072
0.025341 0.16122 1.0976 5.8313e-39 422 339 0 0 0 -0.54698 0.041778 -0.8361 0.0089547
-0.025361 0.16304 1.0968 3.2268e-39 143 340 0 0 0 0.52785 0.023295 -0.84902 0.011165
0.025325 0.16304 1.0968 6.2232e-39 210.5 340 0 0 0 -0.55096 0.033244 -0.83387 0.0091842
-0.025361 0.16496 1.0968 5.9927e-39 420.5 340 0 0 0 0.53054 0.0071586 -0.84763 0.011833
0.025341 0.16507 1.0976 5.3934e-39 279.5 340.5 0 0 0 -0.54969 0.020484 -0.83512 0.009723
-0.024089 0.16888 1.0973 5.1629e-39 280.5 341.5 0 0 0 0.51295 -0.013192 -0.85832 0.014982
-0.022795 0.16945 1.0968 3.2268e-39 149 342 0 0 0 0.49231 -0.022026 -0.87014 0.016679
-0.021096 0.16912 1.0975 7.3449e-39 253.33 341.67 0 0 0 0.46728 -0.023503 -0.8838 0.016506
-0.020228 0.17074 1.0968 6.5459e-39 378 342 0 0 0 0.4602 -0.042924 -0.88678 0.017427
-0.018945 0.17202 1.0968 6.0849e-39 457 342 0 0 0 0.43654 -0.074298 -0.89661 0.018555
-0.017677 0.17217 1.0978 6.1771e-39 458 342 0 0 0 0.40652 -0.067882 -0.91111 0.019142
0.022136 0.17217 1.0978 5.9927e-39 521 342 0 0 0 -0.51829 -0.029477 -0.85469 0.015132
-0.026715 0.12359 1.0997 5.6239e-39 407 322 0 0 0 0.29535 -0.22135 -0.92939 0.043015
-0.024564 0.12269 1.0994 5.2244e-39 287 321 0 0 0 0.30454 -0.18877 -0.93361 0.043228
-0.022835 0.12283 1.0987 5.0708e-39 321.5 321.5 0 0 0 0.32405 -0.15223 -0.93371 0.040813
-0.0099849 0.12289 1.0992 6.592e-39 459 321.5 0 0 0 0.33195 -0.012025 -0.94322 0.023752
0.014456 0.12359 1.0997 5.9927e-39 474 322 0 0 0 -0.21875 -0.18861 -0.95738 0.019259
0.018947 0.12286 1.099 6.6842e-39 308.25 322.5 0 0 0 -0.29373 -0.24627 -0.92362 0.030403
0.020889 0.12294 1.0997 6.9146e-39 310 322.5 0 0 0 -0.31634 -0.25419 -0.91396 0.035641
0.022176 0.1223 1.0997 6.2693e-39 402 322 0 0 0 -0.33612 -0.25729 -0.90599 0.042522
-0.0093416 0.12482 1.0992 6.592e-39 400.5 323 0 0 0 0.31974 0.0042807 -0.9475 0.023944
0.01317 0.12487 1.0997 5.3473e-39 421 323 0 0 0 -0.2017 -0.18539 -0.96174 0.017934
0.014456 0.12487 1.0997 5.2552e-39 422 323 0 0 0 -0.22088 -0.19219 -0.95618 0.019032
0.018951 0.12482 1.0992 7.6983e-39 427.5 323 0 0 0 -0.30974 -0.22939 -0.92274 0.030409
0.020889 0.12487 1.0997 7.2835e-39 429 323 0 0 0 -0.33403 -0.23412 -0.91302 0.034605
0.022176 0.12487 1.0997 7.0991e-39 430 323 0 0 0 -0.3586 -0.23409 -0.90366 0.039269
0.033755 0.12487 1.0997 6.7303e-39 439 323 0 0 0 -0.54668 -0.34118 -0.76468 0.041016
-0.042117 0.12605 1.0987 6.4537e-39 443 323 0 0 0 -0.028803 -0.82127 -0.56981 0.082006
-0.0093416 0.12675 1.0992 6.0388e-39 462 323.5 0 0 0 0.31269 0.0096903 -0.94981 0.023384
0.01317 0.12681 1.0997 6.0389e-39 326.5 324 0 0 0 -0.20667 -0.16635 -0.96417 0.018278
0.014456 0.12681 1.0997 6.0389e-39 327.5 324 0 0 0 -0.23023 -0.17619 -0.95705 0.020291
0.018955 0.12678 1.0994 6.3154e-39 335.5 324 0 0 0 -0.32112 -0.20108 -0.92544 0.029773
0.02088 0.12675 1.0992 6.1771e-39 341.5 324 0 0 0 -0.34971 -0.21521 -0.9118 0.035135
0.022819 0.1268 1.0997 6.6381e-39 403 324 0 0 0 -0.38534 -0.21316 -0.89782 0.039257
0.027322 0.12745 1.0997 6.2693e-39 442 324 0 0 0 -0.46236 -0.22935 -0.85652 0.042867
0.029869 0.12605 1.0987 6.3615e-39 373 324 0 0 0 -0.50104 -0.27806 -0.81954 0.042263
0.031154 0.12605 1.0987 6.1771e-39 374 324 0 0 0 -0.52031 -0.29988 -0.79959 0.040943
-0.049416 0.12908 1.099 6.3615e-39 441.67 324.33 0 0 0 -0.23578 -0.91413 -0.32982 0.078061
-0.01298 0.12947 1.0987 7.8673e-39 356.67 325 0 0 0 0.35253 0.0191 -0.9356 0.019236
-0.011266 0.12926 1.0987 7.9749e-39 323 325 0 0 0 0.34652 0.014106 -0.93794 0.018532
-0.0099805 0.12926 1.0987 8.5281e-39 324 325 0 0 0 0.31672 0.016551 -0.94838 0.022032
0.01317 0.12873 1.0997 5.9927e-39 370 325 0 0 0 -0.21867 -0.14892 -0.96437 0.01924
0.014456 0.12873 1.0997 5.8083e-39 371 325 0 0 0 -0.23986 -0.15695 -0.95804 0.021233
0.018959 0.12873 1.0997 6.3154e-39 374.5 325 0 0 0 -0.32701 -0.1758 -0.92853 0.029318
0.02088 0.12931 1.0992 5.7622e-39 417.5 325 0 0 0 -0.36436 -0.16977 -0.91565 0.033921
0.022809 0.12931 1.0992 5.8314e-39 419 325 0 0 0 -0.40576 -0.16545 -0.89888 0.036855
0.024749 0.12873 1.0997 7.0069e-39 379 325 0 0 0 -0.42321 -0.19569 -0.88464 0.039048
0.026449 0.12908 1.099 6.3922e-39 408 325 0 0 0 -0.46329 -0.20688 -0.86172 0.039476
0.028596 0.12931 1.0992 6.2693e-39 423.5 325 0 0 0 -0.50114 -0.2186 -0.8373 0.037825
-0.013194 0.13119 1.0987 6.2693e-39 369.5 326 0 0 0 0.34784 0.037225 -0.93682 0.01899
-0.011266 0.13119 1.0987 5.8083e-39 371 326 0 0 0 0.33396 0.038909 -0.94178 0.018003
-0.0099805 0.13119 1.0987 5.5317e-39 372 326 0 0 0 0.31617 0.033282 -0.94812 0.020099
0.01317 0.13002 1.0997 7.2835e-39 453 325 0 0 0 -0.22413 -0.13212 -0.96556 0.019898
0.014456 0.13067 1.0997 6.7764e-39 422.5 325.5 0 0 0 -0.244 -0.13632 -0.96015 0.021334
0.018959 0.13066 1.0997 5.8544e-39 426 325.5 0 0 0 -0.33667 -0.15408 -0.92893 0.029096
0.020871 0.13119 1.0987 6.1771e-39 396 326 0 0 0 -0.37226 -0.14994 -0.91594 0.032847
0.022799 0.13119 1.0987 6.7764e-39 397.5 326 0 0 0 -0.41714 -0.15639 -0.89528 0.034707
0.024738 0.1306 1.0992 6.2693e-39 430.5 325.5 0 0 0 -0.43891 -0.17212 -0.88189 0.036617
-0.013194 0.13312 1.0987 5.8544e-39 427 326.5 0 0 0 0.34936 0.052973 -0.93549 0.016345
-0.011266 0.13312 1.0987 6.0849e-39 428.5 326.5 0 0 0 0.32639 0.052595 -0.94377 0.017816
-0.0099849 0.13318 1.0992 6.2232e-39 429.5 326.5 0 0 0 0.30661 0.047416 -0.95065 0.019557
0.01317 0.13388 1.0997 5.8083e-39 416 327 0 0 0 -0.24237 -0.094087 -0.96561 0.020405
0.014456 0.13324 1.0997 5.624e-39 468 326.5 0 0 0 -0.25204 -0.10969 -0.96148 0.022098
0.017029 0.13324 1.0997 5.4395e-39 470 326.5 0 0 0 -0.3018 -0.11509 -0.9464 0.025356
0.018955 0.13321 1.0994 5.4165e-39 471.5 326.5 0 0 0 -0.33726 -0.11926 -0.93383 0.029652
0.020871 0.13312 1.0987 5.3473e-39 473 326.5 0 0 0 -0.37971 -0.13023 -0.91589 0.032121
0.022799 0.13312 1.0987 7.1221e-39 394.5 326.75 0 0 0 -0.42108 -0.13433 -0.89702 0.033327
-0.013206 0.13517 1.0997 2.9042e-39 521.5 327 0 0 0 0.342 0.058156 -0.9379 0.015195
-0.011276 0.13517 1.0997 2.8581e-39 523 327 0 0 0 0.31212 0.059806 -0.94816 0.016326
-0.0099893 0.13517 1.0997 3.1347e-39 524 327 0 0 0 0.29579 0.058479 -0.95346 0.017654
0.014456 0.13517 1.0997 6.9147e-39 221 328 0 0 0 -0.25991 -0.087775 -0.96164 0.021395
0.018959 0.13517 1.0997 5.163e-39 224.5 328 0 0 0 -0.34463 -0.10759 -0.93255 0.028521
0.020871 0.13505 1.0987 5.3473e-39 226 328 0 0 0 -0.38661 -0.11412 -0.91516 0.031022
0.022156 0.13505 1.0987 5.7161e-39 227 328 0 0 0 -0.40793 -0.11713 -0.90547 0.032136
-0.016408 0.13762 1.0987 5.163e-39 224 329 0 0 0 0.37888 0.069161 -0.92286 0.013633
-0.015129 0.13703 1.0992 6.4076e-39 322.5 328.5 0 0 0 0.36877 0.065997 -0.92717 0.014077
-0.013849 0.1371 1.0997 6.3615e-39 323.5 328.5 0 0 0 0.34626 0.0703 -0.9355 0.013039
-0.011276 0.13645 1.0997 7.4678e-39 423 328 0 0 0 0.31513 0.062924 -0.94696 0.015139
0.0080232 0.13645 1.0997 6.6381e-39 438 328 0 0 0 -0.13015 -0.035128 -0.99087 0.015679
0.014456 0.1371 1.0997 6.6842e-39 413.5 328.5 0 0 0 -0.26773 -0.062911 -0.96144 0.020628
0.017029 0.13645 1.0997 6.4537e-39 445 328 0 0 0 -0.30926 -0.080343 -0.94758 0.024649
0.018959 0.1371 1.0997 6.592e-39 417 328.5 0 0 0 -0.34526 -0.087526 -0.93442 0.026881
-0.016408 0.1389 1.0987 6.3615e-39 450 329 0 0 0 0.38255 0.074195 -0.92095 0.013184
-0.015136 0.13903 1.0997 6.0849e-39 451 329 0 0 0 0.36525 0.077877 -0.92765 0.012239
-0.013849 0.13903 1.0997 5.9927e-39 452 329 0 0 0 0.3415 0.078679 -0.93658 0.012115
0.014456 0.13903 1.0997 5.9005e-39 474 329 0 0 0 -0.27772 -0.036269 -0.95998 0.018803
0.017029 0.13903 1.0997 6.2693e-39 476 329 0 0 0 -0.31788 -0.058621 -0.94632 0.023898
0.018959 0.13903 1.0997 6.4537e-39 477.5 329 0 0 0 -0.35172 -0.066812 -0.93372 0.026178
-0.016408 0.14083 1.0987 5.9927e-39 453 330 0 0 0 0.38249 0.086953 -0.91986 0.011183
-0.015129 0.1409 1.0992 5.5318e-39 454 330 0 0 0 0.36706 0.095159 -0.92532 0.010715
-0.013849 0.14096 1.0997 4.8864e-39 455 330 0 0 0 0.34137 0.094034 -0.93521 0.011227
-0.0099893 0.14031 1.0997 6.8225e-39 391 330 0 0 0 0.2756 0.081801 -0.95778 0.014616
0.014456 0.14031 1.0997 5.8083e-39 410 330 0 0 0 -0.27399 -0.024115 -0.96143 0.018424
0.017029 0.14096 1.0997 8.2055e-39 314 330.5 0 0 0 -0.32558 -0.029688 -0.94505 0.021648
0.01895 0.14089 1.0992 8.5973e-39 315.5 330.5 0 0 0 -0.3634 -0.041886 -0.93069 0.023831
-0.017058 0.14283 1.0992 7.3296e-39 420.5 331 0 0 0 0.39726 0.1117 -0.91088 0.0093252
-0.015136 0.14289 1.0997 7.6522e-39 422 331 0 0 0 0.36043 0.10795 -0.92652 0.010565
-0.013849 0.14289 1.0997 8.2054e-39 423 331 0 0 0 0.33691 0.1057 -0.93558 0.01107
0.017029 0.14289 1.0997 5.6239e-39 447 331 0 0 0 -0.34042 -0.0006465 -0.94027 0.020094
0.01895 0.14283 1.0992 6.2693e-39 448.5 331 0 0 0 -0.37604 -0.018201 -0.92642 0.021448
-0.017058 0.14475 1.0992 5.5318e-39 346 332 0 0 0 0.39369 0.11986 -0.91139 0.010213
-0.015136 0.14417 1.0997 5.4395e-39 230 332 0 0 0 0.35792 0.11666 -0.92644 0.010361
-0.013849 0.14417 1.0997 5.8083e-39 231 332 0 0 0 0.33038 0.11426 -0.93691 0.011351
0.017029 0.14481 1.0997 6.5459e-39 291 332.5 0 0 0 -0.34642 0.024174 -0.93777 0.018566
0.01895 0.14475 1.0992 5.8774e-39 292.5 332.5 0 0 0 -0.38504 0.010184 -0.92284 0.019195
0.020871 0.14533 1.0987 6.1771e-39 198 333 0 0 0 -0.43688 0.010245 -0.89946 0.018534
-0.018979 0.1479 1.0987 6.8225e-39 208 334 0 0 0 0.42259 0.12675 -0.89741 0.009711
-0.017058 0.14669 1.0992 7.0069e-39 402.5 333 0 0 0 0.39233 0.12421 -0.9114 0.010614
0.017029 0.14675 1.0997 7.4678e-39 429 333 0 0 0 -0.35119 0.042335 -0.93535 0.017794
0.019162 0.14709 1.099 7.3142e-39 369.33 333.33 0 0 0 -0.40008 0.037758 -0.9157 0.017324
0.020871 0.14726 1.0987 7.053e-39 340 333.5 0 0 0 -0.44109 0.029794 -0.89697 0.017082
-0.020264 0.14919 1.0987 5.163e-39 441 334 0 0 0 0.44113 0.12221 -0.88908 0.0093426
-0.018996 0.14932 1.0997 5.163e-39 442 334 0 0 0 0.41651 0.12452 -0.90056 0.0099394
-0.017709 0.14867 1.0997 6.1771e-39 326 334 0 0 0 0.39026 0.12374 -0.91235 0.010808
0.015743 0.14803 1.0997 5.7161e-39 235 334 0 0 0 -0.31494 0.062611 -0.94704 0.016589
0.017029 0.14803 1.0997 5.6239e-39 236 334 0 0 0 -0.35436 0.053767 -0.93356 0.017273
0.018739 0.14885 1.0994 6.0234e-39 429 334 0 0 0 -0.40063 0.052189 -0.91475 0.016577
0.020871 0.14919 1.0987 6.2693e-39 522 334 0 0 0 -0.45069 0.038987 -0.89183 0.015755
-0.020264 0.15047 1.0987 5.9005e-39 378 335 0 0 0 0.44195 0.11412 -0.88975 0.0098679
-0.018987 0.15119 1.0992 5.8544e-39 449.5 335 0 0 0 0.42418 0.10724 -0.89921 0.010619
-0.01728 0.15146 1.0997 6.1156e-39 474.33 335 0 0 0 0.38583 0.10711 -0.91633 0.011103
0.019603 0.15125 1.0997 6.8224e-39 306.5 335.5 0 0 0 -0.41888 0.06709 -0.90556 0.01507
0.020871 0.15112 1.0987 6.7764e-39 307.5 335.5 0 0 0 -0.45821 0.057491 -0.88698 0.014252
-0.018979 0.15304 1.0987 6.4537e-39 399 336 0 0 0 0.42771 0.084759 -0.89993 0.0115
-0.017065 0.15318 1.0997 7.4218e-39 400.5 336 0 0 0 0.38666 0.088777 -0.91794 0.012184
0.019603 0.15318 1.0997 7.0069e-39 430 336 0 0 0 -0.42635 0.068257 -0.90198 0.014787
0.020889 0.15318 1.0997 7.1913e-39 431 336 0 0 0 -0.45835 0.063362 -0.88651 0.013819
0.022156 0.15304 1.0987 7.2835e-39 432 336 0 0 0 -0.49175 0.051345 -0.86922 0.012074
-0.020264 0.15497 1.0987 5.1168e-39 468 336.5 0 0 0 0.44995 0.070001 -0.89031 0.012017
-0.018987 0.15504 1.0992 8.3437e-39 295 337 0 0 0 0.42803 0.071515 -0.90093 0.012072
-0.017065 0.15511 1.0997 7.2835e-39 296.5 337 0 0 0 0.38837 0.074483 -0.91849 0.012823
0.019603 0.15511 1.0997 6.131e-39 326.5 337 0 0 0 -0.43878 0.067785 -0.89604 0.015305
0.020889 0.15511 1.0997 5.67e-39 327.5 337 0 0 0 -0.46221 0.066757 -0.88425 0.013888
0.022156 0.15497 1.0987 5.3473e-39 328.5 337 0 0 0 -0.49793 0.053352 -0.86558 0.011943
-0.022835 0.1569 1.0987 1.7517e-39 531 337 0 0 0 0.48858 0.060866 -0.87039 0.010577
-0.020907 0.1569 1.0987 2.5353e-39 335 337.5 0 0 0 0.45897 0.063564 -0.88618 0.011928
-0.018996 0.15704 1.0997 3.2268e-39 139 338 0 0 0 0.42477 0.059987 -0.90331 0.013266
0.019603 0.15704 1.0997 7.0069e-39 207 338 0 0 0 -0.44414 0.064815 -0.89361 0.015499
0.020889 0.15704 1.0997 7.0991e-39 208 338 0 0 0 -0.47797 0.060352 -0.8763 0.013371
0.022156 0.1569 1.0987 7.0991e-39 209 338 0 0 0 -0.50018 0.055001 -0.86417 0.012037
-0.022835 0.15883 1.0987 6.4537e-39 431.5 338 0 0 0 0.48891 0.052027 -0.87078 0.011382
-0.020916 0.1589 1.0992 6.4768e-39 433 338 0 0 0 0.45379 0.052071 -0.88959 0.013146
-0.018996 0.15833 1.0997 6.6381e-39 391 338 0 0 0 0.42412 0.056032 -0.90387 0.01368
0.020889 0.15833 1.0997 7.6522e-39 422 338 0 0 0 -0.47615 0.056639 -0.87754 0.013498
0.022809 0.1589 1.0992 5.6239e-39 281.5 338.5 0 0 0 -0.50801 0.055266 -0.85958 0.011844
-0.024121 0.16076 1.0987 5.9005e-39 221 339 0 0 0 0.5019 0.037598 -0.86411 0.011837
-0.022855 0.1609 1.0997 5.5317e-39 222 339 0 0 0 0.48277 0.037436 -0.87495 0.012708
-0.020925 0.1609 1.0997 5.3934e-39 223.5 339 0 0 0 0.45313 0.039421 -0.89057 0.014055
0.020889 0.1609 1.0997 6.5459e-39 377 339 0 0 0 -0.47236 0.05117 -0.87992 0.014867
0.022809 0.16083 1.0992 6.3154e-39 378.5 339 0 0 0 -0.50954 0.045412 -0.85925 0.011711
-0.024142 0.16283 1.0997 5.7161e-39 284.5 339.5 0 0 0 0.49736 0.02268 -0.86725 0.0132
-0.022855 0.16283 1.0997 5.5317e-39 285.5 339.5 0 0 0 0.48206 0.02469 -0.87579 0.013652
-0.021569 0.16283 1.0997 8.3437e-39 300.5 339.5 0 0 0 0.45781 0.025202 -0.88869 0.014519
0.020889 0.16283 1.0997 6.2233e-39 333.5 339.5 0 0 0 -0.47062 0.043251 -0.88128 0.015714
0.022819 0.16283 1.0997 5.9697e-39 335 339.5 0 0 0 -0.50757 0.038109 -0.86077 0.012401
-0.024142 0.16476 1.0997 6.3615e-39 379 340 0 0 0 0.49841 0.0065885 -0.86692 0.014068
-0.022855 0.16476 1.0997 6.0849e-39 380 340 0 0 0 0.47773 0.0092683 -0.87846 0.014791
-0.021569 0.16476 1.0997 5.9005e-39 381 340 0 0 0 0.4572 0.0095966 -0.88931 0.014966
0.022819 0.16476 1.0997 7.2835e-39 415.5 340 0 0 0 -0.50654 0.030184 -0.86169 0.013274
-0.024131 0.16661 1.0992 5.8544e-39 337.5 340.5 0 0 0 0.50055 -0.0092596 -0.86566 0.014445
-0.022845 0.16661 1.0992 5.67e-39 338.5 340.5 0 0 0 0.48641 -0.0050706 -0.87372 0.015175
-0.021134 0.16685 1.0994 5.7468e-39 297.67 340.67 0 0 0 0.45382 -0.0084727 -0.89106 0.015584
0.019603 0.16733 1.0997 6.2693e-39 249 341 0 0 0 -0.45242 0.02079 -0.89156 0.018587
0.020889 0.16669 1.0997 4.6098e-39 194 341 0 0 0 -0.47844 0.019592 -0.8779 0.016367
0.022814 0.16665 1.0994 4.5176e-39 195.5 341 0 0 0 -0.51388 0.016263 -0.85771 0.013286
-0.022835 0.16847 1.0987 7.1913e-39 414 341 0 0 0 0.48762 -0.018109 -0.87287 0.016032
-0.020264 0.16847 1.0987 7.56e-39 416 341 0 0 0 0.44317 -0.018938 -0.89624 0.017114
-0.018996 0.1699 1.0997 5.0708e-39 174 342 0 0 0 0.41355 -0.032652 -0.9099 0.01802
-0.017065 0.1699 1.0997 4.2871e-39 175.5 342 0 0 0 0.38302 -0.038094 -0.92296 0.017834
0.019603 0.16926 1.0997 6.4537e-39 325.5 341.5 0 0 0 -0.45417 7.8347e-05 -0.89091 0.019413
0.020889 0.16926 1.0997 6.2693e-39 326.5 341.5 0 0 0 -0.48269 -0.0027987 -0.87579 0.017582
0.022585 0.1689 1.0987 5.7469e-39 368.33 341.33 0 0 0 -0.51875 -0.0045626 -0.85491 0.013943
-0.018979 0.17104 1.0987 6.2693e-39 379 342 0 0 0 0.41926 -0.051805 -0.90639 0.018446
-0.017058 0.17111 1.0992 6.1771e-39 380.5 342 0 0 0 0.38743 -0.048277 -0.92064 0.018707
