# .PCD v.7 - Point Cloud Data file format
VERSION .7
FIELDS x y z rgb u v vx vy vz normal_x normal_y normal_z curvature
SIZE 4 4 4 4 4 4 4 4 4 4 4 4 4
TYPE F F F F F F F F F F F F F
COUNT 1 1 1 1 1 1 1 1 1 1 1 1 1
WIDTH 567
HEIGHT 1
VIEWPOINT 0 0 0 1 0 0 0
POINTS 567
DATA ascii
0.14861 0.074942 1.2424 7.7444e-39 269 331.5 0 0 0 -0.29624 0.1605 -0.94153 0.0053652
0.15006 0.074942 1.2424 8.0671e-39 270 331.5 0 0 0 -0.28636 0.16724 -0.94341 0.0060911
0.15297 0.075668 1.2424 7.7444e-39 152 332 0 0 0 -0.26562 0.17987 -0.94715 0.0076388
0.15442 0.074942 1.2424 8.1132e-39 273 331.5 0 0 0 -0.25726 0.19282 -0.94691 0.0091027
0.14585 0.0772 1.2437 7.4678e-39 230 332 0 0 0 -0.31865 0.1679 -0.93288 0.006927
0.1473 0.0772 1.2437 8.021e-39 231 332 0 0 0 -0.30658 0.16534 -0.93738 0.0059393
0.14861 0.077122 1.2424 7.56e-39 232 332 0 0 0 -0.29034 0.1644 -0.9427 0.0059184
0.15079 0.077122 1.2424 7.5601e-39 233.5 332 0 0 0 -0.27323 0.17075 -0.94667 0.0062572
0.15297 0.077122 1.2424 7.8366e-39 235 332 0 0 0 -0.2603 0.18088 -0.94843 0.0077401
0.15442 0.077122 1.2424 7.0991e-39 236 332 0 0 0 -0.23871 0.18882 -0.95256 0.0094478
0.17623 0.077122 1.2424 6.6381e-39 251 332 0 0 0 0.48963 0.28477 -0.82412 0.037729
0.1473 0.078655 1.2437 7.0069e-39 449 332 0 0 0 -0.31027 0.17023 -0.93528 0.0066079
0.14861 0.078575 1.2424 6.7303e-39 450 332 0 0 0 -0.28968 0.16587 -0.94264 0.0062708
0.15086 0.078615 1.2431 6.4537e-39 454.5 332 0 0 0 -0.27346 0.16975 -0.94679 0.0062453
0.15297 0.078575 1.2424 6.5459e-39 456 332 0 0 0 -0.25009 0.17726 -0.95186 0.0076056
0.15515 0.078575 1.2424 6.6381e-39 461.5 332 0 0 0 -0.21095 0.19118 -0.95862 0.011352
0.16024 0.078575 1.2424 6.5459e-39 469 332 0 0 0 -0.10684 0.22702 -0.96801 0.019323
0.17332 0.078575 1.2424 6.4537e-39 479 332 0 0 0 0.36573 0.28093 -0.88731 0.04017
0.17477 0.078575 1.2424 7.2835e-39 140 333 0 0 0 0.43902 0.26827 -0.85749 0.041368
0.1764 0.078655 1.2437 7.0069e-39 141 333 0 0 0 0.50372 0.26583 -0.82195 0.037234
0.1473 0.080838 1.2437 7.7444e-39 311.5 333 0 0 0 -0.3185 0.17563 -0.93151 0.0077044
0.14869 0.080797 1.2431 7.6983e-39 312.5 333 0 0 0 -0.29847 0.17251 -0.9387 0.0071989
0.15086 0.080797 1.2431 7.7675e-39 314 333 0 0 0 -0.26785 0.17059 -0.94824 0.0069377
0.15297 0.080756 1.2424 7.8827e-39 315.5 333 0 0 0 -0.23692 0.17461 -0.95571 0.0079704
0.15496 0.080541 1.2428 7.6829e-39 281.33 333 0 0 0 -0.21123 0.18583 -0.95961 0.010178
0.1569 0.081026 1.2428 7.683e-39 353.67 333 0 0 0 -0.16324 0.19292 -0.96754 0.013418
0.15878 0.080756 1.2424 7.3296e-39 319.5 333 0 0 0 -0.13058 0.20397 -0.97023 0.014773
0.16096 0.080756 1.2424 7.3526e-39 321 333 0 0 0 -0.070137 0.22143 -0.97265 0.020019
0.16314 0.080756 1.2424 7.1452e-39 322.5 333 0 0 0 0.0094792 0.2299 -0.97317 0.02623
0.1646 0.081483 1.2424 7.1913e-39 430 333 0 0 0 0.050314 0.22634 -0.97275 0.028215
0.1675 0.080756 1.2424 7.2835e-39 325.5 333 0 0 0 0.16488 0.23807 -0.95715 0.035426
0.17114 0.080756 1.2424 7.0299e-39 328 333 0 0 0 0.27896 0.25511 -0.9258 0.037481
0.17349 0.080838 1.2437 7.0068e-39 329.5 333 0 0 0 0.4062 0.26794 -0.87362 0.039132
0.17495 0.080838 1.2437 7.2835e-39 330.5 333 0 0 0 0.45368 0.26167 -0.85188 0.03787
0.14876 0.08302 1.2437 6.9147e-39 183 334 0 0 0 -0.30403 0.17805 -0.93588 0.008487
0.15086 0.082978 1.2431 7.6061e-39 185.5 334 0 0 0 -0.263 0.16862 -0.94995 0.0074368
0.15312 0.08302 1.2437 7.7444e-39 188 334 0 0 0 -0.23077 0.1721 -0.95767 0.0084098
0.15458 0.08302 1.2437 7.56e-39 190 334 0 0 0 -0.2013 0.17653 -0.96349 0.010114
0.15668 0.082978 1.2431 7.6983e-39 191.5 334 0 0 0 -0.16098 0.18536 -0.96939 0.012455
0.15878 0.082936 1.2424 7.6522e-39 193 334 0 0 0 -0.11965 0.19595 -0.97329 0.014116
0.16096 0.082936 1.2424 7.4679e-39 194.5 334 0 0 0 -0.057366 0.20242 -0.97762 0.018658
0.16331 0.08302 1.2437 7.3757e-39 196 334 0 0 0 0.03581 0.21037 -0.97697 0.026205
0.1646 0.082936 1.2424 7.8366e-39 197 334 0 0 0 0.05902 0.22246 -0.97315 0.027891
0.16767 0.08302 1.2437 8.2976e-39 199 334 0 0 0 0.18813 0.22444 -0.95616 0.035787
0.16896 0.082936 1.2424 8.1132e-39 200 334 0 0 0 0.21894 0.23398 -0.94727 0.036339
0.17058 0.08302 1.2437 7.56e-39 201 334 0 0 0 0.28581 0.24469 -0.92652 0.038216
0.17204 0.08302 1.2437 7.2835e-39 202 334 0 0 0 0.34495 0.24376 -0.90641 0.038526
0.14876 0.085203 1.2437 7.3296e-39 281.5 334.5 0 0 0 -0.30672 0.17964 -0.93469 0.0090402
0.15167 0.085203 1.2437 7.4218e-39 283.5 334.5 0 0 0 -0.25643 0.17315 -0.95093 0.0084918
0.15312 0.085203 1.2437 8.1593e-39 285.5 334.5 0 0 0 -0.22454 0.17544 -0.95854 0.009096
0.15458 0.085203 1.2437 8.2515e-39 286.5 334.5 0 0 0 -0.19807 0.1767 -0.96413 0.010858
0.15668 0.085159 1.2431 8.2515e-39 288 334.5 0 0 0 -0.15423 0.18089 -0.97134 0.012447
0.15878 0.085116 1.2424 7.8366e-39 289.5 334.5 0 0 0 -0.10612 0.18384 -0.97721 0.013508
0.16104 0.085159 1.2431 7.3526e-39 291 334.5 0 0 0 -0.043843 0.18771 -0.98125 0.018384
0.16331 0.085203 1.2437 7.0529e-39 292.5 334.5 0 0 0 0.036417 0.19245 -0.98063 0.023493
0.1646 0.085116 1.2424 7.1913e-39 293.5 334.5 0 0 0 0.065154 0.20338 -0.97693 0.025592
0.16713 0.085416 1.2433 7.1913e-39 256.67 334.67 0 0 0 0.17608 0.19822 -0.96421 0.033418
0.16896 0.085116 1.2424 7.4218e-39 296.5 334.5 0 0 0 0.22408 0.20713 -0.95231 0.034533
0.17058 0.085203 1.2437 7.6061e-39 297.5 334.5 0 0 0 0.30279 0.22037 -0.92723 0.037274
0.17204 0.084475 1.2437 8.482e-39 414 334 0 0 0 0.35816 0.23433 -0.90378 0.03727
0.14876 0.087385 1.2437 6.9147e-39 252 335 0 0 0 -0.32341 0.19047 -0.92689 0.010364
0.15167 0.087385 1.2437 6.8225e-39 254 335 0 0 0 -0.26253 0.17702 -0.94855 0.010014
0.15312 0.087385 1.2437 7.2835e-39 255 335 0 0 0 -0.22583 0.17462 -0.95839 0.010118
0.15458 0.087385 1.2437 7.9288e-39 385 335 0 0 0 -0.20051 0.17537 -0.96387 0.011271
0.15668 0.087341 1.2431 7.9749e-39 386.5 335 0 0 0 -0.15117 0.17347 -0.97317 0.012685
0.15878 0.087297 1.2424 8.482e-39 388 335 0 0 0 -0.09598 0.17362 -0.98012 0.013711
0.16096 0.087297 1.2424 8.3437e-39 389.5 335 0 0 0 -0.044199 0.18029 -0.98262 0.016888
0.16331 0.087385 1.2437 8.2054e-39 391 335 0 0 0 0.041748 0.18259 -0.9823 0.022678
0.1646 0.087297 1.2424 8.482e-39 392 335 0 0 0 0.065457 0.18651 -0.98027 0.023767
0.16767 0.087385 1.2437 8.5742e-39 394 335 0 0 0 0.20665 0.1874 -0.9603 0.033946
0.16896 0.087297 1.2424 8.5742e-39 395 335 0 0 0 0.23847 0.19826 -0.9507 0.034527
0.14876 0.08884 1.2437 7.0991e-39 149 336 0 0 0 -0.32719 0.19633 -0.92434 0.010534
0.15167 0.08884 1.2437 6.5459e-39 151 336 0 0 0 -0.26191 0.1836 -0.94747 0.010788
0.15312 0.08884 1.2437 6.6381e-39 152 336 0 0 0 -0.22627 0.17809 -0.95765 0.0111
0.15523 0.088795 1.2431 7.1913e-39 153.5 336 0 0 0 -0.18013 0.17496 -0.96796 0.01197
0.15733 0.08875 1.2424 8.1132e-39 155 336 0 0 0 -0.13008 0.17317 -0.97626 0.01303
0.15878 0.08875 1.2424 7.4678e-39 156 336 0 0 0 -0.099775 0.17217 -0.98 0.013904
0.16096 0.08875 1.2424 6.8686e-39 157.5 336 0 0 0 -0.045952 0.17572 -0.98337 0.015162
0.16331 0.08884 1.2437 6.6381e-39 159 336 0 0 0 0.040538 0.17734 -0.98332 0.022217
0.1646 0.08875 1.2424 7.56e-39 160 336 0 0 0 0.06414 0.17891 -0.98177 0.021936
0.16767 0.08884 1.2437 7.4678e-39 162 336 0 0 0 0.19959 0.18667 -0.96193 0.033481
0.16913 0.08884 1.2437 6.8225e-39 163 336 0 0 0 0.26089 0.19126 -0.94623 0.036472
0.14876 0.091023 1.2437 7.514e-39 351 336 0 0 0 -0.34026 0.20861 -0.9169 0.011399
0.15167 0.091023 1.2437 6.8686e-39 353 336 0 0 0 -0.27737 0.19684 -0.94038 0.0124
0.15312 0.091023 1.2437 6.7303e-39 354 336 0 0 0 -0.23714 0.18591 -0.95352 0.011918
0.15523 0.090977 1.2431 6.9377e-39 356 336 0 0 0 -0.18976 0.17909 -0.96536 0.012951
0.15733 0.090931 1.2424 6.7303e-39 357.5 336 0 0 0 -0.13266 0.17261 -0.97602 0.013488
0.15878 0.090931 1.2424 6.6381e-39 358.5 336 0 0 0 -0.088717 0.16977 -0.98148 0.014342
0.16096 0.090931 1.2424 6.7994e-39 274.5 336.25 0 0 0 -0.047631 0.1722 -0.98391 0.014109
0.16331 0.091023 1.2437 6.8225e-39 190.5 336.5 0 0 0 0.026363 0.17432 -0.98434 0.019977
0.1646 0.090931 1.2424 6.6842e-39 191.5 336.5 0 0 0 0.067389 0.16877 -0.98335 0.021103
0.16767 0.091023 1.2437 6.6842e-39 193.5 336.5 0 0 0 0.20615 0.18109 -0.96162 0.03377
0.16913 0.091023 1.2437 6.9608e-39 194.5 336.5 0 0 0 0.25555 0.17961 -0.94996 0.035941
0.15458 0.093205 1.2437 7.0991e-39 220 337 0 0 0 -0.21723 0.1905 -0.95735 0.014903
0.15668 0.093158 1.2431 7.053e-39 221.5 337 0 0 0 -0.15252 0.1772 -0.97229 0.014972
0.15878 0.093111 1.2424 7.0991e-39 223 337 0 0 0 -0.094571 0.17036 -0.98083 0.015176
0.16096 0.093111 1.2424 7.6522e-39 224.5 337 0 0 0 -0.036597 0.16738 -0.98521 0.015191
0.16331 0.093205 1.2437 7.8366e-39 226 337 0 0 0 0.029048 0.16937 -0.98512 0.020864
0.1646 0.093111 1.2424 7.1913e-39 227 337 0 0 0 0.065184 0.16816 -0.9836 0.021441
0.16686 0.093158 1.2431 6.6842e-39 228.5 337 0 0 0 0.14888 0.16112 -0.97564 0.026799
0.16913 0.093205 1.2437 7.3757e-39 230 337 0 0 0 0.25988 0.16272 -0.95183 0.034928
0.15676 0.09466 1.2437 6.9147e-39 442 337 0 0 0 -0.16143 0.1802 -0.97029 0.015413
0.15894 0.09466 1.2437 7.0991e-39 446 337 0 0 0 -0.097717 0.17188 -0.98026 0.017286
0.16104 0.094612 1.2431 7.3296e-39 447.5 337 0 0 0 -0.044659 0.16792 -0.98479 0.01606
0.16331 0.09466 1.2437 6.0849e-39 454 337 0 0 0 0.035013 0.16245 -0.9861 0.021394
0.1646 0.094565 1.2424 6.2693e-39 455 337 0 0 0 0.069716 0.16671 -0.98354 0.022046
0.16605 0.094565 1.2424 6.9147e-39 468 337 0 0 0 0.099183 0.16272 -0.98167 0.021378
0.16913 0.09466 1.2437 7.2835e-39 470 337 0 0 0 0.25991 0.16263 -0.95184 0.034818
0.157 0.0966 1.2437 7.683e-39 281.33 338 0 0 0 -0.16262 0.18557 -0.96908 0.016826
0.15894 0.096842 1.2437 7.6061e-39 319.5 338 0 0 0 -0.097362 0.17556 -0.97964 0.018117
0.16113 0.096842 1.2437 7.6753e-39 321 338 0 0 0 -0.048339 0.16771 -0.98465 0.017354
0.16331 0.096842 1.2437 7.514e-39 322.5 338 0 0 0 0.035219 0.16333 -0.98594 0.023234
0.1646 0.096745 1.2424 7.3757e-39 323.5 338 0 0 0 0.070572 0.15763 -0.98497 0.02196
0.16622 0.096842 1.2437 7.4679e-39 324.5 338 0 0 0 0.10596 0.15947 -0.9815 0.02375
0.15749 0.099025 1.2437 7.2835e-39 199 339 0 0 0 -0.16737 0.19738 -0.96593 0.017942
0.15894 0.099025 1.2437 7.6522e-39 200 339 0 0 0 -0.10848 0.19041 -0.97569 0.019558
0.16113 0.099025 1.2437 8.0671e-39 201.5 339 0 0 0 -0.054744 0.17529 -0.98299 0.018605
0.16331 0.099025 1.2437 7.7444e-39 203 339 0 0 0 0.014056 0.16748 -0.98578 0.021382
0.1646 0.098926 1.2424 7.56e-39 204 339 0 0 0 0.054011 0.16492 -0.98483 0.02116
0.16622 0.099025 1.2437 7.3757e-39 205 339 0 0 0 0.10728 0.16339 -0.98071 0.02362
0.15749 0.10121 1.2437 7.1913e-39 304 339.5 0 0 0 -0.18896 0.21678 -0.95776 0.019465
0.15894 0.10121 1.2437 7.3296e-39 305 339.5 0 0 0 -0.13157 0.20956 -0.9689 0.019951
0.16137 0.10097 1.2437 7.3142e-39 345 339.33 0 0 0 -0.053118 0.18819 -0.9807 0.019014
0.16331 0.10121 1.2437 7.3296e-39 308 339.5 0 0 0 -0.0055754 0.18432 -0.98285 0.019461
0.16476 0.10121 1.2437 7.5601e-39 309 339.5 0 0 0 0.062609 0.17839 -0.98197 0.024855
0.16622 0.10121 1.2437 7.7444e-39 310 339.5 0 0 0 0.11044 0.17601 -0.97817 0.025246
0.16476 0.10339 1.2437 7.4678e-39 416 340 0 0 0 0.045586 0.19471 -0.9798 0.023603
0.13434 0.043778 1.2449 6.4537e-39 173 323 0 0 0 -0.20349 -0.38443 -0.90045 0.044668
0.13726 0.043778 1.2449 6.5459e-39 175 323 0 0 0 -0.19056 -0.41317 -0.89049 0.047681
0.13871 0.043778 1.2449 6.5459e-39 176 323 0 0 0 -0.17626 -0.44291 -0.87907 0.052971
0.1409 0.043778 1.2449 6.3154e-39 177.5 323 0 0 0 -0.16559 -0.47492 -0.86431 0.055739
0.14308 0.043778 1.2449 6.2693e-39 179 323 0 0 0 -0.16067 -0.52167 -0.83788 0.059177
0.14526 0.043049 1.2449 5.8544e-39 287.5 322.5 0 0 0 -0.14502 -0.59496 -0.79056 0.059623
0.14745 0.042321 1.2449 5.0708e-39 396 322 0 0 0 -0.12757 -0.65974 -0.74058 0.054498
0.16712 0.042321 1.2449 6.5459e-39 409.5 322 0 0 0 0.11467 -0.82576 -0.55224 0.029972
0.1693 0.042321 1.2449 7.56e-39 411 322 0 0 0 0.1946 -0.82208 -0.53508 0.030734
0.17076 0.042321 1.2449 9.0352e-39 413 322 0 0 0 0.24602 -0.80949 -0.53311 0.034073
0.17294 0.043778 1.2449 6.6842e-39 199.5 323 0 0 0 0.35282 -0.7445 -0.56678 0.043448
0.17512 0.043778 1.2449 6.3615e-39 201 323 0 0 0 0.43492 -0.70222 -0.56368 0.046044
0.12997 0.045234 1.2449 8.2976e-39 251 323 0 0 0 -0.25709 -0.2815 -0.92448 0.037218
0.13143 0.045234 1.2449 8.7586e-39 252 323 0 0 0 -0.24329 -0.2996 -0.92252 0.039196
0.13289 0.045234 1.2449 8.943e-39 253 323 0 0 0 -0.2325 -0.30929 -0.92211 0.041783
0.13507 0.045234 1.2449 8.8508e-39 254.5 323 0 0 0 -0.21488 -0.33417 -0.91769 0.046116
0.13726 0.045234 1.2449 8.8508e-39 256 323 0 0 0 -0.20408 -0.3654 -0.9082 0.049691
0.13871 0.045234 1.2449 9.0352e-39 257 323 0 0 0 -0.19422 -0.37733 -0.90548 0.05118
0.17804 0.045234 1.2449 9.1274e-39 391 323 0 0 0 0.56199 -0.58891 -0.58082 0.046747
0.12997 0.046691 1.2449 6.7303e-39 443 323 0 0 0 -0.26986 -0.23404 -0.93402 0.034982
0.13143 0.046691 1.2449 6.7303e-39 444 323 0 0 0 -0.25088 -0.25004 -0.93517 0.038605
0.13289 0.046691 1.2449 7.0069e-39 445 323 0 0 0 -0.23877 -0.28248 -0.92908 0.041632
0.13507 0.046691 1.2449 7.6061e-39 446.5 323 0 0 0 -0.22812 -0.29342 -0.92837 0.043313
0.17949 0.046691 1.2449 5.9005e-39 157 324 0 0 0 0.61937 -0.52418 -0.58449 0.046915
0.12949 0.049118 1.2449 7.8366e-39 331 324 0 0 0 -0.28418 -0.16569 -0.94435 0.033879
0.13143 0.048875 1.2449 7.6983e-39 300.5 324 0 0 0 -0.26349 -0.18107 -0.94752 0.034266
0.13289 0.048875 1.2449 7.6522e-39 301.5 324 0 0 0 -0.25502 -0.18377 -0.94931 0.034491
0.13434 0.048875 1.2449 7.7444e-39 302.5 324 0 0 0 -0.2451 -0.20321 -0.94796 0.038394
0.12924 0.05106 1.2449 6.2232e-39 155.5 325 0 0 0 -0.30043 -0.067379 -0.95142 0.024052
0.13143 0.05106 1.2449 5.9927e-39 157 325 0 0 0 -0.27484 -0.10249 -0.95601 0.029152
0.13289 0.05106 1.2449 5.9927e-39 158 325 0 0 0 -0.26587 -0.11313 -0.95735 0.029633
0.13434 0.05106 1.2449 6.1771e-39 159 325 0 0 0 -0.25414 -0.12456 -0.95911 0.030002
0.18095 0.05106 1.2449 7.3757e-39 191 325 0 0 0 0.74324 -0.30597 -0.59497 0.031571
0.12997 0.053245 1.2449 7.8366e-39 335 325 0 0 0 -0.30093 -0.016923 -0.9535 0.020073
0.13143 0.053245 1.2449 8.8049e-39 336 325 0 0 0 -0.2859 -0.026355 -0.9579 0.01951
0.13289 0.053245 1.2449 9.0814e-39 337 325 0 0 0 -0.27706 -0.037192 -0.96013 0.020878
0.13434 0.053245 1.2449 8.6664e-39 338 325 0 0 0 -0.27308 -0.040668 -0.96113 0.02106
0.18095 0.053245 1.2449 8.574e-39 424.5 325 0 0 0 0.77328 -0.22357 -0.59335 0.025846
0.12997 0.05543 1.2449 7.9288e-39 187 326 0 0 0 -0.30825 0.032704 -0.95074 0.017815
0.13143 0.05543 1.2449 7.56e-39 188 326 0 0 0 -0.29457 0.024354 -0.95532 0.016355
0.13289 0.05543 1.2449 7.0991e-39 189 326 0 0 0 -0.29223 0.01708 -0.95619 0.015835
0.13507 0.05543 1.2449 7.053e-39 190.5 326 0 0 0 -0.27978 -0.0012935 -0.96006 0.01664
0.18095 0.05543 1.2449 7.4678e-39 222 326 0 0 0 0.78854 -0.14854 -0.59678 0.019379
0.13143 0.056886 1.2449 9.4961e-39 381 326 0 0 0 -0.30604 0.069545 -0.94948 0.012701
0.13289 0.056886 1.2449 1.0142e-38 382 326 0 0 0 -0.29713 0.056143 -0.95318 0.012129
0.13507 0.056886 1.2449 9.6344e-39 383.5 326 0 0 0 -0.29059 0.039697 -0.95602 0.011726
0.13871 0.056886 1.2449 9.4961e-39 386 326 0 0 0 -0.28063 0.013371 -0.95972 0.013795
0.14017 0.056886 1.2449 9.3118e-39 387 326 0 0 0 -0.27657 -0.0019317 -0.96099 0.015992
0.18095 0.056886 1.2449 4.9786e-39 415 326 0 0 0 0.78929 -0.10919 -0.60424 0.017263
0.1358 0.059071 1.2449 7.7905e-39 344 326.5 0 0 0 -0.30508 0.078625 -0.94908 0.0084771
0.13726 0.059071 1.2449 8.0671e-39 345 326.5 0 0 0 -0.30119 0.070148 -0.95098 0.0082636
0.13871 0.059071 1.2449 7.5139e-39 346 326.5 0 0 0 -0.29521 0.064331 -0.95326 0.0085541
0.14017 0.059071 1.2449 7.2374e-39 347 326.5 0 0 0 -0.29253 0.057399 -0.95453 0.008782
0.18095 0.059071 1.2449 7.4218e-39 208.5 327 0 0 0 0.79491 -0.051834 -0.60451 0.014453
0.1358 0.061256 1.2449 6.4537e-39 420 327 0 0 0 -0.3198 0.11934 -0.93994 0.0065978
0.13726 0.061256 1.2449 6.2693e-39 421 327 0 0 0 -0.31262 0.1051 -0.94404 0.0062352
0.13871 0.061256 1.2449 6.4537e-39 422 327 0 0 0 -0.30729 0.096387 -0.94672 0.0062443
0.14017 0.061256 1.2449 6.7303e-39 423 327 0 0 0 -0.3064 0.090235 -0.94762 0.0061526
0.18095 0.061256 1.2449 7.7444e-39 457 327 0 0 0 0.78501 0.025692 -0.61895 0.014482
0.1358 0.062712 1.2449 7.6522e-39 174 328 0 0 0 -0.33125 0.13925 -0.93321 0.00655
0.13726 0.062712 1.2449 7.4678e-39 175 328 0 0 0 -0.32433 0.12864 -0.93715 0.0057852
0.13871 0.062712 1.2449 7.1913e-39 176 328 0 0 0 -0.31647 0.12398 -0.94047 0.0050252
0.14017 0.062712 1.2449 6.9147e-39 177 328 0 0 0 -0.31465 0.11638 -0.94205 0.0047523
0.14308 0.062712 1.2449 7.0069e-39 179 328 0 0 0 -0.31037 0.10056 -0.94528 0.0052646
0.18095 0.062712 1.2449 7.4678e-39 205 328 0 0 0 0.77735 0.060667 -0.62613 0.014707
0.1358 0.064897 1.2449 7.6983e-39 261.5 328.5 0 0 0 -0.34557 0.16672 -0.92346 0.0071012
0.13871 0.064897 1.2449 8.1133e-39 263.5 328.5 0 0 0 -0.32909 0.14835 -0.93257 0.0053774
0.14066 0.06514 1.2449 8.1747e-39 225 328.67 0 0 0 -0.32294 0.14184 -0.93573 0.0043971
0.14308 0.064897 1.2449 8.2054e-39 266.5 328.5 0 0 0 -0.31576 0.13176 -0.93965 0.0038341
0.14454 0.064897 1.2449 7.9288e-39 267.5 328.5 0 0 0 -0.31387 0.13136 -0.94033 0.0040039
0.18095 0.064897 1.2449 8.482e-39 292.5 328.5 0 0 0 0.75573 0.12711 -0.64243 0.017983
0.1358 0.067082 1.2449 8.482e-39 227 329 0 0 0 -0.36265 0.18897 -0.91256 0.0084919
0.13871 0.067082 1.2449 7.4678e-39 229 329 0 0 0 -0.3411 0.17012 -0.9245 0.006453
0.1409 0.067082 1.2449 7.6522e-39 230.5 329 0 0 0 -0.33247 0.15945 -0.92954 0.0052295
0.14308 0.067082 1.2449 8.6664e-39 232 329 0 0 0 -0.32062 0.15467 -0.93449 0.0042035
0.14454 0.067082 1.2449 9.1274e-39 233 329 0 0 0 -0.31557 0.15202 -0.93665 0.0038933
0.18095 0.067082 1.2449 9.2196e-39 383 329 0 0 0 0.73652 0.17103 -0.65444 0.020423
0.1358 0.068538 1.2449 7.8366e-39 437 329 0 0 0 -0.37787 0.2006 -0.90387 0.0098294
0.1409 0.069266 1.2449 7.514e-39 320 329.5 0 0 0 -0.33923 0.17064 -0.9251 0.0061002
0.14308 0.069266 1.2449 7.1452e-39 322 329.5 0 0 0 -0.32342 0.16313 -0.93209 0.0049413
0.14454 0.069266 1.2449 7.0991e-39 323 329.5 0 0 0 -0.31586 0.15672 -0.93577 0.0040839
0.17949 0.069995 1.2449 7.8366e-39 226 330 0 0 0 0.67741 0.21904 -0.70223 0.028495
0.14163 0.071451 1.2449 9.3118e-39 413 330 0 0 0 -0.34507 0.17388 -0.92233 0.0068837
0.14308 0.071451 1.2449 9.3118e-39 414 330 0 0 0 -0.33558 0.16903 -0.92672 0.0061427
0.14454 0.071451 1.2449 9.2196e-39 415 330 0 0 0 -0.32391 0.16098 -0.93229 0.0052009
0.17949 0.071451 1.2449 7.2835e-39 439 330 0 0 0 0.66226 0.23364 -0.71192 0.030055
0.14163 0.072908 1.2449 7.7444e-39 172 331 0 0 0 -0.35322 0.17517 -0.91899 0.0078953
0.14308 0.072908 1.2449 7.7444e-39 173 331 0 0 0 -0.33983 0.17107 -0.9248 0.0070562
0.14454 0.072908 1.2449 7.6522e-39 174 331 0 0 0 -0.32868 0.16371 -0.93014 0.0060633
0.1409 0.075092 1.2449 7.7905e-39 231.5 331.5 0 0 0 -0.37612 0.18665 -0.90758 0.0098788
0.14308 0.075092 1.2449 8.5742e-39 265 331.5 0 0 0 -0.35025 0.17406 -0.92034 0.008089
0.14454 0.075092 1.2449 8.3898e-39 266 331.5 0 0 0 -0.33782 0.16724 -0.92623 0.0072724
0.17804 0.075092 1.2449 8.1132e-39 289 331.5 0 0 0 0.59299 0.25975 -0.76217 0.035059
0.14163 0.077277 1.2449 7.2835e-39 227 332 0 0 0 -0.37984 0.19439 -0.9044 0.010465
0.14308 0.077277 1.2449 7.0069e-39 228 332 0 0 0 -0.36478 0.18434 -0.91267 0.0092617
0.14454 0.077277 1.2449 7.0069e-39 229 332 0 0 0 -0.34373 0.17637 -0.92236 0.0081814
0.14163 0.078734 1.2449 7.1913e-39 438 332 0 0 0 -0.38349 0.19606 -0.90249 0.010606
0.14308 0.078734 1.2449 7.0991e-39 439 332 0 0 0 -0.3749 0.19008 -0.90737 0.0099354
0.14526 0.078734 1.2449 7.053e-39 443.5 332 0 0 0 -0.33876 0.17858 -0.92377 0.0086312
0.14526 0.080919 1.2449 7.6753e-39 310 333 0 0 0 -0.34991 0.18947 -0.91742 0.010163
0.17658 0.080919 1.2449 7.514e-39 331.5 333 0 0 0 0.52932 0.26305 -0.80661 0.034172
0.14526 0.083103 1.2449 6.6842e-39 180.5 334 0 0 0 -0.36404 0.19955 -0.90975 0.011188
0.14745 0.083103 1.2449 6.8225e-39 182 334 0 0 0 -0.33063 0.18531 -0.92539 0.0093661
0.17367 0.083103 1.2449 7.0069e-39 203 334 0 0 0 0.43757 0.24527 -0.86509 0.038607
0.17512 0.083103 1.2449 7.0991e-39 204 334 0 0 0 0.49905 0.24999 -0.82973 0.035151
0.17658 0.083103 1.2449 7.0069e-39 205 334 0 0 0 0.5247 0.24611 -0.81493 0.033731
0.14526 0.08456 1.2449 8.3898e-39 395.5 334 0 0 0 -0.37018 0.19922 -0.90735 0.01166
0.14745 0.08456 1.2449 8.1132e-39 397 334 0 0 0 -0.34014 0.18828 -0.92133 0.01004
0.15036 0.08456 1.2449 8.021e-39 399 334 0 0 0 -0.29523 0.17989 -0.93834 0.0092102
0.17367 0.08456 1.2449 8.2976e-39 415 334 0 0 0 0.45241 0.23045 -0.86152 0.038883
0.17512 0.08456 1.2449 7.8366e-39 416 334 0 0 0 0.49536 0.23159 -0.83725 0.035519
0.14745 0.086745 1.2449 6.8686e-39 207.5 335 0 0 0 -0.35185 0.19734 -0.91502 0.011031
0.15036 0.086745 1.2449 6.6842e-39 209.5 335 0 0 0 -0.29502 0.18476 -0.93746 0.0103
0.17076 0.087473 1.2449 8.021e-39 396 335 0 0 0 0.34142 0.20183 -0.91799 0.037884
0.17221 0.086745 1.2449 7.6061e-39 290 335 0 0 0 0.39936 0.21531 -0.89115 0.038802
0.14745 0.088929 1.2449 7.56e-39 148 336 0 0 0 -0.36884 0.2061 -0.90636 0.011396
0.15036 0.088929 1.2449 6.9147e-39 150 336 0 0 0 -0.30984 0.19471 -0.93064 0.011437
0.17076 0.088929 1.2449 6.7303e-39 164 336 0 0 0 0.34915 0.20458 -0.91446 0.039162
0.17221 0.088929 1.2449 6.5459e-39 165 336 0 0 0 0.39727 0.20879 -0.89363 0.037695
0.14745 0.091114 1.2449 7.2835e-39 350 336 0 0 0 -0.38232 0.21819 -0.8979 0.011638
0.15036 0.091114 1.2449 7.3296e-39 352 336 0 0 0 -0.31977 0.20685 -0.92464 0.0124
0.17076 0.091114 1.2449 7.6522e-39 195.5 336.5 0 0 0 0.35906 0.19385 -0.91296 0.03978
0.17221 0.091114 1.2449 8.4359e-39 196.5 336.5 0 0 0 0.41057 0.20126 -0.88934 0.038863
0.14891 0.093299 1.2449 7.7444e-39 216 337 0 0 0 -0.36158 0.22812 -0.904 0.012844
0.15109 0.093299 1.2449 7.3296e-39 217.5 337 0 0 0 -0.30772 0.21621 -0.92659 0.013695
0.15328 0.093299 1.2449 7.0991e-39 219 337 0 0 0 -0.25893 0.20089 -0.94477 0.01448
0.17076 0.093299 1.2449 8.3898e-39 231 337 0 0 0 0.37207 0.1754 -0.91148 0.039723
0.17221 0.093299 1.2449 8.1132e-39 232 337 0 0 0 0.42254 0.1834 -0.88759 0.03843
0.14891 0.094755 1.2449 7.1913e-39 434 337 0 0 0 -0.37575 0.23745 -0.89578 0.01262
0.15182 0.094755 1.2449 7.1913e-39 436 337 0 0 0 -0.30378 0.21573 -0.928 0.014992
0.15328 0.094755 1.2449 7.56e-39 437 337 0 0 0 -0.27209 0.20821 -0.93948 0.016118
0.15473 0.094755 1.2449 7.56e-39 438 337 0 0 0 -0.2282 0.19836 -0.95319 0.016401
0.16784 0.094755 1.2449 7.0991e-39 469 337 0 0 0 0.229 0.15895 -0.96036 0.035502
0.17076 0.094755 1.2449 7.0069e-39 471 337 0 0 0 0.38565 0.16753 -0.90731 0.039456
0.15328 0.096212 1.2449 7.3757e-39 205 338 0 0 0 -0.28156 0.21614 -0.93489 0.016312
0.15473 0.09694 1.2449 7.3757e-39 316.5 338 0 0 0 -0.24806 0.21214 -0.94523 0.017536
0.15619 0.097668 1.2449 6.9147e-39 428 338 0 0 0 -0.2029 0.20556 -0.95738 0.01885
0.16784 0.09694 1.2449 7.5601e-39 325.5 338 0 0 0 0.21694 0.15662 -0.96354 0.033434
0.1693 0.09694 1.2449 7.6061e-39 326.5 338 0 0 0 0.29678 0.15141 -0.94287 0.036273
0.17076 0.09694 1.2449 7.56e-39 327.5 338 0 0 0 0.37835 0.16302 -0.9112 0.039474
0.15473 0.099125 1.2449 7.8366e-39 197 339 0 0 0 -0.26618 0.22691 -0.93684 0.018264
0.15619 0.099125 1.2449 7.3757e-39 198 339 0 0 0 -0.21437 0.21552 -0.95268 0.018771
0.16784 0.099125 1.2449 7.7444e-39 206 339 0 0 0 0.1912 0.16183 -0.96812 0.029275
0.1693 0.099125 1.2449 8.1132e-39 207 339 0 0 0 0.27978 0.15933 -0.94675 0.034198
0.15473 0.10058 1.2449 7.3757e-39 417 339 0 0 0 -0.27189 0.23066 -0.93427 0.017732
0.15619 0.10058 1.2449 7.4678e-39 418 339 0 0 0 -0.22931 0.226 -0.94675 0.019018
0.16784 0.10058 1.2449 7.7444e-39 426 339 0 0 0 0.16989 0.17194 -0.97035 0.028122
0.1693 0.10058 1.2449 7.1913e-39 427 339 0 0 0 0.2698 0.16819 -0.94811 0.034209
0.15668 0.10301 1.2449 8.0825e-39 336.33 340 0 0 0 -0.23358 0.24106 -0.94198 0.019911
0.1591 0.10349 1.2449 8.3898e-39 412 340 0 0 0 -0.14868 0.23101 -0.96152 0.022081
0.16056 0.10277 1.2449 7.7905e-39 302 340 0 0 0 -0.10432 0.21538 -0.97094 0.022138
0.16274 0.10349 1.2449 7.6061e-39 414.5 340 0 0 0 -0.044837 0.21608 -0.97535 0.021387
0.16736 0.10301 1.2449 7.7751e-39 343.67 340 0 0 0 0.14271 0.18528 -0.97227 0.027528
0.1693 0.10277 1.2449 8.021e-39 308 340 0 0 0 0.26071 0.18097 -0.9483 0.033185
0.15765 0.10495 1.2449 6.3615e-39 178 341 0 0 0 -0.21572 0.25044 -0.94379 0.020028
0.1591 0.10495 1.2449 7.1913e-39 179 341 0 0 0 -0.17125 0.24817 -0.95346 0.022219
0.16056 0.10495 1.2449 7.7444e-39 180 341 0 0 0 -0.11988 0.23494 -0.96459 0.022704
0.16274 0.10495 1.2449 6.9147e-39 181.5 341 0 0 0 -0.055417 0.22561 -0.97264 0.022112
0.16493 0.10495 1.2449 6.2693e-39 183 341 0 0 0 0.038674 0.21277 -0.97634 0.027377
0.16712 0.10495 1.2449 6.3615e-39 184.5 341 0 0 0 0.12498 0.19397 -0.97301 0.028234
0.1693 0.10495 1.2449 6.8225e-39 186 341 0 0 0 0.22068 0.19301 -0.95606 0.029811
0.1591 0.10641 1.2449 8.2054e-39 401 341 0 0 0 -0.17647 0.25396 -0.95098 0.022517
0.16274 0.10641 1.2449 7.9288e-39 403.5 341 0 0 0 -0.072801 0.23456 -0.96937 0.02278
0.16493 0.10713 1.2449 7.4679e-39 287.5 341.5 0 0 0 0.019444 0.22534 -0.97409 0.027913
0.16639 0.10641 1.2449 9.0352e-39 406 341 0 0 0 0.0944 0.20893 -0.97336 0.028168
0.1317 0.040947 1.2474 6.8225e-39 199 322 0 0 0 -0.19932 -0.56216 -0.80265 0.048624
0.13315 0.040947 1.2474 6.5459e-39 200 322 0 0 0 -0.17881 -0.58264 -0.79282 0.050711
0.13448 0.040906 1.2462 6.3615e-39 201 322 0 0 0 -0.16629 -0.55303 -0.8164 0.046242
0.1368 0.040947 1.2474 6.1771e-39 202.5 322 0 0 0 -0.13638 -0.62814 -0.76606 0.052183
0.13899 0.040947 1.2474 6.9147e-39 204 322 0 0 0 -0.12306 -0.64802 -0.75162 0.054189
0.14118 0.040947 1.2474 7.3296e-39 205.5 322 0 0 0 -0.11015 -0.67878 -0.72604 0.053352
0.14337 0.040947 1.2474 6.7303e-39 207 322 0 0 0 -0.10003 -0.695 -0.71202 0.049955
0.14483 0.040947 1.2474 6.4537e-39 208 322 0 0 0 -0.087864 -0.70939 -0.69931 0.048985
0.14702 0.040947 1.2474 6.5459e-39 209.5 322 0 0 0 -0.078689 -0.7319 -0.67685 0.047096
0.12586 0.043866 1.2474 6.2693e-39 167 323 0 0 0 -0.30977 -0.35721 -0.88116 0.044016
0.12878 0.043136 1.2474 8.8046e-39 276 322.5 0 0 0 -0.26262 -0.41729 -0.87 0.048248
0.13087 0.043104 1.2465 8.3668e-39 277.5 322.5 0 0 0 -0.23613 -0.38712 -0.89128 0.043084
0.13302 0.043093 1.2462 7.6522e-39 279 322.5 0 0 0 -0.21348 -0.40133 -0.89071 0.045151
0.13545 0.04285 1.2462 8.1132e-39 316.33 322.33 0 0 0 -0.18114 -0.44055 -0.87926 0.046819
0.13739 0.042364 1.2462 9.1274e-39 389 322 0 0 0 -0.15502 -0.51102 -0.84548 0.050138
0.13885 0.042364 1.2462 8.943e-39 390 322 0 0 0 -0.15084 -0.54216 -0.82662 0.053781
0.14104 0.042364 1.2462 7.6983e-39 391.5 322 0 0 0 -0.12402 -0.59075 -0.79727 0.05552
0.14323 0.042364 1.2462 6.8225e-39 393 322 0 0 0 -0.12383 -0.61284 -0.78045 0.056395
0.14468 0.042364 1.2462 6.0849e-39 394 322 0 0 0 -0.12256 -0.63377 -0.76375 0.055763
0.14906 0.042364 1.2462 5.8083e-39 397 322 0 0 0 -0.11348 -0.69921 -0.70585 0.054962
0.15124 0.042364 1.2462 6.3154e-39 398.5 322 0 0 0 -0.11112 -0.74264 -0.66041 0.05045
0.15343 0.042364 1.2462 5.3473e-39 400 322 0 0 0 -0.11018 -0.75555 -0.64576 0.049009
0.15489 0.042364 1.2462 5.4395e-39 401 322 0 0 0 -0.11004 -0.77876 -0.6176 0.042729
0.15708 0.042364 1.2462 6.4998e-39 402.5 322 0 0 0 -0.087262 -0.80329 -0.58916 0.036335
0.15926 0.042364 1.2462 7.0991e-39 404 322 0 0 0 -0.069791 -0.81724 -0.57206 0.032182
0.16072 0.042364 1.2462 6.2693e-39 405 322 0 0 0 -0.0428 -0.82613 -0.56185 0.028491
0.16299 0.042385 1.2468 5.7161e-39 406.5 322 0 0 0 0.012658 -0.8395 -0.54321 0.023845
0.1651 0.042364 1.2462 6.0849e-39 408 322 0 0 0 0.071321 -0.83649 -0.54333 0.025996
0.17312 0.042364 1.2462 6.6842e-39 434.5 322 0 0 0 0.31061 -0.79701 -0.51797 0.039329
0.1753 0.042364 1.2462 6.9147e-39 436 322 0 0 0 0.39029 -0.75182 -0.53146 0.042706
0.17685 0.043114 1.2468 6.4076e-39 319.5 322.5 0 0 0 0.45047 -0.71711 -0.53182 0.046479
0.17822 0.043822 1.2462 6.2693e-39 203 323 0 0 0 0.52616 -0.64394 -0.55542 0.049574
0.12294 0.045325 1.2474 7.3757e-39 246 323 0 0 0 -0.36233 -0.28432 -0.88762 0.045445
0.12506 0.045302 1.2468 7.8827e-39 247.5 323 0 0 0 -0.33398 -0.28925 -0.8971 0.043861
0.12732 0.045325 1.2474 8.3898e-39 249 323 0 0 0 -0.30328 -0.30965 -0.90119 0.044063
0.12865 0.04528 1.2462 7.9288e-39 250 323 0 0 0 -0.27663 -0.28429 -0.91796 0.038822
0.17986 0.045325 1.2474 8.482e-39 392 323 0 0 0 0.60377 -0.56392 -0.56344 0.051457
0.12148 0.046785 1.2474 6.8225e-39 437 323 0 0 0 -0.39847 -0.19768 -0.89562 0.041502
0.12294 0.046785 1.2474 6.5459e-39 438 323 0 0 0 -0.37112 -0.2047 -0.90574 0.042252
0.12506 0.046761 1.2468 6.592e-39 439.5 323 0 0 0 -0.33719 -0.22296 -0.91465 0.039925
0.12719 0.046738 1.2462 6.7303e-39 441 323 0 0 0 -0.30779 -0.2156 -0.9267 0.037731
0.12865 0.046738 1.2462 6.7303e-39 442 323 0 0 0 -0.28611 -0.22597 -0.93117 0.03749
0.12148 0.048974 1.2474 8.7124e-39 293.5 324 0 0 0 -0.41804 -0.10475 -0.90237 0.037733
0.12294 0.048974 1.2474 8.5282e-39 294.5 324 0 0 0 -0.39711 -0.11847 -0.91009 0.03732
0.12506 0.04895 1.2468 7.7444e-39 296 324 0 0 0 -0.3484 -0.13711 -0.92726 0.036127
0.12719 0.048925 1.2462 7.2374e-39 297.5 324 0 0 0 -0.31633 -0.1554 -0.93584 0.036216
0.12865 0.048196 1.2462 6.3615e-39 203 324 0 0 0 -0.29221 -0.18307 -0.93867 0.034822
0.18123 0.048949 1.2468 7.099e-39 334.5 324 0 0 0 0.718 -0.39321 -0.57433 0.040454
0.12148 0.051163 1.2474 7.6522e-39 472 324 0 0 0 -0.42421 -0.02254 -0.90528 0.029333
0.12294 0.051163 1.2474 7.56e-39 473 324 0 0 0 -0.40242 -0.040558 -0.91456 0.031462
0.12506 0.051137 1.2468 7.1452e-39 309.5 324.5 0 0 0 -0.3678 -0.062741 -0.92779 0.031261
0.12719 0.051112 1.2462 6.3615e-39 154 325 0 0 0 -0.332 -0.082868 -0.93963 0.03164
0.12148 0.052623 1.2474 8.482e-39 233 325 0 0 0 -0.43305 0.016974 -0.90121 0.026969
0.12506 0.052597 1.2468 8.6203e-39 235.5 325 0 0 0 -0.37768 -0.011416 -0.92587 0.026435
0.12719 0.05257 1.2462 7.7444e-39 237 325 0 0 0 -0.34947 -0.010127 -0.93689 0.023599
0.12865 0.05257 1.2462 7.4678e-39 238 325 0 0 0 -0.31816 -0.029175 -0.94759 0.02296
0.12573 0.054757 1.2462 6.9147e-39 306 325.5 0 0 0 -0.37511 0.055928 -0.92529 0.020556
0.12732 0.054812 1.2474 6.7303e-39 307 325.5 0 0 0 -0.3647 0.04351 -0.93011 0.022184
0.12865 0.054757 1.2462 7.2835e-39 308 325.5 0 0 0 -0.33745 0.032035 -0.9408 0.020913
0.12586 0.057001 1.2474 9.6805e-39 377 326 0 0 0 -0.39866 0.11629 -0.9097 0.017744
0.12732 0.057001 1.2474 9.9571e-39 378 326 0 0 0 -0.3771 0.10339 -0.92038 0.018062
0.12865 0.056944 1.2462 9.5883e-39 379 326 0 0 0 -0.34685 0.091308 -0.93347 0.015559
0.1301 0.056944 1.2462 9.0352e-39 380 326 0 0 0 -0.32727 0.07736 -0.94176 0.01507
0.12586 0.059191 1.2474 7.56e-39 337 326.5 0 0 0 -0.41304 0.17725 -0.8933 0.014651
0.12732 0.059191 1.2474 7.6983e-39 338 326.5 0 0 0 -0.39335 0.16626 -0.90423 0.014225
0.12878 0.059191 1.2474 7.6983e-39 339 326.5 0 0 0 -0.37056 0.14733 -0.91705 0.014156
0.13083 0.059131 1.2462 7.3065e-39 340.5 326.5 0 0 0 -0.34057 0.12856 -0.93139 0.012434
0.13302 0.059131 1.2462 7.053e-39 342 326.5 0 0 0 -0.32288 0.10386 -0.94072 0.010701
0.13448 0.059131 1.2462 7.2374e-39 343 326.5 0 0 0 -0.31389 0.088577 -0.94532 0.010126
0.12586 0.061379 1.2474 8.2976e-39 413 327 0 0 0 -0.42821 0.2293 -0.8741 0.012612
0.12732 0.061379 1.2474 7.56e-39 414 327 0 0 0 -0.41163 0.21675 -0.8852 0.012393
0.12865 0.061318 1.2462 6.9147e-39 415 327 0 0 0 -0.38429 0.19586 -0.9022 0.011995
0.1309 0.061348 1.2468 7.0069e-39 416.5 327 0 0 0 -0.36541 0.1797 -0.91334 0.011006
0.13302 0.061318 1.2462 7.0069e-39 418 327 0 0 0 -0.33981 0.14834 -0.92872 0.008573
0.13448 0.061318 1.2462 6.8225e-39 419 327 0 0 0 -0.33364 0.1372 -0.93266 0.0080143
0.12878 0.062839 1.2474 7.7444e-39 169 328 0 0 0 -0.40693 0.22354 -0.88569 0.012324
0.1309 0.062808 1.2468 7.7905e-39 170.5 328 0 0 0 -0.37785 0.19864 -0.90431 0.01109
0.13302 0.062776 1.2462 7.8366e-39 172 328 0 0 0 -0.35372 0.17169 -0.91946 0.0089299
0.13448 0.062776 1.2462 7.7444e-39 173 328 0 0 0 -0.34406 0.1568 -0.92576 0.0076765
0.12878 0.065028 1.2474 6.9608e-39 364.5 328 0 0 0 -0.42201 0.24921 -0.87166 0.0124
0.13093 0.065012 1.2471 7.2143e-39 366 328 0 0 0 -0.40195 0.22744 -0.88697 0.011467
0.13302 0.064962 1.2462 7.6061e-39 367.5 328 0 0 0 -0.37652 0.2028 -0.90394 0.010177
0.13448 0.064962 1.2462 7.514e-39 259.5 328.5 0 0 0 -0.36623 0.18726 -0.91149 0.0091834
0.13739 0.064962 1.2462 8.021e-39 262.5 328.5 0 0 0 -0.34488 0.16229 -0.92451 0.0068013
0.18278 0.065758 1.2474 7.2835e-39 174 329 0 0 0 0.81634 0.11015 -0.56697 0.0078425
0.12878 0.067217 1.2474 7.0069e-39 222 329 0 0 0 -0.43691 0.27194 -0.85741 0.012709
0.13097 0.067217 1.2474 7.0069e-39 223.5 329 0 0 0 -0.4222 0.25037 -0.87124 0.012519
0.13302 0.067149 1.2462 7.0069e-39 225 329 0 0 0 -0.39992 0.22964 -0.88731 0.011427
0.13448 0.067149 1.2462 7.8366e-39 226 329 0 0 0 -0.38748 0.21565 -0.8963 0.010863
0.13739 0.067149 1.2462 8.1132e-39 228 329 0 0 0 -0.35944 0.1845 -0.91475 0.0082162
0.12878 0.068677 1.2474 8.021e-39 432 329 0 0 0 -0.45026 0.28434 -0.84642 0.01238
0.1317 0.068677 1.2474 7.8366e-39 434 329 0 0 0 -0.43169 0.26013 -0.8637 0.012708
0.13302 0.068607 1.2462 7.9288e-39 435 329 0 0 0 -0.41105 0.23689 -0.8803 0.012115
0.13448 0.068607 1.2462 8.021e-39 436 329 0 0 0 -0.39599 0.22031 -0.89143 0.011099
0.13739 0.068607 1.2462 7.56e-39 438 329 0 0 0 -0.37099 0.19785 -0.90732 0.0095995
0.13885 0.068607 1.2462 7.56e-39 439 329 0 0 0 -0.35868 0.18689 -0.91456 0.0083892
0.18113 0.068607 1.2462 6.9147e-39 142 330 0 0 0 0.74668 0.18035 -0.64026 0.0191
0.13315 0.070866 1.2474 7.8827e-39 300.5 330 0 0 0 -0.43811 0.25133 -0.86307 0.012778
0.13528 0.07083 1.2468 7.6983e-39 302 330 0 0 0 -0.41435 0.23371 -0.8796 0.012294
0.13739 0.070794 1.2462 8.0671e-39 303.5 330 0 0 0 -0.39006 0.20721 -0.89718 0.01105
0.13885 0.070794 1.2462 8.2976e-39 304.5 330 0 0 0 -0.37612 0.19732 -0.90532 0.0099178
0.14031 0.071523 1.2462 9.4961e-39 412 330 0 0 0 -0.3703 0.18762 -0.90977 0.0090698
0.18123 0.07083 1.2468 7.9288e-39 333.5 330 0 0 0 0.74757 0.19689 -0.63433 0.017827
0.13315 0.073055 1.2474 6.9147e-39 166 331 0 0 0 -0.45816 0.26185 -0.84943 0.013142
0.13528 0.073018 1.2468 7.1913e-39 167.5 331 0 0 0 -0.43497 0.23724 -0.86863 0.012962
0.13739 0.072981 1.2462 8.021e-39 169 331 0 0 0 -0.41239 0.21575 -0.88509 0.012487
0.13885 0.072981 1.2462 8.2976e-39 170 331 0 0 0 -0.39582 0.20372 -0.89544 0.011451
0.14031 0.072981 1.2462 7.8366e-39 171 331 0 0 0 -0.37869 0.19282 -0.90521 0.010082
0.17968 0.072981 1.2462 7.6522e-39 198 331 0 0 0 0.68191 0.23239 -0.69354 0.027777
0.18132 0.073055 1.2474 7.3757e-39 199 331 0 0 0 0.73499 0.21202 -0.64408 0.019241
0.13315 0.074515 1.2474 6.7303e-39 250 331 0 0 0 -0.46854 0.26307 -0.84336 0.01306
0.13528 0.075206 1.2468 6.7303e-39 280.75 331.25 0 0 0 -0.45278 0.24134 -0.85834 0.012961
0.13739 0.075168 1.2462 6.7303e-39 197 331.5 0 0 0 -0.43043 0.22159 -0.875 0.013015
0.13885 0.075168 1.2462 6.7303e-39 198 331.5 0 0 0 -0.41478 0.2098 -0.88541 0.012497
0.17977 0.075207 1.2468 8.3437e-39 290 331.5 0 0 0 0.67911 0.23518 -0.69535 0.027938
0.18132 0.074515 1.2474 8.6664e-39 411 331 0 0 0 0.72115 0.22063 -0.6567 0.021177
0.13594 0.077355 1.2462 7.0069e-39 223 332 0 0 0 -0.46098 0.24021 -0.85428 0.013755
0.13753 0.077433 1.2474 7.0991e-39 224 332 0 0 0 -0.45819 0.23747 -0.85655 0.014017
0.13899 0.077433 1.2474 7.3757e-39 225 332 0 0 0 -0.44041 0.22587 -0.86892 0.013749
0.14031 0.077355 1.2462 7.2835e-39 226 332 0 0 0 -0.41329 0.20841 -0.88643 0.012587
0.17822 0.077355 1.2462 6.6381e-39 252 332 0 0 0 0.61656 0.24837 -0.7471 0.031638
0.1368 0.078893 1.2474 7.5139e-39 434.5 332 0 0 0 -0.47501 0.24729 -0.84452 0.013611
0.13899 0.078893 1.2474 7.56e-39 436 332 0 0 0 -0.45173 0.23089 -0.86176 0.013944
0.14031 0.078813 1.2462 7.56e-39 437 332 0 0 0 -0.42451 0.21711 -0.87901 0.012832
0.1784 0.078893 1.2474 7.0069e-39 142 333 0 0 0 0.63228 0.24995 -0.73331 0.029767
0.13753 0.080352 1.2474 8.1132e-39 198 333 0 0 0 -0.47954 0.24819 -0.84169 0.013581
0.14111 0.081041 1.2468 7.8597e-39 307 333 0 0 0 -0.43669 0.22482 -0.87107 0.013437
0.14323 0.081 1.2462 7.7905e-39 308.5 333 0 0 0 -0.39853 0.20831 -0.89319 0.011514
0.14191 0.083271 1.2474 6.6381e-39 178 334 0 0 0 -0.44486 0.23317 -0.86471 0.013722
0.14337 0.083271 1.2474 6.7303e-39 179 334 0 0 0 -0.42526 0.22057 -0.87778 0.012746
0.14191 0.084731 1.2474 8.5742e-39 393 334 0 0 0 -0.45869 0.24131 -0.85521 0.01305
0.14337 0.084731 1.2474 8.5742e-39 394 334 0 0 0 -0.44198 0.22897 -0.86731 0.012699
0.17676 0.084645 1.2462 7.56e-39 417 334 0 0 0 0.56204 0.23598 -0.79274 0.029845
0.14191 0.08692 1.2474 7.9749e-39 203.5 335 0 0 0 -0.47093 0.24687 -0.84693 0.011888
0.14337 0.08692 1.2474 8.1132e-39 204.5 335 0 0 0 -0.45666 0.23337 -0.85849 0.012465
0.14468 0.086832 1.2462 7.4218e-39 205.5 335 0 0 0 -0.41399 0.2224 -0.88269 0.012709
0.14614 0.086832 1.2462 7.053e-39 206.5 335 0 0 0 -0.39244 0.21326 -0.89471 0.012534
0.17384 0.086832 1.2462 7.6522e-39 291 335 0 0 0 0.48724 0.20981 -0.84769 0.037633
0.1753 0.086832 1.2462 7.9749e-39 293.5 335 0 0 0 0.52872 0.21084 -0.82219 0.034329
0.17676 0.086832 1.2462 7.9288e-39 294.5 335 0 0 0 0.56547 0.22168 -0.79442 0.030392
0.14191 0.089109 1.2474 6.8225e-39 144 336 0 0 0 -0.48587 0.25797 -0.83509 0.010873
0.14337 0.089109 1.2474 7.6522e-39 145 336 0 0 0 -0.46896 0.24759 -0.8478 0.011077
0.14468 0.089019 1.2462 8.2976e-39 146 336 0 0 0 -0.43229 0.23337 -0.87101 0.012345
0.14614 0.089019 1.2462 8.2054e-39 147 336 0 0 0 -0.40705 0.22253 -0.88588 0.012681
0.17384 0.089019 1.2462 6.7303e-39 166 336 0 0 0 0.49101 0.2068 -0.84625 0.037112
0.1753 0.089019 1.2462 7.0069e-39 167 336 0 0 0 0.53811 0.21021 -0.81624 0.033342
0.17694 0.089109 1.2474 7.7444e-39 168 336 0 0 0 0.59065 0.20883 -0.77943 0.029348
0.14468 0.090477 1.2462 6.6381e-39 228 336 0 0 0 -0.44176 0.24226 -0.8638 0.011922
0.14614 0.091206 1.2462 6.8225e-39 349 336 0 0 0 -0.42523 0.23958 -0.8728 0.012482
0.17384 0.091206 1.2462 8.2515e-39 197.5 336.5 0 0 0 0.49955 0.19061 -0.84506 0.036346
0.1753 0.091206 1.2462 7.6061e-39 198.5 336.5 0 0 0 0.54204 0.18949 -0.81871 0.032287
0.14483 0.092758 1.2474 7.099e-39 340.5 336.5 0 0 0 -0.46807 0.26187 -0.844 0.011431
0.14694 0.09344 1.2468 7.8827e-39 214.5 337 0 0 0 -0.42947 0.25257 -0.86704 0.012213
0.17384 0.093393 1.2462 7.3757e-39 233 337 0 0 0 0.49316 0.18115 -0.85087 0.03401
0.17548 0.093487 1.2474 6.8225e-39 234 337 0 0 0 0.56489 0.17079 -0.8073 0.030785
0.14702 0.094947 1.2474 7.6061e-39 432.5 337 0 0 0 -0.44071 0.26397 -0.85796 0.011636
0.15052 0.094851 1.2462 7.0991e-39 435 337 0 0 0 -0.34987 0.23372 -0.90717 0.01424
0.17312 0.094851 1.2462 6.6381e-39 472.5 337 0 0 0 0.45895 0.17466 -0.87112 0.036504
0.17548 0.094947 1.2474 6.4537e-39 474 337 0 0 0 0.56912 0.16245 -0.80605 0.030804
0.14775 0.097136 1.2474 7.4679e-39 311.5 338 0 0 0 -0.44207 0.2696 -0.85551 0.01132
0.14906 0.097038 1.2462 7.7905e-39 312.5 338 0 0 0 -0.40418 0.26153 -0.87649 0.012673
0.15128 0.097063 1.2465 7.7905e-39 314 338 0 0 0 -0.34385 0.24753 -0.90581 0.015855
0.15343 0.097767 1.2462 7.4678e-39 426 338 0 0 0 -0.29633 0.2328 -0.92628 0.017778
0.17312 0.097038 1.2462 7.1221e-39 329 338 0 0 0 0.46953 0.15584 -0.86906 0.03583
0.17548 0.097136 1.2474 7.1451e-39 331.5 338 0 0 0 0.55423 0.15458 -0.81789 0.030394
0.14921 0.099325 1.2474 7.0991e-39 193 339 0 0 0 -0.42412 0.27534 -0.86273 0.011855
0.15132 0.099275 1.2468 7.4218e-39 194.5 339 0 0 0 -0.36418 0.25546 -0.89561 0.015191
0.15343 0.099225 1.2462 7.9288e-39 196 339 0 0 0 -0.3061 0.23795 -0.92178 0.01764
0.17093 0.099225 1.2462 8.2054e-39 208 339 0 0 0 0.39653 0.15287 -0.9052 0.038856
0.17312 0.099225 1.2462 7.8366e-39 209.5 339 0 0 0 0.47247 0.15131 -0.86826 0.036157
0.17548 0.099325 1.2474 7.2835e-39 211 339 0 0 0 0.56109 0.15208 -0.81367 0.030193
0.14921 0.10078 1.2474 7.56e-39 413 339 0 0 0 -0.43217 0.28178 -0.85664 0.011901
0.15132 0.10073 1.2468 7.5139e-39 414.5 339 0 0 0 -0.37559 0.26817 -0.88714 0.015024
0.15343 0.10068 1.2462 7.2835e-39 416 339 0 0 0 -0.31851 0.24925 -0.91456 0.017435
0.17093 0.10068 1.2462 7.1913e-39 428 339 0 0 0 0.38146 0.15654 -0.91103 0.040328
0.17312 0.10068 1.2462 7.1452e-39 429.5 339 0 0 0 0.47612 0.14831 -0.86679 0.036716
0.17548 0.10078 1.2474 7.56e-39 431 339 0 0 0 0.5673 0.15292 -0.80919 0.030319
0.14921 0.10224 1.2474 6.3615e-39 183 340 0 0 0 -0.4398 0.29159 -0.84944 0.01074
0.15154 0.10266 1.2466 7.0991e-39 258.67 340 0 0 0 -0.38336 0.27944 -0.88031 0.014627
0.15351 0.10292 1.2468 7.2835e-39 297 340 0 0 0 -0.33433 0.26994 -0.90297 0.017188
0.15489 0.10287 1.2462 7.6522e-39 298 340 0 0 0 -0.2949 0.25535 -0.92078 0.018126
0.17093 0.10287 1.2462 7.6983e-39 309 340 0 0 0 0.35957 0.17081 -0.91735 0.038447
0.17287 0.10263 1.2462 7.4064e-39 273.33 340 0 0 0 0.46102 0.16213 -0.87245 0.037556
0.17499 0.10321 1.2474 7.8059e-39 348.67 340 0 0 0 0.55627 0.15608 -0.81621 0.031593
0.15286 0.10516 1.2474 6.0849e-39 174.5 341 0 0 0 -0.37403 0.28934 -0.88113 0.015763
0.15489 0.10506 1.2462 6.1771e-39 176 341 0 0 0 -0.30922 0.27233 -0.91116 0.018703
0.15635 0.10506 1.2462 6.0849e-39 177 341 0 0 0 -0.2699 0.26686 -0.92517 0.020025
0.17093 0.10506 1.2462 7.6522e-39 187 341 0 0 0 0.33949 0.18276 -0.92268 0.036393
0.17239 0.10506 1.2462 7.56e-39 188 341 0 0 0 0.41646 0.17629 -0.8919 0.038911
0.17475 0.10516 1.2474 7.0991e-39 189.5 341 0 0 0 0.54274 0.16583 -0.82337 0.033801
0.15213 0.10662 1.2474 8.2976e-39 396 341 0 0 0 -0.39925 0.29554 -0.8679 0.014647
0.15489 0.10651 1.2462 7.7444e-39 398 341 0 0 0 -0.32439 0.2789 -0.90387 0.01841
0.15732 0.107 1.2462 7.9903e-39 321.33 341.33 0 0 0 -0.25659 0.27328 -0.92708 0.021924
0.15926 0.10797 1.2462 7.7444e-39 166 342 0 0 0 -0.18207 0.26532 -0.94681 0.02472
0.16072 0.10724 1.2462 7.5601e-39 284.5 341.5 0 0 0 -0.14149 0.25722 -0.95594 0.025242
0.16291 0.10797 1.2462 6.592e-39 168.5 342 0 0 0 -0.081704 0.24888 -0.96508 0.02584
0.16655 0.10797 1.2462 6.1771e-39 171 342 0 0 0 0.07956 0.22924 -0.97011 0.032185
0.16874 0.10724 1.2462 7.3526e-39 290 341.5 0 0 0 0.19933 0.21429 -0.95621 0.034434
0.17093 0.10651 1.2462 8.6664e-39 409 341 0 0 0 0.33059 0.18838 -0.92478 0.035966
0.17239 0.10651 1.2462 8.7586e-39 410 341 0 0 0 0.39849 0.18341 -0.89865 0.035407
0.17475 0.10662 1.2474 8.2515e-39 411.5 341 0 0 0 0.52461 0.17182 -0.83382 0.034733
0.15505 0.10881 1.2474 7.6983e-39 209.5 342 0 0 0 -0.33463 0.28993 -0.89664 0.019249
0.15694 0.10902 1.247 8.482e-39 226.33 342 0 0 0 -0.29048 0.2859 -0.91317 0.022028
0.15926 0.10943 1.2462 7.6522e-39 259 342 0 0 0 -0.2074 0.27704 -0.93821 0.026175
0.16072 0.10943 1.2462 7.8366e-39 391 342 0 0 0 -0.15442 0.26804 -0.95095 0.025756
0.16291 0.10943 1.2462 8.7125e-39 392.5 342 0 0 0 -0.08824 0.25539 -0.9628 0.026001
0.1651 0.10943 1.2462 9.0352e-39 394 342 0 0 0 0.0084824 0.24251 -0.97011 0.031667
0.16655 0.10943 1.2462 8.7586e-39 395 342 0 0 0 0.079612 0.23459 -0.96883 0.032723
0.16874 0.10943 1.2462 8.1132e-39 396.5 342 0 0 0 0.18871 0.22678 -0.95549 0.034663
0.1711 0.10881 1.2474 6.8224e-39 286 342 0 0 0 0.34158 0.20879 -0.91637 0.039578
0.17256 0.10881 1.2474 6.9147e-39 287 342 0 0 0 0.39391 0.19544 -0.89813 0.040109
0.15505 0.111 1.2474 7.1913e-39 151 343 0 0 0 -0.35536 0.29761 -0.88609 0.019276
0.15724 0.111 1.2474 6.6381e-39 152.5 343 0 0 0 -0.28823 0.28752 -0.91338 0.023216
0.15926 0.11089 1.2462 6.3615e-39 154 343 0 0 0 -0.21418 0.27615 -0.93694 0.026803
0.16072 0.11089 1.2462 6.6381e-39 155 343 0 0 0 -0.15956 0.27039 -0.94944 0.027577
0.16291 0.11089 1.2462 6.4998e-39 156.5 343 0 0 0 -0.099167 0.26652 -0.95871 0.027827
0.1651 0.11089 1.2462 5.9927e-39 158 343 0 0 0 -0.010648 0.25366 -0.96724 0.03021
0.16655 0.11089 1.2462 5.9005e-39 159 343 0 0 0 0.068046 0.24175 -0.96795 0.033609
0.16874 0.11089 1.2462 5.9005e-39 160.5 343 0 0 0 0.16643 0.23137 -0.95852 0.033475
0.1711 0.111 1.2474 5.9927e-39 162 343 0 0 0 0.31831 0.22162 -0.92172 0.03942
0.17256 0.111 1.2474 6.1771e-39 163 343 0 0 0 0.36884 0.21633 -0.90397 0.03881
0.15797 0.11319 1.2474 7.9288e-39 352.5 343 0 0 0 -0.28282 0.29354 -0.91316 0.024644
0.15934 0.11314 1.2468 8.2054e-39 353.5 343 0 0 0 -0.22179 0.28867 -0.93139 0.028482
0.16088 0.11319 1.2474 8.2976e-39 358.5 343 0 0 0 -0.18732 0.28814 -0.93909 0.029894
0.16299 0.11314 1.2468 8.0671e-39 192 343.5 0 0 0 -0.11939 0.28245 -0.95182 0.029542
0.16518 0.11314 1.2468 7.3757e-39 193.5 343.5 0 0 0 -0.042444 0.27166 -0.96146 0.028812
0.16672 0.11319 1.2474 7.1913e-39 194.5 343.5 0 0 0 0.06278 0.26473 -0.96228 0.037883
0.16891 0.11319 1.2474 7.7444e-39 196 343.5 0 0 0 0.17653 0.25323 -0.95116 0.039268
0.15942 0.11538 1.2474 7.2835e-39 226 344 0 0 0 -0.24337 0.30353 -0.92122 0.030547
0.16088 0.11538 1.2474 7.2835e-39 227 344 0 0 0 -0.19394 0.30189 -0.93341 0.030851
0.16307 0.11538 1.2474 7.1452e-39 228.5 344 0 0 0 -0.11841 0.29808 -0.94717 0.03294
0.16526 0.11538 1.2474 7.4678e-39 230 344 0 0 0 -0.041089 0.29206 -0.95552 0.032097
0.16672 0.11538 1.2474 7.56e-39 231 344 0 0 0 0.032404 0.28603 -0.95767 0.036227
0.16818 0.11538 1.2474 8.2054e-39 232 344 0 0 0 0.12384 0.28108 -0.95166 0.037977
0.15942 0.11684 1.2474 7.4678e-39 445 344 0 0 0 -0.24239 0.30792 -0.92002 0.030288
0.16307 0.11684 1.2474 8.1593e-39 447.5 344 0 0 0 -0.12776 0.30386 -0.94411 0.034455
0.16526 0.11684 1.2474 7.56e-39 449 344 0 0 0 -0.040444 0.30114 -0.95272 0.033439
0.1638 0.1183 1.2474 8.2054e-39 204 345 0 0 0 -0.10092 0.31168 -0.94481 0.03711
0.16526 0.1183 1.2474 7.9288e-39 205 345 0 0 0 -0.041711 0.30798 -0.95048 0.034322
0.13123 0.039568 1.25 1.0188e-38 403.5 321 0 0 0 -0.1717 -0.65292 -0.73771 0.046454
0.13342 0.039568 1.25 8.6664e-39 405 321 0 0 0 -0.14437 -0.67627 -0.72237 0.045601
0.13475 0.039528 1.2487 7.3757e-39 406 321 0 0 0 -0.13019 -0.67788 -0.72356 0.047208
0.13701 0.039548 1.2494 7.0069e-39 421.5 321 0 0 0 -0.108 -0.71327 -0.69252 0.045416
0.13927 0.039568 1.25 6.5459e-39 437 321 0 0 0 -0.089367 -0.74524 -0.66078 0.043769
0.14074 0.039568 1.25 6.2693e-39 438 321 0 0 0 -0.076841 -0.75874 -0.64684 0.042837
0.14293 0.039568 1.25 6.2232e-39 439.5 321 0 0 0 -0.062706 -0.77323 -0.63102 0.040909
0.14512 0.039568 1.25 6.1771e-39 441 321 0 0 0 -0.051579 -0.79159 -0.60887 0.038793
0.14644 0.039528 1.2487 6.3615e-39 442 321 0 0 0 -0.062505 -0.78181 -0.62038 0.039065
0.14805 0.039568 1.25 6.5459e-39 443 321 0 0 0 -0.041654 -0.81436 -0.57887 0.035511
0.12319 0.04103 1.25 6.5459e-39 193 322 0 0 0 -0.32703 -0.47309 -0.81807 0.0464
0.12465 0.04103 1.25 6.4537e-39 194 322 0 0 0 -0.30075 -0.50395 -0.80968 0.050211
0.12611 0.04103 1.25 6.5459e-39 195 322 0 0 0 -0.27235 -0.53449 -0.80009 0.050152
0.12891 0.040989 1.2487 7.56e-39 197 322 0 0 0 -0.23796 -0.5392 -0.80786 0.049517
0.13037 0.040989 1.2487 7.2835e-39 198 322 0 0 0 -0.21353 -0.55699 -0.8026 0.048909
0.14936 0.040989 1.2487 7.1913e-39 211 322 0 0 0 -0.065446 -0.77021 -0.63443 0.04432
0.15082 0.040989 1.2487 7.4678e-39 212 322 0 0 0 -0.063915 -0.78743 -0.61309 0.041976
0.15301 0.040989 1.2487 7.3296e-39 213.5 322 0 0 0 -0.055439 -0.81376 -0.57856 0.036496
0.1552 0.040989 1.2487 6.9147e-39 215 322 0 0 0 -0.058316 -0.83488 -0.54734 0.029589
0.15682 0.04103 1.25 6.9147e-39 216 322 0 0 0 -0.043455 -0.85069 -0.52387 0.025264
0.15902 0.04103 1.25 7.2374e-39 217.5 322 0 0 0 -0.024339 -0.87209 -0.48875 0.016711
0.16121 0.04103 1.25 7.1913e-39 219 322 0 0 0 0.0074257 -0.89169 -0.45259 0.0085644
0.16251 0.040989 1.2487 7.0991e-39 220 322 0 0 0 0.019912 -0.88067 -0.47332 0.011698
0.1656 0.04103 1.25 7.3757e-39 222 322 0 0 0 0.088794 -0.89486 -0.43742 0.0096211
0.16706 0.04103 1.25 7.9288e-39 223 322 0 0 0 0.12347 -0.88955 -0.43983 0.013672
0.16908 0.040989 1.2487 7.2835e-39 224.5 322 0 0 0 0.18259 -0.86597 -0.46556 0.02305
0.17127 0.040989 1.2487 7.0991e-39 226 322 0 0 0 0.21685 -0.85694 -0.46757 0.026687
0.17291 0.04103 1.25 7.7444e-39 227 322 0 0 0 0.26945 -0.84156 -0.46816 0.033155
0.1751 0.04103 1.25 8.3437e-39 228.5 322 0 0 0 0.328 -0.80873 -0.48823 0.040924
0.1773 0.04103 1.25 8.1132e-39 230 322 0 0 0 0.39224 -0.77421 -0.49675 0.043611
0.1188 0.043955 1.25 6.9147e-39 162 323 0 0 0 -0.4172 -0.32098 -0.85025 0.04747
0.12166 0.043201 1.2494 8.8507e-39 271 322.5 0 0 0 -0.36633 -0.3777 -0.85038 0.048946
0.12313 0.043201 1.2494 8.6204e-39 272 322.5 0 0 0 -0.34931 -0.38545 -0.85405 0.048674
0.12505 0.04295 1.2491 8.7895e-39 309 322.33 0 0 0 -0.30886 -0.41985 -0.85343 0.046704
0.12751 0.043201 1.2494 8.5279e-39 275 322.5 0 0 0 -0.2731 -0.44814 -0.85123 0.052683
0.17858 0.042449 1.2487 6.5459e-39 438 322 0 0 0 0.48669 -0.69489 -0.52939 0.04653
