# .PCD v.7 - Point Cloud Data file format
VERSION .7
FIELDS x y z rgb u v vx vy vz normal_x normal_y normal_z curvature
SIZE 4 4 4 4 4 4 4 4 4 4 4 4 4
TYPE F F F F F F F F F F F F F
COUNT 1 1 1 1 1 1 1 1 1 1 1 1 1
WIDTH 569
HEIGHT 1
VIEWPOINT 0 0 0 1 0 0 0
POINTS 569
DATA ascii
0.18922 0.064922 1.2048 6.0849e-39 144 336 0 0 0 -0.58085 -0.1515 -0.79978 0.047279
0.24914 0.064922 1.2048 7.56e-39 201.5 336 0 0 0 0.62165 -0.23444 -0.74739 0.042069
0.25149 0.064985 1.206 7.1913e-39 203 336 0 0 0 0.63532 -0.20298 -0.74509 0.035741
0.18282 0.066866 1.206 7.9903e-39 314.33 336.33 0 0 0 -0.62516 -0.027805 -0.78 0.028519
0.18517 0.067101 1.206 7.4218e-39 275.5 336.5 0 0 0 -0.6018 -0.047111 -0.79725 0.031436
0.18724 0.067085 1.2057 7.7905e-39 277 336.5 0 0 0 -0.59299 -0.068572 -0.80229 0.035332
0.18922 0.067036 1.2048 7.8827e-39 278.5 336.5 0 0 0 -0.60287 -0.082537 -0.79356 0.038612
0.19063 0.067036 1.2048 7.4679e-39 279.5 336.5 0 0 0 -0.59428 -0.10028 -0.79798 0.043662
0.24843 0.067036 1.2048 6.2693e-39 328.5 336.5 0 0 0 0.6394 -0.16822 -0.75025 0.034747
0.25008 0.067101 1.206 5.4857e-39 329.5 336.5 0 0 0 0.64862 -0.14622 -0.74694 0.02989
0.18235 0.069218 1.206 8.3898e-39 408 337 0 0 0 -0.63823 0.045873 -0.76848 0.018984
0.18517 0.069218 1.206 8.8508e-39 410 337 0 0 0 -0.61996 0.0082253 -0.78459 0.024934
0.18729 0.069218 1.206 9.6805e-39 411.5 337 0 0 0 -0.60785 -0.013185 -0.79394 0.029271
0.18922 0.069151 1.2048 9.5883e-39 413 337 0 0 0 -0.60814 -0.028238 -0.79333 0.032159
0.19063 0.069151 1.2048 9.404e-39 414 337 0 0 0 -0.61151 -0.047253 -0.78983 0.036652
0.24843 0.069151 1.2048 6.6381e-39 455 337 0 0 0 0.66162 -0.11721 -0.74062 0.027989
0.25008 0.069218 1.206 5.9005e-39 456 337 0 0 0 0.66915 -0.087218 -0.73799 0.023124
0.18517 0.070629 1.206 7.0991e-39 161 338 0 0 0 -0.62796 0.044054 -0.77699 0.019501
0.18729 0.070629 1.206 6.6842e-39 162.5 338 0 0 0 -0.61434 0.034566 -0.78828 0.021741
0.18922 0.071266 1.2048 7.3757e-39 292 338 0 0 0 -0.61824 0.033067 -0.78529 0.022412
0.19063 0.071266 1.2048 7.3296e-39 293 338 0 0 0 -0.6241 0.018381 -0.78113 0.025197
0.24843 0.070561 1.2048 6.5459e-39 222 338 0 0 0 0.67369 -0.060754 -0.73651 0.020809
0.25008 0.070629 1.206 6.5459e-39 223 338 0 0 0 0.67943 -0.042613 -0.7325 0.017561
0.18724 0.072728 1.2057 7.3987e-39 291 338.5 0 0 0 -0.62598 0.076434 -0.77608 0.015722
0.18922 0.07338 1.2048 6.8225e-39 165 339 0 0 0 -0.63219 0.079574 -0.77072 0.016568
0.19063 0.07338 1.2048 6.6381e-39 166 339 0 0 0 -0.63493 0.071124 -0.76929 0.017817
0.24867 0.072746 1.206 5.5317e-39 349.5 338.5 0 0 0 0.68495 -0.0067815 -0.72856 0.015169
0.25008 0.072746 1.206 5.5779e-39 350.5 338.5 0 0 0 0.687 0.0079423 -0.72662 0.012664
0.18729 0.074862 1.206 8.6664e-39 418.5 339 0 0 0 -0.64077 0.12284 -0.75784 0.011381
0.18922 0.074789 1.2048 8.5742e-39 420 339 0 0 0 -0.64135 0.11118 -0.75915 0.01271
0.19063 0.074789 1.2048 8.2976e-39 421 339 0 0 0 -0.64291 0.095932 -0.75991 0.014069
0.24867 0.074862 1.206 7.2835e-39 462 339 0 0 0 0.69658 0.054292 -0.71542 0.0080841
0.25008 0.074862 1.206 8.3898e-39 463 339 0 0 0 0.69453 0.063244 -0.71668 0.0068895
0.18753 0.076743 1.206 7.8981e-39 247.67 340 0 0 0 -0.64455 0.14865 -0.74997 0.010029
0.18931 0.076942 1.2054 7.6061e-39 292 340 0 0 0 -0.64838 0.14311 -0.74774 0.0098493
0.19063 0.076904 1.2048 7.7905e-39 293 340 0 0 0 -0.64781 0.13511 -0.74972 0.0096988
0.24867 0.076979 1.206 7.7905e-39 341 340 0 0 0 0.70349 0.093701 -0.7045 0.0049333
0.188 0.079095 1.206 6.5459e-39 157 341 0 0 0 -0.65186 0.16495 -0.74018 0.0090525
0.18941 0.079095 1.206 6.2693e-39 158 341 0 0 0 -0.65247 0.15905 -0.74094 0.0088731
0.19063 0.079018 1.2048 6.2693e-39 159 341 0 0 0 -0.652 0.15133 -0.74297 0.0089077
0.19204 0.079018 1.2048 6.4537e-39 160 341 0 0 0 -0.65345 0.14708 -0.74254 0.0084987
0.24867 0.079095 1.206 7.3757e-39 210 341 0 0 0 0.70708 0.11582 -0.69758 0.0039307
0.18941 0.081211 1.206 7.8366e-39 279 341.5 0 0 0 -0.65787 0.17068 -0.73354 0.0083203
0.19072 0.081172 1.2054 7.5601e-39 280 341.5 0 0 0 -0.65543 0.1668 -0.73661 0.0079593
0.19204 0.081133 1.2048 7.514e-39 281 341.5 0 0 0 -0.65983 0.16236 -0.73367 0.0076084
0.24867 0.081211 1.206 7.8366e-39 323 341.5 0 0 0 0.70835 0.13563 -0.6927 0.0032527
0.18941 0.083328 1.206 1.0787e-38 394 342 0 0 0 -0.66576 0.17721 -0.72482 0.0080246
0.19082 0.083328 1.206 1.051e-38 395 342 0 0 0 -0.66123 0.17237 -0.73011 0.0074957
0.19204 0.083247 1.2048 9.5883e-39 396 342 0 0 0 -0.66265 0.16426 -0.73069 0.0069333
0.24702 0.083247 1.2048 9.2196e-39 435 342 0 0 0 0.71183 0.14926 -0.68631 0.0027832
0.18941 0.084739 1.206 7.6522e-39 507 342 0 0 0 -0.66874 0.1771 -0.72209 0.0074177
0.19063 0.084657 1.2048 7.6522e-39 508 342 0 0 0 -0.66534 0.16841 -0.7273 0.0068933
0.19204 0.084657 1.2048 7.8366e-39 509 342 0 0 0 -0.66698 0.16341 -0.72693 0.006363
0.24702 0.084657 1.2048 5.6239e-39 170 343 0 0 0 0.71328 0.15489 -0.68355 0.0026563
0.188 0.086856 1.206 7.5601e-39 361.5 343 0 0 0 -0.67809 0.18032 -0.71251 0.0073736
0.18941 0.086856 1.206 7.4679e-39 362.5 343 0 0 0 -0.67385 0.17776 -0.71716 0.00675
0.19063 0.086771 1.2048 7.8366e-39 363.5 343 0 0 0 -0.671 0.16964 -0.72179 0.0062208
0.19204 0.086771 1.2048 8.2054e-39 364.5 343 0 0 0 -0.67039 0.16845 -0.72264 0.0058609
0.24561 0.086771 1.2048 7.8366e-39 277.5 343.5 0 0 0 0.71644 0.16542 -0.67775 0.0022439
0.24726 0.086856 1.206 7.9288e-39 278.5 343.5 0 0 0 0.71312 0.16536 -0.68125 0.0022738
0.18941 0.088972 1.206 7.3757e-39 218 344 0 0 0 -0.67998 0.17953 -0.71091 0.0061476
0.19063 0.088886 1.2048 7.1913e-39 219 344 0 0 0 -0.6746 0.17472 -0.71721 0.0057115
0.19204 0.088886 1.2048 7.0991e-39 220 344 0 0 0 -0.67531 0.17297 -0.71696 0.0052309
0.24585 0.088972 1.206 8.6664e-39 387 344 0 0 0 0.71578 0.17331 -0.67648 0.0019875
0.19082 0.091089 1.206 7.9288e-39 327.5 344.5 0 0 0 -0.68203 0.17885 -0.70912 0.0056481
0.19284 0.091044 1.2054 8.1823e-39 329 344.5 0 0 0 -0.67753 0.17712 -0.71385 0.0050373
0.19486 0.091705 1.2048 6.9147e-39 198 345 0 0 0 -0.67006 0.17334 -0.72178 0.004582
0.19627 0.091705 1.2048 6.9147e-39 199 345 0 0 0 -0.66401 0.17476 -0.72701 0.00412
0.24585 0.091089 1.206 7.9288e-39 367 344.5 0 0 0 0.7157 0.18144 -0.67443 0.0019233
0.19082 0.093205 1.206 9.404e-39 439 345 0 0 0 -0.68229 0.17967 -0.70866 0.005415
0.19284 0.093159 1.2054 8.8969e-39 440.5 345 0 0 0 -0.67907 0.17843 -0.71206 0.0049834
0.24503 0.093159 1.2054 8.8047e-39 477.5 345 0 0 0 0.71671 0.18833 -0.67146 0.0020618
0.19082 0.094616 1.206 6.2693e-39 171 346 0 0 0 -0.6852 0.18094 -0.70552 0.0054517
0.19304 0.095025 1.2052 6.6688e-39 255 346 0 0 0 -0.67636 0.17925 -0.71443 0.0049991
0.19486 0.095934 1.2048 7.9288e-39 421 346 0 0 0 -0.66865 0.17999 -0.72147 0.0045809
0.24279 0.095934 1.2048 9.1274e-39 455 346 0 0 0 0.72307 0.19427 -0.66289 0.0024444
0.24475 0.095025 1.2052 7.6215e-39 292.33 346 0 0 0 0.7203 0.19097 -0.66686 0.0021496
0.19082 0.096027 1.206 8.1132e-39 418 346 0 0 0 -0.68566 0.18037 -0.70522 0.0055999
0.19264 0.096936 1.2056 7.1913e-39 243.33 346.67 0 0 0 -0.67993 0.183 -0.71007 0.0054249
0.19486 0.097343 1.2048 6.1771e-39 157 347 0 0 0 -0.66708 0.18425 -0.72184 0.0047617
0.24279 0.097343 1.2048 6.3615e-39 193 347 0 0 0 0.724 0.20114 -0.65983 0.0026263
0.24444 0.097438 1.206 7.0991e-39 194 347 0 0 0 0.72226 0.20639 -0.66011 0.0026935
0.19364 0.098849 1.206 8.2976e-39 408 347 0 0 0 -0.67745 0.18381 -0.71223 0.0056571
0.19486 0.098753 1.2048 9.1274e-39 409 347 0 0 0 -0.66933 0.18614 -0.71927 0.0050022
0.24302 0.098849 1.206 8.7586e-39 443 347 0 0 0 0.72398 0.21433 -0.65568 0.0031661
0.24444 0.098849 1.206 8.1132e-39 444 347 0 0 0 0.7229 0.21621 -0.65625 0.0031308
0.19364 0.10096 1.206 7.0991e-39 278 348 0 0 0 -0.67762 0.18715 -0.7112 0.0059358
0.19495 0.10091 1.2054 7.1913e-39 279 348 0 0 0 -0.66932 0.18718 -0.71901 0.0055079
0.19627 0.10087 1.2048 7.6061e-39 280 348 0 0 0 -0.65803 0.1869 -0.72943 0.0049458
0.2415 0.10091 1.2054 7.3757e-39 314.5 348 0 0 0 0.72826 0.21622 -0.6503 0.0031775
0.24302 0.10026 1.206 6.1771e-39 190 348 0 0 0 0.72613 0.21825 -0.65199 0.0032374
0.24444 0.10026 1.206 6.0849e-39 191 348 0 0 0 0.72554 0.21883 -0.65245 0.0032278
0.19364 0.10308 1.206 5.9927e-39 150 349 0 0 0 -0.67555 0.18847 -0.71282 0.006152
0.19505 0.10308 1.206 6.5459e-39 151 349 0 0 0 -0.67164 0.18652 -0.71702 0.0061591
0.19627 0.10298 1.2048 7.2835e-39 152 349 0 0 0 -0.65762 0.18781 -0.72956 0.0053297
0.24161 0.10308 1.206 6.4537e-39 186 349 0 0 0 0.73089 0.23128 -0.64211 0.0036037
0.19505 0.10449 1.206 7.7444e-39 403 349 0 0 0 -0.67139 0.18363 -0.71799 0.0063436
0.19627 0.10509 1.2048 7.0991e-39 276 349.5 0 0 0 -0.6548 0.18597 -0.73256 0.005979
0.19646 0.10732 1.206 7.2835e-39 399 350 0 0 0 -0.65949 0.1845 -0.72872 0.0065932
0.23997 0.10721 1.2048 7.8366e-39 430 350 0 0 0 0.73471 0.24717 -0.63175 0.0039999
0.19646 0.10873 1.206 5.9927e-39 141 351 0 0 0 -0.65792 0.18348 -0.73039 0.0068475
0.23997 0.10862 1.2048 6.7303e-39 172 351 0 0 0 0.73715 0.25268 -0.6267 0.0042666
0.19646 0.11084 1.206 7.053e-39 449 351 0 0 0 -0.65534 0.18354 -0.73269 0.0071538
0.19909 0.11144 1.2048 7.1913e-39 512 351 0 0 0 -0.61555 0.1897 -0.76493 0.0063084
0.23856 0.11144 1.2048 6.5459e-39 152 352 0 0 0 0.73534 0.26256 -0.62477 0.0050863
0.2402 0.11014 1.206 7.9288e-39 419 351 0 0 0 0.74146 0.25916 -0.61893 0.00435
0.19707 0.11291 1.2054 7.9288e-39 235.5 352 0 0 0 -0.642 0.18656 -0.74366 0.0076222
0.19909 0.11285 1.2048 7.6522e-39 237 352 0 0 0 -0.6132 0.19232 -0.76616 0.0065184
0.23856 0.11285 1.2048 8.6664e-39 394 352 0 0 0 0.73801 0.26639 -0.61998 0.0049851
0.19727 0.11477 1.2052 7.7751e-39 396 352.33 0 0 0 -0.63263 0.19135 -0.75044 0.0073519
0.19909 0.11497 1.2048 7.4678e-39 353 352.5 0 0 0 -0.60524 0.19645 -0.77142 0.0063018
0.23879 0.11437 1.206 6.7303e-39 522 352 0 0 0 0.74122 0.27321 -0.61314 0.0049591
0.19787 0.11719 1.206 7.4678e-39 473 353 0 0 0 -0.62601 0.19815 -0.75422 0.0078441
0.19928 0.11719 1.206 7.56e-39 474 353 0 0 0 -0.61401 0.20215 -0.76297 0.0072954
0.2005 0.11708 1.2048 8.2054e-39 475 353 0 0 0 -0.58822 0.20793 -0.78152 0.0063416
0.19787 0.1186 1.206 6.1771e-39 204 354 0 0 0 -0.62542 0.20273 -0.75349 0.0079292
0.19928 0.1186 1.206 6.0849e-39 205 354 0 0 0 -0.60861 0.20903 -0.76544 0.0071236
0.20097 0.11943 1.2048 7.3142e-39 371.67 354 0 0 0 -0.57927 0.21805 -0.78543 0.0065562
0.23715 0.11919 1.2048 7.6983e-39 357 354 0 0 0 0.7247 0.29152 -0.62437 0.0062708
0.19787 0.12001 1.206 8.6664e-39 452 354 0 0 0 -0.61879 0.21159 -0.75653 0.0074806
0.19928 0.12072 1.206 8.021e-39 317.5 354.5 0 0 0 -0.60292 0.21765 -0.76754 0.0075328
0.2013 0.12137 1.2054 7.3757e-39 183.5 355 0 0 0 -0.57686 0.22672 -0.78474 0.007074
0.20332 0.12131 1.2048 6.9147e-39 185 355 0 0 0 -0.55006 0.23245 -0.80213 0.0054148
0.23738 0.12143 1.206 6.6381e-39 209 355 0 0 0 0.7278 0.2968 -0.61824 0.0056909
0.19928 0.12284 1.206 8.1132e-39 425 355 0 0 0 -0.59762 0.22857 -0.76851 0.0077993
0.2013 0.12278 1.2054 8.6664e-39 426.5 355 0 0 0 -0.5738 0.23336 -0.78504 0.0070203
0.20332 0.12272 1.2048 9.2196e-39 428 355 0 0 0 -0.54642 0.23739 -0.80316 0.0056798
0.2013 0.12419 1.2054 6.131e-39 154.5 356 0 0 0 -0.5714 0.23935 -0.78499 0.0069111
0.20292 0.12511 1.2052 7.9596e-39 316.33 356 0 0 0 -0.5471 0.25225 -0.79816 0.0061133
0.23586 0.1249 1.2054 7.0991e-39 299.5 356 0 0 0 0.70305 0.30604 -0.64192 0.011173
0.20281 0.12707 1.206 6.8225e-39 511.5 356 0 0 0 -0.55173 0.25648 -0.79361 0.0066913
0.20755 0.12695 1.2048 6.4537e-39 515 356 0 0 0 -0.47488 0.28053 -0.83414 0.0063142
0.20352 0.12918 1.206 7.2374e-39 352 357 0 0 0 -0.53626 0.26281 -0.80209 0.0068775
0.20473 0.12905 1.2048 6.8685e-39 353 357 0 0 0 -0.50681 0.26996 -0.8187 0.0066863
0.20685 0.12905 1.2048 6.7764e-39 354.5 357 0 0 0 -0.47589 0.27629 -0.83498 0.0070238
0.23456 0.12989 1.206 7.6522e-39 493 357 0 0 0 0.65012 0.30387 -0.69642 0.021769
0.20493 0.1313 1.206 7.0069e-39 189 358 0 0 0 -0.50421 0.27138 -0.81983 0.0073752
0.20685 0.13117 1.2048 6.592e-39 190.5 358 0 0 0 -0.46502 0.2822 -0.83912 0.0078868
0.2301 0.13117 1.2048 6.2693e-39 207 358 0 0 0 0.49178 0.33441 -0.80394 0.040329
0.20493 0.13271 1.206 8.1132e-39 423 358 0 0 0 -0.50224 0.27436 -0.82005 0.0081973
0.20704 0.13271 1.206 8.2976e-39 424.5 358 0 0 0 -0.4668 0.28043 -0.83873 0.0087807
0.20896 0.13329 1.2048 7.7444e-39 287 358.5 0 0 0 -0.41316 0.2877 -0.86402 0.014143
0.22869 0.13399 1.2048 6.1771e-39 162 359 0 0 0 0.41054 0.32722 -0.85111 0.045923
0.23081 0.13329 1.2048 8.3438e-39 304 358.5 0 0 0 0.50741 0.31689 -0.80132 0.04014
0.23292 0.13258 1.2048 9.6805e-39 446 358 0 0 0 0.59169 0.30961 -0.74434 0.029887
0.20493 0.13412 1.206 7.1913e-39 145 359 0 0 0 -0.50081 0.27044 -0.82222 0.0087854
0.20704 0.13483 1.206 7.1682e-39 199 359 0 0 0 -0.46266 0.27856 -0.84164 0.010773
0.20916 0.13554 1.206 7.2835e-39 253 359 0 0 0 -0.40958 0.28447 -0.86679 0.0179
0.22891 0.13554 1.206 9.0352e-39 395 359 0 0 0 0.42795 0.30752 -0.84988 0.045654
0.2308 0.13507 1.206 8.7278e-39 318.67 359 0 0 0 0.52235 0.29783 -0.79903 0.039791
0.20916 0.13695 1.206 8.1132e-39 495 359 0 0 0 -0.40429 0.28118 -0.87034 0.019196
0.22891 0.13695 1.206 7.3757e-39 510 359 0 0 0 0.42287 0.29431 -0.85707 0.045736
0.20916 0.13906 1.206 8.2515e-39 331 360 0 0 0 -0.40906 0.27464 -0.8702 0.019003
0.21178 0.13963 1.2048 8.7586e-39 452 360 0 0 0 -0.31645 0.26528 -0.91076 0.026175
0.21318 0.13963 1.2048 8.2976e-39 453 360 0 0 0 -0.27566 0.26862 -0.92296 0.029596
0.22728 0.13963 1.2048 8.2054e-39 463 360 0 0 0 0.33344 0.26885 -0.90362 0.043291
0.22891 0.13906 1.206 7.514e-39 345 360 0 0 0 0.41713 0.26774 -0.86852 0.044216
0.20916 0.14118 1.206 6.3615e-39 157 361 0 0 0 -0.41627 0.26292 -0.8704 0.019908
0.21108 0.14104 1.2048 7.0991e-39 158.5 361 0 0 0 -0.34274 0.26549 -0.90114 0.02365
0.21318 0.14104 1.2048 6.6381e-39 160 361 0 0 0 -0.26819 0.26652 -0.92577 0.030018
0.22587 0.14104 1.2048 6.2693e-39 169 361 0 0 0 0.27696 0.25741 -0.92576 0.044561
0.22728 0.14104 1.2048 6.5459e-39 170 361 0 0 0 0.33109 0.25486 -0.90853 0.042362
0.22891 0.14118 1.206 6.4537e-39 171 361 0 0 0 0.42382 0.25428 -0.86932 0.040622
0.21108 0.14315 1.2048 8.505e-39 364.5 361 0 0 0 -0.34864 0.23879 -0.90633 0.024302
0.21328 0.14322 1.2054 8.5742e-39 366 361 0 0 0 -0.26982 0.246 -0.93096 0.031219
0.21459 0.14386 1.2048 9.6805e-39 480 361 0 0 0 -0.22526 0.24121 -0.94397 0.029768
0.21647 0.14339 1.2048 8.4513e-39 406 361 0 0 0 -0.1337 0.2406 -0.96137 0.036258
0.21882 0.14316 1.2048 7.7444e-39 370 361 0 0 0 -0.029694 0.23592 -0.97132 0.037198
0.22164 0.14316 1.2048 8.0671e-39 436.5 361 0 0 0 0.071617 0.24516 -0.96683 0.03871
0.22305 0.14386 1.2048 8.482e-39 486 361 0 0 0 0.13724 0.23441 -0.9624 0.037561
0.22446 0.14316 1.2048 8.021e-39 438.5 361 0 0 0 0.20991 0.24069 -0.94763 0.038093
0.2268 0.14329 1.206 8.4359e-39 440 361 0 0 0 0.33425 0.23009 -0.91397 0.040781
0.21108 0.14527 1.2048 5.4395e-39 178.5 362 0 0 0 -0.36277 0.22488 -0.90434 0.02436
0.21339 0.14541 1.206 5.9005e-39 180 362 0 0 0 -0.27093 0.22933 -0.93488 0.031712
0.21459 0.14527 1.2048 6.5459e-39 181 362 0 0 0 -0.21429 0.22944 -0.94944 0.029519
0.2167 0.14527 1.2048 6.1771e-39 182.5 362 0 0 0 -0.11291 0.23689 -0.96495 0.034379
0.21882 0.14527 1.2048 5.9927e-39 184 362 0 0 0 -0.047495 0.23731 -0.97027 0.033219
0.22164 0.14527 1.2048 7.2835e-39 186 362 0 0 0 0.079379 0.23356 -0.9691 0.037462
0.22305 0.14527 1.2048 7.1913e-39 187 362 0 0 0 0.12455 0.22401 -0.9666 0.034841
0.22446 0.14527 1.2048 6.5459e-39 188 362 0 0 0 0.2111 0.22281 -0.95173 0.037599
0.2268 0.14541 1.206 5.9927e-39 189.5 362 0 0 0 0.34681 0.21996 -0.91178 0.038269
0.21127 0.14682 1.206 8.7586e-39 396.5 362 0 0 0 -0.35834 0.21871 -0.90761 0.027774
0.21339 0.14682 1.206 9.404e-39 398 362 0 0 0 -0.27141 0.22308 -0.93625 0.032949
0.21459 0.14668 1.2048 9.7727e-39 399 362 0 0 0 -0.21458 0.22086 -0.95141 0.030987
0.2167 0.14668 1.2048 9.45e-39 400.5 362 0 0 0 -0.13049 0.22872 -0.96471 0.03414
0.21882 0.14668 1.2048 8.6664e-39 402 362 0 0 0 -0.045745 0.2266 -0.97291 0.034443
0.22094 0.14668 1.2048 8.6203e-39 403.5 362 0 0 0 0.062248 0.22142 -0.97319 0.038091
0.22305 0.14668 1.2048 9.404e-39 405 362 0 0 0 0.13142 0.22084 -0.96642 0.033636
0.22446 0.14668 1.2048 1.0049e-38 406 362 0 0 0 0.20914 0.21447 -0.95408 0.035484
0.2268 0.14682 1.206 8.9891e-39 407.5 362 0 0 0 0.32666 0.21396 -0.92061 0.036502
0.21127 0.14894 1.206 7.2604e-39 332.5 362.5 0 0 0 -0.37068 0.21091 -0.9045 0.029531
0.21339 0.14894 1.206 7.514e-39 334 362.5 0 0 0 -0.2667 0.21287 -0.93998 0.033419
0.21459 0.1488 1.2048 7.514e-39 335 362.5 0 0 0 -0.21523 0.20943 -0.95384 0.030721
0.2167 0.1488 1.2048 7.6983e-39 336.5 362.5 0 0 0 -0.12139 0.20912 -0.97033 0.034319
0.21882 0.1488 1.2048 8.0671e-39 338 362.5 0 0 0 -0.034938 0.20941 -0.9772 0.035421
0.22094 0.1488 1.2048 8.1824e-39 339.5 362.5 0 0 0 0.052486 0.2114 -0.97599 0.035136
0.22305 0.1488 1.2048 7.5601e-39 341 362.5 0 0 0 0.12166 0.2063 -0.9709 0.034135
0.22468 0.14894 1.206 7.3296e-39 342 362.5 0 0 0 0.22947 0.19866 -0.95283 0.03514
0.2268 0.14823 1.206 7.9749e-39 496.5 362 0 0 0 0.33702 0.2046 -0.91899 0.035426
0.21127 0.15106 1.206 8.2976e-39 396.5 363 0 0 0 -0.36904 0.20359 -0.90684 0.030976
0.21339 0.15106 1.206 9.0352e-39 398 363 0 0 0 -0.27053 0.19976 -0.94176 0.034225
0.21459 0.15091 1.2048 9.2196e-39 399 363 0 0 0 -0.21558 0.19799 -0.9562 0.031678
0.2167 0.15091 1.2048 8.7586e-39 400.5 363 0 0 0 -0.12386 0.19955 -0.97203 0.034315
0.21882 0.15091 1.2048 8.3898e-39 402 363 0 0 0 -0.032049 0.20374 -0.9785 0.035703
0.22094 0.15091 1.2048 8.482e-39 403.5 363 0 0 0 0.047772 0.20185 -0.97825 0.03281
0.22327 0.15106 1.206 9.4961e-39 405 363 0 0 0 0.15611 0.19209 -0.96888 0.03576
0.22468 0.15106 1.206 1.0049e-38 406 363 0 0 0 0.22133 0.19093 -0.95633 0.034359
0.21127 0.15317 1.206 7.8827e-39 320.5 363.5 0 0 0 -0.37064 0.19479 -0.90812 0.031334
0.21339 0.15317 1.206 7.9288e-39 322 363.5 0 0 0 -0.26671 0.19075 -0.94471 0.03522
0.2148 0.15317 1.206 7.7444e-39 323 363.5 0 0 0 -0.23034 0.18869 -0.95464 0.035187
0.21681 0.1531 1.2054 7.4448e-39 324.5 363.5 0 0 0 -0.12756 0.19427 -0.97262 0.036268
0.21893 0.1531 1.2054 7.4679e-39 326 363.5 0 0 0 -0.030266 0.19567 -0.9802 0.037709
0.22099 0.15306 1.2051 7.8136e-39 327.5 363.5 0 0 0 0.062215 0.1928 -0.97926 0.033117
0.22327 0.15317 1.206 7.4679e-39 329 363.5 0 0 0 0.14875 0.18903 -0.97064 0.034951
0.22468 0.15317 1.206 7.2835e-39 330 363.5 0 0 0 0.22137 0.18995 -0.95651 0.034811
0.2148 0.15529 1.206 7.2835e-39 239 364 0 0 0 -0.21389 0.19048 -0.95811 0.036417
0.21681 0.15521 1.2054 6.6842e-39 240.5 364 0 0 0 -0.12189 0.19457 -0.97329 0.035497
0.21904 0.15529 1.206 6.4537e-39 242 364 0 0 0 -0.022511 0.19289 -0.98096 0.038971
0.22116 0.15529 1.206 6.3154e-39 243.5 364 0 0 0 0.061787 0.19919 -0.97801 0.03744
0.22327 0.15529 1.206 6.1771e-39 245 364 0 0 0 0.1386 0.19163 -0.97163 0.034792
0.22468 0.15529 1.206 6.0849e-39 246 364 0 0 0 0.2318 0.19261 -0.9535 0.035505
0.21692 0.1567 1.206 7.9749e-39 441.5 364 0 0 0 -0.10381 0.19333 -0.97563 0.037868
0.21904 0.1567 1.206 8.482e-39 443 364 0 0 0 -0.026791 0.19497 -0.98044 0.039604
0.22116 0.1567 1.206 8.5281e-39 444.5 364 0 0 0 0.069209 0.19293 -0.97877 0.038129
0.22327 0.1567 1.206 8.021e-39 446 364 0 0 0 0.15336 0.19525 -0.96869 0.035633
0.21692 0.15881 1.206 7.5831e-39 333.5 364.5 0 0 0 -0.1209 0.20625 -0.971 0.037857
0.21904 0.15811 1.206 7.7444e-39 503 364 0 0 0 -0.039943 0.19988 -0.97901 0.038347
0.22139 0.15858 1.206 7.3756e-39 392.67 364.33 0 0 0 0.083047 0.20977 -0.97422 0.038725
0.21763 0.16093 1.206 7.9288e-39 212 365 0 0 0 -0.094766 0.21395 -0.97224 0.042982
0.22186 0.16093 1.206 6.4537e-39 215 365 0 0 0 0.10652 0.2222 -0.96916 0.044334
0.22914 0.05375 1.2072 9.404e-39 424 331 0 0 0 0.11421 -0.91005 -0.39845 0.010357
0.23196 0.05375 1.2072 6.5459e-39 426 331 0 0 0 0.14371 -0.88879 -0.43521 0.014368
0.19383 0.055162 1.2072 7.0991e-39 189 332 0 0 0 -0.29156 -0.73329 -0.61423 0.064347
0.19665 0.055162 1.2072 7.0069e-39 191 332 0 0 0 -0.2697 -0.77519 -0.57126 0.061813
0.24185 0.055162 1.2072 6.0849e-39 223 332 0 0 0 0.31512 -0.74619 -0.58643 0.042958
0.24326 0.055162 1.2072 6.1771e-39 224 332 0 0 0 0.33298 -0.7291 -0.59794 0.044849
0.24467 0.055162 1.2072 6.3615e-39 225 332 0 0 0 0.3396 -0.71699 -0.60876 0.045917
0.24679 0.055162 1.2072 6.4076e-39 226.5 332 0 0 0 0.3754 -0.67208 -0.63827 0.050397
0.24891 0.055162 1.2072 6.0849e-39 228 332 0 0 0 0.39542 -0.63727 -0.66146 0.054331
0.25032 0.055162 1.2072 6.2693e-39 229 332 0 0 0 0.43392 -0.5907 -0.68029 0.055231
0.18112 0.057987 1.2072 5.8083e-39 204 333 0 0 0 -0.53497 -0.35455 -0.76688 0.048026
0.18347 0.057516 1.2072 7.5907e-39 275.33 332.67 0 0 0 -0.50622 -0.41084 -0.75825 0.05412
0.18535 0.056575 1.2072 1.0418e-38 416 332 0 0 0 -0.45437 -0.49617 -0.73984 0.057074
0.18677 0.056575 1.2072 1.0049e-38 417 332 0 0 0 -0.43354 -0.52794 -0.73029 0.058712
0.18889 0.056575 1.2072 9.3579e-39 418.5 332 0 0 0 -0.393 -0.58154 -0.71229 0.062813
0.191 0.056575 1.2072 8.8508e-39 420 332 0 0 0 -0.35193 -0.64031 -0.68275 0.066849
0.25103 0.057281 1.2072 8.1132e-39 379 332.5 0 0 0 0.48524 -0.51451 -0.70698 0.059221
0.18112 0.059399 1.2072 7.2835e-39 439 333 0 0 0 -0.56501 -0.2886 -0.77297 0.045422
0.18253 0.059399 1.2072 8.7586e-39 440 333 0 0 0 -0.55756 -0.31157 -0.76945 0.048407
0.25174 0.059399 1.2072 5.9927e-39 148 334 0 0 0 0.54896 -0.4154 -0.72531 0.05606
0.18112 0.060812 1.2072 7.2835e-39 226 334 0 0 0 -0.5835 -0.2263 -0.77995 0.044295
0.25174 0.060812 1.2072 8.7586e-39 401 334 0 0 0 0.5766 -0.3544 -0.73616 0.051232
0.18112 0.062931 1.2072 8.8047e-39 373 334.5 0 0 0 -0.61164 -0.14666 -0.77743 0.036755
0.25174 0.062931 1.2072 8.8971e-39 297.5 335 0 0 0 0.61224 -0.25443 -0.74862 0.040963
0.18112 0.065049 1.2072 6.4537e-39 138 336 0 0 0 -0.62576 -0.075304 -0.77637 0.032424
0.18112 0.067167 1.2072 8.1135e-39 272.5 336.5 0 0 0 -0.63767 -0.015217 -0.77016 0.026345
0.18394 0.067874 1.2072 6.1771e-39 153 337 0 0 0 -0.62573 -0.017551 -0.77984 0.027657
0.25174 0.067167 1.2072 5.1629e-39 330.5 336.5 0 0 0 0.66165 -0.12434 -0.73943 0.025512
0.18394 0.069286 1.2072 8.3898e-39 409 337 0 0 0 -0.63469 0.021511 -0.77247 0.022751
0.25174 0.069286 1.2072 6.4537e-39 457 337 0 0 0 0.67448 -0.067423 -0.73521 0.018588
0.18323 0.070698 1.2072 6.4076e-39 159.5 338 0 0 0 -0.64582 0.061657 -0.761 0.018149
0.25174 0.070698 1.2072 6.9147e-39 224 338 0 0 0 0.68333 -0.026446 -0.72963 0.014585
0.18323 0.072817 1.2072 7.5601e-39 288 338.5 0 0 0 -0.64976 0.10684 -0.75259 0.013211
0.18535 0.072817 1.2072 7.6061e-39 289.5 338.5 0 0 0 -0.64351 0.097881 -0.75915 0.013911
0.25174 0.072817 1.2072 6.1771e-39 351.5 338.5 0 0 0 0.69192 0.02722 -0.72146 0.0091839
0.18253 0.074936 1.2072 8.2976e-39 415 339 0 0 0 -0.66291 0.14799 -0.73393 0.010753
0.18535 0.074936 1.2072 8.3898e-39 417 339 0 0 0 -0.64864 0.13623 -0.74881 0.011236
0.25174 0.074936 1.2072 5.6239e-39 474 339 0 0 0 0.69903 0.073552 -0.7113 0.0048587
0.18535 0.076348 1.2072 6.6381e-39 160 340 0 0 0 -0.65474 0.15799 -0.73916 0.010087
0.18677 0.07776 1.2072 9.6805e-39 419 340 0 0 0 -0.65267 0.16494 -0.73947 0.0098119
0.25103 0.077054 1.2072 7.3065e-39 342.5 340 0 0 0 0.69726 0.10253 -0.70945 0.0039657
0.18677 0.079173 1.2072 7.1913e-39 156 341 0 0 0 -0.656 0.17386 -0.73447 0.009511
0.25103 0.079173 1.2072 7.1913e-39 211.5 341 0 0 0 0.70008 0.12275 -0.70344 0.0032443
0.18677 0.081291 1.2072 8.1132e-39 277 341.5 0 0 0 -0.66602 0.18451 -0.72275 0.0092942
0.18818 0.081291 1.2072 7.8827e-39 278 341.5 0 0 0 -0.66275 0.17803 -0.72738 0.009016
0.25032 0.081291 1.2072 7.8366e-39 324 341.5 0 0 0 0.7038 0.14052 -0.69636 0.0029094
0.18677 0.08341 1.2072 9.4961e-39 392 342 0 0 0 -0.67276 0.18828 -0.71551 0.0088868
0.18818 0.08341 1.2072 1.0418e-38 393 342 0 0 0 -0.67076 0.18226 -0.71893 0.008752
0.24891 0.08341 1.2072 9.4961e-39 436 342 0 0 0 0.70789 0.15241 -0.68968 0.0027362
0.18677 0.084822 1.2072 7.9288e-39 505 342 0 0 0 -0.6773 0.18653 -0.71166 0.0084039
0.18818 0.084822 1.2072 7.7444e-39 506 342 0 0 0 -0.6747 0.18315 -0.71501 0.0081903
0.24891 0.084822 1.2072 5.6239e-39 171 343 0 0 0 0.70865 0.1602 -0.68713 0.0025211
0.18818 0.089059 1.2072 7.4678e-39 217 344 0 0 0 -0.68625 0.18403 -0.7037 0.0067535
0.2475 0.089059 1.2072 8.943e-39 388 344 0 0 0 0.71275 0.17496 -0.67925 0.0019912
0.18889 0.091178 1.2072 8.0671e-39 326 344.5 0 0 0 -0.68511 0.18346 -0.70496 0.0061985
0.2475 0.090472 1.2072 8.1132e-39 501 344 0 0 0 0.71239 0.18212 -0.67774 0.0019704
0.191 0.097534 1.2072 6.0849e-39 154 347 0 0 0 -0.69013 0.18383 -0.69995 0.0059232
0.24609 0.096827 1.2072 8.2054e-39 326 346.5 0 0 0 0.7198 0.20688 -0.66263 0.0025673
0.191 0.098946 1.2072 8.2976e-39 406 347 0 0 0 -0.69074 0.18459 -0.69915 0.0061638
0.19242 0.098946 1.2072 8.021e-39 407 347 0 0 0 -0.6863 0.1845 -0.70353 0.0060204
0.24609 0.098946 1.2072 7.9288e-39 445 347 0 0 0 0.72069 0.22018 -0.65736 0.0029295
0.191 0.10106 1.2072 7.4218e-39 276 348 0 0 0 -0.69043 0.1859 -0.69911 0.0062834
0.19242 0.10106 1.2072 7.3296e-39 277 348 0 0 0 -0.68408 0.18552 -0.70542 0.0061613
0.24326 0.10177 1.2072 8.7586e-39 441 348 0 0 0 0.72641 0.22997 -0.64764 0.003625
0.24467 0.10177 1.2072 9.1274e-39 442 348 0 0 0 0.72647 0.23101 -0.64721 0.0035638
0.24326 0.10318 1.2072 7.0069e-39 187 349 0 0 0 0.73173 0.23727 -0.63896 0.0039532
0.24467 0.10318 1.2072 7.2835e-39 188 349 0 0 0 0.72765 0.24171 -0.64195 0.0038558
0.19383 0.1046 1.2072 8.2976e-39 402 349 0 0 0 -0.68256 0.18604 -0.70675 0.0066119
0.24185 0.1046 1.2072 9.404e-39 436 349 0 0 0 0.73285 0.24399 -0.63514 0.0040896
0.24326 0.1046 1.2072 9.1274e-39 437 349 0 0 0 0.73267 0.24347 -0.63555 0.0041311
0.19383 0.10671 1.2072 6.9608e-39 271.5 350 0 0 0 -0.68272 0.18469 -0.70695 0.0068467
0.19524 0.10671 1.2072 6.9608e-39 272.5 350 0 0 0 -0.6755 0.18483 -0.71382 0.0066322
0.19383 0.10883 1.2072 6.0849e-39 139 351 0 0 0 -0.68299 0.18123 -0.70758 0.0069326
0.19524 0.10883 1.2072 5.9927e-39 140 351 0 0 0 -0.67214 0.18112 -0.71793 0.0068292
0.19383 0.11024 1.2072 7.6522e-39 257 351 0 0 0 -0.68421 0.17846 -0.70712 0.0067468
0.19524 0.11095 1.2072 7.6522e-39 383.5 351 0 0 0 -0.67232 0.17952 -0.71817 0.0070445
0.24044 0.11166 1.2072 6.3615e-39 153 352 0 0 0 0.74007 0.27053 -0.61572 0.0046859
0.19524 0.11307 1.2072 7.4678e-39 234 352 0 0 0 -0.67021 0.18437 -0.71891 0.0075444
0.24044 0.11307 1.2072 8.5742e-39 395 352 0 0 0 0.74346 0.27425 -0.60996 0.004638
0.19524 0.11519 1.2072 7.9749e-39 350 352.5 0 0 0 -0.6683 0.18714 -0.71997 0.007611
0.19665 0.11589 1.2072 7.3757e-39 218 353 0 0 0 -0.65874 0.18897 -0.72825 0.0077054
0.23902 0.11589 1.2072 6.5459e-39 248 353 0 0 0 0.74419 0.27744 -0.60763 0.0049186
0.19524 0.11731 1.2072 8.6664e-39 469 353 0 0 0 -0.66754 0.19078 -0.71972 0.0075619
0.19665 0.11731 1.2072 8.1132e-39 470 353 0 0 0 -0.65688 0.19346 -0.72875 0.0077419
0.19524 0.11872 1.2072 6.9147e-39 202 354 0 0 0 -0.66388 0.19407 -0.72222 0.0077003
0.19665 0.11872 1.2072 6.3615e-39 203 354 0 0 0 -0.65309 0.1995 -0.73053 0.0079931
0.19665 0.12084 1.2072 6.9146e-39 315.5 354.5 0 0 0 -0.6456 0.20779 -0.73486 0.008018
0.19807 0.12154 1.2072 6.3615e-39 181 355 0 0 0 -0.62537 0.21792 -0.74928 0.0080419
0.19665 0.12296 1.2072 8.021e-39 423 355 0 0 0 -0.63756 0.21786 -0.73896 0.0079127
0.19807 0.12296 1.2072 8.1132e-39 424 355 0 0 0 -0.61966 0.22489 -0.75196 0.0081128
0.23761 0.12296 1.2072 9.0352e-39 453 355 0 0 0 0.73196 0.29512 -0.61412 0.0050711
0.19877 0.12507 1.2072 7.5601e-39 273 356 0 0 0 -0.60398 0.23546 -0.76143 0.0079896
0.20089 0.12578 1.2072 8.943e-39 395 356 0 0 0 -0.58226 0.2454 -0.77508 0.0077537
0.19948 0.12719 1.2072 6.7303e-39 509 356 0 0 0 -0.58947 0.24821 -0.76871 0.0077875
0.20089 0.12719 1.2072 6.8225e-39 510 356 0 0 0 -0.57652 0.25194 -0.77727 0.0075179
0.2362 0.12719 1.2072 5.9005e-39 146 357 0 0 0 0.71886 0.29114 -0.63125 0.0083148
0.19948 0.12861 1.2072 6.8225e-39 230 357 0 0 0 -0.58559 0.25238 -0.77031 0.0078084
0.20089 0.12861 1.2072 6.5459e-39 231 357 0 0 0 -0.57417 0.25395 -0.77836 0.0074952
0.2023 0.12861 1.2072 6.3615e-39 232 357 0 0 0 -0.55858 0.25534 -0.78917 0.0071741
0.20089 0.13002 1.2072 8.8508e-39 469 357 0 0 0 -0.5689 0.25778 -0.78096 0.007473
0.20277 0.13096 1.2072 7.3449e-39 281.67 357.67 0 0 0 -0.54964 0.26294 -0.79294 0.007365
0.23479 0.13143 1.2072 7.2835e-39 210 358 0 0 0 0.66438 0.29018 -0.68877 0.020325
0.20372 0.13284 1.2072 8.021e-39 422 358 0 0 0 -0.53235 0.27124 -0.80189 0.0081385
0.20372 0.13426 1.2072 6.4537e-39 144 359 0 0 0 -0.53262 0.26895 -0.80249 0.0086944
0.20513 0.13567 1.2072 7.4678e-39 250 359 0 0 0 -0.50375 0.27145 -0.82009 0.0099691
0.23337 0.13426 1.2072 6.8225e-39 165 359 0 0 0 0.62804 0.27863 -0.72659 0.027403
0.20513 0.13708 1.2072 8.5742e-39 492 359 0 0 0 -0.50189 0.27421 -0.82031 0.011032
0.20724 0.13708 1.2072 8.482e-39 493.5 359 0 0 0 -0.46672 0.27902 -0.83924 0.012282
0.23125 0.13708 1.2072 7.3757e-39 511.5 359 0 0 0 0.5474 0.26664 -0.79326 0.038617
0.20513 0.13849 1.2072 6.0849e-39 209 360 0 0 0 -0.50186 0.26881 -0.82212 0.011744
0.20724 0.13919 1.2072 7.7444e-39 329.5 360 0 0 0 -0.47083 0.26932 -0.84011 0.013537
0.23125 0.13919 1.2072 7.8136e-39 346.5 360 0 0 0 0.53634 0.23843 -0.80963 0.037473
0.20724 0.14132 1.2072 6.2693e-39 155.5 361 0 0 0 -0.47077 0.26022 -0.84301 0.015461
0.23055 0.14132 1.2072 6.2693e-39 172 361 0 0 0 0.48383 0.23609 -0.84272 0.035923
0.20795 0.14273 1.2072 6.9147e-39 249 361 0 0 0 -0.45696 0.25384 -0.8525 0.01884
0.20936 0.14273 1.2072 7.2835e-39 250 361 0 0 0 -0.41762 0.2498 -0.87361 0.022208
0.22914 0.14273 1.2072 9.2196e-39 393 361 0 0 0 0.44155 0.22773 -0.86786 0.037724
0.20795 0.14485 1.2072 7.4218e-39 325.5 361.5 0 0 0 -0.46576 0.24042 -0.85162 0.019527
0.20936 0.14485 1.2072 7.4679e-39 326.5 361.5 0 0 0 -0.42314 0.23746 -0.87439 0.023889
0.22914 0.14485 1.2072 7.6061e-39 340.5 361.5 0 0 0 0.44925 0.21361 -0.86749 0.035095
0.20936 0.14697 1.2072 8.5742e-39 395 362 0 0 0 -0.43849 0.22753 -0.86946 0.024285
0.22914 0.14697 1.2072 8.3898e-39 409 362 0 0 0 0.4521 0.20266 -0.86864 0.033137
0.20936 0.14838 1.2072 8.482e-39 484 362 0 0 0 -0.44354 0.2148 -0.87013 0.024825
0.22702 0.14979 1.2072 6.0388e-39 190.5 363 0 0 0 0.36299 0.19336 -0.91151 0.034287
0.22914 0.14909 1.2072 6.8224e-39 345 362.5 0 0 0 0.44703 0.18938 -0.87424 0.031262
0.20936 0.1512 1.2072 8.2976e-39 395 363 0 0 0 -0.44783 0.19802 -0.87192 0.025903
0.22702 0.1512 1.2072 8.8047e-39 407.5 363 0 0 0 0.36736 0.192 -0.91005 0.033715
0.20936 0.15262 1.2072 8.7586e-39 476 363 0 0 0 -0.45288 0.19223 -0.8706 0.026411
0.22702 0.15262 1.2072 8.7125e-39 488.5 363 0 0 0 0.37728 0.18407 -0.90762 0.033078
0.21078 0.15544 1.2072 7.1913e-39 236 364 0 0 0 -0.40709 0.18459 -0.89454 0.032487
0.2129 0.15544 1.2072 7.514e-39 237.5 364 0 0 0 -0.31267 0.18573 -0.93153 0.03463
0.22631 0.15403 1.2072 6.0849e-39 174 364 0 0 0 0.33005 0.19246 -0.92413 0.033844
0.21078 0.15685 1.2072 9.0352e-39 437 364 0 0 0 -0.40386 0.18288 -0.89635 0.033496
0.2129 0.15685 1.2072 8.2054e-39 438.5 364 0 0 0 -0.3077 0.18793 -0.93274 0.03527
0.21501 0.15685 1.2072 8.021e-39 440 364 0 0 0 -0.23794 0.18936 -0.95264 0.039955
0.2249 0.15685 1.2072 7.8366e-39 447 364 0 0 0 0.26021 0.2053 -0.94347 0.037596
0.21078 0.15898 1.2072 7.6983e-39 329 364.5 0 0 0 -0.41205 0.19049 -0.89103 0.033442
0.21289 0.15898 1.2072 7.7444e-39 330.5 364.5 0 0 0 -0.30772 0.19884 -0.93047 0.036819
0.21501 0.15898 1.2072 7.9288e-39 332 364.5 0 0 0 -0.22372 0.20285 -0.95331 0.042008
0.21925 0.15968 1.2072 6.6381e-39 167 365 0 0 0 -0.023305 0.22623 -0.97379 0.044331
0.22066 0.15968 1.2072 6.5459e-39 168 365 0 0 0 0.069447 0.21831 -0.97341 0.044002
0.22349 0.15898 1.2072 7.56e-39 338 364.5 0 0 0 0.18378 0.21984 -0.95807 0.038931
0.2249 0.15827 1.2072 7.7444e-39 507 364 0 0 0 0.26584 0.21707 -0.93926 0.037125
0.21219 0.16109 1.2072 5.9005e-39 208 365 0 0 0 -0.33219 0.21321 -0.9188 0.040256
0.21643 0.16109 1.2072 6.7303e-39 211 365 0 0 0 -0.15539 0.22498 -0.96189 0.04414
0.21925 0.16109 1.2072 8.2054e-39 213 365 0 0 0 -0.024712 0.22916 -0.97307 0.045273
0.22066 0.16109 1.2072 7.4678e-39 214 365 0 0 0 0.062311 0.23482 -0.97004 0.048896
0.22349 0.16109 1.2072 5.9927e-39 216 365 0 0 0 0.19399 0.24113 -0.95091 0.040919
0.2129 0.1625 1.2072 6.0849e-39 246.5 365 0 0 0 -0.30492 0.22492 -0.92544 0.044506
0.21713 0.16321 1.2072 7.1452e-39 331 365 0 0 0 -0.12338 0.24479 -0.96169 0.048404
0.21925 0.16321 1.2072 6.9608e-39 332.5 365 0 0 0 -0.0034111 0.25758 -0.96625 0.051729
0.22066 0.16321 1.2072 6.9608e-39 333.5 365 0 0 0 0.048788 0.26892 -0.96193 0.051015
0.22278 0.16321 1.2072 7.8366e-39 335 365 0 0 0 0.16114 0.26511 -0.95066 0.050896
0.21713 0.16533 1.2072 8.1132e-39 441.5 365 0 0 0 -0.10188 0.2751 -0.956 0.055269
0.21925 0.16533 1.2072 8.2976e-39 443 365 0 0 0 -0.0067054 0.28218 -0.95934 0.058047
0.22278 0.16533 1.2072 8.2515e-39 445.5 365 0 0 0 0.17812 0.29519 -0.93869 0.053334
0.21713 0.16674 1.2072 8.021e-39 469.5 365 0 0 0 -0.098988 0.28643 -0.95297 0.058599
0.21925 0.16674 1.2072 8.1132e-39 471 365 0 0 0 -0.002995 0.30659 -0.95184 0.060715
0.22208 0.16674 1.2072 9.4961e-39 473 365 0 0 0 0.13305 0.31104 -0.94104 0.056848
0.21784 0.16815 1.2072 8.6664e-39 497 365 0 0 0 -0.076099 0.31387 -0.94641 0.062966
0.18501 0.053855 1.2096 9.1735e-39 392.5 331 0 0 0 -0.36608 -0.63963 -0.67591 0.05516
0.18713 0.053855 1.2096 8.3898e-39 394 331 0 0 0 -0.32266 -0.67811 -0.66034 0.052098
0.18925 0.053855 1.2096 8.6203e-39 395.5 331 0 0 0 -0.28062 -0.72352 -0.63069 0.052211
0.19482 0.053829 1.209 8.6203e-39 399.5 331 0 0 0 -0.21249 -0.79851 -0.56323 0.047884
0.19704 0.053855 1.2096 8.5742e-39 401 331 0 0 0 -0.19579 -0.82697 -0.52705 0.045378
0.19906 0.053829 1.209 9.5423e-39 402.5 331 0 0 0 -0.18963 -0.84676 -0.49702 0.043245
0.20109 0.053803 1.2084 9.2196e-39 404 331 0 0 0 -0.18186 -0.87353 -0.45152 0.035856
0.2025 0.053803 1.2084 8.7586e-39 405 331 0 0 0 -0.17567 -0.88366 -0.43392 0.033965
0.20472 0.053829 1.209 8.7125e-39 406.5 331 0 0 0 -0.15079 -0.90287 -0.4026 0.025109
0.20674 0.053803 1.2084 8.6664e-39 408 331 0 0 0 -0.1427 -0.91611 -0.37468 0.019085
0.20816 0.053803 1.2084 8.482e-39 409 331 0 0 0 -0.13102 -0.93184 -0.33838 0.012693
0.21119 0.05244 1.2096 7.2835e-39 170 331 0 0 0 -0.057937 -0.95491 -0.29117 0.0031694
0.21381 0.053803 1.2084 9.8649e-39 413 331 0 0 0 -0.03825 -0.96048 -0.27571 0.0032138
0.21685 0.05244 1.2096 7.0069e-39 174 331 0 0 0 -0.016701 -0.961 -0.27603 0.0027959
0.21947 0.052389 1.2084 7.3757e-39 186 331 0 0 0 0.0026584 -0.95912 -0.28298 0.00388
0.22088 0.052389 1.2084 7.6522e-39 187 331 0 0 0 0.010824 -0.95643 -0.29177 0.0041576
0.22322 0.05244 1.2096 7.1913e-39 188.5 331 0 0 0 0.023424 -0.94926 -0.3136 0.0045242
0.22512 0.052389 1.2084 6.9147e-39 190 331 0 0 0 0.054237 -0.93861 -0.34069 0.0055501
0.22653 0.052389 1.2084 6.8225e-39 191 331 0 0 0 0.061419 -0.93372 -0.3527 0.0056769
0.22817 0.05244 1.2096 6.7303e-39 192 331 0 0 0 0.069479 -0.92662 -0.36953 0.0057695
0.23078 0.053803 1.2084 7.9288e-39 425 331 0 0 0 0.118 -0.90082 -0.41784 0.012103
0.2336 0.053803 1.2084 5.7161e-39 427 331 0 0 0 0.16021 -0.87583 -0.45525 0.017262
0.23525 0.053855 1.2096 4.9786e-39 428 331 0 0 0 0.1635 -0.86651 -0.47162 0.018837
0.23643 0.053803 1.2084 4.702e-39 429 331 0 0 0 0.19386 -0.84823 -0.49288 0.022581
0.23867 0.053829 1.209 5.7622e-39 430.5 331 0 0 0 0.23014 -0.82116 -0.52224 0.027751
0.24091 0.053855 1.2096 7.0069e-39 432 331 0 0 0 0.26212 -0.79845 -0.54201 0.032541
0.24232 0.053855 1.2096 7.56e-39 433 331 0 0 0 0.27526 -0.78893 -0.54939 0.034601
0.2494 0.053855 1.2096 1.0879e-38 438 331 0 0 0 0.37611 -0.70005 -0.60702 0.048355
0.18147 0.05527 1.2096 7.1913e-39 171 332 0 0 0 -0.47066 -0.48155 -0.73932 0.051449
0.18289 0.05527 1.2096 7.0069e-39 172 332 0 0 0 -0.44844 -0.51783 -0.72853 0.054421
0.18483 0.055216 1.2084 7.2835e-39 173.5 332 0 0 0 -0.42139 -0.54088 -0.72793 0.054717
0.18695 0.055216 1.2084 6.9147e-39 175 332 0 0 0 -0.39059 -0.6038 -0.69488 0.060327
0.18907 0.055216 1.2084 6.8686e-39 180.5 332 0 0 0 -0.33955 -0.65332 -0.67667 0.060395
0.19119 0.055216 1.2084 7.4678e-39 186 332 0 0 0 -0.31041 -0.69 -0.65387 0.059782
0.1926 0.055216 1.2084 7.4678e-39 188 332 0 0 0 -0.28253 -0.72588 -0.62712 0.060942
0.25198 0.055216 1.2084 6.6381e-39 230 332 0 0 0 0.45607 -0.59436 -0.66237 0.055067
0.25364 0.05527 1.2096 7.1913e-39 231 332 0 0 0 0.48215 -0.58718 -0.6502 0.055009
0.17864 0.056686 1.2096 8.943e-39 411 332 0 0 0 -0.55214 -0.37047 -0.74692 0.049946
0.18067 0.056658 1.209 9.404e-39 412.5 332 0 0 0 -0.51823 -0.40291 -0.75439 0.049066
0.18271 0.05663 1.2084 1.0418e-38 414 332 0 0 0 -0.49046 -0.44375 -0.75002 0.053105
0.25198 0.05663 1.2084 8.6664e-39 505 332 0 0 0 0.48946 -0.54903 -0.67749 0.056878
0.2534 0.05663 1.2084 8.2054e-39 506 332 0 0 0 0.53349 -0.49518 -0.6857 0.054825
0.17926 0.059487 1.209 6.4537e-39 437.5 333 0 0 0 -0.5922 -0.26598 -0.76063 0.046975
0.18006 0.058101 1.2096 6.1771e-39 203 333 0 0 0 -0.55183 -0.34366 -0.75986 0.049848
0.2534 0.058751 1.2084 7.1452e-39 262 333.5 0 0 0 0.56182 -0.41505 -0.71561 0.053976
0.17926 0.060901 1.209 7.0991e-39 224.5 334 0 0 0 -0.60489 -0.21534 -0.76664 0.044705
0.2534 0.060871 1.2084 9.3118e-39 402 334 0 0 0 0.59775 -0.336 -0.72788 0.049342
0.17926 0.063023 1.209 8.8047e-39 371.5 334.5 0 0 0 -0.62996 -0.12104 -0.76713 0.036881
0.2534 0.062992 1.2084 8.5742e-39 298.5 335 0 0 0 0.62859 -0.23356 -0.74184 0.039625
0.17926 0.065145 1.209 7.9749e-39 513.5 335 0 0 0 -0.64927 -0.060682 -0.75813 0.032115
0.2534 0.065113 1.2084 7.1913e-39 204 336 0 0 0 0.64888 -0.18094 -0.73906 0.032501
0.25506 0.065176 1.2096 7.2835e-39 205 336 0 0 0 0.66978 -0.15073 -0.7271 0.02825
0.17947 0.067019 1.2088 8.5434e-39 311.67 336.33 0 0 0 -0.65669 0.006047 -0.75413 0.024519
0.2534 0.067233 1.2084 4.9325e-39 331.5 336.5 0 0 0 0.66747 -0.11239 -0.73611 0.023803
0.25506 0.066592 1.2096 3.9644e-39 446 336 0 0 0 0.68182 -0.11338 -0.72268 0.023038
0.17905 0.068928 1.2092 8.6664e-39 320 337 0 0 0 -0.67131 0.058714 -0.73885 0.019084
0.18129 0.069354 1.2084 8.8508e-39 407 337 0 0 0 -0.65616 0.049255 -0.75301 0.020048
0.2534 0.069354 1.2084 6.8225e-39 458 337 0 0 0 0.6765 -0.049083 -0.73481 0.017365
0.17926 0.070802 1.209 6.5459e-39 156.5 338 0 0 0 -0.67346 0.098698 -0.73261 0.01426
0.18129 0.070768 1.2084 6.1771e-39 158 338 0 0 0 -0.6646 0.087818 -0.74202 0.015133
0.2534 0.070768 1.2084 7.4678e-39 225 338 0 0 0 0.68321 -0.012039 -0.73012 0.01242
0.18072 0.072942 1.2093 7.3757e-39 286 338.5 0 0 0 -0.67713 0.13444 -0.72347 0.011742
0.25364 0.072959 1.2096 6.592e-39 352.5 338.5 0 0 0 0.69921 0.052471 -0.71299 0.0055707
0.18147 0.075082 1.2096 8.2976e-39 414 339 0 0 0 -0.68184 0.16095 -0.71357 0.010086
0.18412 0.075009 1.2084 8.2976e-39 416 339 0 0 0 -0.66366 0.14739 -0.73337 0.011123
0.25364 0.075082 1.2096 4.9786e-39 475 339 0 0 0 0.70431 0.091882 -0.70392 0.003383
0.1828 0.077168 1.209 7.4679e-39 287 340 0 0 0 -0.67798 0.18089 -0.71247 0.0095482
0.18459 0.077365 1.2084 8.2669e-39 331.33 340 0 0 0 -0.66782 0.17501 -0.72345 0.0097084
0.25364 0.076498 1.2096 6.8225e-39 222 340 0 0 0 0.70734 0.10566 -0.69893 0.0031671
0.18289 0.079328 1.2096 6.2693e-39 153 341 0 0 0 -0.68515 0.198 -0.70097 0.0091281
0.18492 0.079289 1.209 6.9147e-39 154.5 341 0 0 0 -0.67359 0.19068 -0.71408 0.0095079
0.18492 0.080703 1.209 9.5884e-39 407.5 341 0 0 0 -0.67773 0.1958 -0.70876 0.0092186
0.25198 0.080664 1.2084 7.0069e-39 455 341 0 0 0 0.70237 0.13982 -0.69794 0.0026042
0.18519 0.082603 1.2092 7.1913e-39 226 342 0 0 0 -0.68164 0.19479 -0.70528 0.0087912
0.25128 0.082785 1.2084 8.9429e-39 316 342 0 0 0 0.70662 0.15461 -0.6905 0.0023554
0.25223 0.083573 1.2096 1.0142e-38 438 342 0 0 0 0.70939 0.16107 -0.68617 0.00204
0.18572 0.084988 1.2096 8.3898e-39 504 342 0 0 0 -0.68583 0.1926 -0.70181 0.008138
0.25081 0.084988 1.2096 5.6239e-39 172 343 0 0 0 0.7083 0.16628 -0.68604 0.002088
0.18572 0.086404 1.2096 7.7444e-39 239 343 0 0 0 -0.68891 0.19731 -0.69747 0.0075139
0.18695 0.087026 1.2084 7.7444e-39 360.5 343 0 0 0 -0.68736 0.18993 -0.70104 0.007614
0.24915 0.087026 1.2084 7.8827e-39 279.5 343.5 0 0 0 0.70892 0.17045 -0.68438 0.0020415
0.25081 0.087112 1.2096 8.021e-39 280.5 343.5 0 0 0 0.71053 0.17438 -0.68171 0.0019727
0.18695 0.089146 1.2084 7.9288e-39 216 344 0 0 0 -0.69314 0.19023 -0.69525 0.0070751
0.24915 0.089146 1.2084 8.3898e-39 389 344 0 0 0 0.71028 0.17685 -0.68134 0.0018442
0.18695 0.091267 1.2084 8.021e-39 324.5 344.5 0 0 0 -0.69866 0.18822 -0.69025 0.0065409
0.24774 0.091974 1.2084 7.2835e-39 235 345 0 0 0 0.71277 0.1889 -0.67548 0.0019119
0.2494 0.090649 1.2096 8.2054e-39 502 344 0 0 0 0.71157 0.18638 -0.67745 0.0018545
0.18713 0.093479 1.2096 9.1274e-39 436 345 0 0 0 -0.70279 0.193 -0.68472 0.0062308
0.18907 0.093388 1.2084 9.5884e-39 437.5 345 0 0 0 -0.69472 0.18861 -0.69411 0.0061899
0.24774 0.093388 1.2084 8.8508e-39 479 345 0 0 0 0.71282 0.19488 -0.67373 0.0020132
0.24927 0.092726 1.209 7.514e-39 358 345 0 0 0 0.71284 0.19508 -0.67365 0.0018871
0.18713 0.094894 1.2096 6.0849e-39 168 346 0 0 0 -0.70541 0.18721 -0.68363 0.0059113
0.18907 0.094802 1.2084 6.1771e-39 169.5 346 0 0 0 -0.6975 0.18411 -0.69252 0.0061088
0.24774 0.094802 1.2084 6.9147e-39 212 346 0 0 0 0.7147 0.20378 -0.66909 0.0022528
0.24915 0.094802 1.2084 6.9147e-39 213 346 0 0 0 0.71501 0.20343 -0.66886 0.0021345
0.18713 0.097017 1.2096 7.4218e-39 283 346.5 0 0 0 -0.70669 0.18836 -0.68199 0.0060564
0.18916 0.09697 1.209 7.3065e-39 284.5 346.5 0 0 0 -0.70084 0.18508 -0.68889 0.0061277
0.24774 0.096922 1.2084 8.6203e-39 327 346.5 0 0 0 0.71706 0.21142 -0.66417 0.0024166
0.2494 0.097017 1.2096 8.5281e-39 328.5 346.5 0 0 0 0.71407 0.21364 -0.66668 0.0023901
0.18925 0.09914 1.2096 8.6203e-39 404.5 347 0 0 0 -0.70352 0.18596 -0.68592 0.0063521
0.24798 0.09914 1.2096 7.9288e-39 446 347 0 0 0 0.71589 0.22895 -0.65961 0.0029194
0.18949 0.10102 1.2096 7.4679e-39 232 348 0 0 0 -0.70265 0.18639 -0.68669 0.0063287
0.24715 0.10121 1.209 7.3526e-39 318 348 0 0 0 0.72069 0.23538 -0.65207 0.0032584
0.18996 0.10339 1.2096 7.0069e-39 147 349 0 0 0 -0.70069 0.19034 -0.68761 0.0062549
0.19119 0.10328 1.2084 6.3615e-39 148 349 0 0 0 -0.69252 0.18947 -0.69607 0.0064773
0.1926 0.10328 1.2084 6.0849e-39 149 349 0 0 0 -0.68962 0.19103 -0.69852 0.006418
0.24715 0.10334 1.209 6.5459e-39 189.5 349 0 0 0 0.71961 0.24733 -0.64884 0.0035466
0.19138 0.1048 1.2096 8.3898e-39 400 349 0 0 0 -0.69675 0.18867 -0.69206 0.0065767
0.19279 0.1048 1.2096 8.8508e-39 401 349 0 0 0 -0.69305 0.188 -0.69594 0.0066121
0.24491 0.1047 1.2084 8.5742e-39 438 349 0 0 0 0.72837 0.25431 -0.63624 0.0040736
0.24657 0.1048 1.2096 8.021e-39 439 349 0 0 0 0.71825 0.26043 -0.64521 0.0037569
0.19279 0.10622 1.2096 6.9147e-39 145 350 0 0 0 -0.69384 0.18301 -0.69648 0.0066762
0.24285 0.10685 1.2087 7.4218e-39 306 350 0 0 0 0.73496 0.26122 -0.62578 0.0043073
0.24503 0.10687 1.209 7.3296e-39 307.5 350 0 0 0 0.72804 0.26508 -0.63222 0.0040979
0.24657 0.10622 1.2096 6.9147e-39 183 350 0 0 0 0.71974 0.26654 -0.64104 0.0037622
0.24232 0.10905 1.2096 6.3615e-39 173 351 0 0 0 0.73646 0.27093 -0.61986 0.0042813
0.19402 0.11177 1.2084 7.6522e-39 503 351 0 0 0 -0.68675 0.18423 -0.70316 0.0066553
0.19402 0.11318 1.2084 7.56e-39 233 352 0 0 0 -0.6863 0.18401 -0.70365 0.0069147
0.19402 0.11459 1.2084 8.021e-39 482 352 0 0 0 -0.6863 0.18506 -0.70338 0.0070159
0.24067 0.11459 1.2084 6.7303e-39 523 352 0 0 0 0.7424 0.27825 -0.60945 0.0046151
0.19402 0.11671 1.2084 8.2054e-39 342 353 0 0 0 -0.68517 0.18529 -0.70442 0.0067597
0.23926 0.11742 1.2084 7.0069e-39 505 353 0 0 0 0.74271 0.28059 -0.60798 0.004787
0.24091 0.11612 1.2096 6.8225e-39 249 353 0 0 0 0.74257 0.27741 -0.60961 0.0045293
0.19402 0.11884 1.2084 7.4678e-39 201 354 0 0 0 -0.68199 0.18849 -0.70666 0.0068099
0.23949 0.11895 1.2096 7.1913e-39 233 354 0 0 0 0.74185 0.28536 -0.60682 0.0046482
0.19482 0.12101 1.209 6.6842e-39 314 354.5 0 0 0 -0.67483 0.19588 -0.7115 0.0071891
0.19543 0.12308 1.2084 7.8366e-39 422 355 0 0 0 -0.65462 0.21141 -0.7258 0.0079953
0.19562 0.12461 1.2096 6.5459e-39 150 356 0 0 0 -0.65913 0.21564 -0.72044 0.0077907
0.19685 0.12519 1.2084 7.2374e-39 271.5 356 0 0 0 -0.63504 0.22922 -0.73769 0.0077941
0.23784 0.12449 1.2084 5.6239e-39 180 356 0 0 0 0.73599 0.28759 -0.61288 0.0048921
0.19562 0.12674 1.2096 7.4218e-39 448.5 356 0 0 0 -0.65071 0.22967 -0.72376 0.0072094
0.19704 0.12744 1.2096 6.7303e-39 507 356 0 0 0 -0.63622 0.24139 -0.73277 0.0075008
0.19826 0.12732 1.2084 6.7303e-39 508 356 0 0 0 -0.61644 0.24521 -0.74825 0.0078446
0.23808 0.12603 1.2096 8.1132e-39 421 356 0 0 0 0.73452 0.27863 -0.61875 0.0049647
0.19704 0.12886 1.2096 7.3757e-39 228 357 0 0 0 -0.63259 0.24504 -0.7347 0.0072064
0.19826 0.12873 1.2084 7.0991e-39 229 357 0 0 0 -0.61361 0.24741 -0.74985 0.0076982
0.23643 0.12873 1.2084 7.2835e-39 256 357 0 0 0 0.71932 0.28079 -0.6354 0.0084471
0.19704 0.13027 1.2096 8.2976e-39 466 357 0 0 0 -0.62814 0.25184 -0.73622 0.0069769
0.19901 0.13089 1.2087 7.4218e-39 326 357.5 0 0 0 -0.60222 0.25805 -0.75547 0.0076721
0.20109 0.13156 1.2084 6.1771e-39 186 358 0 0 0 -0.57257 0.26405 -0.77617 0.0078007
0.19987 0.1331 1.2096 9.404e-39 419 358 0 0 0 -0.59482 0.26498 -0.75893 0.0078226
0.20109 0.13297 1.2084 8.6664e-39 420 358 0 0 0 -0.57159 0.266 -0.77623 0.0079711
0.2025 0.13297 1.2084 8.021e-39 421 358 0 0 0 -0.5569 0.26747 -0.78633 0.0078968
0.23502 0.13297 1.2084 8.8508e-39 447 358 0 0 0 0.67339 0.27403 -0.68662 0.018836
0.19987 0.13452 1.2096 5.9927e-39 141 359 0 0 0 -0.59499 0.26734 -0.75797 0.0077971
0.20128 0.13522 1.2096 6.4076e-39 194.5 359 0 0 0 -0.57592 0.2717 -0.77104 0.0084897
0.20297 0.13533 1.2084 6.5766e-39 213.33 359 0 0 0 -0.5498 0.2726 -0.78956 0.009154
0.2336 0.1358 1.2084 8.7586e-39 398 359 0 0 0 0.63494 0.25464 -0.72939 0.026529
0.23525 0.13452 1.2096 6.3615e-39 166 359 0 0 0 0.6807 0.25483 -0.68681 0.016795
0.20331 0.13728 1.209 8.3898e-39 490.5 359 0 0 0 -0.55065 0.26994 -0.78988 0.0099014
0.23383 0.13735 1.2096 6.8225e-39 513 359 0 0 0 0.65242 0.24154 -0.71834 0.022237
0.20331 0.1387 1.209 6.131e-39 207.5 360 0 0 0 -0.55324 0.26888 -0.78843 0.010579
0.23383 0.13876 1.2096 7.8366e-39 229 360 0 0 0 0.65083 0.22124 -0.72627 0.022076
0.20391 0.14075 1.2084 8.3438e-39 299.5 360.5 0 0 0 -0.53192 0.26601 -0.80393 0.012308
0.20533 0.14075 1.2084 7.7905e-39 300.5 360.5 0 0 0 -0.5128 0.26374 -0.81699 0.013666
0.23219 0.14146 1.2084 7.0991e-39 173 361 0 0 0 0.58308 0.2217 -0.78158 0.031172
0.20472 0.14294 1.209 6.7764e-39 246.5 361 0 0 0 -0.53709 0.25563 -0.80386 0.013456
0.20674 0.14287 1.2084 6.9147e-39 248 361 0 0 0 -0.49278 0.25426 -0.83218 0.016231
0.23078 0.14287 1.2084 9.1274e-39 394 361 0 0 0 0.53071 0.21555 -0.81968 0.032395
0.23219 0.14287 1.2084 9.0352e-39 395 361 0 0 0 0.56785 0.21456 -0.79468 0.030468
0.20472 0.14506 1.209 7.6292e-39 323 361.5 0 0 0 -0.54172 0.24583 -0.80381 0.014046
0.20674 0.14499 1.2084 7.5601e-39 324.5 361.5 0 0 0 -0.50111 0.24214 -0.83082 0.016858
0.23078 0.14499 1.2084 7.7444e-39 341.5 361.5 0 0 0 0.52522 0.21617 -0.82305 0.029022
0.23219 0.14499 1.2084 7.7905e-39 342.5 361.5 0 0 0 0.56221 0.20883 -0.80019 0.02744
0.20472 0.14718 1.209 8.1132e-39 391.5 362 0 0 0 -0.55085 0.23757 -0.80008 0.014866
0.20674 0.14711 1.2084 9.1274e-39 393 362 0 0 0 -0.51527 0.23363 -0.82457 0.017448
0.20816 0.14711 1.2084 9.1274e-39 394 362 0 0 0 -0.47875 0.23083 -0.84706 0.021867
0.23078 0.14711 1.2084 8.2976e-39 410 362 0 0 0 0.52016 0.19921 -0.83051 0.027706
0.23219 0.14711 1.2084 8.2054e-39 412 362 0 0 0 0.55491 0.2005 -0.80739 0.025632
0.20553 0.14867 1.2096 9.3118e-39 481 362 0 0 0 -0.54497 0.22565 -0.80752 0.017367
0.20674 0.14852 1.2084 8.7586e-39 482 362 0 0 0 -0.52166 0.22109 -0.82401 0.017906
0.20863 0.14947 1.2084 6.6381e-39 279.33 362.67 0 0 0 -0.476 0.21059 -0.85386 0.024099
0.23078 0.14923 1.2084 6.8224e-39 346 362.5 0 0 0 0.5196 0.18511 -0.83412 0.026712
0.23219 0.14852 1.2084 7.7444e-39 500 362 0 0 0 0.5543 0.1819 -0.8122 0.024533
0.20553 0.15008 1.2096 6.1771e-39 175 363 0 0 0 -0.55398 0.21707 -0.80373 0.016832
0.20694 0.15079 1.2096 6.6841e-39 282.5 363 0 0 0 -0.53139 0.21334 -0.81982 0.019681
0.20816 0.15135 1.2084 9.1274e-39 394 363 0 0 0 -0.48774 0.20554 -0.84845 0.024872
0.22936 0.15135 1.2084 8.2054e-39 409 363 0 0 0 0.48772 0.18218 -0.85378 0.027275
0.23078 0.15135 1.2084 8.1132e-39 410 363 0 0 0 0.51919 0.18211 -0.83503 0.025693
