# .PCD v.7 - Point Cloud Data file format
VERSION .7
FIELDS x y z rgb u v vx vy vz normal_x normal_y normal_z curvature
SIZE 4 4 4 4 4 4 4 4 4 4 4 4 4
TYPE F F F F F F F F F F F F F
COUNT 1 1 1 1 1 1 1 1 1 1 1 1 1
WIDTH 557
HEIGHT 1
VIEWPOINT 0 0 0 1 0 0 0
POINTS 557
DATA ascii
-0.045911 0.14993 1.0674 5.8083e-39 206 330 0 0 0 0.82177 0.010446 -0.56972 0.015172
0.0465 0.14868 1.0674 4.9786e-39 183 330 0 0 0 -0.74356 -0.034761 -0.66777 0.0066179
-0.047119 0.15104 1.0665 5.6239e-39 408 330 0 0 0 0.82791 0.0063046 -0.56083 0.01575
-0.04716 0.15242 1.0674 5.6239e-39 209 331 0 0 0 0.8239 0.029668 -0.56596 0.014582
-0.048409 0.15492 1.0674 5.6239e-39 217 332 0 0 0 0.82666 0.05231 -0.56026 0.015019
-0.049657 0.15742 1.0674 5.4395e-39 236 333 0 0 0 0.82351 0.097161 -0.55892 0.0153
0.042828 0.12892 1.0692 5.6239e-39 203 322 0 0 0 -0.70711 -0.025694 -0.70663 0.0087734
0.0449 0.13055 1.0689 7.0069e-39 311.33 322.33 0 0 0 -0.71157 -0.044738 -0.70119 0.0087248
0.04654 0.13131 1.0683 4.9786e-39 178 323 0 0 0 -0.71724 -0.054062 -0.69473 0.0093391
-0.048492 0.13392 1.0692 8.482e-39 367 323 0 0 0 0.80366 -0.17033 -0.57019 0.014656
0.046581 0.13267 1.0692 8.8508e-39 256 323 0 0 0 -0.71837 -0.048988 -0.69393 0.0084518
0.04779 0.13506 1.0683 6.5459e-39 243 324 0 0 0 -0.72433 -0.055778 -0.6872 0.0084116
-0.047241 0.13643 1.0692 8.2976e-39 254 324 0 0 0 0.80931 -0.13304 -0.57212 0.015213
-0.04599 0.13768 1.0692 5.2552e-39 451 324 0 0 0 0.8063 -0.10734 -0.58168 0.015397
0.047811 0.13699 1.0688 5.5778e-39 338.5 324.5 0 0 0 -0.7303 -0.050547 -0.68125 0.0079696
0.04904 0.13756 1.0683 5.8083e-39 240 325 0 0 0 -0.7311 -0.05259 -0.68024 0.0084004
-0.04599 0.13893 1.0692 8.2976e-39 253 325 0 0 0 0.81039 -0.090703 -0.57882 0.015231
0.04779 0.13881 1.0683 5.6239e-39 437 325 0 0 0 -0.73211 -0.047254 -0.67955 0.0076252
-0.04597 0.14075 1.0688 7.0991e-39 411 325.5 0 0 0 0.81639 -0.058554 -0.57452 0.015765
-0.045951 0.14319 1.0683 6.4998e-39 276 327 0 0 0 0.81987 -0.02919 -0.5718 0.016654
0.04533 0.14393 1.0692 5.8083e-39 452 327 0 0 0 -0.73557 -0.021564 -0.67711 0.0061081
0.046581 0.14331 1.0692 6.592e-39 351 327 0 0 0 -0.73546 -0.025064 -0.6771 0.0064079
-0.045951 0.14506 1.0683 5.7161e-39 182 328 0 0 0 0.81933 -0.0063291 -0.57329 0.016196
0.04533 0.14518 1.0692 7.8366e-39 367 328 0 0 0 -0.73703 -0.017364 -0.67563 0.0060312
0.04654 0.14506 1.0683 7.8366e-39 368 328 0 0 0 -0.7372 -0.02359 -0.67527 0.0064264
-0.045951 0.14694 1.0683 5.7161e-39 293 328.5 0 0 0 0.82032 0.0014622 -0.5719 0.015871
0.0449 0.14722 1.0689 6.9761e-39 310 329 0 0 0 -0.73833 -0.011961 -0.67434 0.0060119
0.04654 0.14631 1.0683 5.6239e-39 170 329 0 0 0 -0.73764 -0.020651 -0.67488 0.0064056
-0.045345 0.14887 1.0688 5.9466e-39 404.5 329 0 0 0 0.81784 0.0076429 -0.5754 0.014854
0.044684 0.14887 1.0688 4.9786e-39 181.5 330 0 0 0 -0.74144 -0.027702 -0.67045 0.0056461
-0.045345 0.15075 1.0688 5.7161e-39 308 330 0 0 0 0.8194 0.017536 -0.57295 0.015623
0.044684 0.15012 1.0688 5.9466e-39 393.5 330 0 0 0 -0.7427 -0.027282 -0.66907 0.0058122
-0.047201 0.15381 1.0683 6.6381e-39 414 331 0 0 0 0.82166 0.04085 -0.56851 0.015072
-0.04599 0.15332 1.0692 6.0388e-39 312.5 331 0 0 0 0.81653 0.044994 -0.57555 0.014419
-0.047241 0.15519 1.0692 5.5317e-39 218 332 0 0 0 0.81788 0.066954 -0.57148 0.01391
-0.04845 0.15631 1.0683 5.9005e-39 427 332 0 0 0 0.82279 0.079161 -0.5628 0.013957
0.041649 0.12789 1.0711 6.2693e-39 402 321 0 0 0 -0.70725 -0.013306 -0.70684 0.0084971
0.042884 0.13096 1.0706 7.2835e-39 417 322 0 0 0 -0.71318 -0.040351 -0.69982 0.0076341
0.044117 0.13154 1.0702 5.0708e-39 176 323 0 0 0 -0.71455 -0.042596 -0.69828 0.0081271
0.044762 0.13284 1.0706 8.8047e-39 254.5 323 0 0 0 -0.71674 -0.044555 -0.69591 0.0078814
-0.046696 0.13541 1.0711 6.131e-39 454.5 323 0 0 0 0.79823 -0.13721 -0.58652 0.01681
0.044772 0.13475 1.0709 5.67e-39 341.5 323.5 0 0 0 -0.72025 -0.04231 -0.69243 0.0071262
0.046621 0.13466 1.0702 5.7622e-39 343 323.5 0 0 0 -0.72055 -0.048236 -0.69172 0.0077316
-0.04603 0.13654 1.0702 8.2976e-39 255 324 0 0 0 0.80108 -0.13781 -0.58248 0.015326
-0.044817 0.13729 1.0711 7.0529e-39 354 324 0 0 0 0.7958 -0.11012 -0.59546 0.017027
0.044781 0.13729 1.0711 6.2232e-39 336 324.5 0 0 0 -0.72557 -0.037025 -0.68716 0.0064774
0.046641 0.13723 1.0706 5.6239e-39 337.5 324.5 0 0 0 -0.72574 -0.042411 -0.68666 0.0068758
-0.044778 0.13905 1.0702 8.021e-39 254 325 0 0 0 0.80453 -0.10002 -0.58543 0.016503
0.044781 0.13917 1.0711 6.6381e-39 434.5 325 0 0 0 -0.72683 -0.028961 -0.68621 0.006107
0.046661 0.13917 1.0711 5.8083e-39 436 325 0 0 0 -0.72817 -0.032453 -0.68462 0.006571
-0.044778 0.14093 1.0702 6.8686e-39 412 325.5 0 0 0 0.80754 -0.054172 -0.58732 0.016315
0.044743 0.14093 1.0702 5.7161e-39 341 326 0 0 0 -0.72973 -0.024405 -0.6833 0.0059749
0.046621 0.14093 1.0702 5.7161e-39 342.5 326 0 0 0 -0.73155 -0.03088 -0.68109 0.0065437
-0.044778 0.1428 1.0702 5.7161e-39 174 327 0 0 0 0.81012 -0.031475 -0.58541 0.016666
0.044743 0.1428 1.0702 6.1771e-39 247.5 327 0 0 0 -0.73178 -0.019569 -0.68126 0.0058729
-0.044778 0.14469 1.0702 6.4075e-39 281.5 327.5 0 0 0 0.81142 -0.010199 -0.58438 0.017014
-0.042937 0.1448 1.0711 6.7533e-39 283 327.5 0 0 0 0.79786 -0.0049375 -0.60282 0.018316
0.044117 0.14469 1.0702 6.6841e-39 408.5 327.5 0 0 0 -0.73405 -0.0079612 -0.67905 0.0056847
-0.044778 0.14718 1.0702 6.2693e-39 294 328.5 0 0 0 0.81048 0.011736 -0.58564 0.016014
-0.042919 0.14725 1.0706 6.0158e-39 295.5 328.5 0 0 0 0.80603 0.011334 -0.59176 0.017075
0.044117 0.14656 1.0702 4.9786e-39 168 329 0 0 0 -0.73472 -0.0071476 -0.67833 0.0056303
-0.0429 0.14906 1.0702 6.2693e-39 406.5 329 0 0 0 0.80725 0.019554 -0.58989 0.01597
-0.044778 0.15157 1.0702 5.7161e-39 410 330 0 0 0 0.81609 0.025065 -0.57738 0.015059
-0.042909 0.15098 1.0704 6.2232e-39 310 330 0 0 0 0.80527 0.023895 -0.59243 0.015573
0.044117 0.15157 1.0702 5.4395e-39 194 331 0 0 0 -0.74209 -0.0076978 -0.67026 0.0065195
-0.044778 0.15282 1.0702 5.2552e-39 211 331 0 0 0 0.81323 0.040206 -0.58055 0.014141
-0.042919 0.15289 1.0706 5.5317e-39 212.5 331 0 0 0 0.80117 0.05068 -0.59628 0.014162
-0.04603 0.15532 1.0702 5.9005e-39 219 332 0 0 0 0.81154 0.080608 -0.57872 0.012568
-0.044798 0.15477 1.0706 6.3615e-39 318 331.5 0 0 0 0.80802 0.071964 -0.58475 0.013101
-0.043564 0.15421 1.0711 6.4537e-39 417 331 0 0 0 0.80039 0.071627 -0.59519 0.012468
-0.048534 0.15783 1.0702 6.2693e-39 245 333 0 0 0 0.81331 0.11587 -0.57018 0.012852
-0.046892 0.15709 1.0708 6.3e-39 368.33 332.33 0 0 0 0.80848 0.099496 -0.58005 0.012437
0.041685 0.12926 1.072 5.5317e-39 202 322 0 0 0 -0.71235 -0.02954 -0.70121 0.0073198
0.041721 0.13125 1.073 7.2374e-39 416 322 0 0 0 -0.712 -0.035415 -0.70128 0.0064102
-0.04619 0.13325 1.0739 5.8083e-39 182 323 0 0 0 0.76613 -0.22953 -0.6003 0.020964
-0.044895 0.13313 1.073 5.9005e-39 183 323 0 0 0 0.76916 -0.22059 -0.59977 0.020195
-0.043678 0.13325 1.0739 5.4395e-39 184 323 0 0 0 0.74608 -0.21923 -0.62873 0.023124
0.041111 0.13319 1.0734 8.5281e-39 251.5 323 0 0 0 -0.71459 -0.033124 -0.69876 0.0060106
0.042939 0.13302 1.072 8.7586e-39 253 323 0 0 0 -0.71654 -0.039908 -0.6964 0.0066963
-0.046758 0.13433 1.0725 8.5742e-39 368.5 323 0 0 0 0.79039 -0.17605 -0.58676 0.017339
-0.044856 0.1349 1.072 7.1913e-39 413 323 0 0 0 0.78557 -0.16267 -0.59701 0.018223
-0.043234 0.13526 1.0733 6.5766e-39 428.67 323 0 0 0 0.76491 -0.1753 -0.61982 0.021963
0.041758 0.13513 1.0739 5.5779e-39 339 323.5 0 0 0 -0.71404 -0.028137 -0.69954 0.0056082
0.042939 0.1349 1.072 5.7161e-39 340 323.5 0 0 0 -0.71936 -0.03749 -0.69362 0.0062551
-0.043031 0.13696 1.0734 6.3615e-39 363.5 324 0 0 0 0.77071 -0.1446 -0.62057 0.021762
0.041111 0.13696 1.0734 6.1771e-39 432.5 324 0 0 0 -0.71637 -0.02075 -0.69741 0.0055223
0.042939 0.13678 1.072 6.5459e-39 434 324 0 0 0 -0.72232 -0.030419 -0.69089 0.0059979
-0.042984 0.13869 1.0723 7.1452e-39 354.5 324.5 0 0 0 0.78298 -0.10305 -0.61345 0.018621
0.041111 0.13884 1.0734 6.2232e-39 332.5 325 0 0 0 -0.71777 -0.010901 -0.69619 0.0053475
0.042939 0.13866 1.072 6.6842e-39 334 325 0 0 0 -0.72568 -0.022562 -0.68767 0.0057197
-0.042975 0.14117 1.072 6.7994e-39 413.5 325.5 0 0 0 0.789 -0.05604 -0.61184 0.020123
-0.041165 0.14079 1.0739 5.6239e-39 458 325 0 0 0 0.76145 -0.0762 -0.64373 0.022627
0.039245 0.14079 1.0739 6.8225e-39 234 326 0 0 0 -0.70981 0.0044335 -0.70438 0.0056219
0.041093 0.1413 1.073 6.2232e-39 338 326 0 0 0 -0.72013 -0.0011742 -0.69384 0.0050899
0.042939 0.14117 1.072 5.8083e-39 339.5 326 0 0 0 -0.72775 -0.013003 -0.68571 0.0056129
-0.042975 0.14305 1.072 5.5778e-39 175.5 327 0 0 0 0.79676 -0.027721 -0.60365 0.021162
-0.041165 0.1433 1.0739 5.163e-39 177 327 0 0 0 0.76422 -0.030749 -0.64422 0.023471
-0.039908 0.1433 1.0739 4.9786e-39 178 327 0 0 0 0.74966 -0.036452 -0.66082 0.024182
0.039245 0.14267 1.0739 6.1771e-39 341 326.5 0 0 0 -0.71061 0.013975 -0.70345 0.0052439
0.041093 0.14318 1.073 6.592e-39 244.5 327 0 0 0 -0.72007 0.0049775 -0.69388 0.0049364
0.042939 0.14305 1.072 6.1771e-39 246 327 0 0 0 -0.72951 -0.0061387 -0.68395 0.0053208
-0.041147 0.14513 1.0734 7.1452e-39 284.5 327.5 0 0 0 0.77566 -0.014992 -0.63098 0.022544
-0.039908 0.14518 1.0739 7.053e-39 285.5 327.5 0 0 0 0.74867 -0.012363 -0.66283 0.022954
0.039245 0.14456 1.0739 6.4537e-39 447 327 0 0 0 -0.71124 0.01347 -0.70282 0.0051322
0.041093 0.14506 1.073 7.0068e-39 351 327.5 0 0 0 -0.72122 0.0087483 -0.69265 0.004843
0.042939 0.14493 1.072 6.9608e-39 352.5 327.5 0 0 0 -0.72885 0.00062275 -0.68467 0.0053211
-0.041129 0.14694 1.073 5.4395e-39 394 328 0 0 0 0.77551 0.0082426 -0.63128 0.019205
-0.039908 0.14707 1.0739 5.8083e-39 395 328 0 0 0 0.75054 0.0057501 -0.6608 0.020648
0.039245 0.14707 1.0739 5.8083e-39 458 328 0 0 0 -0.70972 0.023457 -0.70409 0.005367
0.041075 0.14687 1.0725 5.67e-39 459.5 328 0 0 0 -0.72376 0.0076745 -0.69001 0.0049906
0.042939 0.14681 1.072 4.702e-39 461 328 0 0 0 -0.72995 -0.0012906 -0.6835 0.0050467
-0.041093 0.14869 1.072 5.6239e-39 304 329 0 0 0 0.78158 0.021279 -0.62344 0.017855
-0.039263 0.14889 1.0734 5.6469e-39 305.5 329 0 0 0 0.75184 0.025344 -0.65886 0.018106
0.039245 0.14896 1.0739 6.3154e-39 276.5 329.5 0 0 0 -0.71032 0.035494 -0.70299 0.005676
0.041075 0.14876 1.0725 6.2002e-39 278 329.5 0 0 0 -0.72758 0.011035 -0.68593 0.0052903
0.042939 0.14869 1.072 6.085e-39 279.5 329.5 0 0 0 -0.73195 0.0092573 -0.68129 0.00542
-0.041111 0.15127 1.0725 6.0388e-39 311.5 330 0 0 0 0.77098 0.038308 -0.63571 0.015303
-0.039874 0.15071 1.073 5.4395e-39 211 330 0 0 0 0.75975 0.038317 -0.64909 0.015588
0.039245 0.15084 1.0739 5.4395e-39 389 330 0 0 0 -0.71087 0.050688 -0.70149 0.0059487
0.041075 0.15127 1.0725 5.9235e-39 288.75 330.5 0 0 0 -0.73021 0.036025 -0.68227 0.0062275
0.042939 0.15121 1.072 5.9466e-39 292.5 330.5 0 0 0 -0.73874 0.018512 -0.67374 0.0061356
-0.041129 0.15322 1.073 6.1771e-39 214 331 0 0 0 0.76506 0.070641 -0.64007 0.012637
-0.039908 0.15272 1.0739 6.0388e-39 314.5 330.5 0 0 0 0.75468 0.053546 -0.6539 0.014218
0.041093 0.15322 1.073 6.6381e-39 397.5 331 0 0 0 -0.72485 0.057255 -0.68653 0.0063469
0.042939 0.15309 1.072 5.9927e-39 399 331 0 0 0 -0.73997 0.034341 -0.67177 0.0065689
-0.042778 0.15522 1.0723 5.7161e-39 287 331.67 0 0 0 0.77152 0.088533 -0.63002 0.011156
-0.041147 0.15517 1.0734 5.67e-39 321 331.5 0 0 0 0.75693 0.092955 -0.64685 0.011202
0.041314 0.15494 1.0733 5.6546e-39 270.67 332 0 0 0 -0.72264 0.081478 -0.68641 0.0063838
0.042977 0.1551 1.073 5.7161e-39 307 332 0 0 0 -0.73389 0.077803 -0.67479 0.0065503
-0.044856 0.15685 1.072 7.0069e-39 431 332 0 0 0 0.79036 0.10556 -0.60349 0.011673
-0.043012 0.15698 1.073 6.9608e-39 432.5 332 0 0 0 0.7667 0.106 -0.63319 0.010561
0.041721 0.15698 1.073 5.5317e-39 219 333 0 0 0 -0.73042 0.10531 -0.67484 0.0055905
-0.049246 0.15936 1.072 6.8225e-39 450.5 333 0 0 0 0.8031 0.12926 -0.58166 0.013852
-0.046569 0.15907 1.073 6.2386e-39 384 333 0 0 0 0.77796 0.13049 -0.61461 0.011186
-0.044895 0.15887 1.073 6.1771e-39 351 333 0 0 0 0.76906 0.12928 -0.62596 0.010502
-0.043659 0.15894 1.0734 6.1771e-39 352 333 0 0 0 0.76408 0.12778 -0.63234 0.010656
0.041721 0.15824 1.073 6.8225e-39 433 333 0 0 0 -0.73479 0.10953 -0.66939 0.0054527
-0.048703 0.16089 1.0739 8.2054e-39 382 334 0 0 0 0.77161 0.15175 -0.61773 0.013027
-0.046819 0.16089 1.0739 7.7444e-39 383.5 334 0 0 0 0.76603 0.14222 -0.62687 0.011733
-0.044934 0.16089 1.0739 6.6381e-39 385 334 0 0 0 0.7549 0.13305 -0.6422 0.011066
-0.046609 0.16257 1.0739 5.5625e-39 266.33 335 0 0 0 0.75532 0.15946 -0.63566 0.012137
-0.044914 0.16271 1.0734 5.5317e-39 303.5 335 0 0 0 0.74201 0.14569 -0.65437 0.011559
-0.043659 0.16271 1.0734 5.9466e-39 304.5 335 0 0 0 0.74163 0.14403 -0.65517 0.011292
-0.04615 0.16452 1.073 5.9005e-39 224 336 0 0 0 0.74533 0.18155 -0.6415 0.012918
0.039313 0.12971 1.0758 5.5317e-39 200 322 0 0 0 -0.7024 -0.0088178 -0.71173 0.0069131
0.040572 0.12908 1.0758 5.8544e-39 301 321.5 0 0 0 -0.70647 -0.012444 -0.70763 0.0067031
0.039313 0.13096 1.0758 7.8366e-39 374 322 0 0 0 -0.70256 -0.012337 -0.71151 0.0066924
0.040572 0.13096 1.0758 7.9288e-39 375 322 0 0 0 -0.70596 -0.016302 -0.70807 0.0062404
-0.047488 0.13337 1.0748 5.3473e-39 181 323 0 0 0 0.76663 -0.2373 -0.59663 0.021038
-0.042495 0.13348 1.0758 5.4395e-39 185 323 0 0 0 0.70901 -0.24475 -0.66136 0.035392
0.038667 0.13279 1.0753 7.0529e-39 349.5 322.5 0 0 0 -0.7037 -0.01539 -0.71033 0.0062747
0.040536 0.13211 1.0748 6.1771e-39 455 322 0 0 0 -0.70973 -0.027905 -0.70392 0.0059954
-0.042458 0.13462 1.0748 8.021e-39 372 323 0 0 0 0.73449 -0.19924 -0.64871 0.025946
0.039279 0.13525 1.0748 5.8544e-39 337 323.5 0 0 0 -0.7084 -0.017317 -0.70559 0.0058793
0.040536 0.13525 1.0748 5.4857e-39 338 323.5 0 0 0 -0.71068 -0.021672 -0.70318 0.0057171
0.039279 0.13714 1.0748 5.7161e-39 431 324 0 0 0 -0.70743 -0.0090061 -0.70673 0.0056487
-0.041219 0.13908 1.0753 6.2693e-39 409.5 324.5 0 0 0 0.73133 -0.11266 -0.67266 0.026349
-0.039547 0.13931 1.0755 7.3449e-39 395.67 324.67 0 0 0 0.71871 -0.1086 -0.68677 0.027503
0.038871 0.13927 1.0751 5.962e-39 363.67 325 0 0 0 -0.70844 0.001705 -0.70577 0.005616
-0.039331 0.14097 1.0753 4.8403e-39 459.5 325 0 0 0 0.72189 -0.088494 -0.68632 0.027095
0.038055 0.14103 1.0758 6.5459e-39 233 326 0 0 0 -0.69999 0.013173 -0.71403 0.006022
-0.041201 0.14217 1.0748 7.6522e-39 372 326 0 0 0 0.74737 -0.05072 -0.66247 0.02475
-0.039116 0.14263 1.0751 7.0376e-39 308.67 326.33 0 0 0 0.72228 -0.04758 -0.68996 0.026098
0.038055 0.14292 1.0758 5.9927e-39 340 326.5 0 0 0 -0.69884 0.015275 -0.71512 0.0059457
-0.038686 0.14531 1.0748 6.7764e-39 286.5 327.5 0 0 0 0.73092 -0.0080381 -0.68242 0.023276
0.038667 0.14538 1.0753 6.6842e-39 349 327.5 0 0 0 -0.70373 0.016433 -0.71028 0.0053776
-0.038686 0.1472 1.0748 6.5459e-39 396 328 0 0 0 0.73406 0.0098235 -0.67901 0.020933
-0.037461 0.14733 1.0758 6.8225e-39 397 328 0 0 0 0.70201 0.0068327 -0.71214 0.021402
0.038055 0.1467 1.0758 6.4076e-39 354 328 0 0 0 -0.69575 0.029326 -0.71769 0.0059595
-0.037461 0.14921 1.0758 5.9005e-39 307 329 0 0 0 0.70126 0.022123 -0.71256 0.018412
0.038055 0.14921 1.0758 6.4076e-39 275.5 329.5 0 0 0 -0.69215 0.051052 -0.71995 0.006475
-0.038686 0.15097 1.0748 5.3473e-39 212 330 0 0 0 0.72939 0.037961 -0.68305 0.016014
0.038055 0.1511 1.0758 5.5317e-39 388 330 0 0 0 -0.69383 0.071594 -0.71657 0.0069956
-0.038719 0.15299 1.0758 5.9927e-39 315.5 330.5 0 0 0 0.71189 0.066468 -0.69914 0.012295
0.038871 0.15269 1.0751 5.4088e-39 255 331 0 0 0 -0.70185 0.083786 -0.70738 0.0065816
-0.039331 0.15481 1.0753 5.9927e-39 420.5 331 0 0 0 0.72041 0.094718 -0.68705 0.010389
0.039279 0.15474 1.0748 6.0849e-39 199 332 0 0 0 -0.70429 0.099454 -0.70291 0.0064312
-0.041201 0.15726 1.0748 7.0991e-39 434 332 0 0 0 0.73579 0.10357 -0.66924 0.010196
-0.039978 0.15614 1.0758 5.5317e-39 224 332 0 0 0 0.71654 0.096245 -0.69088 0.010118
0.039313 0.15676 1.0758 5.3473e-39 313 332.5 0 0 0 -0.69898 0.10818 -0.70692 0.0065006
0.040536 0.15663 1.0748 5.4395e-39 314 332.5 0 0 0 -0.716 0.1112 -0.68919 0.0056035
-0.042458 0.15914 1.0748 6.2693e-39 353 333 0 0 0 0.7367 0.12371 -0.6648 0.010359
-0.041219 0.15922 1.0753 6.4537e-39 354 333 0 0 0 0.72209 0.11897 -0.68149 0.0095754
0.039313 0.15928 1.0758 6.2232e-39 334 333.5 0 0 0 -0.70512 0.088407 -0.70356 0.0095431
0.040536 0.15914 1.0748 6.5459e-39 339 333.5 0 0 0 -0.72277 0.083793 -0.68599 0.0089188
-0.043105 0.1611 1.0753 6.0388e-39 386.5 334 0 0 0 0.72456 0.13472 -0.67592 0.0094112
0.039313 0.16117 1.0758 6.1771e-39 451 334 0 0 0 -0.70763 0.066999 -0.7034 0.013242
0.040536 0.16103 1.0748 5.9005e-39 452 334 0 0 0 -0.72251 0.079643 -0.68675 0.010094
-0.042477 0.16299 1.0753 6.2693e-39 305.5 335 0 0 0 0.71906 0.14069 -0.68056 0.010186
0.039313 0.16243 1.0758 7.0991e-39 384 335 0 0 0 -0.70878 0.063474 -0.70256 0.014603
-0.042458 0.1648 1.0748 6.3615e-39 225 336 0 0 0 0.70624 0.15411 -0.691 0.010003
-0.041237 0.16495 1.0758 6.2693e-39 226 336 0 0 0 0.6936 0.13417 -0.70775 0.01158
-0.039978 0.16495 1.0758 5.8083e-39 227 336 0 0 0 0.68044 0.12255 -0.72249 0.012012
-0.041201 0.16606 1.0748 5.8083e-39 441 336 0 0 0 0.69161 0.13288 -0.70994 0.012317
0.038121 0.12993 1.0776 5.7161e-39 199 322 0 0 0 -0.68184 0.017587 -0.73129 0.0096275
0.038088 0.13108 1.0767 7.8366e-39 373 322 0 0 0 -0.69055 0.0066751 -0.72326 0.007764
-0.043792 0.13234 1.0767 7.3757e-39 382 322 0 0 0 0.70559 -0.28947 -0.6468 0.036444
0.03686 0.13371 1.0776 8.1132e-39 248 323 0 0 0 -0.67541 0.019729 -0.73717 0.0090663
0.03686 0.13498 1.0776 5.7161e-39 436 323 0 0 0 -0.67655 0.019752 -0.73613 0.0087429
0.038088 0.13486 1.0767 5.3473e-39 437 323 0 0 0 -0.69528 -0.0018023 -0.71874 0.0065914
-0.04066 0.13681 1.0771 6.1541e-39 412.5 323.5 0 0 0 0.70669 -0.18244 -0.6836 0.035003
-0.03877 0.13681 1.0771 6.6842e-39 414 323.5 0 0 0 0.68214 -0.18208 -0.70819 0.040278
0.03686 0.13687 1.0776 5.9466e-39 331.5 324 0 0 0 -0.67653 0.019196 -0.73616 0.0082677
0.038088 0.13675 1.0767 6.0388e-39 332.5 324 0 0 0 -0.69548 0.0029245 -0.71854 0.0063632
-0.038753 0.13864 1.0767 6.1771e-39 457 324 0 0 0 0.6936 -0.13825 -0.70697 0.032384
0.03686 0.13876 1.0776 6.4537e-39 230 325 0 0 0 -0.67832 0.020547 -0.73448 0.0076642
0.038088 0.13864 1.0767 6.5459e-39 231 325 0 0 0 -0.6978 0.0058278 -0.71627 0.0063367
0.036844 0.14059 1.0771 6.3615e-39 330 325.5 0 0 0 -0.68374 0.018526 -0.72949 0.0069394
-0.037526 0.14317 1.0776 6.8685e-39 277.5 326.5 0 0 0 0.68242 -0.054524 -0.72892 0.028903
0.036844 0.14311 1.0771 5.9005e-39 339 326.5 0 0 0 -0.68464 0.022448 -0.72854 0.0070305
-0.037493 0.14493 1.0767 7.7444e-39 386 327 0 0 0 0.68872 -0.019649 -0.72476 0.025954
0.03686 0.14506 1.0776 5.6239e-39 445 327 0 0 0 -0.68261 0.029521 -0.73018 0.0071332
-0.037493 0.14619 1.0767 5.3473e-39 189 328 0 0 0 0.69114 -0.0043119 -0.7227 0.024279
0.03686 0.14758 1.0776 5.5317e-39 456 328 0 0 0 -0.6818 0.049863 -0.72984 0.007461
-0.037493 0.15123 1.0767 5.7161e-39 213 330 0 0 0 0.68898 0.043684 -0.72347 0.0147
0.03686 0.15137 1.0776 5.9927e-39 387 330 0 0 0 -0.67773 0.086086 -0.73025 0.0076598
-0.037526 0.15326 1.0776 6.131e-39 316.5 330.5 0 0 0 0.68559 0.06975 -0.72464 0.011502
0.03686 0.15263 1.0776 4.9786e-39 183 331 0 0 0 -0.67222 0.10009 -0.73356 0.0073888
0.038088 0.15375 1.0767 5.6239e-39 395 331 0 0 0 -0.68644 0.10064 -0.72018 0.0073319
-0.037526 0.15515 1.0776 6.4537e-39 422 331 0 0 0 0.68217 0.095542 -0.72492 0.0096307
0.038088 0.15501 1.0767 6.4537e-39 198 332 0 0 0 -0.68522 0.10725 -0.7204 0.0068167
-0.040013 0.15753 1.0767 7.3757e-39 435 332 0 0 0 0.70375 0.1052 -0.70262 0.0091482
-0.03877 0.15697 1.0771 6.5459e-39 330.5 332 0 0 0 0.68781 0.10485 -0.71828 0.0090959
0.038121 0.15704 1.0776 5.5317e-39 312 332.5 0 0 0 -0.68281 0.092594 -0.72471 0.0091351
-0.040013 0.15879 1.0767 5.9005e-39 252 333 0 0 0 0.69618 0.1137 -0.70881 0.0088886
-0.038787 0.15893 1.0776 6.0849e-39 253 333 0 0 0 0.68008 0.1096 -0.7249 0.0094219
0.038121 0.15893 1.0776 6.1771e-39 430 333 0 0 0 -0.68321 0.080535 -0.72577 0.011633
-0.040456 0.16098 1.0773 6.5152e-39 411.67 333.67 0 0 0 0.68783 0.11655 -0.71646 0.0098424
0.038121 0.16019 1.0776 5.7161e-39 236 334 0 0 0 -0.68885 0.075755 -0.72093 0.012452
-0.040642 0.1632 1.0767 6.2923e-39 307 335 0 0 0 0.68766 0.12858 -0.71456 0.011034
-0.040118 0.13395 1.0795 5.9005e-39 187 323 0 0 0 0.64748 -0.23279 -0.72566 0.048587
0.036892 0.13257 1.0786 5.5317e-39 444 322 0 0 0 -0.66999 0.029885 -0.74176 0.010282
-0.040714 0.13509 1.0786 7.9288e-39 373.5 323 0 0 0 0.67541 -0.22189 -0.70327 0.043709
-0.038855 0.13521 1.0795 7.9288e-39 375 323 0 0 0 0.62911 -0.2103 -0.74833 0.050613
0.035662 0.13711 1.0795 6.0849e-39 330.5 324 0 0 0 -0.65698 0.030154 -0.75331 0.010351
-0.037592 0.139 1.0795 5.8083e-39 458 324 0 0 0 0.63622 -0.15886 -0.75498 0.043093
0.035662 0.139 1.0795 5.9005e-39 229 325 0 0 0 -0.65418 0.03566 -0.7555 0.010039
-0.036944 0.14083 1.079 6.7073e-39 342 325.25 0 0 0 0.64671 -0.11353 -0.75424 0.038616
-0.035066 0.1409 1.0795 6.8685e-39 271 325.5 0 0 0 0.61495 -0.1089 -0.78101 0.04465
0.035646 0.14083 1.0791 6.5459e-39 329 325.5 0 0 0 -0.66141 0.031403 -0.74936 0.0088352
-0.036313 0.14336 1.0791 6.9147e-39 278.5 326.5 0 0 0 0.64905 -0.063928 -0.75806 0.031966
-0.035066 0.14279 1.0795 7.6522e-39 377 326 0 0 0 0.63009 -0.075897 -0.7728 0.035929
0.03563 0.1433 1.0786 6.131e-39 338 326.5 0 0 0 -0.66647 0.025579 -0.74509 0.0078477
-0.036329 0.14532 1.0795 7.3757e-39 387 327 0 0 0 0.65089 -0.029549 -0.7586 0.02822
-0.035066 0.14469 1.0795 6.1771e-39 285 327 0 0 0 0.63185 -0.034931 -0.77431 0.030333
0.03563 0.14519 1.0786 5.5317e-39 444 327 0 0 0 -0.66608 0.036956 -0.74497 0.0081304
-0.036313 0.14715 1.0791 6.0849e-39 294 328 0 0 0 0.65564 -0.0011476 -0.75508 0.023007
-0.035066 0.14721 1.0795 5.7161e-39 296 328 0 0 0 0.63289 0.00026622 -0.77424 0.02356
0.03563 0.14708 1.0786 6.131e-39 352 328 0 0 0 -0.6685 0.048034 -0.74216 0.0084774
0.036892 0.14645 1.0786 6.6381e-39 250 328 0 0 0 -0.67632 0.03769 -0.73565 0.0077161
-0.036297 0.14897 1.0786 5.2552e-39 204 329 0 0 0 0.66012 0.019485 -0.7509 0.019733
-0.035066 0.1491 1.0795 5.3473e-39 205 329 0 0 0 0.63402 0.019421 -0.77307 0.020637
0.03563 0.14897 1.0786 8.1132e-39 373 329 0 0 0 -0.66673 0.063711 -0.74257 0.0083292
0.036892 0.14897 1.0786 8.021e-39 374 329 0 0 0 -0.67279 0.061241 -0.73729 0.0079449
-0.036297 0.15024 1.0786 7.0991e-39 412 329 0 0 0 0.66283 0.030317 -0.74815 0.017267
0.03563 0.15087 1.0786 5.9006e-39 280 330 0 0 0 -0.6641 0.084858 -0.74281 0.0080141
0.036892 0.15024 1.0786 4.9786e-39 175 330 0 0 0 -0.67054 0.074705 -0.7381 0.0079885
0.035662 0.15289 1.0795 5.0708e-39 178 331 0 0 0 -0.66069 0.10199 -0.7437 0.0076286
0.036892 0.15465 1.0786 5.9466e-39 295.5 331.5 0 0 0 -0.66882 0.10459 -0.73603 0.0071884
-0.037575 0.15725 1.0791 6.4537e-39 331.5 332 0 0 0 0.66464 0.097792 -0.74074 0.0098154
0.036925 0.15731 1.0795 5.67e-39 311 332.5 0 0 0 -0.66942 0.080656 -0.7385 0.011027
0.036925 0.15921 1.0795 5.8083e-39 429 333 0 0 0 -0.66736 0.08001 -0.74043 0.012729
-0.038821 0.16096 1.0786 6.4076e-39 424.5 333.5 0 0 0 0.66638 0.10943 -0.73754 0.010251
0.038154 0.16159 1.0786 6.5459e-39 450 334 0 0 0 -0.6849 0.070484 -0.72522 0.014626
-0.038855 0.163 1.0795 5.8083e-39 201 335 0 0 0 0.65862 0.11456 -0.74371 0.010961
-0.038821 0.16475 1.0786 5.7161e-39 322 335.5 0 0 0 0.66217 0.11584 -0.74035 0.01176
-0.033832 0.13154 1.0805 6.3615e-39 212 322 0 0 0 0.45525 -0.22252 -0.86211 0.075081
0.036957 0.13154 1.0805 7.8366e-39 372 322 0 0 0 -0.65817 0.040931 -0.75176 0.011871
-0.033832 0.1328 1.0805 7.4678e-39 389 322 0 0 0 0.47443 -0.20308 -0.85655 0.071057
-0.041417 0.13407 1.0805 5.6239e-39 186 323 0 0 0 0.64971 -0.24758 -0.71874 0.04774
-0.038889 0.13407 1.0805 5.9927e-39 188 323 0 0 0 0.60649 -0.22167 -0.76357 0.05527
-0.035127 0.13545 1.0814 8.1132e-39 378 323 0 0 0 0.52454 -0.16095 -0.83604 0.063993
-0.033832 0.1347 1.0805 6.8685e-39 285.5 323 0 0 0 0.50801 -0.16717 -0.84497 0.06557
0.033194 0.13482 1.0814 6.2693e-39 339 323 0 0 0 -0.6017 0.075585 -0.79513 0.018026
0.035069 0.13473 1.0807 6.4998e-39 340.5 323 0 0 0 -0.63293 0.051951 -0.77247 0.014059
-0.037001 0.13725 1.0807 6.9608e-39 272 324 0 0 0 0.59917 -0.17 -0.78237 0.051573
-0.035112 0.13728 1.081 6.4998e-39 273.5 324 0 0 0 0.55898 -0.14606 -0.81621 0.058127
-0.033832 0.13723 1.0805 6.3154e-39 274.5 324 0 0 0 0.53226 -0.15033 -0.83313 0.058659
0.033194 0.13671 1.0814 6.0849e-39 231 324 0 0 0 -0.60428 0.066469 -0.79399 0.016311
0.034459 0.13735 1.0814 6.3154e-39 329.5 324 0 0 0 -0.62723 0.055107 -0.77688 0.013909
-0.036361 0.13912 1.0805 5.0708e-39 459 324 0 0 0 0.6079 -0.14622 -0.78043 0.048223
-0.035096 0.13912 1.0805 4.702e-39 460 324 0 0 0 0.5839 -0.1306 -0.80125 0.050994
-0.033862 0.13924 1.0814 4.702e-39 461 324 0 0 0 0.54527 -0.1222 -0.82931 0.053287
0.034429 0.13912 1.0805 5.9927e-39 228 325 0 0 0 -0.63426 0.045051 -0.77181 0.011981
-0.033832 0.14102 1.0805 6.7764e-39 272 325.5 0 0 0 0.5769 -0.10608 -0.8099 0.04798
0.034429 0.14102 1.0805 6.6381e-39 328 325.5 0 0 0 -0.63849 0.040472 -0.76856 0.01105
-0.033832 0.14291 1.0805 7.7444e-39 378 326 0 0 0 0.5914 -0.076463 -0.80275 0.039136
0.034429 0.14291 1.0805 6.9147e-39 435 326 0 0 0 -0.64301 0.041243 -0.76475 0.010404
-0.033832 0.14481 1.0805 5.9005e-39 286 327 0 0 0 0.59827 -0.034269 -0.80056 0.031779
0.034444 0.14487 1.081 5.7622e-39 341 327 0 0 0 -0.64478 0.043516 -0.76313 0.010573
-0.033862 0.14683 1.0814 5.3473e-39 194 328 0 0 0 0.60008 -0.022346 -0.79963 0.02933
0.034444 0.1474 1.081 6.2693e-39 351 328 0 0 0 -0.6478 0.056439 -0.75971 0.010589
-0.033862 0.14874 1.0814 5.7161e-39 303 328.5 0 0 0 0.5999 0.0052093 -0.80006 0.023886
0.034459 0.14937 1.0814 7.7444e-39 372 329 0 0 0 -0.65081 0.07063 -0.75595 0.010634
-0.036361 0.15176 1.0805 6.0849e-39 214 330 0 0 0 0.64264 0.049272 -0.76458 0.015572
-0.035112 0.1512 1.081 6.3154e-39 314 329.5 0 0 0 0.62629 0.043339 -0.77839 0.016998
-0.033862 0.15063 1.0814 6.2693e-39 414 329 0 0 0 0.6027 0.039586 -0.79698 0.018676
0.034459 0.15126 1.0814 6.4076e-39 279 330 0 0 0 -0.64702 0.091544 -0.75696 0.0095441
-0.036361 0.15303 1.0805 6.1771e-39 417 330 0 0 0 0.64337 0.072626 -0.7621 0.012557
-0.035127 0.15316 1.0814 5.9927e-39 418 330 0 0 0 0.62382 0.075973 -0.77787 0.012556
0.034459 0.15316 1.0814 4.9786e-39 177 331 0 0 0 -0.64549 0.10331 -0.75675 0.0084824
-0.036392 0.15506 1.0814 6.7303e-39 320.5 331 0 0 0 0.63567 0.089209 -0.76679 0.010993
0.035693 0.15492 1.0805 5.8083e-39 294.5 331.5 0 0 0 -0.65696 0.09222 -0.74827 0.0092767
0.035724 0.15696 1.0814 5.5317e-39 406 332 0 0 0 -0.65298 0.080773 -0.75305 0.011399
-0.037625 0.15935 1.0805 6.9147e-39 254 333 0 0 0 0.64791 0.10862 -0.75393 0.010199
0.035724 0.15822 1.0814 6.1771e-39 214 333 0 0 0 -0.65062 0.080847 -0.75509 0.012305
-0.037625 0.16061 1.0805 5.5317e-39 460 333 0 0 0 0.64801 0.10613 -0.7542 0.010573
-0.037658 0.16265 1.0814 6.131e-39 296.5 334.5 0 0 0 0.63848 0.10889 -0.76189 0.0112
-0.037658 0.16518 1.0814 5.4856e-39 323 335.5 0 0 0 0.63146 0.10806 -0.76785 0.012363
0.038254 0.16455 1.0814 5.6239e-39 195 336 0 0 0 -0.6598 0.06241 -0.74884 0.019474
-0.037625 0.16693 1.0805 5.9005e-39 442 336 0 0 0 0.64176 0.098808 -0.76052 0.012765
-0.035127 0.16834 1.0814 8.1132e-39 257 337 0 0 0 0.59938 0.064918 -0.79783 0.012973
0.028108 0.17325 1.0805 5.3473e-39 163 340 0 0 0 -0.56314 -0.089785 -0.82147 0.03712
-0.018712 0.12428 1.0833 6.3615e-39 419 319 0 0 0 0.13501 0.021532 -0.99061 0.029481
-0.035189 0.13188 1.0833 5.9927e-39 211 322 0 0 0 0.46019 -0.21337 -0.8618 0.075618
-0.033273 0.13119 1.0828 6.4076e-39 311.5 321.5 0 0 0 0.41095 -0.20408 -0.88852 0.075922
-0.040223 0.13303 1.0824 7.6522e-39 384 322 0 0 0 0.60535 -0.2569 -0.75336 0.058606
-0.038991 0.13315 1.0833 7.1913e-39 385 322 0 0 0 0.56902 -0.24008 -0.7865 0.064188
-0.036456 0.13315 1.0833 6.9147e-39 387 322 0 0 0 0.49606 -0.21033 -0.84243 0.070489
-0.035158 0.13303 1.0824 7.1913e-39 388 322 0 0 0 0.47975 -0.19188 -0.85617 0.071082
-0.032654 0.13315 1.0833 7.6522e-39 390 322 0 0 0 0.42739 -0.15978 -0.88984 0.071459
0.031984 0.13315 1.0833 5.4395e-39 441 322 0 0 0 -0.55925 0.10285 -0.8226 0.022299
0.033223 0.13303 1.0824 5.5317e-39 442 322 0 0 0 -0.59065 0.094278 -0.8014 0.019852
0.034489 0.13303 1.0824 5.5317e-39 443 322 0 0 0 -0.61578 0.07221 -0.7846 0.017555
-0.037066 0.13496 1.0826 7.1452e-39 283 323 0 0 0 0.55024 -0.20311 -0.80993 0.060937
-0.035158 0.1343 1.0824 5.9927e-39 191 323 0 0 0 0.49557 -0.17562 -0.85063 0.067553
-0.032654 0.13506 1.0833 6.638e-39 286.5 323 0 0 0 0.45044 -0.13868 -0.88197 0.067113
0.031956 0.13493 1.0824 6.2693e-39 338 323 0 0 0 -0.5744 0.084257 -0.81422 0.019813
-0.032654 0.13695 1.0833 5.0708e-39 179 324 0 0 0 0.47231 -0.11827 -0.87346 0.061612
0.031956 0.13683 1.0824 6.1771e-39 230 324 0 0 0 -0.58144 0.076815 -0.80996 0.018118
-0.032654 0.13885 1.0833 6.592e-39 273 324.5 0 0 0 0.49115 -0.10904 -0.86422 0.056533
0.031956 0.13873 1.0824 6.6842e-39 325.5 324.5 0 0 0 -0.58713 0.071556 -0.80633 0.016513
0.033223 0.13873 1.0824 6.7303e-39 326.5 324.5 0 0 0 -0.60182 0.064437 -0.79603 0.015716
-0.032625 0.14127 1.0824 6.7303e-39 273 325.5 0 0 0 0.52602 -0.088793 -0.84582 0.050101
-0.031387 0.14076 1.0833 7.6522e-39 372 325 0 0 0 0.47383 -0.083022 -0.87669 0.052014
0.031956 0.14127 1.0824 6.592e-39 326 325.5 0 0 0 -0.59549 0.067113 -0.80055 0.015171
0.033223 0.14127 1.0824 6.5459e-39 327 325.5 0 0 0 -0.60991 0.054939 -0.79056 0.014288
-0.032625 0.14316 1.0824 7.6522e-39 379 326 0 0 0 0.54669 -0.074307 -0.83403 0.044996
-0.031387 0.14266 1.0833 6.4536e-39 278 326 0 0 0 0.49262 -0.071098 -0.86734 0.048646
0.031956 0.14316 1.0824 6.8225e-39 433 326 0 0 0 -0.60308 0.058617 -0.79552 0.014406
0.033223 0.14316 1.0824 7.2835e-39 434 326 0 0 0 -0.61763 0.052428 -0.78472 0.013337
-0.032639 0.14513 1.0828 5.8544e-39 287 327 0 0 0 0.54879 -0.033522 -0.83529 0.036338
-0.031387 0.14456 1.0833 5.3473e-39 185 327 0 0 0 0.51039 -0.03557 -0.85921 0.039666
0.031984 0.14519 1.0833 5.9927e-39 339 327 0 0 0 -0.60488 0.062736 -0.79384 0.01427
0.033223 0.14506 1.0824 5.8083e-39 340 327 0 0 0 -0.6226 0.050255 -0.78093 0.012617
-0.032654 0.14709 1.0833 5.2552e-39 195 328 0 0 0 0.5465 -0.013594 -0.83735 0.031528
0.031984 0.14709 1.0833 6.1771e-39 246 328 0 0 0 -0.60758 0.064741 -0.79162 0.013947
0.033252 0.14709 1.0833 5.9927e-39 247 328 0 0 0 -0.62013 0.061219 -0.78211 0.013149
-0.032654 0.14899 1.0833 5.9927e-39 304 328.5 0 0 0 0.55948 0.0084357 -0.8288 0.025544
0.031984 0.14836 1.0833 6.0849e-39 452 328 0 0 0 -0.6091 0.074034 -0.78963 0.014282
0.033238 0.14893 1.0828 6.8686e-39 412 328.5 0 0 0 -0.6289 0.072487 -0.7741 0.012359
-0.032654 0.15089 1.0833 6.1771e-39 415 329 0 0 0 0.57214 0.043754 -0.81899 0.018586
0.033252 0.15089 1.0833 5.2552e-39 172 330 0 0 0 -0.62231 0.092734 -0.77726 0.011354
-0.033906 0.15273 1.0828 5.9005e-39 317.5 330 0 0 0 0.59758 0.075156 -0.79828 0.013878
0.033252 0.1528 1.0833 6.5459e-39 280 330.5 0 0 0 -0.6145 0.10031 -0.78251 0.010365
-0.035158 0.15519 1.0824 6.8686e-39 321.5 331 0 0 0 0.61463 0.090795 -0.78357 0.011948
-0.033921 0.15533 1.0833 6.4998e-39 322.5 331 0 0 0 0.59585 0.095631 -0.79739 0.012292
0.033252 0.15533 1.0833 5.9005e-39 292.5 331.5 0 0 0 -0.61328 0.086844 -0.78508 0.011979
0.034489 0.15519 1.0824 6.0388e-39 293.5 331.5 0 0 0 -0.63196 0.088302 -0.76996 0.010982
-0.036424 0.15709 1.0824 5.6239e-39 227 332 0 0 0 0.62705 0.093041 -0.7734 0.011023
-0.035189 0.15723 1.0833 5.5317e-39 228 332 0 0 0 0.60865 0.098284 -0.78733 0.011624
0.033252 0.15723 1.0833 6.0849e-39 404 332 0 0 0 -0.61217 0.085393 -0.7861 0.012383
0.034489 0.15709 1.0824 5.7161e-39 405 332 0 0 0 -0.63517 0.081882 -0.76802 0.011757
-0.036456 0.15913 1.0833 7.2374e-39 346.5 332.5 0 0 0 0.62182 0.10565 -0.776 0.010814
0.033252 0.1585 1.0833 5.5317e-39 212 333 0 0 0 -0.611 0.078197 -0.78776 0.013095
0.034931 0.1593 1.083 5.8083e-39 355.33 333 0 0 0 -0.63226 0.079725 -0.77064 0.013121
-0.036456 0.16103 1.0833 5.5317e-39 162 334 0 0 0 0.62034 0.10764 -0.77691 0.011471
0.035137 0.16096 1.0828 5.7622e-39 234.5 334 0 0 0 -0.62813 0.073505 -0.77462 0.014735
-0.036456 0.16294 1.0833 6.0388e-39 297.5 334.5 0 0 0 0.61469 0.10763 -0.78139 0.012244
0.035787 0.16294 1.0833 7.3296e-39 416 334.5 0 0 0 -0.63211 0.065698 -0.77209 0.016841
-0.036456 0.16484 1.0833 5.4395e-39 418 335 0 0 0 0.60981 0.10279 -0.78585 0.012991
-0.035189 0.16484 1.0833 5.4395e-39 419 335 0 0 0 0.59881 0.090396 -0.79577 0.012585
0.037022 0.16469 1.0824 5.7161e-39 194 336 0 0 0 -0.64464 0.05768 -0.7623 0.019386
-0.036456 0.16673 1.0833 5.8544e-39 336.5 336 0 0 0 0.60824 0.087755 -0.78889 0.013251
-0.035189 0.16673 1.0833 6.131e-39 337.5 336 0 0 0 0.59366 0.075886 -0.80113 0.013181
0.037054 0.16673 1.0833 5.3012e-39 313 336.5 0 0 0 -0.63114 0.047236 -0.77423 0.023091
0.038322 0.1661 1.0833 5.0708e-39 409 336 0 0 0 -0.64478 0.048636 -0.76282 0.023091
-0.033273 0.1692 1.0828 6.9607e-39 271 337.5 0 0 0 0.57812 0.056676 -0.81398 0.012931
0.037054 0.16864 1.0833 5.5317e-39 429 337 0 0 0 -0.62911 0.029334 -0.77676 0.026722
0.026915 0.17371 1.0833 5.7161e-39 162 340 0 0 0 -0.51703 -0.19516 -0.83342 0.039876
0.028804 0.173 1.0828 6.6381e-39 271.5 339.5 0 0 0 -0.56663 -0.049506 -0.82249 0.028203
0.030717 0.17371 1.0833 5.9927e-39 165 340 0 0 0 -0.57747 -0.034422 -0.81569 0.026579
-0.025082 0.12508 1.0847 5.8544e-39 424 319 0 0 0 0.12188 -0.13318 -0.98357 0.050893
-0.022964 0.12485 1.0846 5.962e-39 422.67 319 0 0 0 0.11185 -0.099836 -0.9887 0.044665
-0.021275 0.12508 1.0847 5.9466e-39 427.5 319 0 0 0 0.10558 -0.045233 -0.99338 0.038717
-0.019371 0.12572 1.0847 6.0849e-39 204 320 0 0 0 0.13792 0.010928 -0.99038 0.030939
-0.017047 0.12531 1.0849 5.9312e-39 278.33 319.67 0 0 0 0.13725 0.042188 -0.98964 0.025737
-0.020015 0.12704 1.0852 6.0849e-39 410 320 0 0 0 0.14241 -0.0078834 -0.98978 0.032185
-0.018745 0.12704 1.0852 6.5459e-39 411 320 0 0 0 0.15141 0.017454 -0.98832 0.027131
-0.016841 0.12704 1.0852 6.8225e-39 412.5 320 0 0 0 0.14949 0.040263 -0.98794 0.023245
-0.033951 0.12946 1.0843 5.8083e-39 219 321 0 0 0 0.3724 -0.23041 -0.89902 0.083673
-0.020015 0.12894 1.0852 5.6239e-39 210 321 0 0 0 0.15806 -0.0034524 -0.98742 0.029672
-0.018745 0.12894 1.0852 5.5778e-39 211.5 321 0 0 0 0.16049 0.023801 -0.98675 0.025841
-0.040294 0.132 1.0843 6.2693e-39 207 322 0 0 0 0.55846 -0.29068 -0.77694 0.067844
-0.036488 0.132 1.0843 5.7161e-39 210 322 0 0 0 0.47818 -0.22164 -0.84984 0.075444
-0.03522 0.13073 1.0843 6.0849e-39 409 321 0 0 0 0.42532 -0.24216 -0.87204 0.080133
-0.032683 0.13073 1.0843 7.1913e-39 411 321 0 0 0 0.371 -0.20406 -0.90594 0.077026
-0.031009 0.13123 1.0849 6.7918e-39 346.33 321.33 0 0 0 0.33404 -0.15635 -0.9295 0.071532
-0.028902 0.13085 1.0852 6.3615e-39 414 321 0 0 0 0.25555 -0.12266 -0.95898 0.065389
-0.025093 0.13085 1.0852 5.7161e-39 417 321 0 0 0 0.19642 -0.061254 -0.97861 0.045595
-0.020015 0.13085 1.0852 5.5317e-39 421 321 0 0 0 0.17091 0.012147 -0.98521 0.028242
-0.041562 0.13327 1.0843 7.6522e-39 383 322 0 0 0 0.60827 -0.27323 -0.74522 0.05843
-0.03906 0.13212 1.0852 5.9005e-39 208 322 0 0 0 0.53178 -0.25852 -0.80646 0.072392
-0.037774 0.13269 1.0847 6.3154e-39 297.5 322 0 0 0 0.50777 -0.2292 -0.83044 0.072582
-0.030586 0.13292 1.0849 6.7917e-39 332.67 322 0 0 0 0.34272 -0.1423 -0.9286 0.065955
-0.028902 0.13275 1.0852 6.3615e-39 304.5 322 0 0 0 0.28376 -0.11174 -0.95236 0.061866
-0.025093 0.13275 1.0852 5.9466e-39 307.5 322 0 0 0 0.22314 -0.053845 -0.9733 0.045981
0.032675 0.13212 1.0852 7.7444e-39 370.5 322 0 0 0 -0.55842 0.10752 -0.82256 0.023381
-0.030793 0.13523 1.0847 6.592e-39 288 323 0 0 0 0.37534 -0.11399 -0.91985 0.061582
-0.028902 0.13529 1.0852 6.7764e-39 289.5 323 0 0 0 0.32216 -0.084811 -0.94288 0.056212
0.029501 0.13529 1.0852 6.0849e-39 336 323 0 0 0 -0.49694 0.10958 -0.86084 0.023283
0.030771 0.13529 1.0852 6.1771e-39 337 323 0 0 0 -0.52521 0.10002 -0.84507 0.022821
-0.030793 0.13713 1.0847 5.3934e-39 180.5 324 0 0 0 0.39914 -0.0953 -0.91192 0.057649
-0.028902 0.13719 1.0852 5.8083e-39 182 324 0 0 0 0.34852 -0.075597 -0.93425 0.054217
0.029501 0.13719 1.0852 6.5459e-39 228 324 0 0 0 -0.50486 0.10314 -0.85702 0.02224
0.030744 0.13707 1.0843 6.5459e-39 229 324 0 0 0 -0.53636 0.092571 -0.8389 0.021395
-0.030793 0.13903 1.0847 6.615e-39 274.5 324.5 0 0 0 0.41944 -0.078985 -0.90434 0.055192
-0.028902 0.1391 1.0852 6.4537e-39 276 324.5 0 0 0 0.3651 -0.059302 -0.92908 0.051393
0.029501 0.1391 1.0852 5.8083e-39 323.5 324.5 0 0 0 -0.51449 0.09247 -0.85249 0.021102
0.030744 0.13897 1.0843 6.3615e-39 324.5 324.5 0 0 0 -0.54362 0.085696 -0.83495 0.019726
-0.030146 0.14088 1.0843 7.8366e-39 373 325 0 0 0 0.41456 -0.068192 -0.90746 0.050956
-0.028877 0.14088 1.0843 8.021e-39 374 325 0 0 0 0.39309 -0.04791 -0.91825 0.049687
0.029501 0.141 1.0852 5.9927e-39 422 325 0 0 0 -0.51982 0.09068 -0.84945 0.019573
0.030744 0.14088 1.0843 6.0849e-39 423 325 0 0 0 -0.55306 0.076689 -0.82961 0.018459
-0.030146 0.14278 1.0843 6.4998e-39 279 326 0 0 0 0.43367 -0.054923 -0.8994 0.046621
-0.028877 0.14278 1.0843 6.592e-39 280 326 0 0 0 0.41096 -0.039779 -0.91079 0.046196
-0.027633 0.1429 1.0852 6.6381e-39 281 326 0 0 0 0.37401 -0.025794 -0.92706 0.041207
0.028866 0.1429 1.0852 5.9005e-39 328 326 0 0 0 -0.52272 0.089092 -0.84784 0.018583
0.030744 0.14278 1.0843 6.3615e-39 329.5 326 0 0 0 -0.56253 0.072673 -0.82358 0.017463
-0.03078 0.14531 1.0843 6.1771e-39 288.5 327 0 0 0 0.48725 -0.024272 -0.87292 0.036343
-0.028902 0.14481 1.0852 5.8083e-39 187 327 0 0 0 0.42603 -0.010702 -0.90465 0.036998
-0.027633 0.14481 1.0852 5.4395e-39 188 327 0 0 0 0.39614 -0.0013436 -0.91819 0.033066
0.028866 0.14481 1.0852 6.2693e-39 234.5 327 0 0 0 -0.53166 0.08642 -0.84254 0.017871
0.030744 0.14531 1.0843 6.131e-39 338 327 0 0 0 -0.57162 0.068533 -0.81765 0.015809
-0.030586 0.14688 1.0849 5.9005e-39 261.67 327.67 0 0 0 0.48349 -0.00077535 -0.87535 0.032029
-0.028902 0.14672 1.0852 5.9927e-39 295.5 327.5 0 0 0 0.4366 0.017266 -0.89949 0.028448
0.029501 0.14672 1.0852 6.2693e-39 341.5 327.5 0 0 0 -0.54982 0.080336 -0.83141 0.016811
0.030771 0.14735 1.0852 6.6381e-39 245 328 0 0 0 -0.57205 0.071347 -0.81711 0.015632
-0.030793 0.14919 1.0847 6.0619e-39 305.5 328.5 0 0 0 0.50774 0.044783 -0.86035 0.02163
-0.028902 0.14926 1.0852 5.9466e-39 307 328.5 0 0 0 0.46455 0.065278 -0.88314 0.018618
0.029501 0.14926 1.0852 7.099e-39 409 328.5 0 0 0 -0.56088 0.083213 -0.82371 0.0156
0.030757 0.14919 1.0847 6.7764e-39 410 328.5 0 0 0 -0.57984 0.076652 -0.81111 0.015122
0.032013 0.14976 1.0843 7.4678e-39 370 329 0 0 0 -0.5976 0.084059 -0.79738 0.013475
-0.030793 0.1511 1.0847 6.4076e-39 416.5 329 0 0 0 0.52864 0.066959 -0.8462 0.017473
-0.028902 0.15116 1.0852 6.4537e-39 418 329 0 0 0 0.4881 0.097194 -0.86736 0.014997
0.029501 0.15116 1.0852 5.2552e-39 169 330 0 0 0 -0.56577 0.10113 -0.81834 0.012669
0.030771 0.15116 1.0852 5.4395e-39 170 330 0 0 0 -0.5775 0.098643 -0.81041 0.012204
0.032013 0.15103 1.0843 5.4395e-39 171 330 0 0 0 -0.59382 0.096895 -0.79874 0.012135
-0.032683 0.15293 1.0843 5.9466e-39 318.5 330 0 0 0 0.57238 0.08207 -0.81587 0.013866
-0.030793 0.153 1.0847 6.3845e-39 320 330 0 0 0 0.54318 0.086941 -0.8351 0.015015
0.030771 0.15306 1.0852 6.7764e-39 278 330.5 0 0 0 -0.57586 0.10371 -0.81094 0.010693
0.032013 0.15293 1.0843 6.6842e-39 279 330.5 0 0 0 -0.59132 0.10524 -0.79954 0.010419
-0.032683 0.15483 1.0843 5.9927e-39 221 331 0 0 0 0.57576 0.088638 -0.8128 0.013156
-0.030807 0.15497 1.0852 5.5317e-39 222.5 331 0 0 0 0.54219 0.092821 -0.83512 0.013873
0.030771 0.15497 1.0852 5.3473e-39 389 331 0 0 0 -0.58107 0.087389 -0.80915 0.011991
0.032041 0.15497 1.0852 5.7161e-39 390 331 0 0 0 -0.59242 0.087034 -0.80091 0.012103
-0.033124 0.15704 1.0849 5.9005e-39 295 331.67 0 0 0 0.57341 0.10103 -0.81302 0.012669
-0.031019 0.15666 1.0852 6.0542e-39 362 331.33 0 0 0 0.54733 0.096365 -0.83135 0.013443
0.030771 0.15624 1.0852 5.163e-39 185 332 0 0 0 -0.57972 0.087023 -0.81016 0.012508
0.032041 0.15687 1.0852 5.9466e-39 298 332 0 0 0 -0.59379 0.08844 -0.79974 0.012377
-0.03522 0.15927 1.0843 7.3296e-39 405 332.5 0 0 0 0.60034 0.10454 -0.79288 0.011542
-0.033951 0.15927 1.0843 7.6522e-39 406 332.5 0 0 0 0.58617 0.10684 -0.80312 0.011912
0.032661 0.15935 1.0847 6.0388e-39 318 333 0 0 0 -0.59703 0.082283 -0.79799 0.013663
-0.03522 0.16118 1.0843 5.3473e-39 163 334 0 0 0 0.59638 0.10383 -0.79596 0.011787
-0.033951 0.16118 1.0843 5.163e-39 164 334 0 0 0 0.58401 0.10511 -0.80491 0.012095
0.033281 0.16118 1.0843 5.6239e-39 233 334 0 0 0 -0.60723 0.075422 -0.79094 0.014601
-0.03522 0.16308 1.0843 6.0388e-39 298.5 334.5 0 0 0 0.59452 0.10039 -0.79779 0.012638
-0.033548 0.16339 1.0849 5.839e-39 268.33 334.67 0 0 0 0.57066 0.09096 -0.81613 0.012709
0.033295 0.16315 1.0847 7.0991e-39 414 334.5 0 0 0 -0.60487 0.072295 -0.79304 0.015576
0.03455 0.16308 1.0843 7.514e-39 415 334.5 0 0 0 -0.61583 0.067218 -0.785 0.016525
-0.033951 0.16498 1.0843 5.4395e-39 420 335 0 0 0 0.5755 0.083034 -0.81357 0.013151
0.03331 0.16513 1.0852 5.8083e-39 171 336 0 0 0 -0.5984 0.060081 -0.79894 0.016957
0.035199 0.16506 1.0847 5.67e-39 172.5 336 0 0 0 -0.61779 0.056514 -0.78431 0.018813
-0.033951 0.16689 1.0843 5.9466e-39 338.5 336 0 0 0 0.57342 0.076114 -0.81572 0.013062
0.03585 0.16703 1.0852 5.4395e-39 312 336.5 0 0 0 -0.61247 0.044067 -0.78926 0.021796
-0.032711 0.16893 1.0852 8.2054e-39 374 337 0 0 0 0.56609 0.053748 -0.82259 0.012397
-0.030807 0.16893 1.0852 8.7586e-39 375.5 337 0 0 0 0.53998 0.06651 -0.83905 0.012105
0.03585 0.16893 1.0852 5.5317e-39 428 337 0 0 0 -0.61368 0.031661 -0.78892 0.024445
-0.030793 0.17013 1.0847 5.7622e-39 170.5 338 0 0 0 0.54261 0.061762 -0.83771 0.012365
0.028232 0.17147 1.0852 6.2693e-39 454 338 0 0 0 -0.5395 -0.052147 -0.84037 0.028204
0.030771 0.17147 1.0852 6.2693e-39 456 338 0 0 0 -0.57334 0.0043182 -0.8193 0.021251
0.032887 0.17105 1.0852 5.7776e-39 386 338 0 0 0 -0.59584 0.0094146 -0.80305 0.023421
0.035215 0.17084 1.0852 5.7161e-39 352 338 0 0 0 -0.60015 0.011913 -0.7998 0.02752
0.037087 0.17006 1.0843 6.1771e-39 246 338 0 0 0 -0.6215 0.017144 -0.78323 0.027955
0.02567 0.17259 1.0843 8.7586e-39 377 339 0 0 0 -0.50526 -0.16379 -0.84728 0.036827
0.026938 0.17259 1.0843 8.482e-39 378 339 0 0 0 -0.51375 -0.15037 -0.84466 0.03658
0.029476 0.17259 1.0843 6.9147e-39 380 339 0 0 0 -0.56796 -0.012239 -0.82297 0.021372
0.030744 0.17259 1.0843 6.4537e-39 381 339 0 0 0 -0.57897 -0.0083801 -0.81531 0.022897
0.032436 0.17301 1.0843 6.5152e-39 310.33 339.33 0 0 0 -0.58538 -0.018114 -0.81056 0.027743
0.035215 0.17274 1.0852 6.592e-39 384.5 339 0 0 0 -0.58794 -0.016756 -0.80873 0.030326
0.010457 0.18163 1.0852 8.021e-39 469 342 0 0 0 -0.45173 -0.6344 -0.62728 0.010089
-0.030225 0.12472 1.0871 6.1771e-39 405 319 0 0 0 0.13942 -0.26505 -0.9541 0.078146
-0.028941 0.1253 1.0867 5.7622e-39 418.5 319 0 0 0 0.13459 -0.19807 -0.9709 0.067803
-0.026826 0.12511 1.0868 5.9927e-39 417.67 319 0 0 0 0.11151 -0.13915 -0.98397 0.053957
-0.023845 0.12588 1.0862 6.3615e-39 434 319 0 0 0 0.1235 -0.075566 -0.98946 0.043767
-0.014949 0.12588 1.0862 5.6239e-39 209 320 0 0 0 0.12852 0.067615 -0.9894 0.01845
-0.013052 0.12533 1.0869 5.4395e-39 316 319.5 0 0 0 0.14481 0.098333 -0.98456 0.011009
-0.011137 0.12525 1.0862 5.6239e-39 317.5 319.5 0 0 0 0.146 0.11599 -0.98246 0.0104
-0.0098663 0.12588 1.0862 6.2693e-39 231 320 0 0 0 0.13662 0.13135 -0.98188 0.0098847
-0.025116 0.12715 1.0862 5.8083e-39 406 320 0 0 0 0.14677 -0.08643 -0.98539 0.046616
-0.02322 0.1272 1.0867 5.67e-39 407.5 320 0 0 0 0.13586 -0.061416 -0.98882 0.04124
-0.021303 0.12715 1.0862 5.7161e-39 409 320 0 0 0 0.13733 -0.036387 -0.98986 0.035937
-0.014949 0.12715 1.0862 6.3615e-39 414 320 0 0 0 0.1339 0.067118 -0.98872 0.017717
-0.013049 0.1272 1.0867 5.67e-39 415.5 320 0 0 0 0.14137 0.098444 -0.98505 0.010546
-0.011137 0.12715 1.0862 5.5317e-39 417 320 0 0 0 0.13691 0.11317 -0.9841 0.0098829
-0.0098663 0.12715 1.0862 6.0849e-39 418 320 0 0 0 0.13676 0.13405 -0.98149 0.0093424
0.014291 0.12726 1.0871 6.2693e-39 425 320 0 0 0 -0.14201 0.082941 -0.98638 0.0091119
0.016835 0.12726 1.0871 6.3615e-39 427 320 0 0 0 -0.17839 0.074656 -0.98112 0.012593
0.01809 0.12715 1.0862 6.1771e-39 428 320 0 0 0 -0.19838 0.063742 -0.97805 0.014079
-0.035313 0.1298 1.0871 6.0849e-39 218 321 0 0 0 0.36166 -0.24356 -0.89993 0.086168
-0.03274 0.12969 1.0862 5.7161e-39 226 321 0 0 0 0.32404 -0.18827 -0.92712 0.080508
-0.030834 0.12969 1.0862 6.1771e-39 227.5 321 0 0 0 0.27807 -0.15731 -0.94759 0.07335
-0.028941 0.12911 1.0867 6.2232e-39 333 320.5 0 0 0 0.21204 -0.1204 -0.96982 0.065799
-0.026826 0.12934 1.0868 6.1156e-39 300 320.67 0 0 0 0.1869 -0.092484 -0.97802 0.054031
-0.025116 0.12905 1.0862 5.67e-39 336 320.5 0 0 0 0.17137 -0.070575 -0.98268 0.046484
-0.02321 0.12905 1.0862 5.5547e-39 207.5 321 0 0 0 0.15784 -0.050214 -0.98619 0.040426
-0.021303 0.12905 1.0862 5.8083e-39 209 321 0 0 0 0.15816 -0.022535 -0.98716 0.034019
-0.016856 0.12905 1.0862 5.7622e-39 213.5 321 0 0 0 0.15924 0.046543 -0.98614 0.020885
-0.014949 0.12905 1.0862 5.67e-39 215.5 321 0 0 0 0.14467 0.070712 -0.98695 0.01673
-0.013055 0.12917 1.0871 5.8774e-39 217 321 0 0 0 0.14821 0.1047 -0.9834 0.0097947
-0.011142 0.12911 1.0867 6.9607e-39 221 321 0 0 0 0.14345 0.12442 -0.98181 0.0087564
-0.0098707 0.12911 1.0867 6.6842e-39 222 321 0 0 0 0.13479 0.13934 -0.98103 0.0091785
0.014291 0.12916 1.0871 6.6841e-39 298.5 321 0 0 0 -0.15547 0.11884 -0.98067 0.010575
0.016835 0.12916 1.0871 6.5919e-39 300.5 321 0 0 0 -0.18836 0.096582 -0.97734 0.013285
0.018742 0.12917 1.0871 6.7072e-39 302 321 0 0 0 -0.21928 0.090832 -0.97142 0.015447
0.02065 0.12916 1.0871 6.5459e-39 303.5 321 0 0 0 -0.26531 0.1004 -0.95892 0.019866
0.023194 0.1298 1.0871 5.9927e-39 396 321 0 0 0 -0.32849 0.12031 -0.93681 0.023387
-0.0404 0.13108 1.0871 6.4537e-39 405 321 0 0 0 0.52281 -0.32177 -0.78939 0.077237
-0.039128 0.13108 1.0871 5.9927e-39 406 321 0 0 0 0.47433 -0.3038 -0.82627 0.081148
-0.036552 0.13096 1.0862 5.9927e-39 408 321 0 0 0 0.42044 -0.25934 -0.86947 0.081061
-0.027022 0.13096 1.0862 5.7622e-39 415.5 321 0 0 0 0.21881 -0.08237 -0.97228 0.05379
-0.02321 0.13096 1.0862 6.592e-39 418.5 321 0 0 0 0.17815 -0.033987 -0.98342 0.039204
-0.021303 0.13096 1.0862 6.2693e-39 420 321 0 0 0 0.17355 -0.013398 -0.98473 0.032983
-0.018762 0.13096 1.0862 5.4395e-39 422 321 0 0 0 0.16773 0.034523 -0.98523 0.023686
-0.016856 0.13096 1.0862 5.5778e-39 423.5 321 0 0 0 0.16899 0.055398 -0.98406 0.019355
-0.014949 0.13096 1.0862 6.3615e-39 425 321 0 0 0 0.16455 0.084575 -0.98274 0.012953
-0.013691 0.13108 1.0871 6.6381e-39 426 321 0 0 0 0.16129 0.10454 -0.98136 0.009376
-0.011147 0.13108 1.0871 5.9005e-39 428 321 0 0 0 0.14792 0.13437 -0.97983 0.0082881
-0.009875 0.13108 1.0871 5.8083e-39 429 321 0 0 0 0.13923 0.15031 -0.97879 0.0087021
0.019378 0.13108 1.0871 5.9927e-39 188 322 0 0 0 -0.24437 0.10152 -0.96435 0.016277
0.02065 0.13108 1.0871 6.1771e-39 189 322 0 0 0 -0.27756 0.10494 -0.95496 0.019851
0.032069 0.13096 1.0862 6.1771e-39 198 322 0 0 0 -0.52932 0.11175 -0.84103 0.026539
-0.041672 0.13235 1.0871 6.6381e-39 206 322 0 0 0 0.56245 -0.32423 -0.76061 0.066911
-0.027022 0.13286 1.0862 6.0388e-39 306 322 0 0 0 0.23839 -0.066475 -0.96889 0.052155
-0.02321 0.13286 1.0862 6.2232e-39 309 322 0 0 0 0.19159 -0.024314 -0.98117 0.037571
-0.020668 0.13286 1.0862 6.592e-39 311 322 0 0 0 0.18218 0.0043848 -0.98325 0.031024
-0.01877 0.13293 1.0867 6.131e-39 312.5 322 0 0 0 0.18317 0.041532 -0.9822 0.023268
-0.016658 0.13277 1.0871 6.0542e-39 284.67 322 0 0 0 0.17629 0.065705 -0.98214 0.018032
-0.014963 0.13298 1.0871 6.4537e-39 315.5 322 0 0 0 0.16795 0.097005 -0.98101 0.011672
-0.011147 0.13235 1.0871 6.4537e-39 230 322 0 0 0 0.15678 0.14114 -0.9775 0.0081116
-0.009875 0.13235 1.0871 5.9005e-39 231 322 0 0 0 0.14265 0.15347 -0.9778 0.0086808
0.02065 0.13235 1.0871 9.0352e-39 255 322 0 0 0 -0.28383 0.10824 -0.95275 0.018679
0.02489 0.1332 1.0871 6.3615e-39 411.67 322 0 0 0 -0.38832 0.12039 -0.91363 0.023446
0.026986 0.1335 1.0862 5.5317e-39 437 322 0 0 0 -0.43718 0.1216 -0.89112 0.024545
0.02912 0.13316 1.0868 6.3001e-39 415 322 0 0 0 -0.47211 0.10734 -0.87498 0.025305
0.030811 0.13293 1.0867 6.7764e-39 404.5 322 0 0 0 -0.50661 0.11533 -0.85442 0.025138
-0.027034 0.13483 1.0867 6.131e-39 197.5 323 0 0 0 0.26464 -0.06086 -0.96242 0.050556
