# .PCD v.7 - Point Cloud Data file format
VERSION .7
FIELDS x y z rgb u v vx vy vz normal_x normal_y normal_z curvature
SIZE 4 4 4 4 4 4 4 4 4 4 4 4 4
TYPE F F F F F F F F F F F F F
COUNT 1 1 1 1 1 1 1 1 1 1 1 1 1
WIDTH 555
HEIGHT 1
VIEWPOINT 0 0 0 1 0 0 0
POINTS 555
DATA ascii
-0.052992 0.14319 1.0592 6.1771e-39 196.5 331.5 0 0 0 0.88429 -0.18273 -0.4297 0.020327
-0.052946 0.14493 1.0582 6.6381e-39 385 332 0 0 0 0.88635 -0.19393 -0.42044 0.019911
-0.051752 0.14629 1.0592 6.7303e-39 206 333 0 0 0 0.88681 -0.18325 -0.42424 0.019353
-0.050491 0.14933 1.0587 6.8686e-39 207 334.5 0 0 0 0.89293 -0.18712 -0.40947 0.017235
-0.05306 0.13717 1.0605 5.67e-39 307.5 328 0 0 0 0.86131 -0.17419 -0.47728 0.01372
-0.054277 0.13897 1.0601 7.0991e-39 243 329 0 0 0 0.87071 -0.16763 -0.46235 0.016563
-0.053083 0.13909 1.061 7.1913e-39 244 329 0 0 0 0.87052 -0.16795 -0.4626 0.016056
-0.054277 0.14022 1.0601 5.5317e-39 188 330 0 0 0 0.87325 -0.17864 -0.45335 0.017712
-0.05306 0.1409 1.0605 5.5779e-39 297 330 0 0 0 0.87888 -0.16189 -0.44873 0.017739
-0.051886 0.14294 1.0619 6.3615e-39 228 331 0 0 0 0.87469 -0.14208 -0.46339 0.014687
-0.051863 0.14474 1.0615 5.9466e-39 276.5 332 0 0 0 0.88095 -0.14538 -0.45033 0.016142
-0.050622 0.14722 1.0615 6.1772e-39 330 333 0 0 0 0.88547 -0.14454 -0.44165 0.01625
-0.049401 0.14791 1.0619 5.2552e-39 454 333 0 0 0 0.88164 -0.12525 -0.45499 0.014304
-0.049359 0.14902 1.061 7.1913e-39 239 334 0 0 0 0.8855 -0.13909 -0.44333 0.015395
-0.049316 0.15076 1.0601 6.131e-39 290 335 0 0 0 0.89198 -0.17972 -0.41482 0.015944
-0.049359 0.15275 1.061 6.3615e-39 227 336 0 0 0 0.89181 -0.19517 -0.40814 0.014922
-0.051975 0.13696 1.0637 5.9927e-39 191 328 0 0 0 0.8559 -0.11425 -0.50436 0.011113
-0.051975 0.13883 1.0637 6.5459e-39 335.5 328.5 0 0 0 0.8626 -0.11187 -0.49336 0.011578
-0.051952 0.14126 1.0633 5.67e-39 300.5 330 0 0 0 0.8694 -0.12579 -0.47783 0.012307
-0.050731 0.14568 1.0637 5.7161e-39 387 332 0 0 0 0.87553 -0.11906 -0.46826 0.013217
0.051318 0.14443 1.0637 7.7444e-39 254 332 0 0 0 -0.77031 -0.12703 -0.62489 0.013677
-0.049444 0.14679 1.0628 7.1913e-39 208 333 0 0 0 0.8774 -0.11039 -0.46689 0.013058
-0.048242 0.14941 1.0637 7.0069e-39 240 334 0 0 0 0.87778 -0.10257 -0.46796 0.011897
-0.049572 0.13595 1.0655 5.9927e-39 230 327 0 0 0 0.84978 -0.090984 -0.51923 0.0095256
-0.050818 0.1372 1.0655 5.8083e-39 192 328 0 0 0 0.85293 -0.085849 -0.51492 0.010003
-0.049572 0.1372 1.0655 5.4395e-39 193 328 0 0 0 0.85265 -0.086123 -0.51534 0.0098566
0.051406 0.14094 1.0655 5.9927e-39 396 330 0 0 0 -0.7646 -0.11595 -0.63399 0.012146
-0.050818 0.14281 1.0655 6.2232e-39 321 330.5 0 0 0 0.86152 -0.066012 -0.50342 0.010625
-0.049572 0.14281 1.0655 5.9466e-39 322 330.5 0 0 0 0.86131 -0.066402 -0.50373 0.010496
-0.050818 0.14468 1.0655 6.3615e-39 168 332 0 0 0 0.86573 -0.074051 -0.495 0.01021
-0.04955 0.14524 1.0651 6.4076e-39 278.5 332 0 0 0 0.86551 -0.074524 -0.49532 0.010076
-0.048325 0.14717 1.0655 7.1913e-39 209 333 0 0 0 0.86672 -0.063554 -0.49473 0.0095547
-0.048325 0.14842 1.0655 5.3473e-39 455 333 0 0 0 0.87143 -0.064506 -0.48626 0.0093412
-0.050862 0.13607 1.0665 6.0849e-39 229 327 0 0 0 0.84978 -0.090984 -0.51923 0.0095256
-0.048367 0.13732 1.0665 5.2552e-39 194 328 0 0 0 0.84973 -0.066946 -0.52295 0.0089092
0.051495 0.13744 1.0674 5.9927e-39 417 328 0 0 0 -0.76187 -0.11982 -0.63655 0.011159
-0.050862 0.13919 1.0665 6.4076e-39 336.5 328.5 0 0 0 0.85443 -0.076359 -0.51392 0.0097299
-0.049001 0.13923 1.0667 6.2232e-39 338 328.5 0 0 0 0.85399 -0.077511 -0.51448 0.0093409
0.051451 0.13919 1.0665 6.2232e-39 206.5 329.5 0 0 0 -0.76553 -0.11649 -0.63277 0.011571
-0.050862 0.14106 1.0665 5.5317e-39 191 330 0 0 0 0.85823 -0.065617 -0.50905 0.010139
-0.049011 0.14112 1.0669 5.3473e-39 192.5 330 0 0 0 0.85642 -0.057251 -0.5131 0.0089476
-0.048388 0.14299 1.0669 6.0849e-39 323 330.5 0 0 0 0.85711 -0.049637 -0.51274 0.0085155
0.048998 0.14368 1.0674 4.8864e-39 454 331 0 0 0 -0.78798 -0.087402 -0.60947 0.011797
0.050247 0.14368 1.0674 4.7942e-39 455 331 0 0 0 -0.7858 -0.092595 -0.61151 0.011843
-0.048409 0.14493 1.0674 7.0991e-39 170 332 0 0 0 0.85829 -0.045713 -0.51112 0.0082578
0.048998 0.14493 1.0674 7.3757e-39 252 332 0 0 0 -0.78947 -0.08749 -0.60752 0.011812
0.050247 0.14493 1.0674 7.4678e-39 253 332 0 0 0 -0.79128 -0.091675 -0.60454 0.012584
-0.048367 0.14605 1.0665 6.0849e-39 389 332 0 0 0 0.85986 -0.049662 -0.5081 0.0086694
-0.04716 0.14743 1.0674 6.7303e-39 210 333 0 0 0 0.86068 -0.029228 -0.5083 0.0080346
0.048998 0.14618 1.0674 5.5317e-39 195 333 0 0 0 -0.79667 -0.08457 -0.59847 0.01233
0.050203 0.14605 1.0665 5.6239e-39 196 333 0 0 0 -0.79271 -0.095379 -0.60209 0.01304
-0.04716 0.14993 1.0674 7.4678e-39 243 334 0 0 0 0.86553 -0.032402 -0.49981 0.0074954
-0.04716 0.15118 1.0674 6.1771e-39 178 335 0 0 0 0.86748 -0.039926 -0.49586 0.007462
-0.04599 0.13392 1.0692 5.7161e-39 197 326 0 0 0 0.82194 -0.0091413 -0.5695 0.0066618
0.05154 0.13381 1.0683 5.6239e-39 415 326 0 0 0 -0.74617 -0.14285 -0.65025 0.010753
-0.047241 0.13517 1.0692 5.9005e-39 416 326 0 0 0 0.82746 -0.0096275 -0.56144 0.0073707
-0.04599 0.13517 1.0692 6.2693e-39 417 326 0 0 0 0.8286 -0.0089142 -0.55978 0.007302
0.05154 0.13506 1.0683 6.3615e-39 228 327 0 0 0 -0.75357 -0.1256 -0.64526 0.010678
-0.047241 0.13705 1.0692 5.7622e-39 213 327.5 0 0 0 0.8358 -0.017406 -0.54876 0.0078802
0.05154 0.13631 1.0683 5.9927e-39 186 328 0 0 0 -0.75712 -0.11987 -0.64218 0.010682
-0.047241 0.13893 1.0692 5.163e-39 430 328 0 0 0 0.84238 -0.018635 -0.53855 0.0082495
0.049083 0.13893 1.0692 6.9147e-39 232 329 0 0 0 -0.7777 -0.091177 -0.62198 0.01021
0.049061 0.14075 1.0688 5.7161e-39 285.5 330 0 0 0 -0.78201 -0.084527 -0.61751 0.01068
0.050312 0.14075 1.0688 5.67e-39 286.5 330 0 0 0 -0.77888 -0.096685 -0.61968 0.010707
-0.047241 0.14331 1.0692 6.131e-39 324 330.5 0 0 0 0.8502 -0.021667 -0.52601 0.0074702
0.04904 0.14256 1.0683 6.2693e-39 216 331 0 0 0 -0.78635 -0.083665 -0.6121 0.011218
0.05029 0.14256 1.0683 6.5459e-39 217 331 0 0 0 -0.78439 -0.091433 -0.61349 0.0114
-0.047241 0.14518 1.0692 6.6381e-39 171 332 0 0 0 0.85456 -0.019058 -0.51901 0.0071115
-0.047201 0.14631 1.0683 6.2693e-39 390 332 0 0 0 0.85962 -0.028772 -0.51013 0.007733
-0.04599 0.14768 1.0692 6.2693e-39 211 333 0 0 0 0.85499 -0.013021 -0.51848 0.0066509
0.04904 0.14756 1.0683 5.8083e-39 424 333 0 0 0 -0.80311 -0.075369 -0.59105 0.012777
-0.047201 0.14881 1.0683 5.5317e-39 456 333 0 0 0 0.86251 -0.025289 -0.5054 0.0072796
-0.04599 0.14893 1.0692 5.8083e-39 457 333 0 0 0 0.8564 -0.014657 -0.5161 0.006913
-0.047201 0.15256 1.0683 5.9005e-39 404 335 0 0 0 0.86694 -0.034744 -0.49721 0.0074344
0.051674 0.13165 1.0711 6.7303e-39 235 325 0 0 0 -0.74676 -0.15087 -0.64776 0.010129
0.052927 0.13165 1.0711 6.7303e-39 236 325 0 0 0 -0.73242 -0.16631 -0.66023 0.010048
0.049168 0.1329 1.0711 5.2552e-39 194 326 0 0 0 -0.76072 -0.11925 -0.63803 0.0087854
0.051629 0.13279 1.0702 5.3473e-39 196 326 0 0 0 -0.7459 -0.14276 -0.65057 0.010163
-0.044798 0.13473 1.0706 6.0388e-39 308 326 0 0 0 0.80883 0.030488 -0.58725 0.0083412
-0.043545 0.13473 1.0706 5.9005e-39 309 326 0 0 0 0.80179 0.042381 -0.5961 0.0072353
0.049168 0.13478 1.0711 6.2232e-39 319.5 326.5 0 0 0 -0.76853 -0.10366 -0.63137 0.0087921
0.050421 0.13478 1.0711 6.2232e-39 320.5 326.5 0 0 0 -0.76486 -0.10688 -0.63527 0.0091262
-0.04603 0.13717 1.0702 6.2693e-39 214 327.5 0 0 0 0.82779 -0.0046365 -0.56102 0.0072859
0.049147 0.13723 1.0706 5.7161e-39 299.5 328 0 0 0 -0.77538 -0.087317 -0.62543 0.0093767
0.050421 0.13729 1.0711 5.7161e-39 300.5 328 0 0 0 -0.77604 -0.088236 -0.62448 0.0095305
-0.04603 0.13905 1.0702 5.2552e-39 431 328 0 0 0 0.83169 0.0056218 -0.55521 0.0077192
0.047915 0.13917 1.0711 6.5459e-39 231 329 0 0 0 -0.77941 -0.069046 -0.62269 0.0095359
0.050377 0.13905 1.0702 7.0991e-39 233 329 0 0 0 -0.77758 -0.091154 -0.62214 0.010364
-0.046676 0.14098 1.0706 6.2463e-39 222 329.5 0 0 0 0.83269 0.0079608 -0.55369 0.0073436
0.047894 0.14099 1.0706 6.0388e-39 284.5 330 0 0 0 -0.78315 -0.067794 -0.61812 0.0098591
-0.04607 0.14293 1.0711 5.7161e-39 417 330 0 0 0 0.83548 0.010923 -0.54942 0.0077034
0.047267 0.14287 1.0706 6.8686e-39 214.5 331 0 0 0 -0.79018 -0.054493 -0.61045 0.0099858
-0.04603 0.14469 1.0702 6.4998e-39 202.5 331.5 0 0 0 0.84432 -0.0022017 -0.53583 0.0074649
0.047267 0.14475 1.0706 6.2924e-39 348.25 331.5 0 0 0 -0.79576 -0.048146 -0.60369 0.010229
-0.04603 0.14656 1.0702 6.4537e-39 391 332 0 0 0 0.84812 -0.0036729 -0.52979 0.0071297
0.047267 0.14725 1.0706 5.5547e-39 308 333 0 0 0 -0.79812 -0.03746 -0.60133 0.010537
0.047915 0.14919 1.0711 6.7303e-39 225 334 0 0 0 -0.80288 -0.024889 -0.59562 0.0096485
-0.04603 0.15095 1.0702 6.4537e-39 212 334.5 0 0 0 0.85248 -0.010161 -0.52267 0.0073242
0.047915 0.15045 1.0711 7.0069e-39 162 335 0 0 0 -0.80767 -0.021204 -0.58925 0.00958
-0.04607 0.15295 1.0711 5.9005e-39 405 335 0 0 0 0.8515 -0.012223 -0.52421 0.0071353
-0.047282 0.15407 1.0702 6.1771e-39 228 336 0 0 0 0.85956 -0.025638 -0.51039 0.0075629
0.047998 0.13125 1.073 6.131e-39 326.5 324.5 0 0 0 -0.7562 -0.12486 -0.64232 0.0079799
0.049231 0.13119 1.0725 6.131e-39 327.5 324.5 0 0 0 -0.75238 -0.13407 -0.64494 0.0081363
0.050941 0.13108 1.0733 5.9312e-39 360.33 324.33 0 0 0 -0.75233 -0.14756 -0.64205 0.008385
0.04737 0.13313 1.073 5.5778e-39 192.5 326 0 0 0 -0.76037 -0.097044 -0.6422 0.0081277
0.050465 0.13302 1.072 5.163e-39 195 326 0 0 0 -0.76072 -0.11925 -0.63803 0.0087854
-0.042421 0.13576 1.0739 5.9005e-39 420 326 0 0 0 0.76987 0.088776 -0.632 0.010909
0.045527 0.13513 1.0739 5.9466e-39 314 326.5 0 0 0 -0.75394 -0.066547 -0.65357 0.0089701
0.04736 0.13499 1.0727 6.131e-39 318 326.5 0 0 0 -0.77111 -0.080931 -0.63154 0.0083669
-0.044856 0.13678 1.072 7.1913e-39 233 327 0 0 0 0.8077 0.037143 -0.58842 0.0080107
-0.043031 0.13696 1.0734 6.7303e-39 234.5 327 0 0 0 0.78326 0.071442 -0.61758 0.0085906
0.045527 0.13702 1.0739 6.5459e-39 181 328 0 0 0 -0.76093 -0.047312 -0.64711 0.0095035
0.04737 0.1369 1.073 5.9927e-39 182.5 328 0 0 0 -0.77215 -0.075004 -0.631 0.0085906
-0.044856 0.13866 1.072 5.7161e-39 314.5 328 0 0 0 0.81387 0.033549 -0.58007 0.0079698
-0.043659 0.13884 1.0734 5.8544e-39 315.5 328 0 0 0 0.79909 0.049613 -0.59916 0.0081874
0.044889 0.13887 1.0737 6.3384e-39 320 328.5 0 0 0 -0.76421 -0.037639 -0.64387 0.0097257
0.047134 0.13849 1.0723 6.1464e-39 352.33 328.33 0 0 0 -0.77866 -0.060658 -0.6245 0.0090838
-0.044895 0.1413 1.073 6.3615e-39 223.5 329.5 0 0 0 0.81169 0.033045 -0.58315 0.0075965
0.04484 0.14123 1.0725 6.0849e-39 282 330 0 0 0 -0.77306 -0.036768 -0.63327 0.0099312
0.046702 0.14117 1.072 6.1771e-39 283.5 330 0 0 0 -0.7844 -0.049731 -0.61826 0.009386
-0.044895 0.14318 1.073 5.5317e-39 418 330 0 0 0 0.81322 0.038708 -0.58066 0.0077776
-0.043678 0.1433 1.0739 5.3473e-39 419 330 0 0 0 0.80718 0.045573 -0.58855 0.0076716
0.04484 0.14311 1.0725 6.4076e-39 212.5 331 0 0 0 -0.77496 -0.027326 -0.63142 0.010126
-0.044895 0.14506 1.073 6.5459e-39 203.5 331.5 0 0 0 0.81429 0.03875 -0.57916 0.0073524
-0.043049 0.14518 1.0739 6.3154e-39 205 331.5 0 0 0 0.80435 0.048023 -0.59221 0.0078063
0.04484 0.145 1.0725 6.8224e-39 343 331.5 0 0 0 -0.77786 -0.018344 -0.62817 0.010287
-0.044895 0.14694 1.073 6.4537e-39 392 332 0 0 0 0.8216 0.029762 -0.56929 0.0072512
-0.043031 0.147 1.0734 5.9466e-39 393.5 332 0 0 0 0.80877 0.041668 -0.58665 0.007363
0.044859 0.14694 1.073 6.0849e-39 187.5 333 0 0 0 -0.77762 -0.012753 -0.62861 0.010271
-0.044856 0.14869 1.072 6.0849e-39 335 333 0 0 0 0.8342 0.013172 -0.5513 0.0073207
-0.043031 0.14889 1.0734 6.1541e-39 336.5 333 0 0 0 0.81178 0.038194 -0.58271 0.0073028
0.044879 0.14889 1.0734 5.5087e-39 321.5 333.5 0 0 0 -0.77869 -4.1991e-05 -0.62741 0.0092323
0.046702 0.14932 1.072 6.1771e-39 224 334 0 0 0 -0.79835 -0.015698 -0.60199 0.009005
-0.044876 0.15127 1.0725 6.5458e-39 214.5 334.5 0 0 0 0.8359 0.010612 -0.54878 0.0070774
-0.043234 0.15117 1.0733 7.4986e-39 229.33 334.33 0 0 0 0.81747 0.027499 -0.57532 0.0071096
0.045487 0.15071 1.073 6.4537e-39 160 335 0 0 0 -0.79038 0.014244 -0.61245 0.0073187
0.046723 0.15127 1.0725 6.6381e-39 274.5 335 0 0 0 -0.79429 0.020311 -0.6072 0.0072171
-0.044895 0.15322 1.073 5.3473e-39 422 335 0 0 0 0.83326 0.014235 -0.5527 0.0068362
-0.04284 0.15293 1.0739 6.0542e-39 347 335 0 0 0 0.81362 0.028961 -0.58067 0.0071394
0.045527 0.1521 1.0739 6.1771e-39 387 335 0 0 0 -0.78259 0.031166 -0.62176 0.0070527
-0.04615 0.15447 1.073 6.3615e-39 229 336 0 0 0 0.84045 0.0060192 -0.54185 0.0066759
0.046865 0.12971 1.0758 6.0849e-39 206 324 0 0 0 -0.73969 -0.12567 -0.66111 0.0081233
0.048081 0.12959 1.0748 5.8083e-39 207 324 0 0 0 -0.74574 -0.13279 -0.65287 0.0081762
0.05064 0.12971 1.0758 5.5317e-39 208 324 0 0 0 -0.74659 -0.15987 -0.64579 0.007864
0.044976 0.13096 1.0758 6.3615e-39 418.5 324 0 0 0 -0.73979 -0.096986 -0.66581 0.0084081
0.046824 0.13085 1.0748 6.1771e-39 420 324 0 0 0 -0.7485 -0.099611 -0.65561 0.0084946
0.044957 0.13279 1.0753 6.0849e-39 210 325.5 0 0 0 -0.74462 -0.075207 -0.66324 0.0085924
0.046824 0.13211 1.0748 6.4537e-39 231 325 0 0 0 -0.74936 -0.092414 -0.65568 0.0084101
0.044309 0.13525 1.0748 5.9927e-39 313 326.5 0 0 0 -0.74885 -0.049038 -0.66093 0.0093529
0.044309 0.13714 1.0748 6.1771e-39 180 328 0 0 0 -0.75093 -0.039932 -0.65917 0.0097921
-0.042458 0.13903 1.0748 5.8083e-39 316.5 328 0 0 0 0.76926 0.087842 -0.63287 0.0093603
0.043089 0.13977 1.0758 6.7303e-39 227 329 0 0 0 -0.74646 -0.01921 -0.66515 0.01026
-0.043105 0.14097 1.0753 7.1913e-39 252.5 329 0 0 0 0.78266 0.068279 -0.61869 0.0086815
0.043051 0.14091 1.0748 6.3615e-39 172 330 0 0 0 -0.74852 -0.023352 -0.6627 0.010304
-0.042877 0.14259 1.0748 5.9005e-39 271.67 330 0 0 0 0.78614 0.066199 -0.61449 0.0083232
0.04307 0.14286 1.0753 6.0388e-39 300 330.5 0 0 0 -0.74946 -0.0047377 -0.66204 0.010736
0.043089 0.14481 1.0758 5.9927e-39 436 331 0 0 0 -0.74826 0.0044956 -0.6634 0.010594
0.043089 0.1467 1.0758 7.0529e-39 216.5 332.5 0 0 0 -0.74771 0.012938 -0.6639 0.010461
-0.041237 0.14984 1.0758 5.6239e-39 461 333 0 0 0 0.77732 0.057273 -0.6265 0.009216
0.043089 0.14858 1.0758 5.4395e-39 419 333 0 0 0 -0.75189 0.021472 -0.65894 0.0092607
-0.041237 0.1511 1.0758 7.6522e-39 249 334 0 0 0 0.77812 0.053026 -0.62588 0.0094185
0.044309 0.15097 1.0748 5.8083e-39 159 335 0 0 0 -0.76772 0.035249 -0.63981 0.0080384
-0.041237 0.15299 1.0758 5.7622e-39 311 335 0 0 0 0.78096 0.047948 -0.62274 0.0094349
0.044309 0.15223 1.0748 6.0849e-39 386 335 0 0 0 -0.7707 0.041775 -0.63583 0.0075395
-0.044973 0.15474 1.0748 6.8225e-39 230 336 0 0 0 0.81976 0.018793 -0.5724 0.0069853
-0.043105 0.15481 1.0753 7.4678e-39 231.5 336 0 0 0 0.80685 0.027215 -0.59013 0.008105
-0.045012 0.15676 1.0758 6.9147e-39 270.5 337 0 0 0 0.81423 0.030233 -0.57975 0.0070106
-0.043754 0.15676 1.0758 6.7303e-39 271.5 337 0 0 0 0.80754 0.030512 -0.58903 0.0077019
0.043164 0.12993 1.0776 5.4395e-39 203 324 0 0 0 -0.73046 -0.085888 -0.67753 0.0082909
0.044806 0.1294 1.0767 6.4537e-39 221 323.67 0 0 0 -0.7327 -0.10395 -0.67256 0.0082284
0.043164 0.13119 1.0776 6.0849e-39 417 324 0 0 0 -0.73306 -0.080142 -0.67542 0.0080602
-0.040048 0.13371 1.0776 6.4537e-39 237 325 0 0 0 0.7105 0.15915 -0.68546 0.017556
0.043145 0.13302 1.0771 6.0849e-39 208.5 325.5 0 0 0 -0.73899 -0.06102 -0.67095 0.0085422
0.043126 0.13486 1.0767 5.7161e-39 402 326 0 0 0 -0.74098 -0.046096 -0.66994 0.0091834
-0.041308 0.13624 1.0776 5.5317e-39 421 326 0 0 0 0.72747 0.1283 -0.67403 0.014987
0.043126 0.13675 1.0767 6.2232e-39 200 327.5 0 0 0 -0.74101 -0.031954 -0.67073 0.0098312
-0.041308 0.13876 1.0776 5.7161e-39 200 328 0 0 0 0.73773 0.10958 -0.66614 0.012409
0.043126 0.13864 1.0767 5.7161e-39 404 328 0 0 0 -0.743 -0.017177 -0.66907 0.010192
0.041903 0.14065 1.0776 6.4537e-39 198.5 329.5 0 0 0 -0.7309 -0.0058278 -0.68246 0.010892
-0.041308 0.1438 1.0776 5.4395e-39 422 330 0 0 0 0.74882 0.087784 -0.65693 0.0096704
0.041885 0.14311 1.0771 6.1771e-39 299 330.5 0 0 0 -0.72935 0.0049817 -0.68412 0.011437
-0.041272 0.14493 1.0767 6.5459e-39 237 331 0 0 0 0.7595 0.078228 -0.64579 0.0097924
-0.041272 0.14682 1.0767 5.4856e-39 285.5 332 0 0 0 0.76443 0.067424 -0.64117 0.0095225
-0.041272 0.14871 1.0767 6.6381e-39 215 333 0 0 0 0.76886 0.062078 -0.63639 0.0090328
0.043126 0.14997 1.0767 5.9927e-39 221 334 0 0 0 -0.74868 0.039205 -0.66177 0.0089436
-0.040048 0.15073 1.0776 6.5459e-39 356 333.5 0 0 0 0.75555 0.06704 -0.65165 0.010476
0.043126 0.15123 1.0767 5.7161e-39 158 335 0 0 0 -0.7525 0.04124 -0.6573 0.0089271
-0.040048 0.15326 1.0776 5.5317e-39 312 335 0 0 0 0.76122 0.05317 -0.64631 0.010149
0.043164 0.15326 1.0776 6.4998e-39 300 335.5 0 0 0 -0.7483 0.042914 -0.66197 0.0097363
-0.041308 0.15515 1.0776 7.0069e-39 233 336 0 0 0 0.77325 0.045025 -0.6325 0.010159
-0.042532 0.1569 1.0767 6.6842e-39 272.5 337 0 0 0 0.79128 0.035947 -0.6104 0.0090784
-0.041308 0.15704 1.0776 6.8686e-39 273.5 337 0 0 0 0.76828 0.043867 -0.6386 0.010198
-0.04318 0.15886 1.0771 6.0849e-39 203.5 338 0 0 0 0.79576 0.037621 -0.60444 0.0088027
-0.042569 0.16271 1.0776 7.0069e-39 163 340 0 0 0 0.76483 0.071398 -0.64027 0.0074971
-0.040876 0.1635 1.0773 6.0234e-39 340.33 340 0 0 0 0.74522 0.05021 -0.66493 0.011505
0.04194 0.13005 1.0786 5.2552e-39 202 324 0 0 0 -0.72396 -0.082109 -0.68494 0.0082533
-0.038821 0.13383 1.0786 6.2693e-39 238 325 0 0 0 0.68594 0.18168 -0.70461 0.019693
0.04194 0.1332 1.0786 6.3615e-39 207.5 325.5 0 0 0 -0.72832 -0.053266 -0.68316 0.0084965
-0.040083 0.13509 1.0786 5.3473e-39 200 326 0 0 0 0.70672 0.15234 -0.6909 0.017088
-0.038821 0.13509 1.0786 5.5317e-39 201 326 0 0 0 0.69052 0.16212 -0.70491 0.01835
0.04194 0.13509 1.0786 5.8083e-39 400 326 0 0 0 -0.73012 -0.037554 -0.68229 0.0095379
-0.040527 0.13728 1.0792 5.962e-39 298.33 326.67 0 0 0 0.71245 0.12458 -0.69058 0.014774
-0.038855 0.13647 1.0795 5.4395e-39 423 326 0 0 0 0.68628 0.15923 -0.7097 0.018102
0.041958 0.13704 1.0791 6.4076e-39 199 327.5 0 0 0 -0.7268 -0.031279 -0.68614 0.0099159
-0.040118 0.139 1.0795 5.9927e-39 201 328 0 0 0 0.71007 0.12526 -0.6929 0.01386
0.04194 0.13888 1.0786 5.8083e-39 403 328 0 0 0 -0.72651 -0.015406 -0.68699 0.01057
-0.040732 0.14083 1.0791 6.2002e-39 374 328.5 0 0 0 0.72096 0.11335 -0.68364 0.012243
0.040714 0.1409 1.0795 6.2693e-39 197.5 329.5 0 0 0 -0.71679 -0.00046355 -0.69729 0.011287
-0.040732 0.14273 1.0791 5.7622e-39 199.5 330 0 0 0 0.72598 0.10974 -0.6789 0.011237
0.040714 0.14279 1.0795 5.9005e-39 387 330 0 0 0 -0.71452 0.012931 -0.6995 0.011296
-0.0401 0.14462 1.0791 6.3154e-39 331 330.5 0 0 0 0.72625 0.10288 -0.67968 0.010504
0.04194 0.14519 1.0786 5.8083e-39 435 331 0 0 0 -0.72632 0.017549 -0.68714 0.011011
-0.040083 0.14708 1.0786 5.5779e-39 286.5 332 0 0 0 0.73556 0.085677 -0.67202 0.009706
0.04194 0.14708 1.0786 6.7764e-39 215.5 332.5 0 0 0 -0.72445 0.028496 -0.68874 0.010563
-0.040083 0.14897 1.0786 6.1771e-39 216 333 0 0 0 0.73882 0.076622 -0.66953 0.0099899
0.04194 0.14897 1.0786 5.8083e-39 405 333 0 0 0 -0.72929 0.03883 -0.6831 0.0096125
0.04194 0.15087 1.0786 5.9005e-39 188.5 334.5 0 0 0 -0.73023 0.04635 -0.68163 0.010144
0.041977 0.15289 1.0795 6.6381e-39 384 335 0 0 0 -0.72168 0.046688 -0.69065 0.011023
-0.040118 0.15542 1.0795 7.1913e-39 234 336 0 0 0 0.73453 0.058079 -0.67609 0.010305
-0.040118 0.15668 1.0795 6.7303e-39 165 337 0 0 0 0.73489 0.056011 -0.67587 0.010645
-0.041345 0.15907 1.0786 5.9927e-39 205 338 0 0 0 0.7529 0.059354 -0.65546 0.0098682
-0.042606 0.16096 1.0786 6.5459e-39 335.5 338.5 0 0 0 0.75866 0.068914 -0.64783 0.0093078
-0.041381 0.1611 1.0795 6.0849e-39 336.5 338.5 0 0 0 0.73813 0.047076 -0.67302 0.011113
-0.040118 0.163 1.0795 7.3757e-39 165 340 0 0 0 0.72608 0.035222 -0.68671 0.013618
0.03952 0.12912 1.0814 7.4678e-39 253 323 0 0 0 -0.69585 -0.07302 -0.71447 0.0081804
0.03952 0.13102 1.0814 5.4395e-39 308.5 324 0 0 0 -0.7004 -0.057712 -0.71141 0.0088278
0.040785 0.13292 1.0814 6.5459e-39 226 325 0 0 0 -0.70763 -0.049135 -0.70487 0.0088115
0.040785 0.13482 1.0814 6.2232e-39 293 326 0 0 0 -0.70855 -0.039192 -0.70457 0.0093301
-0.038889 0.13786 1.0805 6.2693e-39 238 327 0 0 0 0.68854 0.14406 -0.71075 0.015293
0.040785 0.13735 1.0814 6.2693e-39 198 327.5 0 0 0 -0.71119 -0.019414 -0.70273 0.010252
-0.038889 0.13912 1.0805 5.9927e-39 202 328 0 0 0 0.69282 0.13914 -0.70756 0.014685
0.03952 0.13924 1.0814 5.6239e-39 400 328 0 0 0 -0.70775 -0.013468 -0.70633 0.010386
0.040749 0.13912 1.0805 5.7161e-39 402 328 0 0 0 -0.71272 -0.013589 -0.70131 0.010764
-0.038906 0.14108 1.081 5.9005e-39 404.5 328.5 0 0 0 0.69599 0.13035 -0.70613 0.013474
0.03952 0.14114 1.0814 6.0388e-39 196.5 329.5 0 0 0 -0.70561 0.0023977 -0.7086 0.010641
-0.038889 0.14291 1.0805 5.4395e-39 201 330 0 0 0 0.70014 0.12358 -0.70323 0.011898
0.03952 0.14304 1.0814 6.0849e-39 386 330 0 0 0 -0.70341 0.019073 -0.71053 0.010849
-0.038889 0.14481 1.0805 6.0849e-39 332 330.5 0 0 0 0.70785 0.11157 -0.69749 0.011113
0.040749 0.14481 1.0805 6.0849e-39 321.5 331 0 0 0 -0.71213 0.024992 -0.7016 0.010959
-0.038889 0.14734 1.0805 5.7162e-39 287.5 332 0 0 0 0.71091 0.097917 -0.69643 0.010242
0.040749 0.14671 1.0805 7.8366e-39 245 332 0 0 0 -0.71543 0.030439 -0.69802 0.01065
-0.038889 0.14923 1.0805 5.9005e-39 217 333 0 0 0 0.71686 0.083749 -0.69217 0.0098597
0.040767 0.14867 1.081 5.624e-39 294 333 0 0 0 -0.71101 0.040357 -0.70202 0.010291
-0.038889 0.15113 1.0805 6.6842e-39 357 333.5 0 0 0 0.71756 0.07916 -0.69198 0.010241
0.040767 0.1512 1.081 5.7622e-39 187.5 334.5 0 0 0 -0.70584 0.047329 -0.70679 0.011294
-0.038889 0.15303 1.0805 6.1771e-39 197 335 0 0 0 0.71804 0.071906 -0.69228 0.01016
-0.038923 0.15506 1.0814 6.4076e-39 332 335.5 0 0 0 0.71065 0.067292 -0.70032 0.010185
0.042013 0.15492 1.0805 6.3154e-39 344 336 0 0 0 -0.72359 0.023402 -0.68983 0.013662
-0.040153 0.15871 1.0805 6.4998e-39 295 337.5 0 0 0 0.72299 0.048573 -0.68914 0.011402
-0.040188 0.16075 1.0814 5.9005e-39 465 338 0 0 0 0.71347 0.040469 -0.69952 0.012416
-0.040188 0.16202 1.0814 6.7303e-39 235 339 0 0 0 0.7129 0.034594 -0.70041 0.013035
-0.031359 0.12924 1.0824 6.3615e-39 192 323 0 0 0 0.50445 0.29194 -0.81259 0.022891
-0.026939 0.1293 1.0828 5.9005e-39 193.5 323 0 0 0 0.42662 0.28946 -0.85686 0.013448
-0.023782 0.12935 1.0833 5.7161e-39 195 323 0 0 0 0.41306 0.30324 -0.85874 0.0099233
0.038322 0.12935 1.0833 7.2835e-39 252 323 0 0 0 -0.67976 -0.054676 -0.73139 0.0086752
-0.036456 0.13125 1.0833 6.4076e-39 232 323.5 0 0 0 0.59342 0.25471 -0.76353 0.02337
-0.035189 0.13125 1.0833 6.0849e-39 290 323.5 0 0 0 0.5778 0.25647 -0.77483 0.023053
-0.033921 0.13188 1.0833 5.7161e-39 211 324 0 0 0 0.55357 0.26287 -0.79023 0.022854
0.038322 0.13125 1.0833 5.2551e-39 307.5 324 0 0 0 -0.68253 -0.054482 -0.72882 0.0087815
-0.037058 0.13303 1.0824 5.9466e-39 425.5 324 0 0 0 0.61842 0.21921 -0.75465 0.022634
-0.035158 0.13303 1.0824 5.5317e-39 427 324 0 0 0 0.5947 0.22977 -0.77041 0.022963
-0.033921 0.13315 1.0833 4.8864e-39 428 324 0 0 0 0.57091 0.23968 -0.78525 0.02263
0.038938 0.13309 1.0828 6.0849e-39 224.5 325 0 0 0 -0.69003 -0.043622 -0.72247 0.0088973
-0.037058 0.13493 1.0824 5.7622e-39 221 325.5 0 0 0 0.62808 0.19535 -0.75323 0.021845
-0.035158 0.13493 1.0824 6.0388e-39 222.5 325.5 0 0 0 0.60273 0.2082 -0.7703 0.022103
-0.033921 0.13506 1.0833 6.3154e-39 223.5 325.5 0 0 0 0.57905 0.22164 -0.78459 0.021587
0.038938 0.13499 1.0828 6.2232e-39 291.5 326 0 0 0 -0.69161 -0.034897 -0.72143 0.0090383
-0.037074 0.13689 1.0828 5.7622e-39 424.5 326 0 0 0 0.63078 0.17796 -0.75528 0.020505
-0.035189 0.13695 1.0833 5.6239e-39 426 326 0 0 0 0.60423 0.1904 -0.77373 0.020652
0.039554 0.13683 1.0824 6.1771e-39 218 327 0 0 0 -0.69917 -0.021738 -0.71463 0.0096792
-0.037724 0.13885 1.0833 5.9927e-39 221 327.5 0 0 0 0.65338 0.15249 -0.74152 0.0175
0.038938 0.13879 1.0828 6.2232e-39 287 328 0 0 0 -0.69812 -0.01274 -0.71587 0.010094
-0.037724 0.14076 1.0833 5.5317e-39 438 328 0 0 0 0.65856 0.14607 -0.73821 0.016042
0.038322 0.14076 1.0833 5.9927e-39 223 329 0 0 0 -0.69034 0.0014835 -0.72348 0.010868
-0.037724 0.14329 1.0833 5.6239e-39 202 330 0 0 0 0.66778 0.13492 -0.73203 0.01325
0.038322 0.14266 1.0833 5.9927e-39 276.5 330 0 0 0 -0.69018 0.013133 -0.72352 0.010986
-0.037708 0.14513 1.0828 5.9005e-39 333 330.5 0 0 0 0.68031 0.11711 -0.72351 0.011816
0.039554 0.14506 1.0824 6.0849e-39 320.5 331 0 0 0 -0.69866 0.031831 -0.71474 0.01066
-0.037691 0.14696 1.0824 5.3473e-39 179 332 0 0 0 0.68525 0.10623 -0.72052 0.01107
0.039589 0.14709 1.0833 7.1913e-39 244 332 0 0 0 -0.69596 0.036072 -0.71717 0.010852
-0.037691 0.14886 1.0824 6.0849e-39 308 332.5 0 0 0 0.69062 0.094667 -0.717 0.01043
0.039572 0.14893 1.0828 5.4856e-39 292.5 333 0 0 0 -0.69766 0.043845 -0.71508 0.010971
-0.037691 0.15076 1.0824 6.0849e-39 464 333 0 0 0 0.69226 0.082289 -0.71694 0.0097387
0.039554 0.15076 1.0824 6.1771e-39 218 334 0 0 0 -0.69927 0.043 -0.71356 0.01168
-0.037691 0.15266 1.0824 7.053e-39 225 334.5 0 0 0 0.69217 0.076735 -0.71765 0.0094739
0.039589 0.1528 1.0833 6.2232e-39 427.5 334.5 0 0 0 -0.67697 0.029275 -0.73543 0.013454
0.040821 0.15329 1.0824 6.8225e-39 383 335 0 0 0 -0.69922 0.032946 -0.71415 0.013713
-0.037691 0.15519 1.0824 6.3615e-39 333 335.5 0 0 0 0.69076 0.063527 -0.72029 0.010559
0.039589 0.1547 1.0833 6.1771e-39 212 336 0 0 0 -0.67166 0.026842 -0.74037 0.015087
0.040839 0.15526 1.0828 6.1771e-39 343 336 0 0 0 -0.68575 0.02281 -0.72748 0.016025
-0.038957 0.15709 1.0824 6.6381e-39 166 337 0 0 0 0.70384 0.054721 -0.70825 0.010803
-0.037724 0.15723 1.0833 6.7303e-39 167 337 0 0 0 0.68678 0.050131 -0.72514 0.011384
0.040856 0.15723 1.0833 6.8225e-39 243 337 0 0 0 -0.67803 0.025917 -0.73458 0.0167
-0.038957 0.159 1.0824 6.6381e-39 296 337.5 0 0 0 0.7003 0.041025 -0.71267 0.011984
-0.037724 0.1585 1.0833 6.5459e-39 386 337 0 0 0 0.68611 0.042783 -0.72624 0.011664
0.040856 0.15913 1.0833 6.4998e-39 281.5 338 0 0 0 -0.67419 0.022073 -0.73823 0.018398
-0.038991 0.16103 1.0833 5.7161e-39 466 338 0 0 0 0.68794 0.043015 -0.72449 0.012146
0.040856 0.16103 1.0833 5.9927e-39 212 339 0 0 0 -0.67982 0.0097904 -0.73331 0.019579
-0.038974 0.16287 1.0828 7.0991e-39 201 339.5 0 0 0 0.68795 0.022933 -0.7254 0.013683
-0.022554 0.12958 1.0852 5.9005e-39 196 323 0 0 0 0.41672 0.30877 -0.85499 0.0089518
0.037119 0.12958 1.0852 6.6381e-39 251 323 0 0 0 -0.67035 -0.051139 -0.74028 0.0084576
-0.032711 0.13085 1.0852 6.4537e-39 371 323 0 0 0 0.50835 0.26327 -0.81992 0.021267
-0.03078 0.13073 1.0843 5.6239e-39 386.5 323 0 0 0 0.49375 0.27172 -0.82606 0.02002
-0.028902 0.13085 1.0852 5.9005e-39 388 323 0 0 0 0.45179 0.26306 -0.85246 0.014559
-0.026974 0.13073 1.0843 6.4537e-39 389.5 323 0 0 0 0.44173 0.27225 -0.85484 0.012661
-0.025071 0.13073 1.0843 6.2693e-39 391 323 0 0 0 0.42871 0.27831 -0.85951 0.0098882
-0.023824 0.13085 1.0852 5.9005e-39 392 323 0 0 0 0.42985 0.2836 -0.85721 0.0088295
-0.02064 0.13079 1.0847 5.9927e-39 396.5 323 0 0 0 0.42109 0.29631 -0.85726 0.0085529
0.037119 0.13085 1.0852 5.2552e-39 199 324 0 0 0 -0.67209 -0.055921 -0.73836 0.0084282
-0.032711 0.13275 1.0852 5.209e-39 320.5 324 0 0 0 0.52572 0.23971 -0.81618 0.020919
-0.030807 0.13275 1.0852 4.8633e-39 322 324 0 0 0 0.49617 0.24326 -0.83345 0.017893
-0.027633 0.13212 1.0852 5.5317e-39 216 324 0 0 0 0.45704 0.25813 -0.85116 0.013087
0.037119 0.13275 1.0852 5.67e-39 318.5 324.5 0 0 0 -0.67112 -0.043911 -0.74005 0.0085803
-0.032711 0.13529 1.0852 6.5459e-39 224.5 325.5 0 0 0 0.54223 0.20835 -0.81399 0.019265
-0.031442 0.13529 1.0852 6.2693e-39 225.5 325.5 0 0 0 0.52883 0.21665 -0.82061 0.018276
0.037119 0.13529 1.0852 6.2693e-39 290 326 0 0 0 -0.67019 -0.022078 -0.74186 0.0092075
-0.033331 0.13713 1.0847 4.9786e-39 427.5 326 0 0 0 0.56551 0.19638 -0.80102 0.019739
-0.031442 0.13719 1.0852 4.7942e-39 429 326 0 0 0 0.54353 0.20028 -0.81515 0.017396
0.037119 0.13719 1.0852 5.9005e-39 216 327 0 0 0 -0.669 -0.011088 -0.74318 0.0095787
0.038355 0.13707 1.0843 5.9005e-39 217 327 0 0 0 -0.68178 -0.019529 -0.7313 0.0092852
-0.036488 0.13897 1.0843 5.9005e-39 222 327.5 0 0 0 0.62398 0.16602 -0.7636 0.01835
-0.03522 0.13897 1.0843 5.9927e-39 223 327.5 0 0 0 0.6105 0.17306 -0.77287 0.018109
-0.033981 0.1391 1.0852 6.2693e-39 224 327.5 0 0 0 0.58283 0.17453 -0.79363 0.017768
0.037119 0.1391 1.0852 6.3615e-39 285 328 0 0 0 -0.67125 -0.0036208 -0.74122 0.0097514
0.038355 0.13834 1.0843 6.1771e-39 175 328 0 0 0 -0.68297 -0.009354 -0.73039 0.0099023
-0.03652 0.141 1.0852 5.2552e-39 439 328 0 0 0 0.62594 0.1553 -0.76425 0.016052
-0.035251 0.141 1.0852 5.5317e-39 440 328 0 0 0 0.60804 0.15647 -0.77833 0.016516
-0.033981 0.141 1.0852 5.5317e-39 441 328 0 0 0 0.59028 0.1669 -0.78976 0.016573
0.035215 0.141 1.0852 6.6381e-39 220.5 329 0 0 0 -0.66754 0.0061358 -0.74455 0.0099544
0.037119 0.141 1.0852 5.9927e-39 222 329 0 0 0 -0.67029 0.0073245 -0.74206 0.010295
-0.036932 0.14265 1.0849 5.6854e-39 320 329.33 0 0 0 0.64176 0.14069 -0.75389 0.014108
-0.035251 0.1429 1.0852 5.8083e-39 292.5 329.5 0 0 0 0.61399 0.15142 -0.77466 0.014584
-0.033981 0.1429 1.0852 6.131e-39 293.5 329.5 0 0 0 0.59955 0.15767 -0.78466 0.014949
0.035215 0.1429 1.0852 5.7162e-39 418.5 329.5 0 0 0 -0.66526 0.014481 -0.74647 0.0098455
0.037087 0.14278 1.0843 5.8083e-39 275.5 330 0 0 0 -0.67715 0.020474 -0.73556 0.010306
-0.03652 0.14481 1.0852 5.2552e-39 427 330 0 0 0 0.63855 0.12858 -0.75876 0.012186
-0.035251 0.14481 1.0852 5.0708e-39 428 330 0 0 0 0.62623 0.13729 -0.76746 0.012881
-0.033981 0.14481 1.0852 5.163e-39 429 330 0 0 0 0.6034 0.14547 -0.78406 0.012768
0.03585 0.14481 1.0852 6.0849e-39 205 331 0 0 0 -0.66329 0.024723 -0.74795 0.010257
0.037119 0.14481 1.0852 6.5459e-39 206 331 0 0 0 -0.66537 0.02749 -0.74601 0.010305
0.038355 0.14531 1.0843 6.1771e-39 319.5 331 0 0 0 -0.68313 0.031485 -0.72961 0.01071
-0.036504 0.14665 1.0847 6.2232e-39 210.5 331.5 0 0 0 0.6497 0.11693 -0.75114 0.011368
-0.035251 0.14672 1.0852 6.2232e-39 211.5 331.5 0 0 0 0.63219 0.12139 -0.76525 0.01118
-0.033981 0.14672 1.0852 6.2693e-39 212.5 331.5 0 0 0 0.61737 0.12853 -0.7761 0.011157
0.037119 0.14672 1.0852 6.0849e-39 335.5 331.5 0 0 0 -0.66102 0.034128 -0.74959 0.010185
0.038389 0.14735 1.0852 7.0991e-39 243 332 0 0 0 -0.6688 0.036742 -0.74254 0.01067
-0.036488 0.14912 1.0843 6.1771e-39 309 332.5 0 0 0 0.66095 0.098649 -0.74392 0.0099468
-0.035251 0.14926 1.0852 6.131e-39 310 332.5 0 0 0 0.64213 0.10527 -0.75934 0.0095625
-0.033981 0.14862 1.0852 5.7161e-39 401 332 0 0 0 0.62583 0.11368 -0.77163 0.0095184
0.037119 0.14989 1.0852 5.7161e-39 400 333 0 0 0 -0.655 0.038757 -0.75463 0.010671
0.038389 0.14926 1.0852 5.4395e-39 291.5 333 0 0 0 -0.66291 0.043251 -0.74744 0.0107
-0.036488 0.15103 1.0843 5.8083e-39 465 333 0 0 0 0.66854 0.088572 -0.73838 0.0094746
-0.035251 0.15116 1.0852 5.5317e-39 466 333 0 0 0 0.64482 0.098619 -0.75795 0.0090453
0.037119 0.15116 1.0852 6.2693e-39 216 334 0 0 0 -0.65366 0.035839 -0.75594 0.011578
0.038389 0.15116 1.0852 5.9927e-39 217 334 0 0 0 -0.65875 0.037302 -0.75143 0.01182
-0.036488 0.15293 1.0843 7.1913e-39 226 334.5 0 0 0 0.6671 0.079369 -0.74073 0.009222
-0.035251 0.15306 1.0852 7.4679e-39 227 334.5 0 0 0 0.64494 0.088799 -0.75905 0.0093782
0.037119 0.15306 1.0852 5.8083e-39 425.5 334.5 0 0 0 -0.651 0.031405 -0.75843 0.012951
0.038389 0.15306 1.0852 5.9005e-39 426.5 334.5 0 0 0 -0.65901 0.029858 -0.75154 0.013471
-0.036488 0.15483 1.0843 5.8083e-39 431 335 0 0 0 0.66676 0.06853 -0.74211 0.0096598
0.038389 0.15497 1.0852 6.1771e-39 211 336 0 0 0 -0.65469 0.030392 -0.75528 0.014572
-0.03652 0.15687 1.0852 6.8225e-39 202.5 336.5 0 0 0 0.66265 0.059765 -0.74654 0.010165
0.039624 0.15674 1.0843 6.4537e-39 357 336.5 0 0 0 -0.66201 0.02815 -0.74896 0.01557
-0.037138 0.15935 1.0847 6.9147e-39 297.5 337.5 0 0 0 0.66419 0.046431 -0.74612 0.012036
0.039624 0.15927 1.0843 6.4998e-39 280.5 338 0 0 0 -0.658 0.032679 -0.75231 0.017567
-0.037155 0.16069 1.0852 6.4076e-39 338 338 0 0 0 0.66824 0.038106 -0.74297 0.012603
0.039624 0.16118 1.0843 6.0849e-39 211 339 0 0 0 -0.65649 0.020605 -0.75405 0.01909
-0.037356 0.16339 1.0849 7.0684e-39 190.67 339.67 0 0 0 0.66757 0.024863 -0.74413 0.014394
0.039659 0.16259 1.0852 6.1771e-39 479 339 0 0 0 -0.64797 0.0048157 -0.76165 0.020435
-0.037138 0.16506 1.0847 5.67e-39 430.5 340 0 0 0 0.66701 0.012652 -0.74495 0.015464
0.028854 0.17013 1.0847 6.3615e-39 160.5 343 0 0 0 -0.61322 -0.036125 -0.78909 0.01788
0.030771 0.1702 1.0852 6.8225e-39 162 343 0 0 0 -0.61072 -0.044597 -0.79059 0.018121
0.032675 0.1702 1.0852 7.1452e-39 163.5 343 0 0 0 -0.60637 -0.061652 -0.79279 0.0192
0.033369 0.1298 1.0871 6.3615e-39 248 323 0 0 0 -0.64874 -0.064541 -0.75827 0.0075299
0.035478 0.12934 1.0868 6.6381e-39 229.33 323 0 0 0 -0.6556 -0.063483 -0.75244 0.0079217
0.037185 0.12853 1.0871 6.7303e-39 190 323 0 0 0 -0.66119 -0.072562 -0.7467 0.0077937
0.038423 0.12842 1.0862 6.6381e-39 191 323 0 0 0 -0.6711 -0.074215 -0.73764 0.0085364
-0.022574 0.13096 1.0862 5.9927e-39 393 323 0 0 0 0.42605 0.28987 -0.857 0.0082015
-0.018762 0.13096 1.0862 5.6239e-39 413 323 0 0 0 0.42876 0.28582 -0.85701 0.0089939
-0.01687 0.13108 1.0871 5.3934e-39 414.5 323 0 0 0 0.44412 0.2714 -0.85387 0.010564
0.033369 0.13108 1.0871 5.6239e-39 196 324 0 0 0 -0.64789 -0.050817 -0.76004 0.0078249
0.035246 0.13096 1.0862 5.8544e-39 197.5 324 0 0 0 -0.65929 -0.050628 -0.75018 0.0084084
-0.028928 0.13286 1.0862 4.9785e-39 323.5 324 0 0 0 0.47194 0.24675 -0.8464 0.014067
-0.026818 0.13312 1.0865 5.4703e-39 361.33 324 0 0 0 0.4488 0.25451 -0.85663 0.0099358
-0.025127 0.13293 1.0867 5.6239e-39 326.5 324 0 0 0 0.44645 0.26345 -0.85515 0.0086791
-0.023855 0.13293 1.0867 5.8083e-39 327.5 324 0 0 0 0.43947 0.26862 -0.85715 0.0079594
-0.020677 0.13229 1.0867 5.9005e-39 221.5 324 0 0 0 0.42916 0.28208 -0.85805 0.0076325
-0.018778 0.13235 1.0871 5.8083e-39 223 324 0 0 0 0.43591 0.27555 -0.85677 0.0088342
0.033369 0.13298 1.0871 6.2232e-39 306.5 324.5 0 0 0 -0.64738 -0.04231 -0.76099 0.0076604
0.035246 0.13286 1.0862 6.0388e-39 309 324.5 0 0 0 -0.65884 -0.043023 -0.75105 0.0085912
-0.030199 0.13477 1.0862 6.5459e-39 245 325 0 0 0 0.49247 0.21993 -0.84208 0.014573
-0.028953 0.13489 1.0871 6.1771e-39 246 325 0 0 0 0.48212 0.22885 -0.84569 0.012506
-0.027681 0.13489 1.0871 6.2693e-39 247 325 0 0 0 0.47225 0.23469 -0.84965 0.01123
0.033369 0.13489 1.0871 6.8225e-39 181 326 0 0 0 -0.64733 -0.033382 -0.76148 0.0077494
0.035246 0.13477 1.0862 6.8225e-39 182.5 326 0 0 0 -0.65966 -0.032813 -0.75084 0.0087663
-0.030212 0.13674 1.0867 5.3012e-39 319 326 0 0 0 0.511 0.20779 -0.83409 0.014501
-0.028953 0.1368 1.0871 5.3473e-39 320 326 0 0 0 0.49197 0.21867 -0.8427 0.012256
-0.027681 0.1368 1.0871 5.3473e-39 321 326 0 0 0 0.48613 0.2214 -0.84537 0.011404
0.033369 0.1368 1.0871 6.131e-39 300.5 326.5 0 0 0 -0.64759 -0.024071 -0.76161 0.0078472
0.035246 0.13668 1.0862 6.2923e-39 302 326.5 0 0 0 -0.65912 -0.021752 -0.75173 0.0089154
-0.03274 0.13923 1.0862 6.592e-39 225 327.5 0 0 0 0.55413 0.18555 -0.81149 0.016934
-0.030847 0.13928 1.0867 6.7073e-39 226.5 327.5 0 0 0 0.53273 0.18786 -0.82517 0.014424
0.032935 0.13952 1.0868 5.9927e-39 409 327.67 0 0 0 -0.64478 -0.0027477 -0.76436 0.0084465
0.035246 0.13923 1.0862 6.0849e-39 283.5 328 0 0 0 -0.65899 -0.0023069 -0.75215 0.0095231
-0.03274 0.14113 1.0862 5.3473e-39 442 328 0 0 0 0.56487 0.17074 -0.80733 0.015635
-0.030847 0.14119 1.0867 5.2552e-39 443.5 328 0 0 0 0.54773 0.17701 -0.81772 0.014027
0.032719 0.14119 1.0867 6.5459e-39 218.5 329 0 0 0 -0.64521 0.00077543 -0.764 0.0085598
-0.03274 0.14303 1.0862 6.3615e-39 294.5 329.5 0 0 0 0.57578 0.16077 -0.80164 0.014268
-0.030861 0.14316 1.0871 6.3154e-39 296 329.5 0 0 0 0.5495 0.17412 -0.81715 0.012457
0.032719 0.14309 1.0867 5.6239e-39 411.75 329.5 0 0 0 -0.64228 0.012723 -0.76636 0.008553
-0.03274 0.14494 1.0862 5.3473e-39 430 330 0 0 0 0.58727 0.1512 -0.79514 0.012549
-0.030861 0.14507 1.0871 5.5778e-39 431.5 330 0 0 0 0.56503 0.16217 -0.80898 0.011661
0.032719 0.14501 1.0867 5.7161e-39 202.5 331 0 0 0 -0.64092 0.019503 -0.76736 0.0085538
0.03461 0.14494 1.0862 5.8083e-39 204 331 0 0 0 -0.64848 0.023876 -0.76086 0.0093333
-0.03274 0.14684 1.0862 6.4076e-39 213.5 331.5 0 0 0 0.59647 0.13638 -0.79097 0.010399
-0.030861 0.14697 1.0871 6.569e-39 215 331.5 0 0 0 0.57124 0.15212 -0.80656 0.010386
0.032733 0.14697 1.0871 5.8083e-39 332 331.5 0 0 0 -0.63473 0.02168 -0.77243 0.0081865
0.035246 0.14684 1.0862 6.0388e-39 334 331.5 0 0 0 -0.64987 0.028754 -0.7595 0.0094629
-0.03274 0.14875 1.0862 5.9005e-39 402 332 0 0 0 0.60446 0.12071 -0.78744 0.0090307
-0.031497 0.14888 1.0871 5.9927e-39 414 332 0 0 0 0.59388 0.13052 -0.7939 0.0092608
0.033369 0.14888 1.0871 5.3473e-39 178 333 0 0 0 -0.63007 0.030694 -0.77593 0.0077481
0.035246 0.14875 1.0862 5.3473e-39 179.5 333 0 0 0 -0.64613 0.036375 -0.76236 0.0090998
0.037152 0.14875 1.0862 5.3473e-39 181 333 0 0 0 -0.65362 0.03744 -0.75589 0.010114
-0.034011 0.15066 1.0862 5.8544e-39 344 333 0 0 0 0.6219 0.10379 -0.77619 0.0085482
-0.032769 0.15079 1.0871 5.8544e-39 345 333 0 0 0 0.6114 0.11239 -0.7833 0.0085653
0.033369 0.15079 1.0871 6.1771e-39 305 333.5 0 0 0 -0.62893 0.026914 -0.777 0.0089884
0.035261 0.15072 1.0867 6.3384e-39 306.5 333.5 0 0 0 -0.63427 0.033422 -0.77239 0.0096796
-0.034011 0.15319 1.0862 7.2835e-39 228 334.5 0 0 0 0.63021 0.094793 -0.77061 0.0089511
-0.032769 0.15334 1.0871 5.9927e-39 290 334.5 0 0 0 0.619 0.097386 -0.77933 0.0088659
0.033369 0.15334 1.0871 6.4997e-39 361.5 334.5 0 0 0 -0.62796 0.037677 -0.77733 0.0096577
0.035261 0.15326 1.0867 5.8774e-39 424 334.5 0 0 0 -0.63489 0.033643 -0.77187 0.011277
-0.034646 0.15511 1.0862 5.8083e-39 447 335 0 0 0 0.63822 0.079552 -0.76573 0.0097037
-0.032769 0.15524 1.0871 6.1771e-39 463 335 0 0 0 0.61951 0.078435 -0.78106 0.010546
0.035261 0.15518 1.0867 6.9608e-39 208.5 336 0 0 0 -0.6327 0.038521 -0.77344 0.011777
0.037152 0.15511 1.0862 6.7303e-39 210 336 0 0 0 -0.64333 0.034863 -0.76479 0.013403
-0.034654 0.15705 1.0864 6.9378e-39 204 336.5 0 0 0 0.64165 0.05859 -0.76475 0.011189
0.035913 0.15715 1.0871 6.4998e-39 354 336.5 0 0 0 -0.63029 0.046726 -0.77495 0.01233
0.037152 0.15701 1.0862 6.5459e-39 355 336.5 0 0 0 -0.63696 0.039007 -0.76991 0.014494
0.038423 0.15701 1.0862 6.4998e-39 356 336.5 0 0 0 -0.64356 0.035367 -0.76458 0.014767
-0.034662 0.15899 1.0867 6.592e-39 388.5 337 0 0 0 0.64096 0.049224 -0.766 0.011896
0.035913 0.15906 1.0871 6.5459e-39 167 338 0 0 0 -0.62853 0.047099 -0.77636 0.013094
0.037152 0.15892 1.0862 6.5459e-39 168 338 0 0 0 -0.63243 0.040625 -0.77355 0.015067
0.038423 0.15892 1.0862 6.6381e-39 169 338 0 0 0 -0.63883 0.038576 -0.76838 0.015758
-0.036552 0.16146 1.0862 5.8083e-39 468 338 0 0 0 0.6555 0.037392 -0.75427 0.013103
-0.034879 0.16071 1.0868 6.3e-39 296.67 338 0 0 0 0.64345 0.042342 -0.76432 0.012309
0.035913 0.16096 1.0871 6.8225e-39 298 338.5 0 0 0 -0.62266 0.041606 -0.78139 0.01392
0.037152 0.16082 1.0862 6.5459e-39 299 338.5 0 0 0 -0.63099 0.038096 -0.77485 0.01595
0.038423 0.16082 1.0862 6.2232e-39 300 338.5 0 0 0 -0.63197 0.032188 -0.77432 0.01671
-0.036552 0.16273 1.0862 7.4678e-39 238 339 0 0 0 0.65628 0.033424 -0.75378 0.013585
-0.034677 0.16287 1.0871 7.514e-39 239.5 339 0 0 0 0.64309 0.03541 -0.76497 0.0131
0.035277 0.16287 1.0871 6.0388e-39 475.5 339 0 0 0 -0.61904 0.033971 -0.78462 0.01436
0.037152 0.16273 1.0862 6.2693e-39 477 339 0 0 0 -0.62388 0.026178 -0.78108 0.017162
0.038423 0.16273 1.0862 6.3615e-39 478 339 0 0 0 -0.63702 0.01999 -0.77059 0.018528
-0.034868 0.16447 1.0865 6.6688e-39 261.33 340 0 0 0 0.64793 0.024327 -0.76131 0.01374
0.033369 0.16478 1.0871 7.2835e-39 202.5 340.5 0 0 0 -0.60313 0.027967 -0.79715 0.013869
0.035277 0.16478 1.0871 7.3296e-39 204 340.5 0 0 0 -0.61357 0.016313 -0.78947 0.015178
0.037152 0.164 1.0862 7.8366e-39 247 340 0 0 0 -0.62417 0.014074 -0.78116 0.017733
0.038423 0.164 1.0862 8.2054e-39 248 340 0 0 0 -0.6269 0.0020841 -0.7791 0.018871
0.028917 0.16796 1.0871 7.56e-39 166.5 342 0 0 0 -0.60685 0.01378 -0.7947 0.011948
0.030811 0.16725 1.0867 6.4537e-39 275.5 341.5 0 0 0 -0.60706 0.0069387 -0.79463 0.013872
0.032726 0.16729 1.0869 6.3845e-39 280.25 341.5 0 0 0 -0.60647 -0.0034205 -0.7951 0.015512
0.028892 0.16908 1.0862 6.3154e-39 388.5 342 0 0 0 -0.61223 -0.011613 -0.79059 0.014895
0.030798 0.16908 1.0862 5.9005e-39 390 342 0 0 0 -0.61075 -0.027241 -0.79135 0.016173
0.032705 0.16908 1.0862 6.2232e-39 392 342 0 0 0 -0.61062 -0.039013 -0.79096 0.017
0.033428 0.12748 1.089 5.9927e-39 240 322 0 0 0 -0.63621 -0.081801 -0.76717 0.006531
0.032559 0.12911 1.0884 6.5152e-39 207.33 323 0 0 0 -0.63713 -0.068136 -0.76774 0.0067963
-0.014976 0.13119 1.0881 5.6239e-39 416 323 0 0 0 0.45989 0.24208 -0.85434 0.012302
0.03088 0.13131 1.089 5.6239e-39 194 324 0 0 0 -0.61949 -0.047894 -0.78354 0.006899
0.032125 0.13119 1.0881 5.5317e-39 195 324 0 0 0 -0.63814 -0.049071 -0.76835 0.0069736
-0.022624 0.13316 1.0885 5.8083e-39 328.5 324 0 0 0 0.43726 0.27129 -0.85744 0.0075496
-0.020705 0.13374 1.0881 5.1629e-39 308 324.5 0 0 0 0.43713 0.26425 -0.8597 0.0078914
-0.018811 0.13386 1.089 5.6239e-39 179 325 0 0 0 0.4435 0.25433 -0.85943 0.0088958
-0.017103 0.13293 1.0884 6.1156e-39 209.67 324.33 0 0 0 0.45301 0.2549 -0.85429 0.0099261
-0.014989 0.13258 1.089 6.1771e-39 226 324 0 0 0 0.45524 0.24513 -0.85596 0.011889
0.03088 0.13322 1.089 6.0849e-39 304.5 324.5 0 0 0 -0.62053 -0.038307 -0.78325 0.0067414
0.032125 0.1331 1.0881 6.4076e-39 305.5 324.5 0 0 0 -0.63818 -0.041469 -0.76877 0.0068595
-0.026433 0.13501 1.0881 6.8225e-39 248 325 0 0 0 0.45823 0.24301 -0.85497 0.0090033
-0.02516 0.13501 1.0881 7.2835e-39 249 325 0 0 0 0.45798 0.24485 -0.85458 0.0085415
-0.023887 0.13501 1.0881 7.4678e-39 250 325 0 0 0 0.4509 0.25306 -0.85595 0.0077816
-0.02136 0.13513 1.089 7.7444e-39 252 325 0 0 0 0.44012 0.25763 -0.86019 0.0069786
0.03088 0.13513 1.089 5.8083e-39 179 326 0 0 0 -0.62242 -0.028355 -0.78217 0.0067447
0.032125 0.13501 1.0881 6.4537e-39 180 326 0 0 0 -0.63707 -0.032683 -0.77011 0.0070428
-0.026445 0.13698 1.0885 5.5778e-39 322 326 0 0 0 0.4701 0.22968 -0.8522 0.0090982
-0.025171 0.13698 1.0885 5.9005e-39 323 326 0 0 0 0.46359 0.23451 -0.85445 0.0081737
-0.023908 0.13704 1.089 5.9005e-39 324 326 0 0 0 0.45534 0.23758 -0.85804 0.0074021
0.03088 0.13704 1.089 6.0388e-39 290.5 326.5 0 0 0 -0.62138 -0.026447 -0.78307 0.0064154
0.032125 0.13692 1.0881 5.9466e-39 291.5 326.5 0 0 0 -0.63545 -0.023572 -0.77178 0.0069057
-0.028979 0.13883 1.0881 6.8225e-39 246 327 0 0 0 0.50016 0.20555 -0.84118 0.011501
-0.027081 0.13889 1.0885 7.4218e-39 249.5 327 0 0 0 0.4812 0.21512 -0.84981 0.0093762
-0.025182 0.13895 1.089 7.3757e-39 251 327 0 0 0 0.47223 0.22205 -0.85305 0.0080145
-0.023908 0.13895 1.089 7.3757e-39 252 327 0 0 0 0.46309 0.22575 -0.85708 0.0072956
0.03088 0.13895 1.089 5.3473e-39 440 327 0 0 0 -0.62262 -0.014275 -0.78239 0.0065377
0.032125 0.13883 1.0881 5.2552e-39 441 327 0 0 0 -0.63535 -0.012087 -0.77213 0.0071854
-0.028979 0.14074 1.0881 6.131e-39 190 328.5 0 0 0 0.50893 0.19262 -0.83898 0.011261
-0.027706 0.14074 1.0881 6.2232e-39 191 328.5 0 0 0 0.49842 0.19928 -0.84372 0.010082
0.029605 0.1415 1.089 6.2693e-39 216 329 0 0 0 -0.61056 -0.0024312 -0.79197 0.006189
0.030852 0.14074 1.0881 6.3615e-39 304 328.5 0 0 0 -0.62392 -0.0039319 -0.78148 0.0066875
-0.028979 0.14329 1.0881 6.1771e-39 297.5 329.5 0 0 0 0.52673 0.18097 -0.83055 0.010304
-0.027706 0.14329 1.0881 6.0849e-39 298.5 329.5 0 0 0 0.51366 0.19041 -0.8366 0.0097575
0.029605 0.14277 1.089 5.6239e-39 441 329 0 0 0 -0.61168 0.0031749 -0.7911 0.0062581
0.030852 0.14329 1.0881 5.4856e-39 410 329.5 0 0 0 -0.62155 0.0058808 -0.78335 0.0065136
-0.028979 0.14519 1.0881 5.5317e-39 433 330 0 0 0 0.5356 0.17802 -0.82549 0.0099403
-0.027706 0.14519 1.0881 5.7161e-39 434 330 0 0 0 0.52752 0.1822 -0.82977 0.0093886
-0.025182 0.14532 1.089 5.9005e-39 436 330 0 0 0 0.49717 0.19848 -0.84465 0.0075093
0.029605 0.14469 1.089 5.7622e-39 286 330.5 0 0 0 -0.6107 0.0091844 -0.79181 0.0061794
0.030852 0.14519 1.0881 5.5317e-39 201 331 0 0 0 -0.61728 0.01256 -0.78665 0.006419
-0.028979 0.14711 1.0881 6.8224e-39 216.5 331.5 0 0 0 0.54644 0.16519 -0.82105 0.008815
-0.027706 0.14711 1.0881 6.9147e-39 217.5 331.5 0 0 0 0.53582 0.17528 -0.82594 0.0088496
0.029605 0.14724 1.089 5.9005e-39 329.5 331.5 0 0 0 -0.60261 0.017182 -0.79785 0.0055989
0.030866 0.14717 1.0885 6.0388e-39 330.5 331.5 0 0 0 -0.61654 0.018932 -0.7871 0.0063515
-0.030252 0.14901 1.0881 5.9005e-39 416 332 0 0 0 0.57697 0.13946 -0.80477 0.0086126
-0.028979 0.14901 1.0881 5.8083e-39 417 332 0 0 0 0.55691 0.14995 -0.81692 0.0079477
-0.02773 0.14914 1.089 5.6239e-39 418 332 0 0 0 0.54763 0.15842 -0.82158 0.0072629
0.029605 0.14914 1.089 5.8083e-39 175 333 0 0 0 -0.60257 0.035262 -0.79729 0.005266
0.03088 0.14914 1.089 5.4395e-39 176 333 0 0 0 -0.60985 0.032256 -0.79186 0.005722
0.032125 0.14901 1.0881 5.3473e-39 177 333 0 0 0 -0.62128 0.030246 -0.78301 0.0066831
-0.030889 0.15092 1.0881 5.9697e-39 346.5 333 0 0 0 0.5922 0.12446 -0.79612 0.0082345
-0.029004 0.15106 1.089 5.9927e-39 191.5 333.5 0 0 0 0.56482 0.13455 -0.81417 0.0072837
-0.02773 0.15106 1.089 6.0849e-39 192.5 333.5 0 0 0 0.55869 0.13795 -0.81783 0.0069592
0.03088 0.15106 1.089 5.9927e-39 303 333.5 0 0 0 -0.61132 0.031678 -0.79075 0.0067782
0.032125 0.15092 1.0881 5.9927e-39 304 333.5 0 0 0 -0.62028 0.030465 -0.78379 0.0077038
-0.030889 0.15283 1.0881 5.8083e-39 379.5 334 0 0 0 0.59991 0.09969 -0.79383 0.0088674
-0.029004 0.15297 1.089 6.0849e-39 381 334 0 0 0 0.57888 0.11056 -0.80788 0.008234
-0.02773 0.15297 1.089 6.5459e-39 382 334 0 0 0 0.56858 0.11333 -0.81479 0.0084431
0.03088 0.15297 1.089 5.4395e-39 466 334 0 0 0 -0.61142 0.037116 -0.79044 0.0070882
0.032125 0.15283 1.0881 5.4395e-39 467 334 0 0 0 -0.61758 0.036724 -0.78565 0.0080263
-0.030889 0.15474 1.0881 6.108e-39 334 335 0 0 0 0.60305 0.082655 -0.79341 0.010101
-0.029004 0.15424 1.089 6.0849e-39 205 335 0 0 0 0.58496 0.094592 -0.80553 0.0091044
-0.02773 0.15424 1.089 6.1771e-39 206 335 0 0 0 0.57409 0.10169 -0.81246 0.0089415
0.03088 0.15488 1.089 6.6381e-39 229 335.5 0 0 0 -0.60881 0.042797 -0.79216 0.007463
0.032559 0.155 1.0884 6.8225e-39 222.33 335.67 0 0 0 -0.61538 0.042936 -0.78706 0.0085881
-0.032798 0.15729 1.0881 6.7764e-39 205.5 336.5 0 0 0 0.61898 0.065214 -0.78269 0.011159
-0.030889 0.15729 1.0881 6.7764e-39 208 336.5 0 0 0 0.60566 0.073059 -0.79236 0.010616
0.03088 0.15679 1.089 5.7161e-39 465 336 0 0 0 -0.60419 0.04932 -0.79531 0.007489
0.032983 0.15712 1.0884 6.0234e-39 390 336.33 0 0 0 -0.6141 0.047251 -0.78781 0.0096024
0.034671 0.15729 1.0881 6.3615e-39 353 336.5 0 0 0 -0.6219 0.047248 -0.78167 0.010986
-0.032798 0.1592 1.0881 6.1771e-39 390 337 0 0 0 0.61964 0.060105 -0.78258 0.01179
-0.030889 0.1592 1.0881 6.2693e-39 391.5 337 0 0 0 0.61049 0.066429 -0.78923 0.010856
0.033398 0.1592 1.0881 6.7303e-39 165 338 0 0 0 -0.61504 0.051459 -0.78682 0.010552
0.034671 0.1592 1.0881 6.5459e-39 166 338 0 0 0 -0.61428 0.050866 -0.78745 0.01126
-0.034071 0.16174 1.0881 6.5459e-39 470 338 0 0 0 0.63107 0.04697 -0.7743 0.01235
-0.032812 0.16118 1.0885 6.2693e-39 341.5 338 0 0 0 0.62194 0.053796 -0.78122 0.011849
-0.030908 0.16122 1.0888 6.2923e-39 343 338 0 0 0 0.60786 0.061398 -0.79167 0.011072
0.03088 0.16189 1.089 6.0849e-39 204 339 0 0 0 -0.59734 0.052102 -0.8003 0.0093957
0.032776 0.16118 1.0885 6.4998e-39 295.5 338.5 0 0 0 -0.60505 0.05233 -0.79446 0.010099
0.034671 0.16111 1.0881 6.8686e-39 297 338.5 0 0 0 -0.612 0.046931 -0.78947 0.012236
-0.032798 0.16302 1.0881 6.8225e-39 241 339 0 0 0 0.62544 0.047419 -0.77883 0.012155
-0.030901 0.16309 1.0885 6.6842e-39 242.5 339 0 0 0 0.61103 0.05709 -0.78955 0.011537
0.03088 0.16316 1.089 6.2693e-39 472 339 0 0 0 -0.59767 0.043991 -0.80053 0.0099111
0.032776 0.16309 1.0885 6.0388e-39 473.5 339 0 0 0 -0.60496 0.042422 -0.79512 0.011244
-0.034071 0.16556 1.0881 5.9005e-39 433 340 0 0 0 0.63564 0.021993 -0.77167 0.013642
-0.032827 0.16507 1.089 6.2232e-39 310 340 0 0 0 0.62518 0.034252 -0.77973 0.012617
-0.030901 0.165 1.0885 5.9927e-39 313 340 0 0 0 0.61164 0.043056 -0.78996 0.011954
0.028968 0.16571 1.089 6.8686e-39 157.5 341 0 0 0 -0.59634 0.038011 -0.80183 0.010433
0.030852 0.16493 1.0881 6.9608e-39 200.5 340.5 0 0 0 -0.60195 0.03174 -0.7979 0.011273
