# .PCD v.7 - Point Cloud Data file format
VERSION .7
FIELDS x y z rgb u v vx vy vz normal_x normal_y normal_z curvature
SIZE 4 4 4 4 4 4 4 4 4 4 4 4 4
TYPE F F F F F F F F F F F F F
COUNT 1 1 1 1 1 1 1 1 1 1 1 1 1
WIDTH 559
HEIGHT 1
VIEWPOINT 0 0 0 1 0 0 0
POINTS 559
DATA ascii
-0.093974 0.07345 1.2798 9.1274e-39 263 320 0 0 0 0.5392 0.11547 -0.83422 0.089722
-0.093974 0.074948 1.2798 7.0069e-39 230 321 0 0 0 0.66014 0.084577 -0.74637 0.090786
-0.093926 0.077154 1.2791 6.6842e-39 333 321 0 0 0 0.70891 0.093832 -0.69903 0.081976
-0.093177 0.079398 1.2791 5.4856e-39 195.5 322 0 0 0 0.67538 0.099175 -0.73077 0.072644
-0.092477 0.080937 1.2798 5.6239e-39 214 322 0 0 0 0.62348 0.10068 -0.77533 0.072174
-0.092944 0.083403 1.2793 6.5766e-39 245.67 322 0 0 0 0.68058 0.11794 -0.72311 0.071851
-0.093177 0.085385 1.2791 5.9005e-39 370.5 322 0 0 0 0.68736 0.12305 -0.71582 0.074666
-0.092381 0.086836 1.2784 5.8083e-39 418 322 0 0 0 0.68198 0.1247 -0.72066 0.074782
-0.092381 0.089079 1.2784 5.5779e-39 197 323 0 0 0 0.6593 0.16203 -0.73422 0.071016
-0.092381 0.091323 1.2784 6.7303e-39 240 323 0 0 0 0.64698 0.18144 -0.74061 0.069632
-0.093129 0.092819 1.2784 6.2232e-39 376.5 323 0 0 0 0.66114 0.21413 -0.71906 0.067956
-0.093153 0.095087 1.2787 5.5086e-39 321.5 323.5 0 0 0 0.61775 0.26536 -0.74025 0.067147
-0.09098 0.094412 1.2798 5.5317e-39 435 323 0 0 0 0.53384 0.24029 -0.81072 0.068131
-0.095373 0.097306 1.2784 6.8225e-39 242 324 0 0 0 0.67726 0.28184 -0.67962 0.059192
-0.093226 0.097407 1.2798 6.9147e-39 243.5 324 0 0 0 0.56664 0.27727 -0.77592 0.063978
-0.098466 0.098904 1.2798 5.9927e-39 387 324 0 0 0 0.70736 0.28463 -0.64702 0.048762
-0.096969 0.098904 1.2798 6.0849e-39 388 324 0 0 0 0.65508 0.29091 -0.69731 0.055727
-0.095472 0.098904 1.2798 6.5459e-39 389 324 0 0 0 0.63152 0.2848 -0.72116 0.056385
-0.086578 0.064534 1.2811 5.3473e-39 271 315 0 0 0 0.10509 0.22664 -0.96829 0.047419
-0.091074 0.067531 1.2811 6.1771e-39 263 317 0 0 0 0.14935 0.19197 -0.96997 0.049331
-0.088826 0.066033 1.2811 5.7622e-39 268.5 316 0 0 0 0.1162 0.22032 -0.96848 0.045531
-0.085079 0.067531 1.2811 6.1771e-39 267 317 0 0 0 0.10362 0.21719 -0.97061 0.038589
-0.091074 0.06903 1.2811 5.7161e-39 259 318 0 0 0 0.27036 0.15524 -0.95016 0.075167
-0.085079 0.06903 1.2811 7.56e-39 263 318 0 0 0 0.11298 0.20939 -0.97128 0.035163
-0.08358 0.06903 1.2811 7.3757e-39 264 318 0 0 0 0.10102 0.21889 -0.97051 0.033692
-0.085079 0.070529 1.2811 7.3757e-39 261 319 0 0 0 0.16218 0.18683 -0.96891 0.042558
-0.082831 0.070529 1.2811 8.3437e-39 262.5 319 0 0 0 0.12916 0.19911 -0.97143 0.032881
-0.080583 0.070529 1.2811 8.482e-39 264 319 0 0 0 0.098509 0.21639 -0.97132 0.029602
-0.079084 0.070529 1.2811 8.3898e-39 265 319 0 0 0 0.084865 0.22553 -0.97053 0.028801
-0.094072 0.072028 1.2811 8.6664e-39 267 319 0 0 0 0.3624 0.12076 -0.92417 0.072943
-0.092573 0.073527 1.2811 9.1274e-39 264 320 0 0 0 0.36257 0.11145 -0.92527 0.064024
-0.085079 0.072028 1.2811 7.1913e-39 254 320 0 0 0 0.24947 0.14564 -0.95737 0.055531
-0.08308 0.072528 1.2811 6.5152e-39 240 320.33 0 0 0 0.16967 0.17415 -0.96999 0.037613
-0.080583 0.072028 1.2811 7.3757e-39 257 320 0 0 0 0.1105 0.20319 -0.97288 0.027509
-0.079084 0.072028 1.2811 7.7444e-39 258 320 0 0 0 0.091226 0.21354 -0.97267 0.025754
-0.092573 0.075025 1.2811 6.7303e-39 231 321 0 0 0 0.39142 0.10774 -0.91388 0.061714
-0.092573 0.076524 1.2811 7.56e-39 255 321 0 0 0 0.54585 0.088529 -0.83319 0.075365
-0.092573 0.078023 1.2811 5.9005e-39 413 321 0 0 0 0.56864 0.083376 -0.81835 0.073798
-0.091074 0.088515 1.2811 6.0849e-39 185 323 0 0 0 0.54246 0.13857 -0.82858 0.064757
-0.091074 0.090763 1.2811 6.0849e-39 226 323 0 0 0 0.53938 0.19162 -0.81997 0.065408
-0.091074 0.093011 1.2811 6.2693e-39 378 323 0 0 0 0.52534 0.21972 -0.82204 0.064931
-0.091074 0.096758 1.2811 6.0849e-39 228 324 0 0 0 0.48463 0.26836 -0.83254 0.063045
-0.094072 0.099007 1.2811 6.4537e-39 390 324 0 0 0 0.55855 0.28283 -0.77977 0.060089
-0.092573 0.099007 1.2811 5.7161e-39 393 324 0 0 0 0.51962 0.28239 -0.80638 0.060387
-0.098568 0.10051 1.2811 6.1771e-39 176 325 0 0 0 0.66276 0.30662 -0.68318 0.047821
-0.097069 0.10051 1.2811 5.9005e-39 177 325 0 0 0 0.6177 0.30207 -0.72608 0.053636
-0.092573 0.10051 1.2811 6.5459e-39 180 325 0 0 0 0.47684 0.27824 -0.83379 0.057407
-0.09417 0.066851 1.2824 4.7481e-39 263 316.5 0 0 0 0.12085 0.22286 -0.96733 0.053198
-0.092669 0.067602 1.2824 5.7161e-39 262 317 0 0 0 0.15096 0.19172 -0.96977 0.051516
-0.088918 0.067602 1.2824 5.9005e-39 264.5 317 0 0 0 0.12381 0.20688 -0.9705 0.041194
-0.086668 0.066851 1.2824 5.8544e-39 268 316.5 0 0 0 0.10376 0.21731 -0.97057 0.04007
-0.094267 0.069174 1.2838 7.56e-39 271 317 0 0 0 0.15366 0.19625 -0.96844 0.048915
-0.092669 0.069102 1.2824 7.3757e-39 272 317 0 0 0 0.22865 0.16777 -0.95894 0.064733
-0.088918 0.069102 1.2824 6.131e-39 260.5 318 0 0 0 0.13426 0.19679 -0.97121 0.039545
-0.086668 0.069102 1.2824 7.2835e-39 262 318 0 0 0 0.13466 0.19526 -0.97146 0.03738
-0.09417 0.070602 1.2824 7.9288e-39 268 318 0 0 0 0.34095 0.1398 -0.92963 0.078894
-0.092669 0.070602 1.2824 8.482e-39 269 318 0 0 0 0.31155 0.13865 -0.94006 0.073121
-0.091169 0.070602 1.2824 8.7586e-39 270 318 0 0 0 0.30427 0.13749 -0.94261 0.071745
-0.088965 0.070639 1.2831 6.7303e-39 258.5 319 0 0 0 0.20324 0.16828 -0.96456 0.051395
-0.086668 0.070602 1.2824 7.0069e-39 260 319 0 0 0 0.17159 0.18041 -0.96851 0.042313
-0.077665 0.070602 1.2824 8.482e-39 266 319 0 0 0 0.035025 0.24065 -0.96998 0.018386
-0.092669 0.072103 1.2824 8.6664e-39 268 319 0 0 0 0.34552 0.12827 -0.9296 0.068122
-0.091169 0.072853 1.2824 9.0352e-39 267 319.5 0 0 0 0.31183 0.12782 -0.9415 0.063824
-0.089011 0.072929 1.2838 6.4076e-39 226.5 320.25 0 0 0 0.24318 0.15195 -0.95801 0.050111
-0.086758 0.072929 1.2838 5.9928e-39 227 320.5 0 0 0 0.21595 0.15946 -0.9633 0.044683
-0.085167 0.073603 1.2824 5.163e-39 208 321 0 0 0 0.23469 0.14936 -0.96053 0.045868
-0.082167 0.073603 1.2824 5.163e-39 210 321 0 0 0 0.13212 0.19118 -0.97262 0.027978
-0.080666 0.073603 1.2824 5.3473e-39 211 321 0 0 0 0.12493 0.19468 -0.97288 0.026528
-0.079166 0.073603 1.2824 5.7161e-39 216 321 0 0 0 0.10291 0.20453 -0.97344 0.023694
-0.076955 0.072892 1.2831 6.6611e-39 241 320.5 0 0 0 0.042012 0.23134 -0.97197 0.015799
-0.091169 0.075103 1.2824 6.2693e-39 232 321 0 0 0 0.33273 0.1243 -0.93479 0.056798
-0.089011 0.075181 1.2838 6.0388e-39 233.5 321 0 0 0 0.31113 0.1312 -0.94127 0.053291
-0.086758 0.075181 1.2838 6.2693e-39 235 321 0 0 0 0.28885 0.14281 -0.94666 0.049483
-0.085167 0.075103 1.2824 6.2693e-39 236 321 0 0 0 0.2903 0.13374 -0.94754 0.050489
-0.082917 0.075103 1.2824 5.9927e-39 237.5 321 0 0 0 0.22342 0.15526 -0.96228 0.040457
-0.080666 0.075103 1.2824 5.7161e-39 239 321 0 0 0 0.12515 0.19282 -0.97322 0.023985
-0.079166 0.075103 1.2824 5.6239e-39 240 321 0 0 0 0.12402 0.19 -0.97392 0.02427
-0.076995 0.075181 1.2838 6.2693e-39 249.5 321 0 0 0 0.067574 0.20973 -0.97542 0.016665
-0.074742 0.075181 1.2838 6.2693e-39 251 321 0 0 0 0.015759 0.23179 -0.97264 0.01002
-0.091264 0.076683 1.2838 7.8366e-39 256 321 0 0 0 0.33611 0.12579 -0.93338 0.05186
-0.085256 0.076683 1.2838 8.1132e-39 260 321 0 0 0 0.2671 0.13662 -0.95394 0.041409
-0.082917 0.076604 1.2824 8.6664e-39 261.5 321 0 0 0 0.24647 0.13994 -0.95899 0.039343
-0.080666 0.076604 1.2824 9.4961e-39 263 321 0 0 0 0.14537 0.17711 -0.9734 0.024633
-0.079166 0.076604 1.2824 9.404e-39 264 321 0 0 0 0.11482 0.19153 -0.97475 0.021947
-0.076995 0.076683 1.2838 7.3757e-39 325.5 321 0 0 0 0.064138 0.2012 -0.97745 0.015186
-0.074742 0.076683 1.2838 5.7161e-39 387 321 0 0 0 0.029809 0.22077 -0.97487 0.0097887
-0.091264 0.078936 1.2838 5.8544e-39 307.5 321.5 0 0 0 0.39702 0.10405 -0.91189 0.051219
-0.085256 0.078936 1.2838 5.4857e-39 192.5 322 0 0 0 0.2989 0.12393 -0.9462 0.044345
-0.082938 0.078875 1.2828 5.4165e-39 194 322 0 0 0 0.25876 0.13012 -0.95714 0.038852
-0.080666 0.078854 1.2824 6.1771e-39 196 322 0 0 0 0.20502 0.14751 -0.96758 0.034574
-0.079166 0.078854 1.2824 6.2232e-39 197 322 0 0 0 0.1317 0.16357 -0.9777 0.021325
-0.076995 0.078936 1.2838 6.1771e-39 198.5 322 0 0 0 0.085813 0.18655 -0.97869 0.01564
-0.074742 0.078936 1.2838 5.5779e-39 200 322 0 0 0 0.036091 0.21214 -0.97657 0.009126
-0.07324 0.079687 1.2838 5.163e-39 209 322 0 0 0 0.020091 0.21559 -0.97628 0.0065452
-0.091169 0.081105 1.2824 5.5317e-39 215 322 0 0 0 0.46431 0.095711 -0.88048 0.055993
-0.085256 0.081189 1.2838 5.6239e-39 221 322 0 0 0 0.29356 0.12118 -0.94823 0.041597
-0.083003 0.081189 1.2838 6.2232e-39 222.5 322 0 0 0 0.25294 0.12914 -0.95883 0.037764
-0.08075 0.081189 1.2838 6.0849e-39 224 322 0 0 0 0.19424 0.13949 -0.97098 0.029689
-0.079248 0.081189 1.2838 5.9005e-39 225 322 0 0 0 0.13543 0.16036 -0.97772 0.019883
-0.074742 0.081189 1.2838 7.0069e-39 228 322 0 0 0 0.059383 0.19475 -0.97905 0.0094348
-0.07324 0.081189 1.2838 7.1913e-39 229 322 0 0 0 0.030777 0.19839 -0.97964 0.0056575
-0.091169 0.082605 1.2824 6.4537e-39 235 322 0 0 0 0.48427 0.10069 -0.86911 0.059252
-0.085256 0.082691 1.2838 5.9005e-39 239 322 0 0 0 0.3245 0.10225 -0.94034 0.042704
-0.083003 0.082691 1.2838 5.9927e-39 240.5 322 0 0 0 0.2561 0.11746 -0.95949 0.035218
-0.08075 0.082691 1.2838 6.5459e-39 242 322 0 0 0 0.20544 0.12854 -0.97019 0.029406
-0.079248 0.082691 1.2838 7.0069e-39 243 322 0 0 0 0.13858 0.15323 -0.97843 0.018131
-0.074742 0.082691 1.2838 6.0849e-39 246 322 0 0 0 0.073909 0.18177 -0.98056 0.0096067
-0.091169 0.084856 1.2824 6.6381e-39 319.5 322 0 0 0 0.48403 0.10993 -0.86812 0.058371
-0.083754 0.084193 1.2838 9.0352e-39 258 322 0 0 0 0.28 0.1133 -0.95329 0.035028
-0.079248 0.084944 1.2838 7.0529e-39 328 322 0 0 0 0.18525 0.134 -0.97351 0.022915
-0.091169 0.087106 1.2824 6.0849e-39 419 322 0 0 0 0.48873 0.13312 -0.86222 0.060565
-0.091169 0.099109 1.2824 5.8083e-39 396 324 0 0 0 0.41123 0.27035 -0.87052 0.054526
-0.09492 0.10061 1.2824 6.0388e-39 178.5 325 0 0 0 0.51821 0.27683 -0.80921 0.052662
-0.091264 0.10071 1.2838 6.8225e-39 181 325 0 0 0 0.35421 0.26994 -0.89536 0.048039
-0.098722 0.10292 1.2831 6.3154e-39 226.5 325 0 0 0 0.56672 0.32415 -0.75746 0.047354
-0.097221 0.10292 1.2831 6.0849e-39 227.5 325 0 0 0 0.5366 0.31454 -0.78302 0.049792
-0.095018 0.10222 1.2838 6.0849e-39 211.5 325 0 0 0 0.47511 0.30627 -0.82491 0.050807
-0.092717 0.10292 1.2831 6.7764e-39 230.5 325 0 0 0 0.35152 0.30604 -0.88474 0.04675
-0.089104 0.076763 1.2851 8.4359e-39 257.5 321 0 0 0 0.31746 0.12794 -0.9396 0.049637
-0.086848 0.076763 1.2851 8.2054e-39 259 321 0 0 0 0.27228 0.13778 -0.9523 0.042298
-0.089103 0.079019 1.2851 5.186e-39 312 321.5 0 0 0 0.32715 0.12219 -0.93704 0.046659
-0.086848 0.079019 1.2851 5.5779e-39 191.5 322 0 0 0 0.2832 0.12711 -0.9506 0.040786
-0.089104 0.081274 1.2851 5.5778e-39 217.5 322 0 0 0 0.38379 0.098299 -0.91817 0.045766
-0.086848 0.081274 1.2851 5.7161e-39 220 322 0 0 0 0.3013 0.11729 -0.94629 0.03819
-0.077075 0.081274 1.2851 6.2232e-39 226.5 322 0 0 0 0.10713 0.17347 -0.979 0.015094
-0.088352 0.082777 1.2851 5.9927e-39 237 322 0 0 0 0.37172 0.10544 -0.92234 0.043976
-0.086848 0.082777 1.2851 5.8083e-39 238 322 0 0 0 0.32057 0.10569 -0.94131 0.038413
-0.077075 0.082777 1.2851 6.4998e-39 244.5 322 0 0 0 0.11452 0.16678 -0.97932 0.015207
-0.073317 0.082777 1.2851 5.9927e-39 247 322 0 0 0 0.037745 0.18762 -0.98152 0.0049036
-0.086848 0.085033 1.2851 7.4679e-39 322.5 322 0 0 0 0.3255 0.10248 -0.93997 0.038282
-0.085345 0.085033 1.2851 7.6522e-39 323.5 322 0 0 0 0.30083 0.10244 -0.94816 0.034504
-0.082839 0.085283 1.2851 6.8225e-39 347.33 322 0 0 0 0.24352 0.11749 -0.96275 0.029903
-0.080834 0.085033 1.2851 7.1452e-39 326.5 322 0 0 0 0.20573 0.12393 -0.97073 0.024611
-0.077075 0.085033 1.2851 7.5601e-39 337.5 322 0 0 0 0.13162 0.15848 -0.97855 0.015507
-0.07482 0.085033 1.2851 7.5601e-39 339 322 0 0 0 0.078651 0.17082 -0.98216 0.0094089
-0.073317 0.084281 1.2851 6.9147e-39 367 322 0 0 0 0.037495 0.18479 -0.98206 0.0042626
-0.089855 0.087288 1.2851 5.9005e-39 420 322 0 0 0 0.37642 0.13496 -0.91657 0.046007
-0.086848 0.087288 1.2851 5.163e-39 422 322 0 0 0 0.30869 0.12229 -0.94327 0.036121
-0.085345 0.087288 1.2851 5.0708e-39 423 322 0 0 0 0.30368 0.12466 -0.94458 0.035299
-0.08309 0.087288 1.2851 5.2091e-39 424.5 322 0 0 0 0.25471 0.12466 -0.95895 0.028676
-0.080834 0.087288 1.2851 4.702e-39 426 322 0 0 0 0.20421 0.13716 -0.96927 0.023836
-0.079331 0.087288 1.2851 4.1488e-39 427 322 0 0 0 0.18264 0.14389 -0.97259 0.021516
-0.07482 0.087288 1.2851 5.7161e-39 434 322 0 0 0 0.08008 0.17044 -0.98211 0.0089253
-0.089855 0.088791 1.2851 6.3615e-39 186 323 0 0 0 0.37214 0.15527 -0.9151 0.045793
-0.086848 0.088791 1.2851 6.7303e-39 188 323 0 0 0 0.30452 0.14641 -0.94119 0.036195
-0.085345 0.088791 1.2851 6.7303e-39 189 323 0 0 0 0.29229 0.14483 -0.9453 0.034552
-0.08309 0.088791 1.2851 6.4076e-39 190.5 323 0 0 0 0.25816 0.14147 -0.95569 0.029515
-0.080834 0.088791 1.2851 6.2693e-39 192 323 0 0 0 0.20729 0.1443 -0.96758 0.024128
-0.079331 0.088791 1.2851 5.9005e-39 193 323 0 0 0 0.18702 0.14763 -0.9712 0.021441
-0.07482 0.088791 1.2851 5.5317e-39 196 323 0 0 0 0.08391 0.1677 -0.98226 0.0092896
-0.07031 0.088791 1.2851 5.5317e-39 199 323 0 0 0 0.041395 0.18025 -0.98275 0.0017908
-0.089855 0.091046 1.2851 6.2693e-39 227 323 0 0 0 0.36225 0.19298 -0.91189 0.047895
-0.086848 0.090295 1.2851 5.5317e-39 214 323 0 0 0 0.29265 0.17143 -0.94073 0.036604
-0.085345 0.090295 1.2851 5.4395e-39 215 323 0 0 0 0.28467 0.1686 -0.94368 0.03533
-0.082338 0.090295 1.2851 6.1771e-39 219 323 0 0 0 0.24019 0.15893 -0.95763 0.028846
-0.080834 0.090295 1.2851 6.2693e-39 220 323 0 0 0 0.21251 0.15437 -0.96489 0.026181
-0.079331 0.091046 1.2851 6.3154e-39 235.5 323 0 0 0 0.17613 0.16314 -0.97075 0.021326
-0.07482 0.090295 1.2851 6.3615e-39 224 323 0 0 0 0.08615 0.16939 -0.98178 0.009434
-0.089855 0.093302 1.2851 5.9927e-39 387 323 0 0 0 0.35611 0.22379 -0.90725 0.048674
-0.089855 0.094805 1.2851 5.6239e-39 178 324 0 0 0 0.3318 0.22206 -0.91684 0.045135
-0.089855 0.096309 1.2851 6.0849e-39 212 324 0 0 0 0.32622 0.23832 -0.91476 0.044866
-0.095117 0.10383 1.2851 6.5459e-39 246.5 325 0 0 0 0.39188 0.30624 -0.86755 0.04493
-0.091359 0.10232 1.2851 5.8083e-39 214 325 0 0 0 0.29008 0.2741 -0.91691 0.041668
-0.092862 0.10533 1.2851 5.9005e-39 417 325 0 0 0 0.28341 0.31781 -0.90481 0.041508
-0.092862 0.10683 1.2851 6.3615e-39 183 326 0 0 0 0.21976 0.31924 -0.92184 0.039839
-0.089949 0.082863 1.2864 6.3615e-39 236 322 0 0 0 0.37089 0.10267 -0.92299 0.041647
-0.089197 0.08512 1.2864 6.9377e-39 321 322 0 0 0 0.34713 0.10973 -0.93138 0.039524
-0.088444 0.087379 1.2864 5.4395e-39 421 322 0 0 0 0.32278 0.13227 -0.93718 0.037356
-0.077156 0.087379 1.2864 4.6098e-39 429 322 0 0 0 0.12196 0.16305 -0.97905 0.014403
-0.088444 0.088884 1.2864 6.5459e-39 187 323 0 0 0 0.31852 0.15368 -0.93537 0.037411
-0.077156 0.088884 1.2864 5.3934e-39 194.5 323 0 0 0 0.12401 0.16241 -0.9789 0.014058
-0.073393 0.088884 1.2864 5.8083e-39 197 323 0 0 0 0.053644 0.17566 -0.98299 0.0043621
-0.071888 0.088884 1.2864 5.7161e-39 198 323 0 0 0 0.045743 0.17771 -0.98302 0.0029597
-0.068878 0.088884 1.2864 5.2552e-39 200 323 0 0 0 0.045948 0.18 -0.98259 0.0016666
-0.067373 0.088884 1.2864 5.2552e-39 201 323 0 0 0 0.053967 0.17964 -0.98225 0.0016146
-0.065115 0.088884 1.2864 5.1169e-39 202.5 323 0 0 0 0.06793 0.17453 -0.9823 0.0019355
-0.062858 0.088884 1.2864 5.7161e-39 204 323 0 0 0 0.074798 0.16991 -0.98262 0.0020533
-0.088444 0.091141 1.2864 6.3615e-39 228 323 0 0 0 0.30249 0.1864 -0.93475 0.038833
-0.086939 0.091894 1.2864 6.7303e-39 244 323 0 0 0 0.27485 0.18538 -0.94345 0.035244
-0.085433 0.091894 1.2864 6.0849e-39 246 323 0 0 0 0.26156 0.18167 -0.94794 0.031827
-0.083426 0.091392 1.2864 6.1771e-39 237 323 0 0 0 0.23378 0.16635 -0.95795 0.027618
-0.080918 0.091894 1.2864 7.0069e-39 249 323 0 0 0 0.19134 0.16781 -0.96707 0.022873
-0.077156 0.091141 1.2864 6.7994e-39 237 323 0 0 0 0.12186 0.16747 -0.97832 0.013904
-0.074898 0.091894 1.2864 7.8366e-39 253 323 0 0 0 0.082517 0.17043 -0.98191 0.008192
-0.073393 0.091141 1.2864 7.053e-39 239.5 323 0 0 0 0.059649 0.17215 -0.98326 0.0047917
-0.071135 0.091141 1.2864 7.3296e-39 241 323 0 0 0 0.043063 0.1794 -0.98283 0.0017681
-0.068878 0.091141 1.2864 7.9288e-39 242.5 323 0 0 0 0.049484 0.18201 -0.98205 0.0017247
-0.067373 0.091141 1.2864 8.021e-39 243.5 323 0 0 0 0.058133 0.18014 -0.98192 0.0017111
-0.065115 0.091141 1.2864 7.4679e-39 245 323 0 0 0 0.06676 0.17777 -0.98181 0.0018777
-0.06289 0.09119 1.2871 7.2835e-39 246.5 323 0 0 0 0.076731 0.17626 -0.98135 0.0021646
-0.061352 0.091141 1.2864 7.3757e-39 247.5 323 0 0 0 0.080522 0.17599 -0.98109 0.0023127
-0.059366 0.091424 1.2869 7.3142e-39 289 323 0 0 0 0.087113 0.17823 -0.98013 0.0027582
-0.056837 0.091894 1.2864 5.8083e-39 371 323 0 0 0 0.095924 0.17968 -0.97904 0.0027979
-0.088444 0.093399 1.2864 6.0849e-39 388 323 0 0 0 0.28362 0.21281 -0.93503 0.038515
-0.086939 0.093399 1.2864 6.3615e-39 389 323 0 0 0 0.26305 0.21046 -0.94155 0.036711
-0.085433 0.093399 1.2864 6.3615e-39 390 323 0 0 0 0.24335 0.1966 -0.94981 0.031523
-0.083175 0.093399 1.2864 5.67e-39 392.5 323 0 0 0 0.22393 0.18593 -0.9567 0.028137
-0.080918 0.093399 1.2864 5.7161e-39 394 323 0 0 0 0.18448 0.17706 -0.96675 0.022488
-0.079413 0.093399 1.2864 5.7161e-39 395 323 0 0 0 0.1588 0.1756 -0.97157 0.019406
-0.077156 0.093399 1.2864 5.8083e-39 396.5 323 0 0 0 0.11084 0.17282 -0.9787 0.012016
-0.074898 0.093399 1.2864 5.7161e-39 414 323 0 0 0 0.088432 0.17404 -0.98076 0.0088948
-0.073393 0.093399 1.2864 5.5317e-39 415 323 0 0 0 0.061295 0.17572 -0.98253 0.0045918
-0.071135 0.093399 1.2864 5.67e-39 416.5 323 0 0 0 0.046003 0.18193 -0.98223 0.0017001
-0.068878 0.093399 1.2864 5.9927e-39 418 323 0 0 0 0.053363 0.18424 -0.98143 0.0015883
-0.067373 0.093399 1.2864 6.1771e-39 419 323 0 0 0 0.058301 0.18214 -0.98154 0.0016335
-0.065115 0.093399 1.2864 5.67e-39 420.5 323 0 0 0 0.066174 0.18246 -0.98098 0.0018572
-0.062923 0.093496 1.2878 5.0708e-39 422 323 0 0 0 0.076378 0.18328 -0.98009 0.0020953
-0.061416 0.093496 1.2878 4.9786e-39 423 323 0 0 0 0.080929 0.18602 -0.97921 0.0024156
-0.059125 0.093448 1.2871 4.702e-39 424.5 323 0 0 0 0.08995 0.18602 -0.97842 0.0028246
-0.056837 0.093399 1.2864 4.7942e-39 426 323 0 0 0 0.098104 0.18758 -0.97734 0.0031187
-0.05539 0.093496 1.2878 4.702e-39 427 323 0 0 0 0.098066 0.19846 -0.97519 0.0034617
-0.088444 0.094904 1.2864 5.7161e-39 179 324 0 0 0 0.28101 0.22079 -0.93396 0.038509
-0.086939 0.094904 1.2864 5.9005e-39 180 324 0 0 0 0.25107 0.2178 -0.94315 0.035575
-0.085433 0.094904 1.2864 6.1771e-39 181 324 0 0 0 0.2318 0.21327 -0.9491 0.031785
-0.083175 0.094904 1.2864 6.7303e-39 182.5 324 0 0 0 0.21148 0.20171 -0.95634 0.026875
-0.080918 0.094904 1.2864 6.0849e-39 184 324 0 0 0 0.17169 0.18633 -0.96737 0.021617
-0.079413 0.094904 1.2864 6.0849e-39 185 324 0 0 0 0.1543 0.18219 -0.97108 0.018133
-0.077156 0.094904 1.2864 6.6381e-39 186.5 324 0 0 0 0.109 0.17634 -0.97828 0.01189
-0.074898 0.094904 1.2864 6.3615e-39 188 324 0 0 0 0.080988 0.17406 -0.9814 0.0078171
-0.073393 0.094904 1.2864 6.0849e-39 189 324 0 0 0 0.064557 0.18021 -0.98151 0.0043134
-0.071135 0.094904 1.2864 5.9005e-39 190.5 324 0 0 0 0.049581 0.18051 -0.98232 0.0016058
-0.06895 0.095003 1.2878 6.0849e-39 192 324 0 0 0 0.054691 0.18146 -0.98188 0.0016228
-0.067443 0.095003 1.2878 5.7161e-39 193 324 0 0 0 0.061042 0.18151 -0.98149 0.0017186
-0.06515 0.094953 1.2871 5.2551e-39 194.5 324 0 0 0 0.069031 0.18305 -0.98068 0.0018803
-0.062923 0.095003 1.2878 5.3473e-39 196 324 0 0 0 0.076067 0.18506 -0.97978 0.0021896
-0.061416 0.095003 1.2878 5.9005e-39 197 324 0 0 0 0.081936 0.18693 -0.97895 0.0023472
-0.059156 0.095003 1.2878 5.7161e-39 198.5 324 0 0 0 0.093311 0.18677 -0.97796 0.0030279
-0.056897 0.095003 1.2878 5.3473e-39 200 324 0 0 0 0.10309 0.19257 -0.97585 0.0031138
-0.05539 0.095003 1.2878 5.3473e-39 201 324 0 0 0 0.098371 0.19826 -0.9752 0.0033862
-0.053883 0.095003 1.2878 5.2552e-39 202 324 0 0 0 0.10499 0.19757 -0.97465 0.0036549
-0.088946 0.097412 1.2864 6.2078e-39 235.33 324 0 0 0 0.28669 0.2359 -0.92852 0.038245
-0.086939 0.097162 1.2864 6.4076e-39 231 324 0 0 0 0.23676 0.23142 -0.94361 0.033208
-0.084961 0.096944 1.2869 6.2078e-39 226.67 324 0 0 0 0.20367 0.21987 -0.95403 0.027837
-0.082423 0.096409 1.2864 5.7161e-39 218 324 0 0 0 0.18907 0.21178 -0.95885 0.02574
-0.080918 0.097162 1.2864 7.1452e-39 235.5 324 0 0 0 0.16352 0.20261 -0.96551 0.020801
-0.079413 0.097162 1.2864 7.2835e-39 236.5 324 0 0 0 0.14254 0.19073 -0.97124 0.017016
-0.077406 0.096911 1.2864 6.8225e-39 232.33 324 0 0 0 0.10961 0.18367 -0.97686 0.011813
-0.074898 0.097162 1.2864 7.3296e-39 239.5 324 0 0 0 0.080571 0.17885 -0.98057 0.0071433
-0.073393 0.096409 1.2864 6.2693e-39 224 324 0 0 0 0.061658 0.17881 -0.98195 0.0040159
-0.07091 0.096944 1.2869 7.0991e-39 236.67 324 0 0 0 0.051199 0.17676 -0.98292 0.0016731
-0.06895 0.096509 1.2878 6.4537e-39 227 324 0 0 0 0.057111 0.17832 -0.98231 0.0016277
-0.067443 0.096509 1.2878 6.6381e-39 228 324 0 0 0 0.062235 0.17852 -0.98197 0.0017715
-0.065183 0.096509 1.2878 6.6381e-39 229.5 324 0 0 0 0.071006 0.17919 -0.98125 0.0020841
-0.062923 0.096509 1.2878 6.2693e-39 231 324 0 0 0 0.079506 0.18048 -0.98036 0.0022565
-0.061416 0.096509 1.2878 6.2693e-39 232 324 0 0 0 0.085264 0.18486 -0.97906 0.0024867
-0.059156 0.096509 1.2878 6.1771e-39 233.5 324 0 0 0 0.095259 0.18554 -0.97801 0.0028637
-0.056897 0.096509 1.2878 6.6381e-39 235 324 0 0 0 0.10654 0.19239 -0.97552 0.0033186
-0.053883 0.096509 1.2878 6.3615e-39 237 324 0 0 0 0.11147 0.19825 -0.97379 0.0038972
-0.089197 0.099419 1.2864 6.1771e-39 404.5 324 0 0 0 0.26067 0.25403 -0.93141 0.035894
-0.087029 0.099523 1.2878 5.8083e-39 414 324 0 0 0 0.21068 0.23958 -0.94774 0.030653
-0.084488 0.098986 1.2873 6.3e-39 360.67 324 0 0 0 0.18906 0.22633 -0.95553 0.026094
-0.082509 0.09877 1.2878 6.7764e-39 334.5 324 0 0 0 0.16065 0.2182 -0.96259 0.022644
-0.081003 0.099523 1.2878 6.0849e-39 419 324 0 0 0 0.13264 0.20799 -0.9691 0.017734
-0.079496 0.099523 1.2878 5.7161e-39 420 324 0 0 0 0.11011 0.19602 -0.9744 0.013859
-0.076985 0.099021 1.2878 6.1771e-39 366 324 0 0 0 0.091425 0.18582 -0.97832 0.0090969
-0.074898 0.099419 1.2864 4.9786e-39 423 324 0 0 0 0.076268 0.17916 -0.98086 0.0060333
-0.073469 0.09877 1.2878 6.8225e-39 340.5 324 0 0 0 0.05862 0.17852 -0.98219 0.0036284
-0.071461 0.099021 1.2878 6.5766e-39 369.67 324 0 0 0 0.05191 0.17494 -0.98321 0.0017647
-0.06895 0.09877 1.2878 6.9146e-39 343.5 324 0 0 0 0.060159 0.17365 -0.98297 0.0017753
-0.067443 0.09877 1.2878 7.0069e-39 344.5 324 0 0 0 0.066054 0.17666 -0.98205 0.0019375
-0.065183 0.09877 1.2878 5.5779e-39 400 324 0 0 0 0.073969 0.17732 -0.98137 0.0022196
-0.062923 0.09877 1.2878 5.5779e-39 401.5 324 0 0 0 0.082988 0.17872 -0.98039 0.0024458
-0.061416 0.098016 1.2878 6.0849e-39 373 324 0 0 0 0.089719 0.18341 -0.97893 0.0027839
-0.059156 0.09877 1.2878 5.693e-39 404 324 0 0 0 0.10203 0.18811 -0.97684 0.0031436
-0.056897 0.098016 1.2878 5.8083e-39 376 324 0 0 0 0.11194 0.19241 -0.97491 0.0037861
-0.089197 0.10092 1.2864 6.7764e-39 182.5 325 0 0 0 0.24498 0.25399 -0.93567 0.035932
-0.087029 0.10103 1.2878 5.9927e-39 184 325 0 0 0 0.19888 0.24882 -0.94791 0.029741
-0.084725 0.10097 1.2871 6.131e-39 185.5 325 0 0 0 0.18305 0.24007 -0.95334 0.027241
-0.082509 0.10103 1.2878 6.2693e-39 187 325 0 0 0 0.13833 0.22262 -0.96504 0.020369
-0.081003 0.10103 1.2878 6.1771e-39 188 325 0 0 0 0.12404 0.21397 -0.96893 0.016739
-0.079496 0.10103 1.2878 5.7161e-39 189 325 0 0 0 0.10386 0.20665 -0.97289 0.013217
-0.077236 0.10103 1.2878 5.6239e-39 190.5 325 0 0 0 0.080494 0.18675 -0.9791 0.0080203
-0.074898 0.10092 1.2864 5.6239e-39 192 325 0 0 0 0.073826 0.18235 -0.98046 0.0061836
-0.073469 0.10103 1.2878 5.4395e-39 193 325 0 0 0 0.056818 0.17679 -0.98261 0.003065
-0.071209 0.10103 1.2878 5.1169e-39 194.5 325 0 0 0 0.051808 0.17413 -0.98336 0.0018383
-0.06895 0.10103 1.2878 5.3473e-39 196 325 0 0 0 0.063573 0.17389 -0.98271 0.0020232
-0.067443 0.10103 1.2878 5.9005e-39 197 325 0 0 0 0.070079 0.17539 -0.982 0.0020434
-0.065183 0.10103 1.2878 5.67e-39 198.5 325 0 0 0 0.079034 0.17892 -0.98068 0.0023283
-0.062923 0.10103 1.2878 5.4395e-39 200 325 0 0 0 0.087815 0.18242 -0.97929 0.0026671
-0.05991 0.10103 1.2878 5.3473e-39 202 325 0 0 0 0.10641 0.19403 -0.97521 0.003762
-0.091454 0.10393 1.2864 7.7444e-39 249 325 0 0 0 0.25408 0.29462 -0.92122 0.037972
-0.089243 0.10249 1.2871 5.7161e-39 215.5 325 0 0 0 0.22581 0.26743 -0.93675 0.034774
-0.087029 0.10254 1.2878 5.7161e-39 218 325 0 0 0 0.18968 0.2574 -0.9475 0.029914
-0.08477 0.10254 1.2878 6.5459e-39 219.5 325 0 0 0 0.15359 0.25017 -0.95594 0.023638
-0.082509 0.10254 1.2878 6.4537e-39 221 325 0 0 0 0.12897 0.23146 -0.96426 0.019159
-0.081003 0.10254 1.2878 6.1771e-39 222 325 0 0 0 0.11197 0.22307 -0.96835 0.015853
-0.079496 0.10254 1.2878 6.0849e-39 223 325 0 0 0 0.094449 0.20746 -0.97367 0.012111
-0.077236 0.10254 1.2878 6.0388e-39 224.5 325 0 0 0 0.074508 0.19468 -0.97803 0.0080013
-0.074976 0.10254 1.2878 6.3615e-39 226 325 0 0 0 0.06483 0.18571 -0.98046 0.0052793
-0.073469 0.10254 1.2878 6.3615e-39 227 325 0 0 0 0.054393 0.17969 -0.98222 0.0032187
-0.071209 0.10254 1.2878 6.131e-39 228.5 325 0 0 0 0.051652 0.17528 -0.98316 0.0018217
-0.067443 0.10254 1.2878 6.5459e-39 231 325 0 0 0 0.072001 0.17667 -0.98163 0.0021888
-0.06443 0.10254 1.2878 6.6381e-39 233 325 0 0 0 0.085147 0.1845 -0.97914 0.0026933
-0.05991 0.10254 1.2878 7.0069e-39 236 325 0 0 0 0.1109 0.19535 -0.97444 0.0038849
-0.097474 0.10544 1.2864 6.3615e-39 412 325 0 0 0 0.36728 0.34605 -0.86334 0.043133
-0.095216 0.10544 1.2864 5.8083e-39 414.5 325 0 0 0 0.31192 0.33536 -0.88895 0.042419
-0.090796 0.10479 1.2878 6.9147e-39 334 325 0 0 0 0.21067 0.30173 -0.92982 0.03667
-0.088536 0.10479 1.2878 6.7764e-39 335.5 325 0 0 0 0.17655 0.28823 -0.94114 0.032325
-0.085523 0.10479 1.2878 6.6381e-39 337.5 325 0 0 0 0.13837 0.26688 -0.95374 0.025879
-0.082509 0.10404 1.2878 8.1132e-39 255 325 0 0 0 0.10816 0.23446 -0.96609 0.017037
-0.081003 0.10404 1.2878 8.5742e-39 256 325 0 0 0 0.10248 0.22255 -0.96952 0.01461
-0.079496 0.10404 1.2878 9.1274e-39 257 325 0 0 0 0.082753 0.21176 -0.97381 0.011543
-0.077236 0.10404 1.2878 9.2656e-39 258.5 325 0 0 0 0.065322 0.19664 -0.9783 0.0073844
-0.074976 0.10479 1.2878 6.9147e-39 344.5 325 0 0 0 0.056793 0.18758 -0.98061 0.0047826
-0.073469 0.10404 1.2878 6.0849e-39 370 325 0 0 0 0.053388 0.17862 -0.98247 0.0031169
-0.096823 0.10706 1.2878 6.7764e-39 180.5 326 0 0 0 0.29453 0.36695 -0.88238 0.040259
-0.094562 0.10706 1.2878 6.6381e-39 182 326 0 0 0 0.22836 0.35299 -0.90733 0.038011
-0.091549 0.10706 1.2878 5.8083e-39 184 326 0 0 0 0.17413 0.32403 -0.92988 0.035139
-0.088536 0.10706 1.2878 5.8083e-39 186 326 0 0 0 0.13461 0.30604 -0.94245 0.029922
-0.092959 0.1092 1.2864 7.0069e-39 234.5 326 0 0 0 0.15812 0.36462 -0.91763 0.037218
-0.088536 0.10856 1.2878 6.4537e-39 221 326 0 0 0 0.099362 0.31355 -0.94436 0.029599
-0.093056 0.11158 1.2878 6.4537e-39 412 326 0 0 0 0.082762 0.37258 -0.9243 0.033416
-0.055448 0.09661 1.2891 6.8225e-39 236 324 0 0 0 0.10899 0.19409 -0.97491 0.0035942
-0.052431 0.09661 1.2891 6.3615e-39 238 324 0 0 0 0.12006 0.20382 -0.97162 0.0045108
-0.061481 0.099627 1.2891 5.163e-39 432 324 0 0 0 0.096543 0.18916 -0.97719 0.0031553
-0.056956 0.099627 1.2891 5.6239e-39 435 324 0 0 0 0.11598 0.19789 -0.97334 0.0042013
-0.055448 0.098872 1.2891 5.5318e-39 406.5 324 0 0 0 0.1209 0.19977 -0.97236 0.0044313
-0.053186 0.098872 1.2891 5.5318e-39 409.75 324 0 0 0 0.1311 0.2005 -0.97088 0.0050795
-0.061481 0.10113 1.2891 5.4395e-39 201 325 0 0 0 0.10109 0.19051 -0.97647 0.0033744
-0.058464 0.10113 1.2891 5.2552e-39 203 325 0 0 0 0.11441 0.19903 -0.97329 0.0042432
-0.056956 0.10113 1.2891 5.8083e-39 204 325 0 0 0 0.12794 0.20562 -0.97023 0.0052246
-0.055448 0.10113 1.2891 5.9927e-39 205 325 0 0 0 0.13216 0.20952 -0.96883 0.0053861
-0.05394 0.10113 1.2891 5.9005e-39 206 325 0 0 0 0.13346 0.2121 -0.96809 0.0060039
-0.069022 0.10264 1.2891 6.4537e-39 230 325 0 0 0 0.064757 0.17644 -0.98218 0.0021583
-0.066005 0.10264 1.2891 6.5459e-39 232 325 0 0 0 0.081379 0.18109 -0.98009 0.0024879
-0.062989 0.10264 1.2891 6.8225e-39 234 325 0 0 0 0.095305 0.19286 -0.97659 0.0033813
-0.061481 0.10264 1.2891 7.0991e-39 235 325 0 0 0 0.10441 0.19521 -0.97519 0.0036838
-0.058464 0.10264 1.2891 6.4537e-39 237 325 0 0 0 0.12461 0.20579 -0.97063 0.0050371
-0.056956 0.10264 1.2891 6.2693e-39 238 325 0 0 0 0.136 0.21254 -0.96764 0.0058648
-0.055448 0.10264 1.2891 6.2693e-39 239 325 0 0 0 0.14168 0.21242 -0.96685 0.0062977
-0.090136 0.10566 1.2891 5.7161e-39 419 325 0 0 0 0.16923 0.30919 -0.93582 0.032596
-0.08712 0.1049 1.2891 6.7764e-39 336.5 325 0 0 0 0.14424 0.28752 -0.94685 0.028178
-0.084104 0.1049 1.2891 6.592e-39 338.5 325 0 0 0 0.10359 0.25339 -0.9618 0.020729
-0.082595 0.10566 1.2891 5.2552e-39 424 325 0 0 0 0.08202 0.24319 -0.96651 0.017562
-0.081087 0.10566 1.2891 5.5317e-39 425 325 0 0 0 0.08 0.22846 -0.97026 0.013926
-0.078825 0.10566 1.2891 5.5778e-39 426.5 325 0 0 0 0.052938 0.21522 -0.97513 0.0097717
-0.076563 0.10566 1.2891 5.2552e-39 428 325 0 0 0 0.049814 0.19492 -0.97955 0.0060658
-0.072541 0.10516 1.2891 5.3474e-39 410.67 325 0 0 0 0.048084 0.18123 -0.98226 0.002504
-0.07053 0.1049 1.2891 5.4856e-39 402 325 0 0 0 0.057079 0.1774 -0.98248 0.0021979
-0.069022 0.1049 1.2891 5.7161e-39 403 325 0 0 0 0.070048 0.17833 -0.98147 0.0024772
-0.066759 0.1049 1.2891 5.8544e-39 404.5 325 0 0 0 0.086027 0.18305 -0.97933 0.0027937
-0.064497 0.1049 1.2891 5.5779e-39 406 325 0 0 0 0.099213 0.18967 -0.97682 0.0035115
-0.062989 0.1049 1.2891 5.624e-39 407 325 0 0 0 0.1058 0.1963 -0.97482 0.0041204
-0.059218 0.1049 1.2891 5.5087e-39 413 325 0 0 0 0.13181 0.20934 -0.96892 0.0053235
-0.090136 0.10717 1.2891 5.5317e-39 185 326 0 0 0 0.12815 0.32119 -0.9383 0.032063
-0.084858 0.10717 1.2891 5.7622e-39 188.5 326 0 0 0 0.088442 0.27604 -0.95707 0.022273
-0.082595 0.10717 1.2891 5.5317e-39 190 326 0 0 0 0.06469 0.25617 -0.96446 0.017765
-0.081087 0.10717 1.2891 5.3473e-39 191 326 0 0 0 0.053097 0.24097 -0.96908 0.015
-0.078825 0.10717 1.2891 5.2091e-39 192.5 326 0 0 0 0.047482 0.2198 -0.97439 0.010148
-0.076563 0.10717 1.2891 5.163e-39 194 326 0 0 0 0.044919 0.20163 -0.97843 0.0068417
-0.075054 0.10717 1.2891 5.163e-39 195 326 0 0 0 0.043685 0.19025 -0.98076 0.0043005
-0.072792 0.10717 1.2891 5.6239e-39 196.5 326 0 0 0 0.042681 0.18227 -0.98232 0.0026027
-0.07053 0.10717 1.2891 5.9927e-39 198 326 0 0 0 0.056753 0.18222 -0.98162 0.0027101
-0.066759 0.10717 1.2891 5.6239e-39 200.5 326 0 0 0 0.092638 0.18976 -0.97745 0.0032582
-0.064497 0.10717 1.2891 5.6239e-39 202 326 0 0 0 0.10837 0.19763 -0.97427 0.0041086
-0.062989 0.10717 1.2891 5.4395e-39 203 326 0 0 0 0.1187 0.2052 -0.9715 0.0048131
-0.059972 0.10717 1.2891 5.9927e-39 205 326 0 0 0 0.13776 0.21522 -0.9668 0.0055898
-0.097677 0.10868 1.2891 5.9927e-39 214 326 0 0 0 0.2259 0.408 -0.8846 0.038151
-0.094661 0.10868 1.2891 5.8083e-39 216 326 0 0 0 0.17393 0.37605 -0.91013 0.037168
-0.091645 0.10868 1.2891 6.5459e-39 219 326 0 0 0 0.10958 0.33602 -0.93546 0.031736
-0.084858 0.10868 1.2891 5.9466e-39 223.5 326 0 0 0 0.060097 0.28171 -0.95762 0.022319
-0.082595 0.10868 1.2891 5.9927e-39 225 326 0 0 0 0.045542 0.25739 -0.96523 0.018101
-0.081087 0.10868 1.2891 6.2693e-39 226 326 0 0 0 0.042821 0.2423 -0.96926 0.014864
-0.078825 0.10868 1.2891 6.3154e-39 227.5 326 0 0 0 0.03095 0.22612 -0.97361 0.010297
-0.076563 0.10868 1.2891 6.0849e-39 229 326 0 0 0 0.029736 0.20722 -0.97784 0.0070338
-0.075054 0.10868 1.2891 6.4537e-39 230 326 0 0 0 0.03622 0.19833 -0.97947 0.0052528
-0.073546 0.10868 1.2891 6.7303e-39 231 326 0 0 0 0.039131 0.18788 -0.98141 0.0035002
-0.07053 0.10868 1.2891 7.0991e-39 233 326 0 0 0 0.057873 0.18409 -0.9812 0.0031539
-0.066759 0.10868 1.2891 6.8686e-39 235.5 326 0 0 0 0.097989 0.19402 -0.97609 0.0037112
-0.062989 0.10868 1.2891 6.0849e-39 238 326 0 0 0 0.1275 0.20965 -0.96943 0.0052051
-0.091645 0.11018 1.2891 8.2054e-39 252 326 0 0 0 0.089878 0.34071 -0.93586 0.032602
-0.088628 0.11094 1.2891 6.7764e-39 334.5 326 0 0 0 0.051531 0.31984 -0.94607 0.027387
-0.084858 0.11018 1.2891 8.9891e-39 256.5 326 0 0 0 0.045729 0.28492 -0.95746 0.022888
-0.082595 0.11094 1.2891 7.3757e-39 339 326 0 0 0 0.02035 0.26547 -0.96391 0.017793
-0.081087 0.11094 1.2891 7.0069e-39 340 326 0 0 0 0.01004 0.25084 -0.96798 0.015024
-0.078825 0.11018 1.2891 7.4218e-39 315 326 0 0 0 0.021535 0.22984 -0.97299 0.011219
-0.076563 0.11094 1.2891 5.67e-39 397.5 326 0 0 0 0.015075 0.21613 -0.97625 0.0076054
-0.075054 0.11094 1.2891 5.7161e-39 398.5 326 0 0 0 0.021427 0.20721 -0.97806 0.0061501
-0.07053 0.11018 1.2891 6.2693e-39 375 326 0 0 0 0.059066 0.19068 -0.97987 0.0037073
-0.088628 0.1132 1.2891 5.9005e-39 177 327 0 0 0 -0.0020719 0.33774 -0.94124 0.028745
-0.082595 0.1132 1.2891 6.5459e-39 181 327 0 0 0 -0.011741 0.27453 -0.96151 0.017017
-0.081087 0.1132 1.2891 6.2693e-39 182 327 0 0 0 -0.010709 0.26221 -0.96495 0.014978
-0.076563 0.1132 1.2891 5.5317e-39 185 327 0 0 0 -0.0021999 0.22827 -0.97359 0.0081446
-0.075054 0.1132 1.2891 6.0849e-39 186 327 0 0 0 0.0087211 0.22051 -0.97535 0.0075242
-0.082595 0.11471 1.2891 5.9927e-39 211 327 0 0 0 -0.031382 0.29153 -0.95605 0.01805
-0.081087 0.11471 1.2891 6.0849e-39 212 327 0 0 0 -0.027977 0.27889 -0.95991 0.016032
-0.079579 0.11471 1.2891 6.3615e-39 213 327 0 0 0 -0.027961 0.26463 -0.96394 0.013585
-0.076563 0.11471 1.2891 6.0849e-39 215 327 0 0 0 -0.010329 0.2402 -0.97067 0.0099298
-0.075054 0.11471 1.2891 5.9927e-39 216 327 0 0 0 0.0013331 0.23213 -0.97268 0.0082655
-0.07053 0.11471 1.2891 6.8225e-39 219 327 0 0 0 0.058085 0.21786 -0.97425 0.0063703
-0.076563 0.11697 1.2891 6.7764e-39 320.5 327 0 0 0 -0.0331 0.26423 -0.96389 0.012418
-0.076563 0.11923 1.2891 5.3473e-39 441 327 0 0 0 -0.054752 0.29613 -0.95358 0.014259
-0.050976 0.099731 1.2905 5.9927e-39 175 325 0 0 0 0.15303 0.21408 -0.96476 0.0068615
-0.052486 0.10124 1.2905 5.5317e-39 207 325 0 0 0 0.14986 0.22116 -0.96365 0.0074456
-0.050976 0.10124 1.2905 5.4395e-39 208 325 0 0 0 0.15616 0.22493 -0.96178 0.0079873
-0.053241 0.10275 1.2905 6.3154e-39 240.5 325 0 0 0 0.15421 0.22599 -0.96185 0.0076918
-0.050976 0.10275 1.2905 6.6381e-39 242 325 0 0 0 0.16687 0.23184 -0.95833 0.0086108
-0.049467 0.10275 1.2905 7.0991e-39 243 325 0 0 0 0.18357 0.22926 -0.9559 0.0086468
-0.061545 0.10501 1.2905 5.7622e-39 408 325 0 0 0 0.11848 0.20619 -0.97131 0.0049603
-0.057015 0.10501 1.2905 6.2232e-39 281 325.5 0 0 0 0.1496 0.22222 -0.96345 0.0068381
-0.055506 0.10501 1.2905 6.4537e-39 282 325.5 0 0 0 0.1538 0.22637 -0.96182 0.0073364
-0.053241 0.10501 1.2905 6.0849e-39 284 325.5 0 0 0 0.1713 0.23278 -0.95732 0.0083991
-0.05103 0.10512 1.2918 5.9005e-39 287 325.5 0 0 0 0.19173 0.24528 -0.9503 0.0094266
-0.049518 0.10512 1.2918 6.131e-39 288 325.5 0 0 0 0.20691 0.24962 -0.94598 0.0096953
-0.087211 0.10728 1.2905 5.9927e-39 187 326 0 0 0 0.088146 0.29299 -0.95204 0.026468
-0.069094 0.10728 1.2905 5.6239e-39 199 326 0 0 0 0.072403 0.18392 -0.98027 0.0029327
-0.061545 0.10728 1.2905 5.7161e-39 204 326 0 0 0 0.13095 0.21288 -0.96826 0.005422
-0.058525 0.10728 1.2905 5.9927e-39 206 326 0 0 0 0.15522 0.223 -0.96238 0.0063366
-0.057015 0.10728 1.2905 5.8083e-39 207 326 0 0 0 0.16151 0.23065 -0.95954 0.0071224
-0.055506 0.10728 1.2905 5.5317e-39 208 326 0 0 0 0.16962 0.23465 -0.95717 0.0077186
-0.053268 0.10734 1.2912 5.67e-39 209.5 326 0 0 0 0.18566 0.23853 -0.95322 0.008583
-0.05103 0.10739 1.2918 5.9927e-39 211 326 0 0 0 0.21123 0.24768 -0.94554 0.0090092
-0.048763 0.10739 1.2918 6.1771e-39 212.5 326 0 0 0 0.25123 0.25368 -0.93409 0.0086557
-0.09627 0.10879 1.2905 5.9005e-39 215 326 0 0 0 0.17184 0.37679 -0.91022 0.035468
-0.090231 0.10879 1.2905 6.8225e-39 220 326 0 0 0 0.094338 0.32405 -0.94132 0.030753
-0.087211 0.10879 1.2905 6.2693e-39 222 326 0 0 0 0.059208 0.29523 -0.95359 0.024848
-0.072113 0.10879 1.2905 7.0991e-39 232 326 0 0 0 0.043392 0.18874 -0.98107 0.0033806
-0.069094 0.10879 1.2905 7.0069e-39 234 326 0 0 0 0.077234 0.18881 -0.97897 0.0036398
-0.064564 0.10879 1.2905 6.3615e-39 237 326 0 0 0 0.12205 0.20819 -0.97044 0.0050701
-0.06079 0.10879 1.2905 6.0388e-39 239.5 326 0 0 0 0.14831 0.22041 -0.96407 0.0059929
-0.058525 0.10879 1.2905 6.1771e-39 241 326 0 0 0 0.1648 0.22845 -0.9595 0.0067154
-0.057015 0.10879 1.2905 6.8225e-39 242 326 0 0 0 0.1667 0.23008 -0.95879 0.0071278
-0.054779 0.10885 1.2912 7.3296e-39 243.5 326 0 0 0 0.18535 0.23841 -0.95331 0.0079676
-0.052541 0.1089 1.2918 7.0991e-39 245 326 0 0 0 0.20725 0.24977 -0.94586 0.0085926
-0.05103 0.1089 1.2918 6.8225e-39 246 326 0 0 0 0.21751 0.2531 -0.94267 0.0088271
-0.048763 0.1089 1.2918 7.1452e-39 247.5 326 0 0 0 0.26164 0.25578 -0.93066 0.0084234
-0.09627 0.1103 1.2905 7.8366e-39 249 326 0 0 0 0.13412 0.3989 -0.90713 0.034405
-0.09481 0.11111 1.2912 7.1913e-39 330.5 326 0 0 0 0.042465 0.4129 -0.90979 0.042325
-0.090797 0.11138 1.2914 6.6995e-39 360 326 0 0 0 -0.0053448 0.37511 -0.92697 0.040061
-0.087211 0.11106 1.2905 6.9607e-39 336 326 0 0 0 0.029697 0.30367 -0.95232 0.024336
-0.084946 0.11181 1.2905 5.6239e-39 418.5 326 0 0 0 0.0050506 0.28636 -0.95811 0.020799
-0.078907 0.11181 1.2905 5.2091e-39 422.5 326 0 0 0 -0.0065518 0.243 -0.97 0.012042
-0.072868 0.11105 1.2905 5.7391e-39 400 326 0 0 0 0.031669 0.19847 -0.97959 0.004535
-0.070603 0.11181 1.2905 5.0708e-39 428 326 0 0 0 0.061985 0.20164 -0.9775 0.0048649
-0.069094 0.11106 1.2905 5.7162e-39 402.5 326 0 0 0 0.080787 0.19858 -0.97675 0.0046864
-0.066829 0.11105 1.2905 5.7853e-39 406.25 326 0 0 0 0.11163 0.2053 -0.97231 0.004606
-0.064564 0.11106 1.2905 5.7162e-39 409.5 326 0 0 0 0.13388 0.21475 -0.96745 0.0054396
-0.063055 0.11106 1.2905 5.8083e-39 410.5 326 0 0 0 0.1431 0.22168 -0.96456 0.0059439
-0.06079 0.11105 1.2905 6.0849e-39 412 326 0 0 0 0.16249 0.23113 -0.95926 0.0065913
-0.058525 0.11106 1.2905 5.8083e-39 413.5 326 0 0 0 0.17915 0.23743 -0.95474 0.0070659
-0.057075 0.11117 1.2918 5.624e-39 414.5 326 0 0 0 0.18966 0.24758 -0.95012 0.0078599
-0.054808 0.11117 1.2918 5.4626e-39 416 326 0 0 0 0.20311 0.25172 -0.94625 0.0082908
-0.091032 0.11338 1.2912 6.5459e-39 175.5 327 0 0 0 -0.055344 0.3975 -0.91593 0.037849
-0.087211 0.11332 1.2905 5.9005e-39 178 327 0 0 0 -0.039815 0.3433 -0.93838 0.029091
-0.084946 0.11332 1.2905 6.2232e-39 179.5 327 0 0 0 -0.033701 0.31519 -0.94843 0.024067
-0.078907 0.11332 1.2905 5.7161e-39 183.5 327 0 0 0 -0.019026 0.25077 -0.96786 0.012297
-0.072868 0.11332 1.2905 5.7161e-39 187.5 327 0 0 0 0.023615 0.21638 -0.97602 0.0065052
-0.070603 0.11332 1.2905 5.4395e-39 189 327 0 0 0 0.063011 0.21435 -0.97472 0.0059787
-0.069094 0.11332 1.2905 5.4395e-39 190 327 0 0 0 0.08366 0.21449 -0.97314 0.006073
-0.066829 0.11332 1.2905 5.5778e-39 191.5 327 0 0 0 0.11962 0.21681 -0.96886 0.0058017
-0.064564 0.11332 1.2905 5.4395e-39 193 327 0 0 0 0.14324 0.22785 -0.9631 0.0063627
-0.063055 0.11332 1.2905 5.3473e-39 194 327 0 0 0 0.15689 0.23606 -0.95899 0.0068353
-0.06079 0.11332 1.2905 5.4395e-39 195.5 327 0 0 0 0.17398 0.24236 -0.95446 0.0073688
-0.058525 0.11332 1.2905 5.9927e-39 197 327 0 0 0 0.19203 0.25093 -0.94877 0.0077867
-0.057075 0.11344 1.2918 6.1771e-39 198 327 0 0 0 0.20812 0.26623 -0.94117 0.0082541
-0.054808 0.11344 1.2918 5.67e-39 199.5 327 0 0 0 0.22144 0.27149 -0.93662 0.0088988
-0.091081 0.11495 1.2918 5.9927e-39 205.5 327 0 0 0 -0.11076 0.39821 -0.91058 0.036225
-0.088721 0.11483 1.2905 6.0849e-39 207 327 0 0 0 -0.083008 0.36987 -0.92537 0.034038
-0.087302 0.11495 1.2918 5.9927e-39 208 327 0 0 0 -0.09441 0.35415 -0.93041 0.031587
-0.084946 0.11483 1.2905 5.8544e-39 209.5 327 0 0 0 -0.062415 0.32913 -0.94222 0.02548
-0.078152 0.11483 1.2905 6.3615e-39 214 327 0 0 0 -0.031946 0.25977 -0.96514 0.012527
-0.072868 0.11483 1.2905 6.131e-39 217.5 327 0 0 0 0.015147 0.23034 -0.97299 0.0080853
-0.069094 0.11483 1.2905 6.7303e-39 220 327 0 0 0 0.084402 0.226 -0.97046 0.0071376
-0.066829 0.11483 1.2905 5.9927e-39 221.5 327 0 0 0 0.12476 0.22992 -0.96518 0.0067844
-0.064564 0.11483 1.2905 5.8083e-39 223 327 0 0 0 0.15334 0.23976 -0.95865 0.0070812
-0.063055 0.11483 1.2905 5.8083e-39 224 327 0 0 0 0.16423 0.24627 -0.95519 0.0072823
-0.06079 0.11483 1.2905 6.0849e-39 225.5 327 0 0 0 0.18792 0.25924 -0.94735 0.0083588
-0.058525 0.11483 1.2905 6.5459e-39 227 327 0 0 0 0.20717 0.27062 -0.94013 0.0084955
-0.057075 0.11495 1.2918 6.3615e-39 228 327 0 0 0 0.22285 0.28324 -0.9328 0.0088897
-0.055564 0.11495 1.2918 6.0849e-39 229 327 0 0 0 0.22952 0.28675 -0.9301 0.009314
-0.090325 0.11722 1.2918 6.2693e-39 311.5 327 0 0 0 -0.17192 0.39532 -0.90231 0.032981
-0.088767 0.11716 1.2912 6.131e-39 312.5 327 0 0 0 -0.14465 0.3778 -0.91452 0.031379
-0.085036 0.11722 1.2918 6.3384e-39 315 327 0 0 0 -0.12281 0.34591 -0.9302 0.0263
-0.082682 0.11709 1.2905 6.4537e-39 316.5 327 0 0 0 -0.083981 0.32298 -0.94267 0.020729
-0.081172 0.11709 1.2905 6.4076e-39 317.5 327 0 0 0 -0.077977 0.31574 -0.94564 0.019925
-0.078907 0.1171 1.2905 6.615e-39 319 327 0 0 0 -0.059495 0.29035 -0.95507 0.014803
-0.075133 0.11709 1.2905 6.7303e-39 321.5 327 0 0 0 -0.021615 0.26635 -0.96363 0.012516
-0.072868 0.1171 1.2905 6.7533e-39 326.25 327 0 0 0 0.016388 0.25671 -0.96635 0.0099932
-0.070603 0.11709 1.2905 6.8224e-39 331.5 327 0 0 0 0.058019 0.25308 -0.9657 0.009876
-0.069094 0.11709 1.2905 6.592e-39 332.5 327 0 0 0 0.088978 0.25128 -0.96382 0.00918
-0.066846 0.11712 1.2908 6.5689e-39 334.5 327 0 0 0 0.13183 0.25881 -0.95689 0.0090724
-0.064598 0.11716 1.2912 6.5458e-39 336 327 0 0 0 0.16856 0.26796 -0.94857 0.0087232
-0.063088 0.11716 1.2912 6.4997e-39 337 327 0 0 0 0.18153 0.27385 -0.94448 0.0089532
-0.06079 0.1171 1.2905 6.7764e-39 339 327 0 0 0 0.19965 0.278 -0.93961 0.0089668
-0.058555 0.11716 1.2912 7.053e-39 341.5 327 0 0 0 0.22744 0.29035 -0.9295 0.0092219
-0.055564 0.11646 1.2918 5.8083e-39 371 327 0 0 0 0.2396 0.29985 -0.92341 0.0097141
-0.082768 0.11948 1.2918 5.4395e-39 437 327 0 0 0 -0.12644 0.35382 -0.92673 0.022832
-0.081172 0.11936 1.2905 5.2552e-39 438 327 0 0 0 -0.10267 0.33941 -0.93502 0.01953
-0.07899 0.11948 1.2918 5.5317e-39 439.5 327 0 0 0 -0.09589 0.3345 -0.9375 0.018096
-0.075133 0.11936 1.2905 5.2552e-39 442 327 0 0 0 -0.034006 0.30408 -0.95204 0.014479
-0.072945 0.11948 1.2918 6.4998e-39 171.5 328 0 0 0 0.0056841 0.30659 -0.95182 0.013366
-0.070677 0.11948 1.2918 6.4537e-39 173 328 0 0 0 0.051812 0.30296 -0.95159 0.013317
-0.069166 0.11948 1.2918 6.4537e-39 174 328 0 0 0 0.085724 0.3027 -0.94922 0.013361
-0.066899 0.11948 1.2918 6.2693e-39 175.5 328 0 0 0 0.14275 0.30399 -0.94192 0.012146
-0.064632 0.11948 1.2918 5.9005e-39 177 328 0 0 0 0.17756 0.3078 -0.93474 0.01104
-0.063121 0.11948 1.2918 5.7161e-39 178 328 0 0 0 0.19567 0.31287 -0.92942 0.010793
-0.060853 0.11948 1.2918 5.8544e-39 179.5 328 0 0 0 0.22033 0.3147 -0.92326 0.010663
-0.058586 0.11948 1.2918 6.0849e-39 181 328 0 0 0 0.24281 0.31311 -0.91816 0.0099277
-0.082768 0.12099 1.2918 5.8083e-39 193 328 0 0 0 -0.14274 0.37292 -0.91682 0.022637
-0.081257 0.12099 1.2918 5.5317e-39 194 328 0 0 0 -0.12359 0.35992 -0.92476 0.019226
-0.07899 0.12099 1.2918 5.4856e-39 195.5 328 0 0 0 -0.1066 0.3532 -0.92945 0.018628
-0.076643 0.12087 1.2905 6.0849e-39 197 328 0 0 0 -0.068682 0.33339 -0.94028 0.015788
-0.075133 0.12087 1.2905 6.2693e-39 198 328 0 0 0 -0.044009 0.32986 -0.943 0.016103
-0.072945 0.12099 1.2918 5.7161e-39 199.5 328 0 0 0 0.0031721 0.33453 -0.94238 0.015169
-0.070677 0.12099 1.2918 5.9927e-39 201 328 0 0 0 0.046546 0.33468 -0.94118 0.015155
-0.069166 0.12099 1.2918 5.8083e-39 202 328 0 0 0 0.088047 0.33163 -0.93929 0.014808
-0.067655 0.12099 1.2918 5.5317e-39 203 328 0 0 0 0.12904 0.32673 -0.93627 0.014131
-0.064632 0.12099 1.2918 5.7161e-39 205 328 0 0 0 0.17931 0.33001 -0.92679 0.012012
-0.060853 0.12099 1.2918 6.5459e-39 207.5 328 0 0 0 0.22611 0.33288 -0.91546 0.011433
-0.082768 0.12251 1.2918 6.2693e-39 221 328 0 0 0 -0.15741 0.3889 -0.90773 0.021877
-0.081257 0.12251 1.2918 5.9005e-39 222 328 0 0 0 -0.13757 0.38081 -0.91436 0.0192
-0.07899 0.12251 1.2918 5.8544e-39 223.5 328 0 0 0 -0.11329 0.36963 -0.92225 0.018965
-0.076643 0.12314 1.2905 6.6381e-39 239 328 0 0 0 -0.077416 0.35859 -0.93028 0.016333
-0.075133 0.12314 1.2905 6.9607e-39 240 328 0 0 0 -0.048634 0.35814 -0.9324 0.016267
-0.073171 0.12297 1.2914 7.1605e-39 236.67 328 0 0 0 -0.0025605 0.36277 -0.93188 0.016155
-0.070603 0.12314 1.2905 7.3757e-39 243.5 328 0 0 0 0.046889 0.35847 -0.93236 0.016338
-0.069166 0.12251 1.2918 6.0849e-39 230 328 0 0 0 0.089438 0.35588 -0.93024 0.015752
-0.061609 0.12251 1.2918 6.4537e-39 235 328 0 0 0 0.22019 0.36097 -0.90621 0.011678
-0.081257 0.12478 1.2918 6.7764e-39 324 328 0 0 0 -0.1543 0.39914 -0.90381 0.018384
-0.079241 0.12452 1.2918 6.8532e-39 301 328 0 0 0 -0.12934 0.3944 -0.90979 0.018923
-0.076643 0.1254 1.2905 5.5317e-39 417 328 0 0 0 -0.082563 0.39011 -0.91706 0.017275
-0.075133 0.1254 1.2905 5.7161e-39 418 328 0 0 0 -0.052021 0.39614 -0.91671 0.017651
-0.072693 0.12503 1.2918 6.5459e-39 365 328 0 0 0 0.0030519 0.39758 -0.91756 0.01727
-0.070677 0.12553 1.2918 5.2552e-39 422 328 0 0 0 0.04519 0.39846 -0.91607 0.016883
-0.069166 0.12402 1.2918 8.3898e-39 259 328 0 0 0 0.083746 0.37523 -0.92314 0.016645
-0.061609 0.12402 1.2918 5.9927e-39 378 328 0 0 0 0.22739 0.3794 -0.89686 0.011203
-0.079745 0.12704 1.2918 5.163e-39 443 328 0 0 0 -0.14496 0.41978 -0.89597 0.018401
-0.076643 0.12691 1.2905 5.163e-39 445 328 0 0 0 -0.079767 0.41406 -0.90675 0.017032
-0.075211 0.12704 1.2918 6.3615e-39 169 329 0 0 0 -0.052444 0.42346 -0.90439 0.017549
-0.072945 0.12704 1.2918 6.5459e-39 170.5 329 0 0 0 -0.0048373 0.42214 -0.90652 0.017559
-0.076723 0.12855 1.2918 5.4395e-39 195 329 0 0 0 -0.082777 0.43746 -0.89542 0.016501
-0.076723 0.13006 1.2918 5.9927e-39 222 329 0 0 0 -0.089838 0.44864 -0.88919 0.016573
-0.052596 0.11053 1.2932 5.9005e-39 395 326 0 0 0 0.21983 0.25495 -0.94164 0.0088462
-0.051083 0.11053 1.2932 6.1771e-39 396 326 0 0 0 0.236 0.26189 -0.9358 0.0087866
-0.048813 0.11053 1.2932 6.3154e-39 397.5 326 0 0 0 0.27624 0.26733 -0.92316 0.0087364
-0.052596 0.1128 1.2932 5.5779e-39 320.5 326.5 0 0 0 0.24467 0.27998 -0.9283 0.0090734
-0.051083 0.11204 1.2932 5.3473e-39 441 326 0 0 0 0.24984 0.27756 -0.92765 0.0095148
-0.048813 0.11204 1.2932 6.6381e-39 173.5 327 0 0 0 0.29133 0.27757 -0.91547 0.0089664
-0.054109 0.11507 1.2932 6.1771e-39 230 327 0 0 0 0.24346 0.29445 -0.92413 0.0097259
-0.052596 0.11507 1.2932 6.4537e-39 231 327 0 0 0 0.26662 0.29885 -0.9163 0.0094545
-0.087394 0.11658 1.2932 6.1771e-39 238 327 0 0 0 -0.14061 0.35706 -0.92344 0.029504
-0.057135 0.11658 1.2932 6.2693e-39 370 327 0 0 0 0.23725 0.30032 -0.92386 0.0095078
-0.054109 0.11658 1.2932 5.7161e-39 372 327 0 0 0 0.25203 0.30861 -0.91719 0.0099762
-0.088907 0.11961 1.2932 5.7161e-39 433 327 0 0 0 -0.2209 0.4031 -0.8881 0.025916
-0.087394 0.11809 1.2932 6.1771e-39 389 327 0 0 0 -0.17066 0.37359 -0.91176 0.026534
-0.085125 0.11961 1.2932 5.7161e-39 435.5 327 0 0 0 -0.16592 0.37593 -0.91167 0.024053
-0.055622 0.11809 1.2932 5.6239e-39 426 327 0 0 0 0.25378 0.31705 -0.91382 0.0099918
-0.084368 0.12112 1.2932 5.9927e-39 192 328 0 0 0 -0.17384 0.39094 -0.90385 0.022377
-0.066213 0.12112 1.2932 5.5317e-39 204 328 0 0 0 0.15832 0.33868 -0.92749 0.012955
-0.063187 0.12112 1.2932 6.1771e-39 206 328 0 0 0 0.20054 0.34261 -0.91782 0.011789
-0.058648 0.12112 1.2932 6.4537e-39 209 328 0 0 0 0.2524 0.35263 -0.90108 0.011257
-0.066969 0.12263 1.2932 6.6842e-39 231.5 328 0 0 0 0.14411 0.36628 -0.91928 0.014293
-0.0647 0.12263 1.2932 7.0991e-39 233 328 0 0 0 0.18521 0.36593 -0.91203 0.012444
-0.063187 0.12263 1.2932 6.8225e-39 234 328 0 0 0 0.20153 0.36859 -0.90748 0.011882
-0.060161 0.12263 1.2932 6.2693e-39 236 328 0 0 0 0.23674 0.37322 -0.89703 0.01141
-0.058648 0.12263 1.2932 6.3615e-39 237 328 0 0 0 0.25505 0.37079 -0.89301 0.011364
-0.082855 0.12491 1.2932 6.9607e-39 323 328 0 0 0 -0.18047 0.40963 -0.89422 0.020969
-0.078316 0.12566 1.2932 5.5317e-39 414 328 0 0 0 -0.11414 0.41484 -0.90271 0.01882
-0.069238 0.12566 1.2932 5.6239e-39 423 328 0 0 0 0.087655 0.40676 -0.90932 0.016487
