# .PCD v.7 - Point Cloud Data file format
VERSION .7
FIELDS x y z rgb u v vx vy vz normal_x normal_y normal_z curvature
SIZE 4 4 4 4 4 4 4 4 4 4 4 4 4
TYPE F F F F F F F F F F F F F
COUNT 1 1 1 1 1 1 1 1 1 1 1 1 1
WIDTH 560
HEIGHT 1
VIEWPOINT 0 0 0 1 0 0 0
POINTS 560
DATA ascii
0.0073018 0.13692 1.0881 7.6983e-39 409 325.5 0 0 0 -0.13205 0.12233 -0.98366 0.015642
0.0092113 0.13692 1.0881 7.4218e-39 410.5 325.5 0 0 0 -0.15807 0.10018 -0.98233 0.014325
0.011121 0.13692 1.0881 7.1221e-39 412 325.5 0 0 0 -0.17947 0.08542 -0.98005 0.014381
0.015576 0.13692 1.0881 6.131e-39 415.5 325.5 0 0 0 -0.2174 0.057185 -0.97441 0.018157
0.019395 0.13692 1.0881 6.1771e-39 422 325.5 0 0 0 -0.26999 0.036803 -0.96216 0.032582
-0.02325 0.13883 1.0881 6.6842e-39 442.5 326 0 0 0 0.297 0.12736 -0.94635 0.0099352
-0.020705 0.13883 1.0881 6.3154e-39 444.5 326 0 0 0 0.26716 0.12857 -0.95504 0.0085157
-0.018795 0.13883 1.0881 5.5317e-39 450 326 0 0 0 0.2435 0.1299 -0.96116 0.007818
-0.016893 0.13889 1.0885 5.6239e-39 451.5 326 0 0 0 0.20445 0.13368 -0.96971 0.0073032
-0.014989 0.13895 1.089 6.1771e-39 455 326 0 0 0 0.1809 0.146 -0.9726 0.0061635
-0.013715 0.13895 1.089 6.1771e-39 456 326 0 0 0 0.17338 0.15183 -0.97308 0.0064506
-0.011167 0.13895 1.089 6.0849e-39 458 326 0 0 0 0.15959 0.15849 -0.97438 0.009399
-0.0098924 0.13895 1.089 6.1771e-39 459 326 0 0 0 0.14491 0.16493 -0.9756 0.011051
0.0015747 0.13895 1.089 5.9005e-39 468 326 0 0 0 -0.04928 0.16838 -0.98449 0.019342
0.0028488 0.13895 1.089 5.5317e-39 201 327 0 0 0 -0.066702 0.1678 -0.98356 0.019037
0.00476 0.13895 1.089 5.3012e-39 202.5 327 0 0 0 -0.096159 0.15309 -0.98352 0.017894
0.0073048 0.13889 1.0885 5.3012e-39 204.5 327 0 0 0 -0.14233 0.13491 -0.98058 0.01564
0.0092113 0.13883 1.0881 5.6239e-39 206 327 0 0 0 -0.17279 0.12174 -0.97741 0.014404
0.011121 0.13883 1.0881 5.67e-39 207.5 327 0 0 0 -0.18839 0.11293 -0.97558 0.012929
0.01494 0.13883 1.0881 5.0708e-39 210.5 327 0 0 0 -0.22482 0.084622 -0.97072 0.016831
0.019395 0.13883 1.0881 5.163e-39 214 327 0 0 0 -0.27056 0.049731 -0.96142 0.030536
-0.022614 0.14074 1.0881 5.7622e-39 301 327.5 0 0 0 0.29451 0.12635 -0.94726 0.0096719
-0.020704 0.14074 1.0881 5.7391e-39 302.5 327.5 0 0 0 0.27051 0.12769 -0.95421 0.0081313
-0.018811 0.14086 1.089 5.6701e-39 304.5 327.5 0 0 0 0.24415 0.12934 -0.96107 0.0071153
-0.0169 0.14086 1.089 5.7622e-39 306 327.5 0 0 0 0.21331 0.13738 -0.96728 0.0058876
-0.014989 0.14023 1.089 5.5317e-39 394 327 0 0 0 0.18844 0.14657 -0.97109 0.005739
-0.013715 0.14086 1.089 5.3012e-39 310 327.5 0 0 0 0.18187 0.15653 -0.97078 0.0062548
0.0028488 0.14023 1.089 6.1771e-39 408 327 0 0 0 -0.070729 0.16862 -0.98314 0.018812
0.00476 0.14023 1.089 6.0849e-39 409.5 327 0 0 0 -0.1049 0.15914 -0.98167 0.017554
0.0073065 0.14083 1.0888 7.3296e-39 326.5 327.5 0 0 0 -0.14615 0.15204 -0.97751 0.013775
0.0092194 0.14086 1.089 7.1452e-39 328 327.5 0 0 0 -0.17899 0.14632 -0.97291 0.01257
0.011126 0.1408 1.0885 6.9377e-39 329.5 327.5 0 0 0 -0.19227 0.12921 -0.9728 0.011948
0.01303 0.14138 1.0881 7.3757e-39 246 328 0 0 0 -0.22046 0.12245 -0.96768 0.012237
0.01494 0.14074 1.0881 7.5601e-39 332.5 327.5 0 0 0 -0.23196 0.10717 -0.9668 0.0143
0.019395 0.14138 1.0881 7.2835e-39 364 328 0 0 0 -0.2878 0.083729 -0.95402 0.023131
-0.02325 0.14329 1.0881 7.6983e-39 337.5 328.5 0 0 0 0.31427 0.11921 -0.94182 0.010009
-0.020704 0.14329 1.0881 7.8366e-39 397 328.5 0 0 0 0.27796 0.13125 -0.95158 0.0073127
-0.018811 0.14277 1.089 7.56e-39 429 328 0 0 0 0.24655 0.13413 -0.9598 0.0057254
-0.0169 0.14277 1.089 7.56e-39 430.5 328 0 0 0 0.22246 0.14371 -0.96429 0.0052365
-0.013715 0.14277 1.089 7.9288e-39 433 328 0 0 0 0.19382 0.15636 -0.9685 0.0059066
0.0079453 0.14277 1.089 5.9005e-39 450 328 0 0 0 -0.1656 0.17058 -0.97133 0.012731
0.011131 0.14277 1.089 5.7161e-39 457.5 328 0 0 0 -0.20823 0.15295 -0.96605 0.010804
0.01303 0.14329 1.0881 6.0388e-39 426 328.5 0 0 0 -0.2327 0.14366 -0.96188 0.010655
0.01494 0.14329 1.0881 5.7161e-39 427.5 328.5 0 0 0 -0.24416 0.12513 -0.96163 0.012485
0.016849 0.14392 1.0881 6.2693e-39 396 329 0 0 0 -0.27472 0.11479 -0.95465 0.014789
0.018971 0.1435 1.0881 6.2693e-39 419.67 328.67 0 0 0 -0.29866 0.095372 -0.94958 0.019539
0.020668 0.14392 1.0881 5.7161e-39 399 329 0 0 0 -0.33806 0.084599 -0.93731 0.023618
-0.023052 0.14485 1.0887 6.2693e-39 432 329 0 0 0 0.31551 0.12297 -0.94092 0.0085386
-0.020713 0.14525 1.0885 5.7622e-39 467.5 329 0 0 0 0.28132 0.13582 -0.94995 0.0058376
-0.018811 0.14469 1.089 6.6842e-39 418.5 329 0 0 0 0.25615 0.1429 -0.95602 0.0048489
-0.017112 0.14447 1.089 6.9454e-39 403 329 0 0 0 0.23846 0.14969 -0.95955 0.0044485
0.011768 0.14405 1.089 6.6381e-39 392 329 0 0 0 -0.21552 0.16058 -0.9632 0.0097985
0.013042 0.14532 1.089 5.3473e-39 211 330 0 0 0 -0.24 0.165 -0.95665 0.009297
0.014946 0.14525 1.0885 5.3934e-39 212.5 330 0 0 0 -0.25942 0.14706 -0.9545 0.010085
0.016849 0.14519 1.0881 5.7161e-39 214 330 0 0 0 -0.28557 0.12825 -0.94974 0.012472
0.018758 0.14519 1.0881 5.3012e-39 215.5 330 0 0 0 -0.3098 0.11004 -0.94441 0.016725
0.020668 0.14519 1.0881 5.6239e-39 217 330 0 0 0 -0.35122 0.092279 -0.93173 0.019475
-0.026433 0.14711 1.0881 5.4856e-39 299 330.5 0 0 0 0.39217 0.11492 -0.91269 0.012192
-0.023261 0.14717 1.0885 5.7392e-39 301.5 330.5 0 0 0 0.33007 0.12602 -0.93551 0.0079499
-0.020723 0.14724 1.089 5.8083e-39 303.5 330.5 0 0 0 0.28793 0.13967 -0.94741 0.0050549
-0.018811 0.1466 1.089 6.1771e-39 402 330 0 0 0 0.26747 0.14451 -0.95267 0.0044628
-0.017537 0.1466 1.089 6.2693e-39 403 330 0 0 0 0.25037 0.15068 -0.95635 0.0042685
0.013042 0.1466 1.089 7.56e-39 427 330 0 0 0 -0.24825 0.17956 -0.95191 0.0089708
0.015165 0.14702 1.089 6.884e-39 364 330.33 0 0 0 -0.27559 0.16481 -0.94704 0.0092062
0.016864 0.14724 1.089 7.0991e-39 333 330.5 0 0 0 -0.30317 0.14978 -0.94109 0.010211
0.018763 0.14714 1.0883 7.8366e-39 334.5 330.5 0 0 0 -0.33468 0.12836 -0.93355 0.012722
0.020668 0.14711 1.0881 7.8827e-39 336 330.5 0 0 0 -0.36856 0.10981 -0.9231 0.016696
-0.026433 0.14901 1.0881 8.2054e-39 417 331 0 0 0 0.39795 0.11852 -0.90972 0.01182
-0.023261 0.14908 1.0885 7.6522e-39 419.5 331 0 0 0 0.34205 0.12847 -0.93086 0.0083741
-0.020723 0.14914 1.089 8.021e-39 421.5 331 0 0 0 0.29355 0.14067 -0.94554 0.0046864
0.01559 0.14914 1.089 5.4395e-39 450 331 0 0 0 -0.30138 0.17867 -0.93662 0.0083005
0.016864 0.14914 1.089 5.3473e-39 451 331 0 0 0 -0.32256 0.16556 -0.93196 0.0087698
0.018767 0.14908 1.0885 5.4395e-39 455.5 331 0 0 0 -0.34455 0.14707 -0.92718 0.010171
0.020668 0.14901 1.0881 5.9927e-39 457 331 0 0 0 -0.38261 0.1267 -0.91518 0.012848
-0.026433 0.15092 1.0881 6.9146e-39 329 332 0 0 0 0.40594 0.12055 -0.90591 0.011302
-0.02516 0.15092 1.0881 6.4998e-39 330 332 0 0 0 0.38514 0.12357 -0.91455 0.010751
-0.023483 0.15084 1.089 5.9313e-39 295.33 332 0 0 0 0.34329 0.12976 -0.93022 0.0076112
-0.020935 0.15084 1.089 5.8391e-39 297.33 332 0 0 0 0.30509 0.14013 -0.94196 0.0052166
0.01559 0.15106 1.089 5.0707e-39 429.5 332 0 0 0 -0.32016 0.18619 -0.92889 0.0076264
0.016864 0.15106 1.089 7.053e-39 266.5 332.5 0 0 0 -0.33621 0.17621 -0.92516 0.007637
0.018775 0.15106 1.089 7.099e-39 268.75 332.5 0 0 0 -0.36175 0.15885 -0.91864 0.0082282
0.021309 0.15096 1.0883 6.5689e-39 271 332.5 0 0 0 -0.41282 0.13786 -0.90032 0.01096
-0.026433 0.15283 1.0881 7.7444e-39 242 333 0 0 0 0.41775 0.11956 -0.90066 0.011524
-0.02516 0.15283 1.0881 7.4678e-39 243 333 0 0 0 0.39215 0.12343 -0.91158 0.01035
-0.023908 0.15297 1.089 7.56e-39 244 333 0 0 0 0.35506 0.12747 -0.92611 0.0077482
-0.02136 0.15297 1.089 7.8366e-39 246 333 0 0 0 0.31906 0.13746 -0.93771 0.0053986
0.019412 0.15297 1.089 6.2693e-39 396 333 0 0 0 -0.38778 0.14968 -0.90952 0.0077955
0.021314 0.1529 1.0885 6.2232e-39 397.5 333 0 0 0 -0.41791 0.13724 -0.89806 0.0090965
0.023214 0.15283 1.0881 6.0849e-39 399 333 0 0 0 -0.44328 0.13561 -0.88607 0.010102
-0.026433 0.15474 1.0881 7.0991e-39 359.5 333.5 0 0 0 0.42404 0.11643 -0.89813 0.011682
-0.02516 0.15474 1.0881 6.7764e-39 360.5 333.5 0 0 0 0.39451 0.12019 -0.911 0.0099433
-0.023908 0.15488 1.089 6.6841e-39 420 333.5 0 0 0 0.36511 0.12602 -0.92239 0.007786
0.019412 0.15424 1.089 5.4395e-39 178 334 0 0 0 -0.39938 0.13358 -0.907 0.0091557
0.021324 0.15488 1.089 5.7853e-39 292.5 334 0 0 0 -0.42692 0.12379 -0.89578 0.010499
0.023214 0.15474 1.0881 5.7622e-39 294 334 0 0 0 -0.45333 0.11787 -0.88352 0.011371
0.024487 0.15538 1.0881 6.3615e-39 405 334 0 0 0 -0.47156 0.11518 -0.87428 0.011865
-0.028979 0.15792 1.0881 5.2552e-39 221 335 0 0 0 0.46627 0.10858 -0.87795 0.012643
-0.026857 0.1575 1.0881 5.3474e-39 298.67 334.67 0 0 0 0.43505 0.11391 -0.89317 0.011952
-0.02516 0.15729 1.0881 5.4395e-39 345 334.5 0 0 0 0.40073 0.11794 -0.90857 0.0099885
-0.023908 0.15679 1.089 5.7161e-39 467 334 0 0 0 0.37471 0.12837 -0.91821 0.008153
0.021961 0.15679 1.089 5.9005e-39 164 335 0 0 0 -0.43718 0.11187 -0.89239 0.01205
0.023214 0.15729 1.0881 5.7622e-39 272.5 335 0 0 0 -0.45774 0.10166 -0.88326 0.012648
0.024487 0.15729 1.0881 5.9005e-39 273.5 335 0 0 0 -0.47007 0.10733 -0.87608 0.012454
-0.028979 0.1592 1.0881 7.56e-39 421 335 0 0 0 0.47005 0.10932 -0.87584 0.012823
-0.027069 0.1592 1.0881 7.7905e-39 422.5 335 0 0 0 0.43501 0.10866 -0.89385 0.011359
-0.025182 0.15934 1.089 8.2054e-39 424 335 0 0 0 0.39943 0.11666 -0.90931 0.0092187
-0.023908 0.15806 1.089 5.7161e-39 225 335 0 0 0 0.37687 0.12568 -0.9177 0.0079691
0.021324 0.1587 1.089 5.8544e-39 426.5 335 0 0 0 -0.43661 0.10101 -0.89396 0.012414
0.023214 0.1592 1.0881 6.5459e-39 476 335 0 0 0 -0.45607 0.091383 -0.88524 0.013673
0.024487 0.1592 1.0881 6.6381e-39 477 335 0 0 0 -0.47224 0.096112 -0.87621 0.013668
-0.028979 0.16111 1.0881 6.0388e-39 283 336 0 0 0 0.46935 0.10352 -0.87693 0.013018
-0.027081 0.16118 1.0885 5.9696e-39 285.5 336 0 0 0 0.43245 0.10547 -0.89547 0.011155
-0.025182 0.16125 1.089 5.8083e-39 287 336 0 0 0 0.40126 0.10786 -0.90959 0.0092811
0.021961 0.16125 1.089 6.4537e-39 329.5 336 0 0 0 -0.4406 0.082545 -0.8939 0.014103
0.023224 0.16118 1.0885 6.1311e-39 330.5 336 0 0 0 -0.45857 0.085167 -0.88457 0.01394
0.024911 0.16132 1.0881 6.7303e-39 364.33 336 0 0 0 -0.47972 0.082317 -0.87355 0.015204
-0.029004 0.16316 1.089 5.7161e-39 474 336 0 0 0 0.45269 0.0944 -0.88665 0.012171
-0.027093 0.16316 1.089 6.0849e-39 475.5 336 0 0 0 0.42872 0.094864 -0.89844 0.010777
-0.025182 0.16316 1.089 6.4537e-39 477 336 0 0 0 0.40633 0.10672 -0.90747 0.0097917
0.021961 0.16316 1.089 5.9927e-39 165 337 0 0 0 -0.44051 0.066187 -0.8953 0.015758
0.023235 0.16316 1.089 6.0849e-39 166 337 0 0 0 -0.4517 0.062052 -0.89001 0.015699
0.025123 0.16302 1.0881 6.3615e-39 167.5 337 0 0 0 -0.47551 0.06846 -0.87704 0.01577
-0.029004 0.16507 1.089 6.638e-39 308 337 0 0 0 0.4481 0.095076 -0.88891 0.0123
-0.026881 0.16486 1.089 6.8839e-39 278 337 0 0 0 0.42213 0.094879 -0.90156 0.010554
-0.025182 0.16443 1.089 5.7161e-39 216 337 0 0 0 0.40202 0.10198 -0.90993 0.0099042
0.023235 0.16507 1.089 6.6842e-39 408 337 0 0 0 -0.44896 0.041439 -0.89259 0.017648
0.025135 0.165 1.0885 6.7303e-39 409.5 337 0 0 0 -0.46489 0.0476 -0.88409 0.017592
0.027033 0.16556 1.0881 6.9147e-39 447 337 0 0 0 -0.48225 0.050842 -0.87456 0.018623
-0.029004 0.16698 1.089 5.2552e-39 142 338 0 0 0 0.44247 0.092788 -0.89197 0.01216
-0.026456 0.16698 1.089 5.2552e-39 144 338 0 0 0 0.415 0.087325 -0.90562 0.011132
0.025135 0.16691 1.0885 6.3615e-39 200.5 338 0 0 0 -0.45785 0.023282 -0.88873 0.020491
0.027033 0.16684 1.0881 6.2693e-39 202 338 0 0 0 -0.47658 0.033924 -0.87848 0.020976
-0.029004 0.1689 1.089 6.5459e-39 330 338 0 0 0 0.43745 0.087923 -0.89493 0.012094
-0.026456 0.1689 1.089 6.3155e-39 332 338 0 0 0 0.40999 0.074624 -0.90903 0.012171
0.021961 0.16953 1.089 5.6239e-39 475 338 0 0 0 -0.44256 -0.07711 -0.89342 0.027637
0.023235 0.16953 1.089 5.8083e-39 476 338 0 0 0 -0.44621 -0.06676 -0.89244 0.027434
0.025124 0.16874 1.0881 6.4537e-39 436 338 0 0 0 -0.44987 -0.024696 -0.89275 0.024879
0.027033 0.16811 1.0881 6.3615e-39 396 338 0 0 0 -0.47092 0.014132 -0.88206 0.021508
-0.029004 0.1708 1.089 6.2693e-39 164 339 0 0 0 0.43322 0.076498 -0.89804 0.013819
-0.026456 0.1708 1.089 6.4537e-39 166 339 0 0 0 0.40349 0.066766 -0.91254 0.013667
0.021099 0.17113 1.0884 6.5766e-39 286.67 339 0 0 0 -0.44211 -0.13376 -0.88693 0.029188
0.023235 0.1708 1.089 5.4395e-39 222 339 0 0 0 -0.44799 -0.10187 -0.88822 0.02826
-0.029004 0.17272 1.089 5.8544e-39 429.5 339 0 0 0 0.43123 0.068182 -0.89966 0.01395
-0.026456 0.17272 1.089 5.9466e-39 431.5 339 0 0 0 0.39933 0.055811 -0.91511 0.014606
0.016864 0.17335 1.089 5.9927e-39 162 340 0 0 0 -0.42157 -0.21692 -0.88047 0.027495
0.018767 0.17264 1.0885 6.7764e-39 290.5 339.5 0 0 0 -0.43384 -0.1722 -0.88438 0.028706
0.014727 0.1749 1.0881 5.6239e-39 413 340 0 0 0 -0.42677 -0.28275 -0.85902 0.027377
0.0092194 0.17718 1.089 5.8083e-39 200 341 0 0 0 -0.3577 -0.37779 -0.854 0.031812
0.010494 0.17718 1.089 6.1771e-39 201 341 0 0 0 -0.3874 -0.38578 -0.83731 0.028086
0.0079453 0.17972 1.089 5.4395e-39 474 341 0 0 0 -0.34044 -0.47926 -0.80896 0.030197
0.0092194 0.17845 1.089 7.0069e-39 393 341 0 0 0 -0.36569 -0.43108 -0.82489 0.029511
0.0079453 0.181 1.089 5.6239e-39 213 342 0 0 0 -0.34422 -0.52778 -0.77651 0.02801
0.00030057 0.18355 1.089 6.2693e-39 151 343 0 0 0 -0.096201 -0.58967 -0.80189 0.042606
0.0045464 0.18264 1.0887 6.9761e-39 326.67 342.33 0 0 0 -0.26224 -0.58455 -0.76781 0.032005
0.0066712 0.18227 1.089 7.2835e-39 413 342 0 0 0 -0.32555 -0.56852 -0.75552 0.028194
-0.0067217 0.12521 1.0914 6.3615e-39 393 320 0 0 0 0.12249 0.076112 -0.98955 0.023538
-0.0048044 0.12516 1.091 5.5317e-39 401 320 0 0 0 0.079844 0.076773 -0.99385 0.02529
-0.0086259 0.12696 1.09 5.624e-39 328 321 0 0 0 0.13053 0.093275 -0.98705 0.018825
-0.0067187 0.12707 1.091 5.4395e-39 330 321 0 0 0 0.11368 0.092638 -0.98919 0.021263
-0.0048002 0.12696 1.09 5.67e-39 331.5 321 0 0 0 0.072812 0.09041 -0.99324 0.022966
-0.00097528 0.12771 1.091 7.56e-39 426 321 0 0 0 0.011143 0.098838 -0.99504 0.023169
0.0015789 0.12782 1.0919 7.1913e-39 428 321 0 0 0 -0.025321 0.082485 -0.99627 0.022703
0.0028539 0.12707 1.091 6.1771e-39 340 321 0 0 0 -0.04817 0.039067 -0.99807 0.02145
0.0047672 0.12704 1.0907 7.1682e-39 396.5 321 0 0 0 -0.07626 0.019017 -0.99691 0.018949
0.00668 0.12701 1.0905 6.9607e-39 398.5 321 0 0 0 -0.094807 -0.0040357 -0.99549 0.017204
0.025396 0.12725 1.0906 5.8698e-39 431 321 0 0 0 -0.2622 -0.25883 -0.92966 0.11586
-0.0086259 0.12887 1.09 5.6239e-39 250 322 0 0 0 0.12412 0.10316 -0.98689 0.017151
-0.0067158 0.12893 1.0905 5.9005e-39 251.5 322 0 0 0 0.10712 0.10184 -0.98902 0.019272
-0.0048002 0.12887 1.09 7.7444e-39 361 322 0 0 0 0.066496 0.10419 -0.99233 0.021247
-0.0028924 0.1291 1.0919 8.0671e-39 362.5 322 0 0 0 0.04027 0.10717 -0.99342 0.022271
-0.00097528 0.12899 1.091 7.6522e-39 364 322 0 0 0 0.010528 0.10316 -0.99461 0.021688
0.00093943 0.12904 1.0914 7.6522e-39 365.5 322 0 0 0 -0.019693 0.086217 -0.99608 0.021442
0.0028513 0.12887 1.09 8.3898e-39 367 322 0 0 0 -0.049481 0.07009 -0.99631 0.020159
0.0047642 0.12887 1.09 8.2976e-39 368.5 322 0 0 0 -0.080181 0.05248 -0.9954 0.018234
0.0066771 0.12887 1.09 7.8366e-39 370 322 0 0 0 -0.095278 0.032567 -0.99492 0.016926
0.029006 0.12893 1.0905 5.67e-39 387.5 322 0 0 0 -0.39112 -0.20555 -0.89709 0.12445
-0.0086259 0.13079 1.09 6.8685e-39 397 322.5 0 0 0 0.12172 0.11309 -0.9861 0.015855
-0.0067144 0.13081 1.0903 7.3526e-39 398.5 322.5 0 0 0 0.1008 0.11652 -0.98806 0.017936
-0.0048002 0.13015 1.09 7.8366e-39 425 322 0 0 0 0.064815 0.12162 -0.99046 0.020336
-0.0028911 0.13096 1.0914 8.4359e-39 401.5 322.5 0 0 0 0.038004 0.12031 -0.99201 0.020328
-0.00097528 0.13026 1.091 7.8366e-39 428 322 0 0 0 0.0082301 0.11893 -0.99287 0.021237
0.00093895 0.13087 1.0907 7.7905e-39 404.5 322.5 0 0 0 -0.02249 0.10525 -0.99419 0.019911
0.0028513 0.13015 1.09 7.0991e-39 431 322 0 0 0 -0.051237 0.088204 -0.99478 0.019424
0.0047642 0.13015 1.09 7.053e-39 432.5 322 0 0 0 -0.078791 0.073755 -0.99416 0.017982
0.0066771 0.13015 1.09 7.0069e-39 434 322 0 0 0 -0.097166 0.055727 -0.99371 0.016451
-0.0086259 0.13397 1.09 6.0849e-39 399 324 0 0 0 0.12022 0.13414 -0.98364 0.01445
-0.0069256 0.13355 1.09 6.1771e-39 419.33 323.67 0 0 0 0.10552 0.1362 -0.98505 0.016088
-0.0028873 0.13334 1.09 5.9236e-39 432 323.5 0 0 0 0.033085 0.14006 -0.98959 0.019082
0.00093847 0.1327 1.09 6.3615e-39 463.5 323 0 0 0 -0.028347 0.12299 -0.992 0.019825
-0.0086259 0.13525 1.09 5.9927e-39 235 325 0 0 0 0.12094 0.14548 -0.98194 0.014257
-0.0028873 0.13525 1.09 6.131e-39 239.5 325 0 0 0 0.032439 0.16168 -0.98631 0.01952
-0.0086259 0.1378 1.09 8.6664e-39 367 326 0 0 0 0.12885 0.16494 -0.97785 0.014236
-0.0035249 0.1378 1.09 7.7444e-39 371 326 0 0 0 0.043141 0.17715 -0.98324 0.019555
-0.012452 0.13907 1.09 6.1771e-39 457 326 0 0 0 0.16709 0.15668 -0.97341 0.0081301
-0.0086335 0.1392 1.091 5.8083e-39 460 326 0 0 0 0.13317 0.16654 -0.977 0.014034
-0.006713 0.13907 1.09 6.2693e-39 461.5 326 0 0 0 0.10221 0.17336 -0.97954 0.016674
-0.0048002 0.13907 1.09 6.8225e-39 463 326 0 0 0 0.069156 0.18051 -0.98114 0.018576
-0.0028873 0.13907 1.09 6.4076e-39 464.5 326 0 0 0 0.033066 0.18336 -0.98249 0.019797
-0.00097442 0.13907 1.09 5.9927e-39 466 326 0 0 0 -0.007338 0.18433 -0.98284 0.020392
0.00030083 0.13907 1.09 5.7161e-39 467 326 0 0 0 -0.024826 0.18034 -0.98329 0.019707
-0.015002 0.14162 1.09 4.9786e-39 224 328 0 0 0 0.1938 0.15025 -0.96947 0.00558
-0.012452 0.14098 1.09 5.7162e-39 311 327.5 0 0 0 0.17471 0.16098 -0.97137 0.0071282
-0.011176 0.14098 1.09 5.9005e-39 312 327.5 0 0 0 0.1625 0.1679 -0.97232 0.0082529
-0.0092674 0.14105 1.0905 5.4857e-39 313.5 327.5 0 0 0 0.14515 0.17065 -0.97458 0.011403
-0.006716 0.14105 1.0905 5.3243e-39 315.5 327.5 0 0 0 0.10958 0.17867 -0.97779 0.014018
-0.0048066 0.14118 1.0914 5.8083e-39 317 327.5 0 0 0 0.079234 0.17698 -0.98102 0.01791
-0.0028886 0.14105 1.0905 6.4537e-39 318.5 327.5 0 0 0 0.038599 0.18178 -0.98258 0.01911
-0.00097485 0.14105 1.0905 7.053e-39 320 327.5 0 0 0 -0.0095735 0.18692 -0.98233 0.020077
0.00093888 0.14105 1.0905 7.0299e-39 321.5 327.5 0 0 0 -0.043632 0.18013 -0.98268 0.019438
0.0028513 0.14162 1.09 7.8366e-39 238 328 0 0 0 -0.073692 0.17453 -0.98189 0.018422
0.0047642 0.14162 1.09 7.9749e-39 239.5 328 0 0 0 -0.10691 0.16982 -0.97966 0.017384
-0.015002 0.1429 1.09 7.8366e-39 432 328 0 0 0 0.20091 0.15345 -0.96752 0.0054979
-0.012452 0.1429 1.09 8.2054e-39 434 328 0 0 0 0.18114 0.16519 -0.96948 0.0067627
-0.011176 0.1429 1.09 8.482e-39 435 328 0 0 0 0.16988 0.16965 -0.97075 0.007825
-0.0092674 0.14297 1.0905 8.021e-39 436.5 328 0 0 0 0.1471 0.1762 -0.9733 0.0095558
-0.006719 0.14303 1.091 7.6061e-39 438.5 328 0 0 0 0.11027 0.17869 -0.97771 0.01368
-0.0048087 0.14315 1.0919 7.8366e-39 440 328 0 0 0 0.082378 0.18062 -0.9801 0.015673
-0.0028899 0.14303 1.091 7.3757e-39 441.5 328 0 0 0 0.038576 0.18584 -0.98182 0.017093
-0.00097614 0.14315 1.0919 7.0069e-39 443 328 0 0 0 -0.010347 0.18958 -0.98181 0.017714
0.0009393 0.14303 1.091 6.8225e-39 444.5 328 0 0 0 -0.045181 0.18847 -0.98104 0.017313
0.0028539 0.14303 1.091 6.4537e-39 446 328 0 0 0 -0.078354 0.18792 -0.97905 0.016327
0.0047666 0.14297 1.0905 6.3154e-39 447.5 328 0 0 0 -0.10925 0.18197 -0.97722 0.015503
0.0066771 0.1429 1.09 6.1771e-39 449 328 0 0 0 -0.14686 0.17349 -0.97382 0.014126
0.0092276 0.1429 1.09 5.6239e-39 451 328 0 0 0 -0.18623 0.16779 -0.96807 0.011481
-0.016277 0.14545 1.09 6.5459e-39 471 329 0 0 0 0.22428 0.15639 -0.9619 0.004347
-0.015002 0.14481 1.09 6.9147e-39 422.5 329 0 0 0 0.20958 0.16001 -0.96461 0.0048586
-0.01309 0.14481 1.09 7.053e-39 350.75 329.25 0 0 0 0.19317 0.17043 -0.96625 0.0059028
-0.011176 0.14481 1.09 6.9608e-39 279 329.5 0 0 0 0.17601 0.17802 -0.96816 0.0074743
-0.0092736 0.14497 1.0912 7.0069e-39 280.5 329.5 0 0 0 0.15216 0.18393 -0.97109 0.0092695
-0.006719 0.14494 1.091 6.7994e-39 282.5 329.5 0 0 0 0.11278 0.18735 -0.9758 0.012084
-0.0048087 0.14507 1.0919 6.4998e-39 286 329.5 0 0 0 0.080468 0.19032 -0.97842 0.013611
-0.0028919 0.14504 1.0917 6.1771e-39 288.5 329.5 0 0 0 0.039132 0.20149 -0.97871 0.015075
0.00094013 0.14507 1.0919 5.8083e-39 292.5 329.5 0 0 0 -0.042321 0.20372 -0.97811 0.017841
0.0028564 0.14507 1.0919 5.5318e-39 294 329.5 0 0 0 -0.083037 0.20455 -0.97533 0.015802
0.0047708 0.14501 1.0914 5.5087e-39 295.5 329.5 0 0 0 -0.11246 0.19795 -0.97374 0.014798
0.0073147 0.14481 1.09 5.8544e-39 297.5 329.5 0 0 0 -0.15712 0.19343 -0.96845 0.011809
0.0092276 0.14481 1.09 5.9005e-39 299 329.5 0 0 0 -0.19549 0.18562 -0.96298 0.010031
0.010928 0.14503 1.09 5.8698e-39 270 329.67 0 0 0 -0.22213 0.17721 -0.95878 0.0094845
-0.016277 0.14673 1.09 5.9927e-39 404 330 0 0 0 0.23359 0.15906 -0.95924 0.0043639
-0.015002 0.14673 1.09 5.9005e-39 405 330 0 0 0 0.21932 0.16768 -0.96113 0.0047245
-0.01309 0.14673 1.09 6.2232e-39 406.5 330 0 0 0 0.20263 0.17956 -0.96265 0.0056221
-0.011176 0.14673 1.09 5.9005e-39 408 330 0 0 0 0.18176 0.18802 -0.9652 0.0071147
-0.0092717 0.14686 1.091 6.131e-39 409.5 330 0 0 0 0.15849 0.1953 -0.96785 0.0085212
-0.006719 0.14686 1.091 7.4679e-39 411.5 330 0 0 0 0.11431 0.20751 -0.97153 0.011055
-0.0048087 0.14699 1.0919 7.8366e-39 413 330 0 0 0 0.080643 0.21534 -0.9732 0.013014
-0.0028915 0.14693 1.0914 7.8366e-39 414.5 330 0 0 0 0.044685 0.22014 -0.97444 0.014514
0.00030136 0.14699 1.0919 7.56e-39 417 330 0 0 0 -0.024246 0.23063 -0.97274 0.015573
0.0041302 0.14686 1.091 7.56e-39 420 330 0 0 0 -0.10208 0.22955 -0.96793 0.012966
0.0073212 0.14686 1.091 8.3437e-39 422.5 330 0 0 0 -0.16395 0.21824 -0.96202 0.011047
0.0092357 0.14686 1.091 8.482e-39 424 330 0 0 0 -0.19775 0.21458 -0.95648 0.0095496
0.011145 0.1468 1.0905 7.9749e-39 425.5 330 0 0 0 -0.23054 0.20193 -0.95188 0.008809
-0.018828 0.14864 1.09 7.2374e-39 315.5 331 0 0 0 0.27372 0.14847 -0.95028 0.0040626
-0.016915 0.14864 1.09 6.9377e-39 317 331 0 0 0 0.25409 0.16054 -0.95376 0.00418
-0.015008 0.14871 1.0905 6.4075e-39 318.5 331 0 0 0 0.22896 0.17307 -0.95793 0.0045666
-0.013095 0.14871 1.0905 6.5228e-39 320 331 0 0 0 0.21167 0.18497 -0.95968 0.0052906
-0.011186 0.14877 1.091 6.8686e-39 321.5 331 0 0 0 0.19267 0.19976 -0.96072 0.0066327
-0.0092756 0.14884 1.0914 6.4537e-39 323 331 0 0 0 0.16796 0.21174 -0.96278 0.0079834
-0.0067217 0.14884 1.0914 6.8224e-39 325 331 0 0 0 0.1256 0.22604 -0.96599 0.010568
-0.0022536 0.1489 1.0919 6.9146e-39 328.5 331 0 0 0 0.034478 0.24368 -0.96924 0.014433
0.0041339 0.14826 1.0919 5.3473e-39 226 331 0 0 0 -0.10739 0.24342 -0.96396 0.012602
0.0073276 0.1489 1.0919 5.4626e-39 336 331 0 0 0 -0.16962 0.24103 -0.95558 0.010687
0.0092439 0.1489 1.0919 5.3012e-39 337.5 331 0 0 0 -0.20651 0.22741 -0.95165 0.0095368
0.01115 0.14877 1.091 5.5778e-39 339 331 0 0 0 -0.2394 0.21559 -0.94668 0.0085226
0.013053 0.14864 1.09 5.67e-39 340.5 331 0 0 0 -0.25902 0.20203 -0.94451 0.0085031
0.014329 0.14864 1.09 5.67e-39 341.5 331 0 0 0 -0.27695 0.18848 -0.94222 0.0084155
-0.022654 0.15183 1.09 7.2835e-39 440 332 0 0 0 0.32821 0.1348 -0.93493 0.0059683
-0.020103 0.15183 1.09 6.1771e-39 442 332 0 0 0 0.29377 0.14626 -0.94462 0.0038095
-0.018828 0.15119 1.09 5.5318e-39 335 332 0 0 0 0.28473 0.14986 -0.94682 0.0038503
-0.016915 0.15119 1.09 5.4165e-39 336.5 332 0 0 0 0.26966 0.15924 -0.9497 0.0038825
-0.015015 0.15132 1.091 5.6239e-39 338 332 0 0 0 0.24792 0.17593 -0.95267 0.0042056
-0.013098 0.15129 1.0907 5.7622e-39 339.5 332 0 0 0 0.23137 0.18945 -0.95424 0.0050546
-0.011186 0.15068 1.091 5.3473e-39 233 332 0 0 0 0.20168 0.20459 -0.95784 0.0065801
-0.0092756 0.15075 1.0914 5.4395e-39 234.5 332 0 0 0 0.17949 0.22154 -0.95849 0.0079903
-0.0067249 0.15082 1.0919 6.1771e-39 236.5 332 0 0 0 0.13337 0.23999 -0.96157 0.01071
0.0073276 0.15082 1.0919 7.9749e-39 247.5 332 0 0 0 -0.17639 0.25365 -0.95108 0.010932
0.0092439 0.15082 1.0919 8.021e-39 366 332 0 0 0 -0.21655 0.24621 -0.94472 0.0095595
0.01115 0.15068 1.091 7.7444e-39 367.5 332 0 0 0 -0.24537 0.22813 -0.94221 0.0085857
0.013059 0.15125 1.0905 6.9147e-39 426.5 332 0 0 0 -0.28111 0.2128 -0.93578 0.0079581
0.014329 0.15119 1.09 5.209e-39 428.5 332 0 0 0 -0.29545 0.20314 -0.93351 0.0076723
-0.022654 0.1531 1.09 7.7444e-39 245 333 0 0 0 0.33372 0.13651 -0.93274 0.0061065
-0.020103 0.1531 1.09 8.2054e-39 247 333 0 0 0 0.29773 0.14433 -0.94368 0.0037631
-0.018828 0.1531 1.09 7.9288e-39 248 333 0 0 0 0.29282 0.14986 -0.94435 0.0037137
-0.016922 0.15317 1.0905 7.6061e-39 367.5 333 0 0 0 0.27835 0.16331 -0.94649 0.0035684
-0.015029 0.15337 1.0919 8.021e-39 369 333 0 0 0 0.26447 0.17976 -0.94749 0.0039209
-0.013107 0.1533 1.0914 8.1593e-39 370.5 333 0 0 0 0.24584 0.19357 -0.94978 0.0049646
-0.011196 0.1521 1.0919 5.9927e-39 449 332 0 0 0 0.21369 0.20638 -0.95485 0.0064515
-0.0099187 0.1521 1.0919 5.9005e-39 450 332 0 0 0 0.19847 0.21756 -0.95566 0.0074607
0.010947 0.15252 1.0919 7.1605e-39 451.33 332.33 0 0 0 -0.25844 0.23616 -0.93672 0.0091078
0.013065 0.15324 1.091 6.6381e-39 391 333 0 0 0 -0.29513 0.20941 -0.93223 0.008816
0.014972 0.15317 1.0905 6.3615e-39 392.5 333 0 0 0 -0.32772 0.19006 -0.92546 0.0077679
0.016879 0.1531 1.09 6.3615e-39 394 333 0 0 0 -0.3536 0.17207 -0.91943 0.007864
0.018154 0.1531 1.09 6.2693e-39 395 333 0 0 0 -0.36932 0.15761 -0.91584 0.0076445
-0.022654 0.15501 1.09 6.6841e-39 421 333.5 0 0 0 0.3379 0.13202 -0.93188 0.0055426
-0.02074 0.15502 1.09 7.3065e-39 422.5 333.5 0 0 0 0.31615 0.14133 -0.93812 0.0042345
-0.018837 0.15508 1.0905 7.2835e-39 424 333.5 0 0 0 0.3027 0.15354 -0.94064 0.0035459
-0.01693 0.15515 1.091 7.2835e-39 425.75 333.5 0 0 0 0.28872 0.16391 -0.94328 0.0034956
-0.015029 0.15529 1.0919 7.6522e-39 427.5 333.5 0 0 0 0.27772 0.17386 -0.9448 0.0037276
-0.013113 0.15529 1.0919 6.6611e-39 430.5 333.5 0 0 0 0.26136 0.18773 -0.94681 0.0048238
0.013076 0.15529 1.0919 6.4537e-39 284.5 334 0 0 0 -0.32062 0.19793 -0.9263 0.010829
0.01498 0.15515 1.091 6.1771e-39 286 334 0 0 0 -0.35154 0.17643 -0.9194 0.010313
0.016879 0.15501 1.09 5.9466e-39 287.5 334 0 0 0 -0.37786 0.15793 -0.91229 0.0096782
0.018579 0.15523 1.09 5.8083e-39 326 334 0 0 0 -0.39719 0.13844 -0.90723 0.0095811
-0.022654 0.15693 1.09 5.8083e-39 468 334 0 0 0 0.3502 0.13325 -0.92715 0.0061045
-0.02074 0.15693 1.09 6.2232e-39 469.5 334 0 0 0 0.32654 0.14091 -0.93462 0.0044242
-0.018828 0.15693 1.09 5.9927e-39 471 334 0 0 0 0.31122 0.14842 -0.93867 0.0037383
-0.01693 0.15707 1.091 5.7161e-39 472.5 334 0 0 0 0.29709 0.15905 -0.94151 0.0037729
-0.015029 0.15721 1.0919 5.9005e-39 474 334 0 0 0 0.29099 0.16894 -0.94169 0.0039477
-0.013113 0.15721 1.0919 6.2693e-39 475.5 334 0 0 0 0.27553 0.18298 -0.94372 0.0049082
0.014986 0.15714 1.0914 5.5778e-39 158.5 335 0 0 0 -0.37299 0.15118 -0.91544 0.013072
0.016894 0.15707 1.091 6.0849e-39 160 335 0 0 0 -0.39355 0.13695 -0.90904 0.01173
0.018792 0.15693 1.09 6.2693e-39 161.5 335 0 0 0 -0.40896 0.12316 -0.9042 0.011278
0.020705 0.15693 1.09 5.8083e-39 163 335 0 0 0 -0.42379 0.11691 -0.89818 0.011385
-0.023079 0.15905 1.09 7.0068e-39 359.33 335 0 0 0 0.36145 0.12748 -0.92363 0.006513
-0.02074 0.15884 1.09 6.1772e-39 328 335 0 0 0 0.33251 0.13713 -0.93308 0.0049096
-0.018828 0.15884 1.09 6.3615e-39 329.5 335 0 0 0 0.31672 0.1436 -0.93759 0.0043557
-0.016926 0.15894 1.0907 6.6842e-39 331 335 0 0 0 0.30753 0.1504 -0.93958 0.0043307
-0.015015 0.15898 1.091 6.592e-39 332.5 335 0 0 0 0.2991 0.15812 -0.94103 0.0047914
-0.013107 0.15905 1.0914 6.5228e-39 334 335 0 0 0 0.2835 0.16601 -0.94449 0.0060361
-0.011196 0.15912 1.0919 6.1311e-39 335.5 335 0 0 0 0.26209 0.171 -0.94977 0.0074138
0.015197 0.15881 1.0913 7.3756e-39 405.67 335 0 0 0 -0.38683 0.13074 -0.91284 0.014261
0.016894 0.15898 1.091 6.7764e-39 423 335 0 0 0 -0.40737 0.11565 -0.90591 0.013323
0.0188 0.15891 1.0905 6.2232e-39 424.5 335 0 0 0 -0.41768 0.11132 -0.90175 0.012266
-0.023292 0.16075 1.09 5.9927e-39 192 336 0 0 0 0.36544 0.12203 -0.9228 0.0068108
-0.02074 0.16075 1.09 6.4537e-39 198.5 336 0 0 0 0.33848 0.13151 -0.93174 0.0053657
-0.018845 0.1609 1.091 6.6381e-39 200 336 0 0 0 0.32578 0.13512 -0.93574 0.0052256
-0.01693 0.1609 1.091 5.8544e-39 201.5 336 0 0 0 0.31398 0.13986 -0.93907 0.0055787
-0.015029 0.16104 1.0919 5.4395e-39 203 336 0 0 0 0.30455 0.1453 -0.94135 0.0062171
-0.012474 0.16104 1.0919 5.2552e-39 205 336 0 0 0 0.28368 0.1484 -0.94737 0.0075186
0.015631 0.16104 1.0919 5.3473e-39 227 336 0 0 0 -0.40031 0.10118 -0.91078 0.015422
0.016909 0.16104 1.0919 5.2552e-39 228 336 0 0 0 -0.41436 0.099587 -0.90465 0.014465
0.0188 0.16082 1.0905 5.3473e-39 229.5 336 0 0 0 -0.42379 0.098509 -0.90039 0.013191
0.020705 0.16075 1.09 5.7161e-39 231 336 0 0 0 -0.436 0.092268 -0.8952 0.013166
-0.023312 0.16281 1.091 6.2002e-39 435 336 0 0 0 0.3618 0.116 -0.92501 0.0070094
-0.020764 0.16285 1.0912 6.592e-39 437 336 0 0 0 0.33713 0.12269 -0.93343 0.0061569
-0.018861 0.16296 1.0919 6.592e-39 438.5 336 0 0 0 0.32534 0.12363 -0.93748 0.0064433
-0.016942 0.16292 1.0917 6.569e-39 440.5 336 0 0 0 0.32255 0.12396 -0.9384 0.0070197
-0.015029 0.16232 1.0919 6.1771e-39 398 336 0 0 0 0.30612 0.13405 -0.94251 0.0072017
-0.012474 0.16232 1.0919 6.4537e-39 400 336 0 0 0 0.28518 0.1348 -0.94895 0.0086108
0.015631 0.16296 1.0919 6.7302e-39 291 336.5 0 0 0 -0.40724 0.055633 -0.91162 0.019601
0.016909 0.16296 1.0919 7.1452e-39 292 336.5 0 0 0 -0.41815 0.070198 -0.90566 0.016501
0.0188 0.16274 1.0905 7.076e-39 293.5 336.5 0 0 0 -0.42974 0.0702 -0.90022 0.015921
0.020705 0.16266 1.09 6.6842e-39 295 336.5 0 0 0 -0.43903 0.06966 -0.89577 0.014848
-0.027755 0.16585 1.09 7.9288e-39 404 337 0 0 0 0.42763 0.092854 -0.89917 0.011225
-0.025204 0.16585 1.09 8.2054e-39 406 337 0 0 0 0.39652 0.093977 -0.9132 0.009777
-0.023531 0.1652 1.0913 6.2078e-39 280.67 337 0 0 0 0.3714 0.099807 -0.92309 0.0087343
-0.020777 0.16487 1.0919 5.3473e-39 219.5 337 0 0 0 0.33878 0.10673 -0.93479 0.0077501
0.015631 0.16487 1.0919 8.482e-39 248 337 0 0 0 -0.41154 0.012203 -0.91131 0.022549
0.016909 0.16487 1.0919 8.021e-39 367 337 0 0 0 -0.41513 0.015387 -0.90963 0.021904
0.019016 0.1651 1.0907 7.1605e-39 392.67 337 0 0 0 -0.43063 0.013449 -0.90243 0.02173
0.021343 0.16522 1.09 7.0068e-39 406.5 337 0 0 0 -0.4421 0.023537 -0.89665 0.020472
-0.027755 0.16713 1.09 5.163e-39 143 338 0 0 0 0.4224 0.085501 -0.90237 0.01167
-0.025204 0.16713 1.09 5.6239e-39 145 338 0 0 0 0.3944 0.084347 -0.91506 0.010451
-0.023113 0.16695 1.0916 6.5766e-39 233.67 337.67 0 0 0 0.36235 0.086093 -0.92806 0.010031
-0.021416 0.16679 1.0919 6.6841e-39 278.5 337.5 0 0 0 0.34242 0.090919 -0.93514 0.0088319
0.016909 0.16615 1.0919 5.7161e-39 439 337 0 0 0 -0.41953 -0.0096311 -0.90769 0.022432
0.018606 0.16695 1.0916 5.4702e-39 271 337.67 0 0 0 -0.42622 -0.022949 -0.90433 0.023985
0.021352 0.16721 1.0905 6.0388e-39 197.5 338 0 0 0 -0.44189 -0.018733 -0.89687 0.024065
0.023255 0.16713 1.09 6.2693e-39 199 338 0 0 0 -0.4468 -0.0043463 -0.89462 0.022448
-0.027755 0.16905 1.09 6.2693e-39 331 338 0 0 0 0.41898 0.080522 -0.90442 0.012299
-0.025204 0.16905 1.09 6.4076e-39 333 338 0 0 0 0.39091 0.07161 -0.91764 0.011935
-0.023538 0.16908 1.0916 6.0542e-39 302.67 338 0 0 0 0.36686 0.076375 -0.92714 0.011088
-0.020139 0.1687 1.0919 6.0849e-39 242 338 0 0 0 0.33171 0.068716 -0.94088 0.011102
0.018817 0.16927 1.0914 5.693e-39 431 338 0 0 0 -0.43169 -0.09909 -0.89656 0.027077
0.021136 0.16888 1.0903 5.6854e-39 419 338 0 0 0 -0.44395 -0.066668 -0.89357 0.026619
0.023255 0.16841 1.09 6.7303e-39 393 338 0 0 0 -0.44732 -0.033451 -0.89375 0.025567
-0.027779 0.17111 1.091 6.4537e-39 165 339 0 0 0 0.40525 0.067618 -0.9117 0.01287
-0.025226 0.17111 1.091 6.3615e-39 167 339 0 0 0 0.375 0.06364 -0.92484 0.012819
-0.023971 0.17126 1.0919 6.2693e-39 168 339 0 0 0 0.36654 0.053406 -0.92887 0.01349
0.015631 0.17126 1.0919 5.8083e-39 216 339 0 0 0 -0.41878 -0.16336 -0.89327 0.027223
0.016909 0.17126 1.0919 5.8083e-39 217 339 0 0 0 -0.4185 -0.15266 -0.89529 0.02639
0.0188 0.17103 1.0905 6.2232e-39 218.5 339 0 0 0 -0.43689 -0.14006 -0.88855 0.026945
-0.027767 0.17294 1.0905 5.7622e-39 430.5 339 0 0 0 0.40762 0.061888 -0.91105 0.01393
-0.025215 0.17294 1.0905 6.0388e-39 432.5 339 0 0 0 0.37744 0.040829 -0.92513 0.015729
-0.023971 0.17318 1.0919 6.0388e-39 433.5 339 0 0 0 0.35552 0.034123 -0.93404 0.0152
-0.020139 0.17254 1.0919 6.0849e-39 387 339 0 0 0 0.32948 0.023048 -0.94388 0.015515
0.013076 0.17381 1.0919 5.3473e-39 159 340 0 0 0 -0.40308 -0.24765 -0.88102 0.027486
0.014976 0.17299 1.0907 6.615e-39 287.5 339.5 0 0 0 -0.41865 -0.20475 -0.88477 0.026856
0.016879 0.17223 1.09 7.1913e-39 416 339 0 0 0 -0.42113 -0.17295 -0.89036 0.027272
0.018154 0.17223 1.09 7.3757e-39 417 339 0 0 0 -0.429 -0.16318 -0.88844 0.027289
-0.026479 0.17478 1.09 4.9786e-39 236 340 0 0 0 0.3841 0.02633 -0.92292 0.016903
0.013065 0.17494 1.091 5.5317e-39 383 340 0 0 0 -0.40995 -0.28535 -0.86633 0.026825
-0.018861 0.17637 1.0919 5.9927e-39 436 340 0 0 0 0.30435 -0.063848 -0.95042 0.022726
-0.016306 0.17765 1.0919 6.6381e-39 180 341 0 0 0 0.27814 -0.12118 -0.95286 0.027411
-0.015029 0.17765 1.0919 5.6239e-39 182 341 0 0 0 0.27595 -0.13102 -0.9522 0.028466
-0.011196 0.17765 1.0919 5.4395e-39 184 341 0 0 0 0.22046 -0.20885 -0.95278 0.040254
0.0079664 0.17765 1.0919 5.8083e-39 199 341 0 0 0 -0.30856 -0.36226 -0.87952 0.037607
0.0092357 0.17621 1.091 5.8083e-39 466 340 0 0 0 -0.34376 -0.32013 -0.88281 0.034098
0.011366 0.17669 1.0913 6.0542e-39 379 340.33 0 0 0 -0.38517 -0.34928 -0.85419 0.027335
0.013053 0.17606 1.09 5.7161e-39 469 340 0 0 0 -0.41786 -0.32643 -0.84784 0.026439
-0.011196 0.17892 1.0919 6.0849e-39 377 341 0 0 0 0.20886 -0.24193 -0.94755 0.042292
-0.0099187 0.17892 1.0919 6.1771e-39 378 341 0 0 0 0.17811 -0.26641 -0.94726 0.046376
0.0047727 0.17892 1.0919 5.9466e-39 389.5 341 0 0 0 -0.22668 -0.39121 -0.89195 0.044536
0.0073241 0.17884 1.0914 6.0849e-39 391.5 341 0 0 0 -0.31067 -0.41338 -0.85592 0.035185
-0.0092717 0.18068 1.091 6.3615e-39 325.5 341.5 0 0 0 0.15521 -0.34775 -0.92465 0.050313
-0.0073637 0.18084 1.0919 6.3615e-39 327 341.5 0 0 0 0.12497 -0.38733 -0.91343 0.048285
-0.0048087 0.18084 1.0919 6.6842e-39 329 341.5 0 0 0 0.084689 -0.39072 -0.91661 0.049338
0.00030136 0.18084 1.0919 6.0849e-39 337 341.5 0 0 0 -0.079283 -0.43366 -0.89758 0.047945
0.0047672 0.18064 1.0907 5.5317e-39 340.5 341.5 0 0 0 -0.25949 -0.47134 -0.84292 0.037916
0.00668 0.1806 1.0905 5.4856e-39 342 341.5 0 0 0 -0.30704 -0.48379 -0.81956 0.032921
-0.0086335 0.18259 1.091 7.8366e-39 401 342 0 0 0 0.12713 -0.44961 -0.88413 0.049137
-0.0073637 0.18276 1.0919 7.56e-39 402 342 0 0 0 0.10877 -0.47613 -0.87262 0.046066
-0.0048087 0.18276 1.0919 8.021e-39 404 342 0 0 0 0.065899 -0.48482 -0.87213 0.046199
-0.00097614 0.18276 1.0919 8.482e-39 407 342 0 0 0 -0.037706 -0.51156 -0.85842 0.045093
0.0011525 0.18307 1.0913 7.4986e-39 323 342.33 0 0 0 -0.11835 -0.53424 -0.83701 0.042454
0.0028538 0.18323 1.091 7.053e-39 283 342.5 0 0 0 -0.19202 -0.56213 -0.80445 0.036299
-0.0048087 0.18403 1.0919 5.9005e-39 147 343 0 0 0 0.061116 -0.52389 -0.84959 0.043868
-0.0035312 0.18403 1.0919 5.8083e-39 148 343 0 0 0 0.02167 -0.5306 -0.84735 0.045217
-0.00097571 0.18459 1.0914 5.6701e-39 195.5 343 0 0 0 -0.051645 -0.58808 -0.80715 0.042448
0.0028589 0.12538 1.0929 5.9927e-39 404 320 0 0 0 -0.046631 0.018015 -0.99875 0.02442
0.0041375 0.12538 1.0929 5.6239e-39 409 320 0 0 0 -0.06968 0.0018317 -0.99757 0.022022
-0.0028962 0.12736 1.0934 6.2923e-39 333 321 0 0 0 0.047859 0.09669 -0.99416 0.024736
-0.000977 0.12666 1.0929 6.3615e-39 243 321 0 0 0 0.010533 0.068041 -0.99763 0.026306
0.00072794 0.12712 1.0932 6.1771e-39 308.67 321 0 0 0 -0.016373 0.060551 -0.99803 0.023954
0.032268 0.12921 1.0929 6.0849e-39 390 322 0 0 0 -0.41579 -0.3154 -0.85302 0.14972
0.034825 0.12921 1.0929 5.8083e-39 391 322 0 0 0 -0.52512 -0.39369 -0.75449 0.1532
-0.000977 0.1452 1.0929 6.0849e-39 291 329.5 0 0 0 -0.0021784 0.20166 -0.97945 0.017556
-0.000977 0.14712 1.0929 7.8366e-39 416 330 0 0 0 0.002933 0.2297 -0.97326 0.015274
0.0015803 0.14712 1.0929 7.56e-39 418 330 0 0 0 -0.055212 0.23924 -0.96939 0.014235
0.0028589 0.14712 1.0929 7.56e-39 419 330 0 0 0 -0.079999 0.2381 -0.96794 0.013488
0.0054162 0.14712 1.0929 7.7444e-39 421 330 0 0 0 -0.12784 0.23491 -0.96357 0.012012
-0.0048129 0.14903 1.0929 7.0991e-39 326.5 331 0 0 0 0.08976 0.2399 -0.96664 0.0122
-0.0035343 0.14903 1.0929 6.9608e-39 327.5 331 0 0 0 0.059369 0.24348 -0.96809 0.013519
-0.00097787 0.14917 1.0939 6.6381e-39 329.5 331 0 0 0 0.0061051 0.2587 -0.96594 0.014355
0.00094103 0.14907 1.0932 6.4076e-39 331 331 0 0 0 -0.042819 0.26601 -0.96302 0.014136
0.0028614 0.14917 1.0939 6.4076e-39 332.5 331 0 0 0 -0.080683 0.26225 -0.96162 0.013242
0.00499 0.14924 1.0929 6.3922e-39 370 331 0 0 0 -0.12889 0.25352 -0.9587 0.012134
-0.0048129 0.15095 1.0929 7.4678e-39 238 332 0 0 0 0.10068 0.25372 -0.96202 0.012038
-0.0028965 0.15101 1.0934 7.6983e-39 239.5 332 0 0 0 0.060325 0.26549 -0.96223 0.013903
0.0015817 0.15108 1.0939 7.4678e-39 243 332 0 0 0 -0.050327 0.28332 -0.9577 0.014755
0.0047787 0.15101 1.0934 8.1593e-39 245.5 332 0 0 0 -0.12535 0.28065 -0.95159 0.012738
-0.011206 0.15351 1.0929 8.1132e-39 372 333 0 0 0 0.22668 0.21063 -0.95092 0.0062668
-0.0090776 0.15313 1.0932 7.5908e-39 399.33 332.67 0 0 0 0.19823 0.2297 -0.95286 0.0078525
-0.0069479 0.15274 1.0936 6.3e-39 435.33 332.33 0 0 0 0.15462 0.24701 -0.9566 0.010184
-0.0048172 0.15236 1.0939 5.5317e-39 467 332 0 0 0 0.10689 0.25917 -0.9599 0.012322
-0.0022576 0.15236 1.0939 6.4537e-39 469 332 0 0 0 0.045499 0.26954 -0.96191 0.015281
0.005421 0.15236 1.0939 6.1771e-39 475 332 0 0 0 -0.13826 0.2829 -0.94913 0.013732
0.0073374 0.15293 1.0934 6.3615e-39 432.25 332.5 0 0 0 -0.18537 0.27532 -0.94331 0.012078
0.0092562 0.15293 1.0934 6.9147e-39 434.5 332.5 0 0 0 -0.22914 0.25723 -0.93879 0.010838
0.011809 0.15351 1.0929 6.4537e-39 390 333 0 0 0 -0.27582 0.22907 -0.93351 0.010046
-0.011206 0.15479 1.0929 2.8581e-39 488 333 0 0 0 0.23702 0.20883 -0.94879 0.0061114
-0.0092964 0.15492 1.0939 2.351e-39 489.5 333 0 0 0 0.21088 0.22959 -0.95017 0.0077129
-0.0073767 0.15492 1.0939 2.0283e-39 491 333 0 0 0 0.17456 0.24397 -0.95394 0.0096958
0.01117 0.15479 1.0929 6.4537e-39 171.5 334 0 0 0 -0.28309 0.22766 -0.93168 0.011288
-0.011211 0.15677 1.0934 6.6381e-39 427 334 0 0 0 0.24982 0.20148 -0.9471 0.0061479
-0.0099363 0.15684 1.0939 6.2232e-39 428 334 0 0 0 0.23461 0.20629 -0.94995 0.0071761
-0.0073767 0.1562 1.0939 5.8083e-39 380 334 0 0 0 0.1822 0.23202 -0.95549 0.009818
0.01117 0.1567 1.0929 6.2693e-39 275 334.5 0 0 0 -0.30104 0.20526 -0.93126 0.014269
0.013088 0.15734 1.0929 5.6239e-39 157 335 0 0 0 -0.34372 0.16858 -0.92382 0.015216
-0.0095038 0.15909 1.0932 5.9005e-39 303.67 335 0 0 0 0.24154 0.17792 -0.95394 0.0093993
-0.0067368 0.15876 1.0939 6.4998e-39 239.5 335 0 0 0 0.18686 0.19964 -0.96189 0.01219
0.0092603 0.15876 1.0939 8.1132e-39 369 335 0 0 0 -0.28422 0.17487 -0.94268 0.02043
0.011176 0.15869 1.0934 8.2976e-39 370.5 335 0 0 0 -0.32164 0.161 -0.93307 0.019388
0.013088 0.15926 1.0929 6.8686e-39 420 335 0 0 0 -0.35339 0.13935 -0.92504 0.018009
0.014367 0.1599 1.0929 6.2693e-39 469 335 0 0 0 -0.37514 0.12489 -0.91852 0.016223
-0.013763 0.16118 1.0929 5.0708e-39 204 336 0 0 0 0.29152 0.14759 -0.94511 0.0067368
-0.011206 0.16118 1.0929 5.6239e-39 206 336 0 0 0 0.26706 0.14846 -0.95218 0.0089034
-0.009292 0.16061 1.0934 6.3154e-39 322 335.5 0 0 0 0.24109 0.1605 -0.95714 0.010417
-0.0067368 0.16004 1.0939 6.0388e-39 438.5 335 0 0 0 0.19444 0.17373 -0.96541 0.013657
0.01118 0.16004 1.0939 5.67e-39 466.5 335 0 0 0 -0.32894 0.14133 -0.93372 0.020824
0.013088 0.16118 1.0929 5.6239e-39 225 336 0 0 0 -0.36139 0.11008 -0.9259 0.020404
0.014367 0.16118 1.0929 5.6239e-39 226 336 0 0 0 -0.38423 0.10472 -0.91728 0.017729
-0.015042 0.16374 1.0929 8.5742e-39 487 336 0 0 0 0.306 0.1189 -0.94458 0.008721
-0.013341 0.16336 1.0932 7.1298e-39 459 336 0 0 0 0.28913 0.11699 -0.95012 0.010018
-0.011211 0.16317 1.0934 5.3934e-39 446 336 0 0 0 0.26517 0.11674 -0.95711 0.011675
-0.0099363 0.1626 1.0939 6.3615e-39 402 336 0 0 0 0.24762 0.12312 -0.961 0.012706
0.013088 0.1631 1.0929 6.4997e-39 289 336.5 0 0 0 -0.37424 0.063357 -0.92517 0.022578
0.014367 0.1631 1.0929 6.4536e-39 290 336.5 0 0 0 -0.3893 0.063384 -0.91893 0.020777
-0.018878 0.16502 1.0929 5.0708e-39 221 337 0 0 0 0.33016 0.10828 -0.93769 0.008047
-0.01696 0.16502 1.0929 5.0708e-39 222.5 337 0 0 0 0.32107 0.10186 -0.94156 0.0093192
-0.015055 0.16516 1.0939 5.4395e-39 224 337 0 0 0 0.30293 0.091347 -0.94862 0.010986
-0.01313 0.16509 1.0934 5.7161e-39 225.5 337 0 0 0 0.28785 0.091436 -0.9533 0.01226
-0.011216 0.16516 1.0939 5.4395e-39 227 337 0 0 0 0.26144 0.077686 -0.96209 0.01458
0.013088 0.16502 1.0929 8.1132e-39 246 337 0 0 0 -0.38429 0.0095664 -0.92316 0.025647
0.014367 0.16502 1.0929 8.3898e-39 247 337 0 0 0 -0.39328 0.0066916 -0.9194 0.024377
-0.020157 0.16693 1.0929 6.8224e-39 279.5 337.5 0 0 0 0.33073 0.089651 -0.93946 0.0094662
-0.018878 0.16693 1.0929 7.1913e-39 280.5 337.5 0 0 0 0.33045 0.081144 -0.94033 0.01043
-0.01696 0.16693 1.0929 7.076e-39 282 337.5 0 0 0 0.32012 0.072019 -0.94464 0.011605
-0.015055 0.16708 1.0939 6.8685e-39 283.5 337.5 0 0 0 0.30128 0.05652 -0.95186 0.013693
-0.01249 0.16701 1.0934 6.4997e-39 285.5 337.5 0 0 0 0.27666 0.042867 -0.96001 0.016039
-0.011216 0.16708 1.0939 6.4536e-39 286.5 337.5 0 0 0 0.25678 0.039107 -0.96568 0.017669
0.0131 0.16644 1.0939 6.1771e-39 436 337 0 0 0 -0.38614 -0.042624 -0.92145 0.028055
0.015228 0.16682 1.0936 6.0234e-39 353 337.33 0 0 0 -0.40554 -0.043367 -0.91305 0.025843
0.016924 0.16757 1.0929 5.4395e-39 185 338 0 0 0 -0.4161 -0.049028 -0.908 0.02443
-0.021435 0.16885 1.0929 5.2552e-39 241 338 0 0 0 0.34005 0.067049 -0.93802 0.011344
-0.018878 0.16885 1.0929 6.6381e-39 243 338 0 0 0 0.32779 0.058496 -0.94294 0.012145
-0.016967 0.16893 1.0934 7.1452e-39 244.5 338 0 0 0 0.31558 0.044004 -0.94788 0.013833
-0.015055 0.169 1.0939 7.7444e-39 246 338 0 0 0 0.29704 0.024509 -0.95455 0.016156
-0.012496 0.169 1.0939 8.482e-39 248 338 0 0 0 0.27149 0.0052076 -0.96243 0.019986
-0.011216 0.169 1.0939 8.6664e-39 249 338 0 0 0 0.25696 0.0068763 -0.9664 0.020515
0.015659 0.169 1.0939 6.0849e-39 387 338 0 0 0 -0.41103 -0.099215 -0.90621 0.026607
0.016939 0.169 1.0939 6.3615e-39 388 338 0 0 0 -0.41797 -0.094912 -0.90349 0.026228
-0.022714 0.17077 1.0929 6.2693e-39 303 338.5 0 0 0 0.34183 0.054818 -0.93816 0.012432
-0.020796 0.17077 1.0929 6.4076e-39 304.5 338.5 0 0 0 0.33044 0.054715 -0.94224 0.012454
-0.018878 0.17077 1.0929 6.4537e-39 306 338.5 0 0 0 0.32377 0.030752 -0.94564 0.014542
-0.016975 0.17092 1.0939 5.9466e-39 307.75 338.5 0 0 0 0.31331 0.012488 -0.94957 0.016277
0.0131 0.17156 1.0939 6.0849e-39 214 339 0 0 0 -0.39358 -0.1742 -0.90263 0.028335
0.014797 0.17061 1.0932 6.0234e-39 384.67 338.33 0 0 0 -0.4113 -0.14901 -0.89924 0.027714
0.016924 0.17013 1.0929 5.9927e-39 471 338 0 0 0 -0.4184 -0.11796 -0.90057 0.026642
-0.022714 0.17333 1.0929 5.9005e-39 434.5 339 0 0 0 0.34124 0.026225 -0.93961 0.015272
-0.020796 0.17333 1.0929 5.3473e-39 440.5 339 0 0 0 0.32872 0.010295 -0.94437 0.016445
-0.018878 0.17333 1.0929 4.8403e-39 442 339 0 0 0 0.31617 -0.012273 -0.94862 0.01779
-0.016968 0.1734 1.0934 4.1027e-39 443.5 339 0 0 0 0.30742 -0.032667 -0.95101 0.020508
-0.015055 0.17284 1.0939 5.3473e-39 391 339 0 0 0 0.2846 -0.041651 -0.95774 0.0226
0.013088 0.17269 1.0929 7.3757e-39 413 339 0 0 0 -0.3993 -0.21103 -0.8922 0.028682
-0.027828 0.17525 1.0929 4.7942e-39 235 340 0 0 0 0.39274 0.029689 -0.91917 0.016735
-0.024643 0.17533 1.0934 5.4856e-39 237.5 340 0 0 0 0.34856 0.019371 -0.93709 0.017145
-0.022734 0.1754 1.0939 5.9005e-39 239 340 0 0 0 0.33142 -0.0092433 -0.94344 0.018157
-0.021022 0.17492 1.0936 5.4703e-39 322 339.67 0 0 0 0.3252 -0.016617 -0.9455 0.018449
-0.018878 0.17525 1.0929 5.0708e-39 242 340 0 0 0 0.31416 -0.044848 -0.94831 0.020757
-0.01696 0.17525 1.0929 6.2693e-39 243.5 340 0 0 0 0.29614 -0.072142 -0.95242 0.024386
-0.015055 0.17476 1.0939 4.7942e-39 372 339.5 0 0 0 0.28266 -0.068798 -0.95675 0.024888
-0.012496 0.17476 1.0939 6.8224e-39 193 340 0 0 0 0.25763 -0.098843 -0.96118 0.028138
-0.011216 0.17476 1.0939 6.6381e-39 194 340 0 0 0 0.23689 -0.10954 -0.96534 0.031458
0.0092521 0.17525 1.0929 5.9005e-39 380 340 0 0 0 -0.33293 -0.30014 -0.89391 0.035019
0.01117 0.17525 1.0929 5.5317e-39 381.5 340 0 0 0 -0.36946 -0.29689 -0.88054 0.030249
-0.020174 0.17668 1.0939 5.7161e-39 435 340 0 0 0 0.31929 -0.063683 -0.94552 0.020759
-0.01696 0.17652 1.0929 6.5459e-39 437.5 340 0 0 0 0.28767 -0.088 -0.95368 0.026112
-0.015042 0.17652 1.0929 5.9005e-39 439 340 0 0 0 0.27851 -0.11272 -0.9538 0.027757
-0.01313 0.17724 1.0934 5.4395e-39 312 340.5 0 0 0 0.26257 -0.14963 -0.95324 0.031098
-0.011216 0.17668 1.0939 5.4395e-39 442 340 0 0 0 0.22973 -0.15418 -0.96097 0.035011
-0.0092881 0.1778 1.0929 5.7161e-39 185.5 341 0 0 0 0.17667 -0.24589 -0.95306 0.047012
-0.0073767 0.17796 1.0939 6.1771e-39 187 341 0 0 0 0.13822 -0.25953 -0.95579 0.049385
-0.00097787 0.17796 1.0939 6.0849e-39 192 341 0 0 0 -0.028927 -0.28635 -0.95769 0.053626
0.0003019 0.17796 1.0939 5.8083e-39 193 341 0 0 0 -0.059637 -0.29178 -0.95462 0.052413
0.0028614 0.17796 1.0939 6.1771e-39 195 341 0 0 0 -0.1428 -0.31443 -0.93848 0.050212
0.0049916 0.17743 1.0932 6.5459e-39 282.67 340.67 0 0 0 -0.22765 -0.31885 -0.92006 0.046756
0.0071253 0.17705 1.0936 6.3308e-39 370.33 340.33 0 0 0 -0.28072 -0.34196 -0.89681 0.04118
-0.0086488 0.17908 1.0929 5.9927e-39 379 341 0 0 0 0.15187 -0.30781 -0.93925 0.049511
-0.0073702 0.17908 1.0929 5.7161e-39 380 341 0 0 0 0.14045 -0.30774 -0.94105 0.04894
-0.0048172 0.17924 1.0939 5.4395e-39 382 341 0 0 0 0.087823 -0.31525 -0.94494 0.050202
-0.00097787 0.17924 1.0939 5.6239e-39 385 341 0 0 0 -0.034656 -0.35464 -0.93436 0.051147
0.00030163 0.17908 1.0929 5.9005e-39 386 341 0 0 0 -0.072257 -0.34496 -0.93583 0.051535
0.0028614 0.17924 1.0939 6.2693e-39 388 341 0 0 0 -0.14739 -0.36248 -0.92026 0.048714
-0.0060969 0.18116 1.0939 6.6381e-39 328 341.5 0 0 0 0.11045 -0.38485 -0.91635 0.04797
-0.0035343 0.181 1.0929 6.592e-39 330 341.5 0 0 0 0.042668 -0.41274 -0.90985 0.049915
-0.000977 0.181 1.0929 5.9927e-39 336 341.5 0 0 0 -0.039036 -0.43615 -0.89903 0.048651
0.0015803 0.181 1.0929 5.9927e-39 338 341.5 0 0 0 -0.12452 -0.4434 -0.88763 0.045378
0.0028589 0.181 1.0929 5.8083e-39 339 341.5 0 0 0 -0.16065 -0.44946 -0.87874 0.0439
-0.0060969 0.18308 1.0939 7.6522e-39 403 342 0 0 0 0.087715 -0.48664 -0.86919 0.044982
-0.0035343 0.18292 1.0929 8.5742e-39 405 342 0 0 0 0.040837 -0.49517 -0.86784 0.045595
-0.0060969 0.18436 1.0939 6.0849e-39 146 343 0 0 0 0.074972 -0.51247 -0.85543 0.045213
-0.0022576 0.18436 1.0939 5.9005e-39 149 343 0 0 0 0.0011636 -0.53935 -0.84208 0.042445
0.0015831 0.1256 1.0948 5.9005e-39 403 320 0 0 0 -0.036829 0.028273 -0.99892 0.026674
0.031044 0.12944 1.0948 5.9927e-39 389 322 0 0 0 -0.31999 -0.34822 -0.88111 0.15271
-0.00097874 0.15122 1.0948 7.4678e-39 241 332 0 0 0 0.013401 0.27544 -0.96123 0.015071
0.00030217 0.15122 1.0948 7.56e-39 242 332 0 0 0 -0.017609 0.27906 -0.96011 0.015229
0.002864 0.15122 1.0948 7.7444e-39 244 332 0 0 0 -0.08243 0.28563 -0.95479 0.014263
-0.0061024 0.15378 1.0948 7.3757e-39 376 333 0 0 0 0.14128 0.25369 -0.95691 0.010908
-0.0048214 0.15378 1.0948 6.7303e-39 377 333 0 0 0 0.12217 0.26187 -0.95734 0.011765
-0.0031153 0.15345 1.0955 5.9005e-39 408.33 332.67 0 0 0 0.079959 0.27115 -0.95921 0.014159
0.0015845 0.15264 1.0958 6.0849e-39 472 332 0 0 0 -0.046177 0.29052 -0.95575 0.015872
0.0028665 0.15264 1.0958 5.7161e-39 473 332 0 0 0 -0.082385 0.29318 -0.9525 0.01532
0.0047872 0.15321 1.0953 6.131e-39 429.5 332.5 0 0 0 -0.13071 0.28935 -0.94826 0.01433
-0.0061024 0.15506 1.0948 5.8083e-39 154 334 0 0 0 0.15038 0.2506 -0.95634 0.010819
-0.0048257 0.1552 1.0958 6.0849e-39 157 334 0 0 0 0.12503 0.25741 -0.95818 0.012157
-0.0029027 0.1552 1.0958 5.8083e-39 158.5 334 0 0 0 0.079996 0.26919 -0.95976 0.014675
0.0047872 0.15513 1.0953 5.7622e-39 165.5 334 0 0 0 -0.13574 0.27552 -0.95166 0.015973
0.0073471 0.15506 1.0948 5.7622e-39 167.5 334 0 0 0 -0.19728 0.26338 -0.94431 0.013761
0.0092685 0.15506 1.0948 6.2693e-39 169 334 0 0 0 -0.24281 0.24785 -0.93788 0.012408
-0.0086642 0.15698 1.0948 5.8544e-39 429 334 0 0 0 0.21415 0.2132 -0.95325 0.0085967
