# .PCD v.7 - Point Cloud Data file format
VERSION .7
FIELDS x y z rgb u v vx vy vz normal_x normal_y normal_z curvature
SIZE 4 4 4 4 4 4 4 4 4 4 4 4 4
TYPE F F F F F F F F F F F F F
COUNT 1 1 1 1 1 1 1 1 1 1 1 1 1
WIDTH 558
HEIGHT 1
VIEWPOINT 0 0 0 1 0 0 0
POINTS 558
DATA ascii
-0.01279 0.055319 1.0156 8.1132e-39 389 322 0 0 0 -0.70382 0.058881 -0.70794 0.042835
0.035304 0.05468 1.0148 6.7303e-39 405.5 322 0 0 0 0.5973 0.03872 -0.80108 0.05702
-0.01279 0.057101 1.0156 6.0849e-39 208 323 0 0 0 -0.68919 0.057184 -0.72232 0.040518
-0.016355 0.059477 1.0156 9.2196e-39 356 323 0 0 0 -0.72659 0.040742 -0.68586 0.040894
-0.013186 0.059081 1.0156 8.8815e-39 324 323 0 0 0 -0.68922 0.053567 -0.72257 0.039297
-0.011592 0.058835 1.0148 8.482e-39 308 323 0 0 0 -0.66019 0.064549 -0.74832 0.037594
-0.015166 0.060666 1.0156 7.0069e-39 404 323 0 0 0 -0.71386 0.061906 -0.69754 0.0399
-0.013376 0.061222 1.015 6.4307e-39 300 323.5 0 0 0 -0.67531 0.074058 -0.73381 0.039478
-0.011592 0.061209 1.0148 6.2693e-39 301.5 323.5 0 0 0 -0.64479 0.083649 -0.75977 0.038154
-0.013967 0.06299 1.0148 8.3898e-39 240 324 0 0 0 -0.67326 0.099357 -0.7327 0.041104
-0.011592 0.06299 1.0148 8.2976e-39 242 324 0 0 0 -0.63526 0.11084 -0.7643 0.03958
0.029961 0.06299 1.0148 6.8225e-39 277 324 0 0 0 0.49448 0.16991 -0.85242 0.01818
0.031148 0.06299 1.0148 6.5459e-39 278 324 0 0 0 0.49371 0.16567 -0.8537 0.018517
-0.013973 0.064797 1.0152 7.6061e-39 337.5 324 0 0 0 -0.65721 0.13197 -0.74206 0.04148
-0.011597 0.064797 1.0152 7.4218e-39 339.5 324 0 0 0 -0.61544 0.14906 -0.77396 0.03749
0.029573 0.064987 1.0151 7.0376e-39 412 324 0 0 0 0.47526 0.18256 -0.8607 0.015064
0.031161 0.064797 1.0152 7.099e-39 405.5 324 0 0 0 0.47618 0.17661 -0.86143 0.015579
0.032335 0.065365 1.0148 5.6239e-39 430 324 0 0 0 0.47374 0.16914 -0.86427 0.015425
-0.01516 0.067173 1.0152 6.7303e-39 328 324.5 0 0 0 -0.64641 0.16582 -0.74475 0.039812
-0.012784 0.067173 1.0152 6.6842e-39 199.5 325 0 0 0 -0.60781 0.17729 -0.77404 0.034611
-0.010807 0.066985 1.0153 6.4844e-39 193.33 325 0 0 0 -0.58863 0.18256 -0.78752 0.032095
0.029193 0.067003 1.0156 7.0683e-39 228.67 325 0 0 0 0.45309 0.18429 -0.87221 0.011771
0.032348 0.067173 1.0152 6.6381e-39 240 325 0 0 0 0.4546 0.17467 -0.8734 0.013287
0.03471 0.067145 1.0148 6.5459e-39 242 325 0 0 0 0.45026 0.16855 -0.87685 0.01405
-0.015166 0.068983 1.0156 6.4537e-39 272 325 0 0 0 -0.62495 0.20275 -0.75387 0.035585
-0.010414 0.068983 1.0156 7.4678e-39 276 325 0 0 0 -0.56582 0.21416 -0.79623 0.026549
0.028797 0.068983 1.0156 8.7586e-39 364 325 0 0 0 0.43478 0.19139 -0.87996 0.010162
0.033523 0.068926 1.0148 9.2196e-39 368 325 0 0 0 0.43533 0.17508 -0.88308 0.011676
0.03471 0.068926 1.0148 8.943e-39 369 325 0 0 0 0.42875 0.16882 -0.88751 0.011823
-0.0084263 0.070905 1.0148 6.761e-39 414.33 325 0 0 0 -0.52293 0.23626 -0.81898 0.020894
0.028797 0.070765 1.0156 6.7303e-39 306 325.5 0 0 0 0.42313 0.18627 -0.88671 0.0089039
0.033537 0.070736 1.0152 6.7764e-39 310 325.5 0 0 0 0.42063 0.17324 -0.89054 0.010504
0.035124 0.070548 1.0153 6.6996e-39 347.33 325.33 0 0 0 0.41317 0.16732 -0.89515 0.011211
0.037099 0.070736 1.0152 6.6381e-39 313 325.5 0 0 0 0.3969 0.16761 -0.90243 0.011637
0.038303 0.071359 1.0156 6.6381e-39 206 326 0 0 0 0.38346 0.17011 -0.90776 0.012237
-0.0086241 0.073082 1.0148 6.6842e-39 242.5 326 0 0 0 -0.51094 0.25497 -0.82094 0.019124
0.028797 0.073736 1.0156 8.8508e-39 355 326 0 0 0 0.40041 0.19725 -0.89485 0.0074137
0.03355 0.072548 1.0156 7.4678e-39 260 326 0 0 0 0.40544 0.17524 -0.89717 0.0091961
0.034738 0.073736 1.0156 8.7586e-39 360 326 0 0 0 0.39236 0.17821 -0.90238 0.0094472
-0.0086312 0.074924 1.0156 8.1593e-39 370.5 326 0 0 0 -0.51289 0.2606 -0.81795 0.01876
0.028797 0.074924 1.0156 6.5459e-39 414 326 0 0 0 0.39418 0.19698 -0.89768 0.0074251
-0.0084332 0.076508 1.0156 6.5152e-39 354.67 326.33 0 0 0 -0.50541 0.26238 -0.82202 0.016113
-0.0068433 0.077237 1.0148 6.5459e-39 208 327 0 0 0 -0.48583 0.26476 -0.83299 0.013795
-0.0052604 0.076841 1.0148 6.423e-39 283.33 326.67 0 0 0 -0.46059 0.26384 -0.84749 0.013491
0.028797 0.077301 1.0156 7.6522e-39 239 327 0 0 0 0.38349 0.19821 -0.90203 0.0074011
-0.0068489 0.079083 1.0156 7.7905e-39 319 327 0 0 0 -0.4967 0.26403 -0.82679 0.013185
-0.0050657 0.079067 1.0154 7.6061e-39 320.75 327 0 0 0 -0.47162 0.26339 -0.84154 0.012969
0.027586 0.079018 1.0148 7.8366e-39 380 327 0 0 0 0.37274 0.20643 -0.90468 0.0072125
0.028797 0.079083 1.0156 7.7905e-39 381 327 0 0 0 0.3757 0.20376 -0.90406 0.0075486
-0.0068489 0.080865 1.0156 6.9147e-39 430 327 0 0 0 -0.49976 0.25992 -0.82624 0.012718
-0.0050666 0.080865 1.0156 6.9608e-39 431.5 327 0 0 0 -0.47489 0.26118 -0.84039 0.013081
-0.0032816 0.081392 1.0148 7.1913e-39 321.5 327.5 0 0 0 -0.43314 0.25978 -0.86308 0.011457
0.027586 0.081392 1.0148 7.1913e-39 211 328 0 0 0 0.36498 0.21136 -0.90671 0.0076325
0.028797 0.080865 1.0156 6.3615e-39 187 328 0 0 0 0.37311 0.20628 -0.90456 0.0077363
-0.0068489 0.082648 1.0156 7.1913e-39 239.5 328 0 0 0 -0.50765 0.25775 -0.8221 0.013003
-0.0050657 0.08263 1.0154 7.076e-39 241 328 0 0 0 -0.47938 0.25751 -0.83898 0.013129
-0.0032816 0.083173 1.0148 7.56e-39 275 328 0 0 0 -0.43603 0.25956 -0.86169 0.011655
0.026992 0.083173 1.0148 8.5742e-39 348.5 328 0 0 0 0.35473 0.22706 -0.90698 0.007784
0.028797 0.082648 1.0156 8.0671e-39 293.5 328 0 0 0 0.36934 0.21547 -0.90397 0.0080831
-0.0068489 0.085024 1.0156 7.514e-39 401 328 0 0 0 -0.50877 0.25743 -0.82151 0.013524
-0.0050666 0.085024 1.0156 7.6061e-39 402.5 328 0 0 0 -0.48605 0.25909 -0.83464 0.013494
-0.0028859 0.085152 1.0148 7.8059e-39 417 328 0 0 0 -0.43326 0.26309 -0.86201 0.012054
0.025212 0.084954 1.0148 6.4076e-39 292 328.5 0 0 0 0.33764 0.24359 -0.90921 0.0081568
0.026998 0.084971 1.015 6.3615e-39 293.5 328.5 0 0 0 0.35208 0.23799 -0.90521 0.0081341
0.028797 0.08443 1.0156 6.7303e-39 409 328 0 0 0 0.3628 0.22698 -0.9038 0.0087799
-0.0048686 0.087202 1.0156 7.1913e-39 223.67 329 0 0 0 -0.48559 0.26199 -0.834 0.014432
-0.0026887 0.087347 1.015 7.4218e-39 236 329 0 0 0 -0.41878 0.27374 -0.86585 0.013271
-0.00090716 0.087329 1.0148 7.7905e-39 237.5 329 0 0 0 -0.38083 0.27724 -0.8821 0.014374
0.0014673 0.087922 1.0148 7.2835e-39 271 329 0 0 0 -0.30752 0.28723 -0.90715 0.013074
0.02165 0.087922 1.0148 7.4678e-39 288 329 0 0 0 0.27977 0.2755 -0.91969 0.0097852
0.022837 0.087329 1.0148 7.4679e-39 257.5 329 0 0 0 0.30312 0.26498 -0.91537 0.0096115
0.024629 0.087364 1.0152 7.8366e-39 259 329 0 0 0 0.32285 0.25681 -0.91094 0.0091316
0.026817 0.087202 1.0156 7.3142e-39 250.33 329 0 0 0 0.34504 0.25 -0.90468 0.008549
-0.0026902 0.089183 1.0156 7.9288e-39 366.5 329 0 0 0 -0.42254 0.28003 -0.862 0.014103
-0.00090716 0.089109 1.0148 7.8366e-39 368 329 0 0 0 -0.3639 0.28874 -0.88555 0.012516
0.00087368 0.089109 1.0148 7.4679e-39 370.5 329 0 0 0 -0.32223 0.29514 -0.89948 0.012994
0.02165 0.089109 1.0148 7.6522e-39 391 329 0 0 0 0.27439 0.28486 -0.91846 0.0097301
0.022856 0.089183 1.0156 7.9288e-39 392 329 0 0 0 0.29719 0.27626 -0.91398 0.0095872
0.024044 0.089183 1.0156 7.4678e-39 393 329 0 0 0 0.31141 0.27074 -0.91089 0.0092324
0.026421 0.089183 1.0156 7.3757e-39 395 329 0 0 0 0.33067 0.261 -0.90694 0.0090233
-0.0020961 0.090371 1.0156 7.4678e-39 422 329 0 0 0 -0.40304 0.2908 -0.86775 0.013634
-0.00090791 0.090965 1.0156 6.9147e-39 304 329.5 0 0 0 -0.36043 0.30462 -0.88164 0.012584
0.00087368 0.090891 1.0148 7.3987e-39 305.5 329.5 0 0 0 -0.31632 0.30622 -0.89787 0.012572
0.0026545 0.09089 1.0148 7.053e-39 307 329.5 0 0 0 -0.25639 0.31185 -0.91488 0.012313
0.018683 0.090891 1.0148 6.3384e-39 334.5 329.5 0 0 0 0.20336 0.31077 -0.92848 0.010275
0.02126 0.091113 1.0151 6.6996e-39 292.33 329.67 0 0 0 0.25491 0.30147 -0.91877 0.0086443
0.022856 0.090371 1.0156 6.8225e-39 471 329 0 0 0 0.28966 0.28495 -0.91373 0.0094032
0.024044 0.090371 1.0156 6.7303e-39 472 329 0 0 0 0.30591 0.27812 -0.91053 0.0092807
0.0008744 0.093341 1.0156 7.9288e-39 297.75 330 0 0 0 -0.31506 0.32733 -0.89084 0.012709
0.0030517 0.093513 1.0153 8.1132e-39 319.33 330 0 0 0 -0.23922 0.33165 -0.91257 0.013217
0.005029 0.093265 1.0148 8.2054e-39 304.5 330 0 0 0 -0.18258 0.33054 -0.92596 0.014328
0.0066119 0.093462 1.0148 8.1132e-39 322.33 330 0 0 0 -0.12465 0.33463 -0.93407 0.013953
0.010965 0.093858 1.0148 8.021e-39 359 330 0 0 0 0.00097975 0.33967 -0.94054 0.01435
0.012746 0.093265 1.0148 8.1362e-39 311 330 0 0 0 0.05659 0.33194 -0.9416 0.014052
0.015121 0.093265 1.0148 7.998e-39 313 330 0 0 0 0.12661 0.3334 -0.93425 0.011662
0.016901 0.093858 1.0148 7.56e-39 364 330 0 0 0 0.16005 0.3326 -0.92939 0.0098913
0.018694 0.093322 1.0154 7.9749e-39 316 330 0 0 0 0.19556 0.32374 -0.92571 0.0093581
0.02087 0.093118 1.0153 7.7137e-39 301.33 330 0 0 0 0.24074 0.31674 -0.91745 0.0080458
0.0008744 0.095124 1.0156 7.4218e-39 404.5 330 0 0 0 -0.31601 0.34191 -0.88501 0.012504
0.0032492 0.095085 1.0152 7.5139e-39 406.5 330 0 0 0 -0.23645 0.34142 -0.90968 0.013301
0.005029 0.095045 1.0148 7.1913e-39 408 330 0 0 0 -0.17953 0.34414 -0.92159 0.014242
0.0068098 0.095045 1.0148 7.2835e-39 410.5 330 0 0 0 -0.12204 0.34328 -0.93127 0.013814
0.0091843 0.095045 1.0148 7.9749e-39 412.5 330 0 0 0 -0.055096 0.3477 -0.93599 0.013914
0.010965 0.095045 1.0148 7.6522e-39 414 330 0 0 0 0.0050808 0.35077 -0.93645 0.01453
0.012746 0.095045 1.0148 7.5139e-39 415.5 330 0 0 0 0.058045 0.35334 -0.93369 0.014072
0.015121 0.095045 1.0148 7.3757e-39 417.5 330 0 0 0 0.12096 0.34921 -0.92921 0.01196
0.016901 0.095045 1.0148 7.2835e-39 419 330 0 0 0 0.1565 0.33931 -0.92756 0.00998
0.018698 0.095124 1.0156 7.2835e-39 420.5 330 0 0 0 0.19123 0.33504 -0.92259 0.0087905
0.02048 0.095124 1.0156 7.56e-39 422 330 0 0 0 0.224 0.3335 -0.91575 0.0080168
0.0034478 0.096682 1.0153 6.4844e-39 185 331 0 0 0 -0.22924 0.35552 -0.90612 0.013377
0.0050331 0.096906 1.0156 7.1452e-39 194.5 331 0 0 0 -0.1825 0.35962 -0.91508 0.014297
0.0068139 0.096886 1.0154 6.7994e-39 196 331 0 0 0 -0.12366 0.36027 -0.92461 0.014123
0.0091881 0.096866 1.0152 6.2693e-39 198 331 0 0 0 -0.061672 0.36044 -0.93074 0.014371
0.01097 0.096867 1.0152 6.0849e-39 199.5 331 0 0 0 0.0029409 0.3627 -0.9319 0.015213
0.012754 0.096886 1.0154 6.2232e-39 201 331 0 0 0 0.06332 0.36544 -0.92868 0.014806
0.015133 0.096906 1.0156 6.3154e-39 203 331 0 0 0 0.12112 0.36348 -0.9237 0.012052
0.016908 0.096867 1.0152 6.2232e-39 204.5 331 0 0 0 0.15068 0.35752 -0.92167 0.010088
0.02048 0.096312 1.0156 5.8083e-39 183 331 0 0 0 0.2204 0.3401 -0.9142 0.0078134
0.0074095 0.098688 1.0156 7.0991e-39 277 331 0 0 0 -0.10624 0.37509 -0.92088 0.014738
0.0085977 0.098688 1.0156 7.3757e-39 278 331 0 0 0 -0.071185 0.37572 -0.924 0.015033
0.010974 0.098688 1.0156 8.5742e-39 280 331 0 0 0 0.00575 0.37649 -0.9264 0.015865
0.012162 0.098688 1.0156 8.2976e-39 281 331 0 0 0 0.042233 0.38375 -0.92247 0.016208
0.015727 0.098688 1.0156 7.56e-39 284 331 0 0 0 0.12549 0.37563 -0.91823 0.01175
0.016915 0.098688 1.0156 8.2054e-39 285 331 0 0 0 0.14803 0.37255 -0.91613 0.010347
-0.017557 0.041689 1.0164 6.8225e-39 277 320 0 0 0 -0.85059 0.17348 -0.49639 0.046748
-0.015179 0.041689 1.0164 7.4678e-39 287 320 0 0 0 -0.84688 0.16759 -0.50468 0.044577
-0.011611 0.041689 1.0164 1.0049e-38 349 320 0 0 0 -0.82905 0.1834 -0.52824 0.041499
-0.016977 0.042913 1.0173 8.8969e-39 388.5 320 0 0 0 -0.85919 0.13619 -0.4932 0.04765
-0.014001 0.042913 1.0173 8.8508e-39 391 320 0 0 0 -0.83961 0.14873 -0.52243 0.045938
-0.0128 0.042878 1.0164 9.0352e-39 392 320 0 0 0 -0.82224 0.15672 -0.54714 0.044756
0.037145 0.045256 1.0164 8.8508e-39 372 321 0 0 0 0.36721 -0.58715 -0.7214 0.085169
0.035986 0.047079 1.0173 6.6842e-39 413 321 0 0 0 0.5883 -0.41591 -0.69349 0.096685
0.037145 0.04704 1.0164 6.6842e-39 414 321 0 0 0 0.61265 -0.37288 -0.69687 0.098619
-0.010431 0.048864 1.0173 7.2835e-39 190 322 0 0 0 -0.77215 0.081708 -0.63017 0.05777
-0.0080438 0.048824 1.0164 6.6381e-39 192 322 0 0 0 -0.73209 0.1042 -0.6732 0.050499
0.035956 0.048824 1.0164 6.5459e-39 196 322 0 0 0 0.733 -0.22402 -0.64228 0.093191
0.037145 0.048824 1.0164 7.0069e-39 197 322 0 0 0 0.73794 -0.22621 -0.63583 0.095255
-0.014001 0.051244 1.0173 6.0849e-39 216 322 0 0 0 -0.78221 0.069782 -0.61909 0.052807
-0.012811 0.051244 1.0173 6.3615e-39 217 322 0 0 0 -0.75967 0.071704 -0.64634 0.052114
-0.011021 0.050628 1.0168 6.5459e-39 211.5 322 0 0 0 -0.74264 0.079428 -0.66496 0.053904
-0.0092329 0.050013 1.0164 6.9147e-39 206 322 0 0 0 -0.7291 0.083974 -0.67924 0.053555
0.035376 0.050628 1.0168 7.076e-39 220.5 322 0 0 0 0.72705 -0.17363 -0.66427 0.090586
-0.014001 0.052434 1.0173 7.8366e-39 238 322 0 0 0 -0.7636 0.058541 -0.64303 0.05116
-0.013395 0.052986 1.0164 7.4679e-39 251.5 322 0 0 0 -0.74063 0.062566 -0.66899 0.050006
0.034767 0.052391 1.0164 7.8366e-39 258 322 0 0 0 0.70844 -0.13854 -0.69204 0.085614
-0.01399 0.055365 1.0164 7.7905e-39 388 322 0 0 0 -0.72211 0.048181 -0.6901 0.043539
-0.01399 0.057148 1.0164 6.3615e-39 207 323 0 0 0 -0.71082 0.047966 -0.70174 0.040809
-0.015179 0.059526 1.0164 9.404e-39 357 323 0 0 0 -0.71376 0.047489 -0.69878 0.039791
-0.01399 0.058337 1.0164 8.5742e-39 254 323 0 0 0 -0.70594 0.055353 -0.7061 0.039957
-0.014001 0.067907 1.0173 6.6381e-39 222 325 0 0 0 -0.64407 0.17703 -0.7442 0.037507
-0.01399 0.066661 1.0164 6.4537e-39 436 324 0 0 0 -0.65195 0.15798 -0.74163 0.038464
-0.011611 0.067851 1.0164 6.7303e-39 224 325 0 0 0 -0.60587 0.18252 -0.77435 0.032158
0.030803 0.067454 1.0164 6.9762e-39 247.33 325 0 0 0 0.45278 0.17539 -0.8742 0.012301
-0.016368 0.06904 1.0164 6.4537e-39 271 325 0 0 0 -0.656 0.19689 -0.72862 0.037755
-0.0128 0.06904 1.0164 6.7303e-39 274 325 0 0 0 -0.60714 0.20394 -0.76798 0.032222
-0.011621 0.069097 1.0173 7.1913e-39 275 325 0 0 0 -0.59692 0.20452 -0.77579 0.030856
0.030605 0.06904 1.0164 8.7125e-39 365.5 325 0 0 0 0.43751 0.18138 -0.88073 0.010488
0.032389 0.06904 1.0164 9.404e-39 367 325 0 0 0 0.43269 0.1722 -0.88494 0.010979
-0.015179 0.070824 1.0164 7.7444e-39 399 325 0 0 0 -0.61363 0.22645 -0.75642 0.031763
-0.010822 0.070645 1.0167 7.5908e-39 394 325 0 0 0 -0.57021 0.22585 -0.78984 0.026799
0.030605 0.070824 1.0164 6.4306e-39 307.5 325.5 0 0 0 0.4241 0.17957 -0.88763 0.0095296
0.032402 0.070853 1.0168 6.6381e-39 309 325.5 0 0 0 0.41643 0.17297 -0.89256 0.01025
0.035956 0.071418 1.0164 6.5459e-39 204 326 0 0 0 0.39685 0.16988 -0.90202 0.011172
-0.015179 0.073202 1.0164 6.6381e-39 237 326 0 0 0 -0.59475 0.24935 -0.76426 0.030662
-0.010426 0.073232 1.0168 6.8225e-39 241 326 0 0 0 -0.5458 0.25309 -0.79878 0.022438
0.028821 0.072607 1.0164 8.2976e-39 256 326 0 0 0 0.40851 0.19132 -0.89248 0.0078183
0.030605 0.073202 1.0164 8.8969e-39 307 326 0 0 0 0.40606 0.1872 -0.89447 0.0080778
0.032996 0.073232 1.0168 8.5742e-39 309 326 0 0 0 0.39677 0.18022 -0.90005 0.0090279
0.03558 0.073044 1.017 7.8674e-39 294.67 326 0 0 0 0.3846 0.17475 -0.90639 0.010056
0.037145 0.073202 1.0164 8.1593e-39 312.5 326 0 0 0 0.37432 0.17894 -0.90987 0.011027
0.03835 0.073232 1.0168 7.8827e-39 313.5 326 0 0 0 0.36925 0.18071 -0.91159 0.011795
-0.015191 0.075048 1.0173 8.2976e-39 365 326 0 0 0 -0.60686 0.26364 -0.74981 0.028848
-0.010431 0.075048 1.0173 8.6664e-39 369 326 0 0 0 -0.55294 0.25919 -0.79188 0.022948
0.030605 0.074986 1.0164 6.592e-39 415.5 326 0 0 0 0.39746 0.19151 -0.89741 0.0080935
0.033578 0.074986 1.0164 7.0069e-39 418 326 0 0 0 0.38738 0.18347 -0.90348 0.0092785
0.034767 0.074986 1.0164 7.0991e-39 419 326 0 0 0 0.38021 0.18093 -0.90703 0.0095399
-0.0092329 0.077364 1.0164 6.9147e-39 206 327 0 0 0 -0.52594 0.26341 -0.8087 0.015319
0.028821 0.076175 1.0164 6.3615e-39 191 327 0 0 0 0.38858 0.19663 -0.90019 0.00768
0.03063 0.076833 1.0173 7.2143e-39 223.5 327 0 0 0 0.39152 0.19114 -0.9001 0.0082988
0.033592 0.076801 1.0168 7.1452e-39 226.5 327 0 0 0 0.38595 0.18846 -0.90307 0.0093935
0.034782 0.076801 1.0168 7.2374e-39 227.5 327 0 0 0 0.38039 0.18744 -0.90563 0.0097066
-0.0086422 0.07918 1.0168 7.7444e-39 317.5 327 0 0 0 -0.53293 0.26511 -0.80356 0.014798
0.03063 0.079213 1.0173 7.8367e-39 382.5 327 0 0 0 0.38367 0.19567 -0.9025 0.0081377
0.033605 0.079213 1.0173 7.8827e-39 385 327 0 0 0 0.37927 0.1919 -0.90517 0.0093176
0.034782 0.07918 1.0168 7.8827e-39 386 327 0 0 0 0.37905 0.1883 -0.90601 0.009871
-0.0086422 0.080965 1.0168 6.7764e-39 428.5 327 0 0 0 -0.54267 0.26236 -0.79792 0.015349
0.03063 0.080998 1.0173 5.9466e-39 188.5 328 0 0 0 0.37854 0.20256 -0.90315 0.0082702
0.033578 0.080932 1.0164 6.5459e-39 191 328 0 0 0 0.37951 0.19221 -0.905 0.0091066
0.034767 0.080932 1.0164 6.7303e-39 192 328 0 0 0 0.37984 0.18987 -0.90536 0.0095747
-0.0086422 0.08275 1.0168 7.1913e-39 238 328 0 0 0 -0.54873 0.26332 -0.79345 0.015773
0.03063 0.082784 1.0173 8.2976e-39 298.5 328 0 0 0 0.37329 0.21113 -0.90337 0.0085853
0.033578 0.082715 1.0164 8.6203e-39 305 328 0 0 0 0.37816 0.19948 -0.904 0.0092687
0.034767 0.082715 1.0164 8.2054e-39 306 328 0 0 0 0.3784 0.19765 -0.90429 0.009724
-0.0086422 0.085129 1.0168 7.6983e-39 398.5 328 0 0 0 -0.55879 0.25792 -0.78818 0.014355
0.028821 0.085688 1.0164 5.8083e-39 181 329 0 0 0 0.3582 0.23547 -0.90346 0.0091156
0.030624 0.085147 1.0171 6.4537e-39 296.5 328.5 0 0 0 0.36628 0.23078 -0.90143 0.0094684
0.033578 0.085093 1.0164 6.7764e-39 299 328.5 0 0 0 0.37025 0.21413 -0.90392 0.010126
0.034767 0.085093 1.0164 6.8225e-39 300 328.5 0 0 0 0.3714 0.21259 -0.90381 0.010712
-0.0080438 0.086878 1.0164 6.4537e-39 200 329 0 0 0 -0.54467 0.26055 -0.79715 0.015215
-0.0068546 0.086878 1.0164 6.6381e-39 201 329 0 0 0 -0.52222 0.26196 -0.81158 0.014612
0.028821 0.086878 1.0164 7.2835e-39 231 329 0 0 0 0.35646 0.24043 -0.90285 0.009146
0.03063 0.086949 1.0173 7.6522e-39 232.5 329 0 0 0 0.36537 0.23931 -0.89957 0.0095118
0.033605 0.086949 1.0173 7.6522e-39 235 329 0 0 0 0.36992 0.22795 -0.90067 0.010698
0.034767 0.086878 1.0164 7.8366e-39 236 329 0 0 0 0.37058 0.22241 -0.90178 0.011156
-0.0080504 0.088735 1.0173 7.8366e-39 312.5 329 0 0 0 -0.55183 0.26216 -0.79168 0.015117
-0.0068574 0.088699 1.0168 7.7905e-39 313.5 329 0 0 0 -0.53233 0.26627 -0.80357 0.01575
-0.005269 0.08886 1.0164 7.9903e-39 331.33 329 0 0 0 -0.49664 0.27221 -0.82417 0.014616
0.025253 0.089256 1.0164 7.0069e-39 394 329 0 0 0 0.32152 0.2669 -0.90851 0.0090372
0.027643 0.088699 1.0168 7.6522e-39 344.5 329 0 0 0 0.34068 0.25073 -0.90613 0.0091052
0.028845 0.088735 1.0173 7.8827e-39 345.5 329 0 0 0 0.34932 0.25183 -0.90253 0.0093686
0.033605 0.088735 1.0173 8.0671e-39 373.5 329 0 0 0 0.36784 0.23718 -0.89913 0.01062
0.034796 0.088735 1.0173 8.021e-39 374.5 329 0 0 0 0.37019 0.23694 -0.89823 0.011298
-0.0068602 0.09052 1.0173 7.56e-39 418 329 0 0 0 -0.5325 0.27583 -0.80022 0.016171
-0.0050731 0.091077 1.0168 6.4998e-39 300.5 329.5 0 0 0 -0.48823 0.28798 -0.82383 0.014629
-0.0028906 0.091238 1.0164 6.3e-39 262.67 329.67 0 0 0 -0.4381 0.29447 -0.84932 0.014621
0.022875 0.091634 1.0164 6.8225e-39 205 330 0 0 0 0.28171 0.29362 -0.91347 0.009186
0.024864 0.091263 1.0167 7.1605e-39 295.33 329.67 0 0 0 0.3123 0.28001 -0.90778 0.0091486
0.027054 0.091096 1.0171 6.6842e-39 341.5 329.5 0 0 0 0.33032 0.27352 -0.90337 0.0089544
0.033605 0.09052 1.0173 5.9927e-39 164 330 0 0 0 0.36805 0.25116 -0.89524 0.010902
0.034796 0.091115 1.0173 6.6381e-39 190 330 0 0 0 0.36951 0.25417 -0.89379 0.01162
-0.005075 0.0929 1.0173 7.8366e-39 233.5 330 0 0 0 -0.49135 0.29763 -0.81853 0.015217
-0.0026937 0.092862 1.0168 7.6522e-39 235.5 330 0 0 0 -0.42346 0.31046 -0.85105 0.014537
-0.00090865 0.092824 1.0164 7.7444e-39 237 330 0 0 0 -0.35763 0.31956 -0.87749 0.012209
0.022875 0.092824 1.0164 7.6522e-39 270 330 0 0 0 0.27141 0.30581 -0.91259 0.0085976
0.024064 0.092824 1.0164 7.3757e-39 271 330 0 0 0 0.29124 0.29807 -0.90903 0.0090226
-0.0044799 0.09409 1.0173 8.943e-39 346 330 0 0 0 -0.47158 0.31327 -0.8243 0.014823
-0.0024963 0.094487 1.0173 8.0825e-39 365.67 330 0 0 0 -0.417 0.32514 -0.84876 0.014181
-0.00090865 0.094608 1.0164 7.9288e-39 376 330 0 0 0 -0.35765 0.33082 -0.8733 0.012106
0.021686 0.094608 1.0164 7.7444e-39 395.5 330 0 0 0 0.24853 0.32219 -0.91347 0.0079488
0.022894 0.094685 1.0173 7.7444e-39 396.5 330 0 0 0 0.26144 0.32115 -0.91023 0.0081397
0.024084 0.094685 1.0173 7.5601e-39 397.5 330 0 0 0 0.27946 0.31502 -0.90701 0.0082277
-0.0009094 0.097066 1.0173 6.7764e-39 189.5 331 0 0 0 -0.35762 0.35471 -0.86388 0.011765
0.00087547 0.097026 1.0168 6.4076e-39 191 331 0 0 0 -0.31274 0.35919 -0.8793 0.012149
0.0026589 0.09758 1.0164 7.3757e-39 217 331 0 0 0 -0.26353 0.36355 -0.89352 0.012455
0.018713 0.096986 1.0164 6.2923e-39 206 331 0 0 0 0.18703 0.35504 -0.91595 0.0083239
0.021296 0.097211 1.0167 6.9147e-39 216.33 331 0 0 0 0.23264 0.35006 -0.90738 0.0073267
0.022894 0.09647 1.0173 5.9927e-39 185 331 0 0 0 0.25742 0.33888 -0.90493 0.0073368
0.024084 0.09647 1.0173 6.6381e-39 186 331 0 0 0 0.27483 0.33483 -0.90131 0.007303
0.0014709 0.098851 1.0173 7.0069e-39 272 331 0 0 0 -0.29798 0.37378 -0.87835 0.011856
0.0034517 0.099166 1.0164 7.4371e-39 306.33 331 0 0 0 -0.23581 0.37656 -0.89588 0.013375
0.0050373 0.098769 1.0164 7.4678e-39 275 331 0 0 0 -0.18128 0.37443 -0.90936 0.014786
0.0068211 0.099364 1.0164 7.3296e-39 325.5 331 0 0 0 -0.1263 0.38373 -0.91477 0.014674
0.0093976 0.099562 1.0164 7.5601e-39 344.33 331 0 0 0 -0.050229 0.38319 -0.9223 0.015762
0.010983 0.099959 1.0164 7.2835e-39 379 331 0 0 0 0.0076998 0.39095 -0.92038 0.01676
0.012965 0.099562 1.0164 7.6522e-39 347.67 331 0 0 0 0.059087 0.3868 -0.92027 0.015748
0.014947 0.099562 1.0164 7.8674e-39 349.33 331 0 0 0 0.11194 0.3864 -0.91552 0.013121
0.016929 0.099959 1.0164 8.2976e-39 384 331 0 0 0 0.1433 0.38412 -0.9121 0.010397
0.018721 0.09881 1.0168 8.0671e-39 286.5 331 0 0 0 0.18287 0.37195 -0.91006 0.0080835
0.0211 0.09881 1.0168 7.9288e-39 288.5 331 0 0 0 0.22593 0.36544 -0.903 0.0069195
0.0014709 0.10004 1.0173 7.4678e-39 368 331 0 0 0 -0.29636 0.38147 -0.87559 0.011764
0.0032546 0.10059 1.0168 7.6061e-39 397 331 0 0 0 -0.25028 0.38717 -0.88739 0.012872
0.0050414 0.10064 1.0173 7.8366e-39 398.5 331 0 0 0 -0.18289 0.39379 -0.90082 0.014525
0.0066263 0.10081 1.017 7.3449e-39 408.33 331 0 0 0 -0.13122 0.3962 -0.90874 0.014635
0.0091994 0.10115 1.0164 6.8225e-39 427.5 331 0 0 0 -0.057848 0.39778 -0.91566 0.016637
0.010983 0.10115 1.0164 6.9147e-39 429 331 0 0 0 0.004751 0.4009 -0.91611 0.017774
0.012767 0.10115 1.0164 7.3296e-39 430.5 331 0 0 0 0.059154 0.39545 -0.91658 0.015966
0.015145 0.10115 1.0164 7.4678e-39 432.5 331 0 0 0 0.11463 0.39542 -0.91132 0.013188
0.016929 0.10115 1.0164 7.4678e-39 434 331 0 0 0 0.14825 0.39161 -0.90811 0.0102
0.01853 0.10044 1.0173 7.8059e-39 402 331 0 0 0 0.17397 0.38624 -0.90584 0.008493
0.020514 0.10004 1.0173 7.6522e-39 387 331 0 0 0 0.21124 0.37728 -0.90169 0.0068912
0.0038513 0.10302 1.0173 6.7764e-39 197 332 0 0 0 -0.21435 0.4094 -0.88682 0.013403
0.0050414 0.10302 1.0173 6.6381e-39 198 332 0 0 0 -0.18446 0.41342 -0.89166 0.01405
0.0074187 0.10297 1.0168 6.3154e-39 200 332 0 0 0 -0.1064 0.41069 -0.90555 0.01539
0.009207 0.10302 1.0173 6.2923e-39 201.5 332 0 0 0 -0.059132 0.41186 -0.90932 0.017476
0.010987 0.10297 1.0168 6.2693e-39 204 332 0 0 0 0.0082447 0.40865 -0.91265 0.017758
0.012775 0.103 1.0171 6.3154e-39 205.5 332 0 0 0 0.058283 0.41063 -0.90994 0.016853
0.015158 0.10302 1.0173 6.6611e-39 207.5 332 0 0 0 0.10874 0.40991 -0.90562 0.014052
0.016943 0.10242 1.0173 6.6381e-39 186 332 0 0 0 0.14252 0.40279 -0.90413 0.01054
0.0074217 0.1048 1.0173 8.021e-39 279 332 0 0 0 -0.11488 0.42445 -0.89813 0.015178
0.0086119 0.1048 1.0173 8.7586e-39 280 332 0 0 0 -0.085494 0.42254 -0.9023 0.016829
0.010992 0.1054 1.0173 7.6522e-39 330.5 332 0 0 0 0.00084005 0.42666 -0.90441 0.01823
0.012182 0.1048 1.0173 7.4678e-39 283 332 0 0 0 0.038315 0.423 -0.90532 0.017313
-0.015204 0.042948 1.0181 9.0352e-39 390 320 0 0 0 -0.84843 0.15379 -0.50647 0.04293
-0.01163 0.042948 1.0181 8.943e-39 393 320 0 0 0 -0.82779 0.16406 -0.53652 0.041053
-0.017012 0.044195 1.0194 5.9927e-39 210.5 321 0 0 0 -0.86826 0.11316 -0.48304 0.049308
-0.014422 0.044574 1.019 6.4537e-39 236 321 0 0 0 -0.8414 0.12692 -0.5253 0.045335
-0.012822 0.044735 1.0181 6.4998e-39 249 321 0 0 0 -0.82268 0.13577 -0.55205 0.045021
-0.01165 0.044809 1.0198 6.6381e-39 250.5 321 0 0 0 -0.88659 0.12031 -0.44664 0.070947
0.034882 0.045406 1.0198 8.6664e-39 370 321 0 0 0 -0.2683 -0.75187 -0.60225 0.07634
0.036432 0.044561 1.0187 7.6523e-39 308.67 321 0 0 0 -0.52046 -0.66739 -0.53265 0.076296
-0.01403 0.047176 1.0194 7.8366e-39 392.5 321 0 0 0 -0.83716 0.083047 -0.54061 0.052738
-0.012832 0.047156 1.019 7.7444e-39 393.5 321 0 0 0 -0.81361 0.093094 -0.57391 0.053211
-0.011049 0.047175 1.0194 7.7214e-39 395 321 0 0 0 -0.80575 0.11435 -0.58111 0.045192
0.034853 0.047156 1.019 6.7764e-39 412 321 0 0 0 0.66457 -0.41187 -0.62347 0.098609
-0.014024 0.048945 1.019 6.2693e-39 433 321 0 0 0 -0.80944 0.058066 -0.58432 0.059531
-0.012822 0.048904 1.0181 7.4678e-39 188 322 0 0 0 -0.79653 0.067529 -0.60081 0.059547
-0.01163 0.048904 1.0181 7.2835e-39 189 322 0 0 0 -0.79653 0.067529 -0.60081 0.059547
-0.0092482 0.048904 1.0181 6.9147e-39 191 322 0 0 0 -0.76571 0.10369 -0.63477 0.048201
0.034824 0.048904 1.0181 6.3615e-39 195 322 0 0 0 0.71574 -0.26697 -0.64532 0.094078
-0.014819 0.050534 1.019 6.0234e-39 206 322 0 0 0 -0.79587 0.039664 -0.60417 0.055438
-0.012822 0.050095 1.0181 6.0849e-39 203 322 0 0 0 -0.79084 0.067677 -0.60827 0.055797
-0.015216 0.053117 1.019 7.6061e-39 250 322 0 0 0 -0.76938 0.026279 -0.63825 0.048914
-0.015204 0.05486 1.0181 8.6664e-39 364 322 0 0 0 -0.75227 0.036485 -0.65785 0.04516
-0.015216 0.056693 1.019 6.6381e-39 308 322.5 0 0 0 -0.74178 0.032259 -0.66987 0.042244
-0.016422 0.05853 1.0198 8.482e-39 252 323 0 0 0 -0.75715 0.022576 -0.65285 0.041545
-0.015204 0.058433 1.0181 8.6664e-39 253 323 0 0 0 -0.7358 0.04552 -0.67567 0.041208
-0.017615 0.060916 1.0198 6.9147e-39 402 323 0 0 0 -0.78914 0.04501 -0.61256 0.041972
-0.017586 0.067963 1.0181 7.0069e-39 219 325 0 0 0 -0.71698 0.16373 -0.67759 0.043075
-0.014013 0.069154 1.0181 6.4537e-39 273 325 0 0 0 -0.62906 0.20191 -0.75068 0.034465
-0.016409 0.070403 1.019 8.2976e-39 372 325 0 0 0 -0.68306 0.21145 -0.69908 0.036573
-0.01403 0.071029 1.0194 7.7444e-39 400 325 0 0 0 -0.6365 0.2298 -0.73625 0.032677
-0.012822 0.07094 1.0181 7.6522e-39 401 325 0 0 0 -0.60137 0.2297 -0.76524 0.029377
-0.01163 0.071536 1.0181 6.1771e-39 428 325 0 0 0 -0.58142 0.23497 -0.77893 0.027169
-0.014036 0.072847 1.0198 6.4537e-39 209 326 0 0 0 -0.62862 0.24442 -0.73831 0.031332
-0.012827 0.073353 1.0186 6.7303e-39 239 326 0 0 0 -0.59625 0.25608 -0.76086 0.028632
-0.01163 0.073323 1.0181 6.8225e-39 240 326 0 0 0 -0.57685 0.25262 -0.77681 0.025602
0.032442 0.073918 1.0181 9.3118e-39 358 326 0 0 0 0.39322 0.18089 -0.90147 0.0087906
-0.014036 0.07404 1.0198 6.9147e-39 267 326 0 0 0 -0.62438 0.25707 -0.73761 0.030133
-0.012843 0.075233 1.0198 8.6664e-39 367 326 0 0 0 -0.60304 0.26429 -0.75266 0.025223
-0.01163 0.075109 1.0181 8.7586e-39 368 326 0 0 0 -0.57282 0.26308 -0.77631 0.024664
0.032442 0.075109 1.0181 7.0069e-39 417 326 0 0 0 0.38853 0.18428 -0.90282 0.0089999
0.03661 0.075109 1.0181 6.8225e-39 420.5 326 0 0 0 0.37089 0.18047 -0.91097 0.011049
0.038398 0.075109 1.0181 6.5459e-39 422 326 0 0 0 0.36628 0.18123 -0.91269 0.012732
-0.011044 0.07696 1.019 6.7303e-39 315.5 326.5 0 0 0 -0.57373 0.26636 -0.77452 0.019396
0.032456 0.076928 1.0186 7.3296e-39 225.5 327 0 0 0 0.38738 0.18725 -0.9027 0.0091175
0.036442 0.076761 1.019 7.222e-39 218.33 327 0 0 0 0.37185 0.18547 -0.90957 0.011188
0.038461 0.076427 1.0198 6.7303e-39 199 327 0 0 0 0.36593 0.18431 -0.91221 0.014156
-0.010448 0.078748 1.019 7.6522e-39 268 327 0 0 0 -0.57331 0.26514 -0.77525 0.017131
0.032469 0.079344 1.019 7.8366e-39 384 327 0 0 0 0.37942 0.18619 -0.9063 0.0089217
0.036045 0.079344 1.019 8.1132e-39 387 327 0 0 0 0.37276 0.18215 -0.90988 0.010449
-0.010457 0.080602 1.0198 7.514e-39 395.5 327 0 0 0 -0.58205 0.26049 -0.7703 0.016903
0.032469 0.081132 1.019 6.2693e-39 190 328 0 0 0 0.37665 0.1941 -0.90579 0.0090433
0.036045 0.081132 1.019 6.6381e-39 193 328 0 0 0 0.37157 0.18969 -0.90882 0.010625
-0.011049 0.082954 1.0194 7.3065e-39 236 328 0 0 0 -0.58804 0.25639 -0.76712 0.015616
0.032456 0.082886 1.0186 8.5281e-39 304 328 0 0 0 0.37557 0.20975 -0.90275 0.0092974
0.036045 0.08292 1.019 8.021e-39 307 328 0 0 0 0.37061 0.1987 -0.90728 0.011116
-0.011049 0.085339 1.0194 7.7444e-39 396.5 328 0 0 0 -0.59103 0.25538 -0.76515 0.014303
0.032442 0.085235 1.0181 6.7764e-39 298 328.5 0 0 0 0.37127 0.22678 -0.90041 0.010387
0.036045 0.085304 1.019 6.7764e-39 301 328.5 0 0 0 0.36603 0.2136 -0.90576 0.011966
-0.010457 0.087165 1.0198 7.2835e-39 198 329 0 0 0 -0.5913 0.25986 -0.76344 0.013555
-0.0092482 0.087021 1.0181 6.7303e-39 199 329 0 0 0 -0.56958 0.25841 -0.78026 0.0143
0.032469 0.087093 1.019 7.7444e-39 234 329 0 0 0 0.36801 0.23502 -0.89963 0.010501
0.036075 0.087165 1.0198 7.9288e-39 237 329 0 0 0 0.36668 0.22941 -0.90162 0.012761
0.038461 0.087165 1.0198 7.3757e-39 252 329 0 0 0 0.36379 0.22487 -0.90393 0.014338
-0.010457 0.088358 1.0198 8.2054e-39 261 329 0 0 0 -0.59162 0.25898 -0.76349 0.013593
-0.0092482 0.088808 1.0181 8.0671e-39 311.5 329 0 0 0 -0.57232 0.26075 -0.77747 0.014448
0.030655 0.088808 1.0181 7.6292e-39 347 329 0 0 0 0.36131 0.24747 -0.89901 0.0097948
0.032469 0.088881 1.019 7.0069e-39 348.5 329 0 0 0 0.3665 0.24762 -0.89686 0.010271
0.03606 0.088918 1.0194 7.8827e-39 375.5 329 0 0 0 0.36856 0.23946 -0.89823 0.012848
0.038461 0.088955 1.0198 7.5601e-39 377.5 329 0 0 0 0.36691 0.23615 -0.89978 0.014644
-0.0086545 0.091209 1.0183 6.3384e-39 297.5 329.5 0 0 0 -0.56721 0.27338 -0.77688 0.014763
-0.0068659 0.091785 1.0181 5.3473e-39 180 330 0 0 0 -0.53351 0.28744 -0.79545 0.015289
0.028868 0.09119 1.0181 6.6842e-39 185 330 0 0 0 0.34428 0.2744 -0.89787 0.0095365
0.030668 0.091228 1.0186 6.7073e-39 186.5 330 0 0 0 0.35951 0.27204 -0.89261 0.010029
0.032857 0.091438 1.0187 7.1605e-39 196.67 330 0 0 0 0.36742 0.26802 -0.8906 0.010918
0.03606 0.091303 1.0194 6.4076e-39 191 330 0 0 0 0.37198 0.25901 -0.89137 0.012947
-0.0086598 0.093053 1.019 7.0069e-39 230.5 330 0 0 0 -0.56459 0.28484 -0.77466 0.014406
-0.0068659 0.092977 1.0181 7.56e-39 232 330 0 0 0 -0.52356 0.29322 -0.79994 0.015343
0.025295 0.092977 1.0181 7.0991e-39 272 330 0 0 0 0.3099 0.29524 -0.90377 0.0089772
0.027082 0.092977 1.0181 7.4218e-39 273.5 330 0 0 0 0.32728 0.29014 -0.89928 0.0092833
0.028892 0.093053 1.019 7.7444e-39 275 330 0 0 0 0.3425 0.28923 -0.89389 0.0096235
0.030706 0.09313 1.0198 7.3296e-39 276.5 330 0 0 0 0.35772 0.28685 -0.88868 0.010077
0.033064 0.093054 1.0189 7.6061e-39 278.5 330 0 0 0 0.36667 0.28041 -0.88709 0.010977
0.034824 0.092977 1.0181 8.3898e-39 280 330 0 0 0 0.37208 0.27401 -0.88683 0.01223
-0.0086636 0.094284 1.0194 7.7444e-39 295.5 330 0 0 0 -0.56269 0.28963 -0.77427 0.013903
-0.0068743 0.094881 1.0194 7.4679e-39 347.5 330 0 0 0 -0.52678 0.30279 -0.79424 0.015112
-0.0052792 0.094988 1.0184 7.7752e-39 381.33 330 0 0 0 -0.48841 0.3177 -0.81272 0.01413
-0.0032924 0.095359 1.0181 7.1913e-39 401 330 0 0 0 -0.43928 0.33068 -0.83528 0.013195
0.025295 0.094764 1.0181 7.2835e-39 398.5 330 0 0 0 0.29948 0.31473 -0.9007 0.008369
0.027099 0.094822 1.0188 7.3065e-39 400 330 0 0 0 0.32166 0.31042 -0.89452 0.0089174
0.028916 0.09492 1.0198 7.3296e-39 401.5 330 0 0 0 0.3406 0.30977 -0.88771 0.0094556
0.030507 0.094721 1.0198 7.2527e-39 393.67 330 0 0 0 0.35413 0.3039 -0.88444 0.010111
0.033263 0.094643 1.019 7.1913e-39 396.67 330 0 0 0 0.36735 0.29458 -0.8822 0.011201
0.034824 0.094764 1.0181 7.4679e-39 407 330 0 0 0 0.37097 0.29179 -0.88161 0.01203
-0.0050855 0.097266 1.0194 6.3845e-39 186 331 0 0 0 -0.48398 0.33107 -0.81003 0.013293
-0.0026994 0.097226 1.019 6.4537e-39 188 331 0 0 0 -0.42847 0.34727 -0.83416 0.013331
0.022913 0.097741 1.0181 7.6522e-39 234 331 0 0 0 0.25698 0.35285 -0.8997 0.006733
0.024905 0.097371 1.0184 7.3449e-39 219.33 331 0 0 0 0.28794 0.34471 -0.89346 0.0070935
0.02692 0.097081 1.0195 6.6996e-39 204.67 331 0 0 0 0.31372 0.33879 -0.88702 0.0076781
0.033689 0.097306 1.0198 6.7764e-39 222.5 331 0 0 0 0.36242 0.32558 -0.8733 0.010841
0.034853 0.097226 1.019 6.8686e-39 223.5 331 0 0 0 0.36947 0.32375 -0.87102 0.011745
-0.002103 0.099014 1.019 8.021e-39 269 331 0 0 0 -0.39404 0.36768 -0.84234 0.011201
-0.00091015 0.098932 1.0181 8.021e-39 270 331 0 0 0 -0.36286 0.37111 -0.85476 0.011099
0.00028099 0.098932 1.0181 7.2835e-39 271 331 0 0 0 -0.32971 0.37367 -0.86699 0.011187
0.022932 0.099014 1.019 8.021e-39 290 331 0 0 0 0.25213 0.36626 -0.8957 0.0063294
0.02473 0.099055 1.0194 7.8366e-39 291.5 331 0 0 0 0.2772 0.36011 -0.89078 0.0064586
0.034882 0.099096 1.0198 8.2976e-39 347 331 0 0 0 0.35788 0.34126 -0.86917 0.010758
-0.0021048 0.10029 1.0198 7.56e-39 364 331 0 0 0 -0.39878 0.37538 -0.8367 0.010902
-0.0009109 0.10021 1.019 7.9288e-39 366 331 0 0 0 -0.36412 0.37999 -0.85031 0.010603
0.0006781 0.10094 1.0184 7.4064e-39 402.67 331 0 0 0 -0.31645 0.3899 -0.86478 0.010966
0.0026633 0.10131 1.0181 7.2835e-39 422 331 0 0 0 -0.27354 0.39557 -0.87676 0.011945
0.019339 0.10131 1.0181 7.6522e-39 436 331 0 0 0 0.18842 0.39048 -0.90112 0.0072427
0.021331 0.10094 1.0184 6.6381e-39 441 331 0 0 0 0.21943 0.38263 -0.89747 0.006565
0.022951 0.10029 1.0198 7.56e-39 389 331 0 0 0 0.25011 0.37553 -0.89242 0.005978
0.024144 0.10029 1.0198 7.6522e-39 390 331 0 0 0 0.26388 0.37293 -0.88954 0.0058837
0.0010752 0.10296 1.0187 6.761e-39 186.67 332 0 0 0 -0.31394 0.40119 -0.86052 0.010558
0.0026633 0.1031 1.0181 6.8685e-39 196 332 0 0 0 -0.26952 0.4046 -0.87387 0.011688
0.0062367 0.1031 1.0181 6.4076e-39 199 332 0 0 0 -0.14539 0.41651 -0.89743 0.015339
0.016957 0.1037 1.0181 7.2835e-39 232 332 0 0 0 0.14105 0.41037 -0.90094 0.010829
0.018752 0.10314 1.0186 7.03e-39 210.5 332 0 0 0 0.16817 0.40277 -0.89972 0.008846
0.021148 0.10321 1.0192 6.8686e-39 212.5 332 0 0 0 0.21667 0.39518 -0.89268 0.0063487
0.034853 0.10319 1.0189 7.4218e-39 228 332 0 0 0 0.32696 0.37773 -0.86627 0.0077413
0.0014734 0.10497 1.019 7.2835e-39 274 332 0 0 0 -0.29588 0.41852 -0.85866 0.01102
0.0032599 0.10493 1.0186 7.2374e-39 275.5 332 0 0 0 -0.24986 0.42079 -0.87207 0.012699
0.0050456 0.10489 1.0181 7.0991e-39 277 332 0 0 0 -0.18234 0.42454 -0.88686 0.014505
0.0062367 0.10489 1.0181 7.3757e-39 278 332 0 0 0 -0.14531 0.4266 -0.89269 0.014901
0.0098102 0.10489 1.0181 8.5742e-39 281 332 0 0 0 -0.041151 0.42733 -0.90316 0.017756
0.013384 0.10489 1.0181 7.56e-39 284 332 0 0 0 0.070955 0.42402 -0.90287 0.016784
0.01517 0.10489 1.0181 8.2515e-39 285.5 332 0 0 0 0.10806 0.41949 -0.90131 0.014088
0.016957 0.10489 1.0181 7.9288e-39 287 332 0 0 0 0.13793 0.41532 -0.89916 0.011175
0.018767 0.10502 1.0194 7.4679e-39 288.5 332 0 0 0 0.16598 0.41335 -0.89532 0.0090819
0.02116 0.10506 1.0198 7.2374e-39 290.5 332 0 0 0 0.20895 0.40552 -0.88989 0.0061841
0.0034599 0.10656 1.019 7.7751e-39 385.33 332 0 0 0 -0.23804 0.43583 -0.86798 0.012228
0.0050477 0.10672 1.0186 7.6061e-39 396 332 0 0 0 -0.18796 0.43538 -0.88041 0.014151
0.0068362 0.10674 1.0187 7.3526e-39 397.5 332 0 0 0 -0.13813 0.43823 -0.88818 0.015697
0.0092166 0.1067 1.0183 7.3987e-39 399.75 332 0 0 0 -0.074801 0.43609 -0.89679 0.017493
0.011001 0.10727 1.0181 7.7444e-39 424 332 0 0 0 -0.0029757 0.43572 -0.90008 0.018698
0.012791 0.1067 1.0183 7.4218e-39 403 332 0 0 0 0.05059 0.43058 -0.90113 0.017894
0.015177 0.10672 1.0186 7.6983e-39 405.5 332 0 0 0 0.10422 0.42587 -0.89876 0.014717
0.016978 0.10681 1.0194 7.9288e-39 407.5 332 0 0 0 0.13785 0.42011 -0.89694 0.011529
0.018571 0.10662 1.0195 7.8366e-39 401 332 0 0 0 0.15948 0.41811 -0.89429 0.0094526
0.0038608 0.10864 1.0198 5.9927e-39 159 333 0 0 0 -0.2259 0.44247 -0.86787 0.012441
0.0050539 0.10864 1.0198 5.9927e-39 160 333 0 0 0 -0.19418 0.44494 -0.87426 0.013949
0.007437 0.10919 1.0194 6.8225e-39 185.5 333 0 0 0 -0.12257 0.4488 -0.88519 0.015617
0.009226 0.10919 1.0194 6.4537e-39 187 333 0 0 0 -0.066612 0.44678 -0.89216 0.017692
0.011014 0.10919 1.0194 6.3154e-39 188.5 333 0 0 0 -0.0071489 0.44688 -0.89457 0.019816
0.012804 0.10919 1.0194 6.592e-39 190 333 0 0 0 0.045382 0.44237 -0.89569 0.018431
0.015196 0.10923 1.0198 6.615e-39 192 333 0 0 0 0.096404 0.43548 -0.89502 0.015267
-0.016436 0.045443 1.0206 7.0991e-39 281 321 0 0 0 -0.86689 0.11363 -0.48538 0.046483
-0.015242 0.045443 1.0206 6.9147e-39 282 321 0 0 0 -0.88828 0.11038 -0.44584 0.058757
-0.015254 0.047274 1.0215 7.6983e-39 391.5 321 0 0 0 -0.92827 0.071199 -0.36504 0.077913
-0.015242 0.049025 1.0206 6.3615e-39 430 321 0 0 0 -0.87008 0.035025 -0.49166 0.06485
-0.016449 0.053249 1.0215 7.6061e-39 249 322 0 0 0 -0.81322 0.0024253 -0.58195 0.046834
-0.016449 0.055041 1.0215 8.8508e-39 363 322 0 0 0 -0.79898 -0.0011066 -0.60136 0.043575
-0.016449 0.071773 1.0215 6.5459e-39 422 325 0 0 0 -0.7009 0.23118 -0.67476 0.033386
-0.014047 0.075296 1.0206 8.5742e-39 366 326 0 0 0 -0.63275 0.25104 -0.73253 0.024566
-0.012859 0.077119 1.021 6.8225e-39 314 326.5 0 0 0 -0.61761 0.26288 -0.74125 0.022182
0.037299 0.077684 1.0206 7.7444e-39 261 327 0 0 0 0.36968 0.17784 -0.91198 0.012615
0.038493 0.077684 1.0206 7.7444e-39 262 327 0 0 0 0.36675 0.17912 -0.91291 0.014027
-0.011659 0.078878 1.0206 7.56e-39 267 327 0 0 0 -0.59258 0.26587 -0.76037 0.017955
0.03733 0.078943 1.0215 9.0352e-39 357 327 0 0 0 0.36954 0.17586 -0.91242 0.012601
0.038525 0.078943 1.0215 8.7586e-39 358 327 0 0 0 0.36863 0.17423 -0.9131 0.014032
-0.011659 0.080669 1.0206 7.6061e-39 394.5 327 0 0 0 -0.59675 0.26123 -0.75871 0.017302
0.03733 0.080138 1.0215 7.2835e-39 419 327 0 0 0 0.37141 0.17539 -0.91175 0.012007
0.038525 0.080138 1.0215 7.1913e-39 420 327 0 0 0 0.36912 0.17062 -0.91358 0.01312
-0.012859 0.083091 1.021 7.514e-39 234.5 328 0 0 0 -0.62437 0.24756 -0.74086 0.015723
0.03733 0.083126 1.0215 8.1593e-39 308 328 0 0 0 0.37059 0.19695 -0.90767 0.012986
0.038525 0.083126 1.0215 8.2054e-39 309 328 0 0 0 0.36208 0.19533 -0.91145 0.01367
-0.012853 0.084848 1.0206 7.6522e-39 364 328 0 0 0 -0.62006 0.25354 -0.74246 0.015154
0.03733 0.084919 1.0215 7.0991e-39 416 328 0 0 0 0.36765 0.20894 -0.90619 0.013524
0.038493 0.084848 1.0206 7.2835e-39 417 328 0 0 0 0.3599 0.20571 -0.91003 0.013615
-0.012853 0.086043 1.0206 7.7444e-39 426 328 0 0 0 -0.62162 0.25546 -0.74049 0.013991
-0.011659 0.087237 1.0206 7.0069e-39 197 329 0 0 0 -0.61005 0.25603 -0.74986 0.013561
0.03733 0.086711 1.0215 7.1913e-39 213 329 0 0 0 0.36565 0.22583 -0.90294 0.014145
0.038493 0.086043 1.0206 5.9927e-39 189 329 0 0 0 0.36395 0.21044 -0.90734 0.014306
-0.011067 0.089065 1.021 7.9288e-39 310 329 0 0 0 -0.60343 0.25982 -0.75391 0.013594
0.03733 0.089102 1.0215 7.6522e-39 376.5 329 0 0 0 0.36606 0.24122 -0.89878 0.014153
-0.010465 0.090819 1.0206 7.2835e-39 415 329 0 0 0 -0.59853 0.26806 -0.75492 0.013631
0.03733 0.090894 1.0215 5.6239e-39 167 330 0 0 0 0.3723 0.25808 -0.89151 0.014313
0.038493 0.090819 1.0206 5.9927e-39 168 330 0 0 0 0.37128 0.24944 -0.89439 0.015287
-0.010469 0.092649 1.021 6.0389e-39 203 330 0 0 0 -0.59855 0.27845 -0.75113 0.014204
0.036105 0.093207 1.0206 8.021e-39 281 330 0 0 0 0.37081 0.28014 -0.88545 0.014059
0.038493 0.092013 1.0206 7.4678e-39 218 330 0 0 0 0.37553 0.26043 -0.88947 0.015224
-0.008674 0.095595 1.0206 7.514e-39 396.5 330 0 0 0 -0.56689 0.2976 -0.76816 0.014258
0.031328 0.095595 1.0206 7.56e-39 431 330 0 0 0 0.35802 0.31489 -0.87901 0.009996
0.032522 0.095595 1.0206 7.6522e-39 432 330 0 0 0 0.36639 0.31367 -0.87599 0.010686
0.036105 0.094401 1.0206 7.6522e-39 381 330 0 0 0 0.37178 0.29372 -0.88063 0.013438
-0.0086813 0.096869 1.0215 6.3615e-39 158 331 0 0 0 -0.56244 0.30984 -0.76659 0.014242
-0.0068829 0.096789 1.0206 5.9005e-39 160 331 0 0 0 -0.51875 0.32128 -0.79226 0.013842
0.027746 0.097984 1.0206 7.9288e-39 238 331 0 0 0 0.31589 0.3457 -0.88358 0.0075752
0.02894 0.096789 1.0206 6.2693e-39 190 331 0 0 0 0.33439 0.33359 -0.88142 0.0085967
0.030731 0.096789 1.0206 6.131e-39 191.5 331 0 0 0 0.34836 0.32925 -0.87763 0.0094384
0.032522 0.097387 1.0206 7.2835e-39 220 331 0 0 0 0.35687 0.32992 -0.87395 0.010021
-0.0086813 0.098065 1.0215 7.6061e-39 207.5 331 0 0 0 -0.55584 0.31906 -0.76762 0.013386
-0.0068886 0.098662 1.0215 7.7444e-39 237 331 0 0 0 -0.52008 0.33178 -0.78704 0.013604
-0.0050918 0.099178 1.0206 7.5601e-39 266.5 331 0 0 0 -0.47549 0.3478 -0.80805 0.01202
-0.0033006 0.099178 1.0206 7.6522e-39 268 331 0 0 0 -0.44373 0.35861 -0.82128 0.012136
0.026552 0.099178 1.0206 7.56e-39 293 331 0 0 0 0.30001 0.36066 -0.88313 0.0062719
0.028964 0.098065 1.0215 7.9288e-39 239 331 0 0 0 0.32854 0.34412 -0.87957 0.0082116
0.030756 0.098065 1.0215 8.3437e-39 245.5 331 0 0 0 0.34217 0.34052 -0.87577 0.0088363
0.033716 0.099178 1.0206 8.7586e-39 346 331 0 0 0 0.35173 0.34489 -0.87025 0.0098074
-0.0050959 0.10045 1.0215 7.6983e-39 361.5 331 0 0 0 -0.46915 0.36095 -0.80598 0.011115
-0.0027058 0.10105 1.0215 7.5601e-39 390.5 331 0 0 0 -0.4275 0.37846 -0.82098 0.010709
-0.00091241 0.10157 1.0206 7.1913e-39 419 331 0 0 0 -0.37566 0.39021 -0.8406 0.010469
0.02297 0.10157 1.0206 6.5459e-39 469 331 0 0 0 0.24767 0.38509 -0.88902 0.0055204
0.02496 0.10117 1.0206 7.222e-39 444 331 0 0 0 0.27519 0.37666 -0.88453 0.0054794
0.026574 0.10045 1.0215 8.021e-39 392 331 0 0 0 0.29416 0.36919 -0.88157 0.0058743
0.034925 0.10101 1.021 6.9607e-39 275.5 331.5 0 0 0 0.34388 0.36136 -0.8667 0.0094057
-0.00091241 0.10276 1.0206 6.2693e-39 169 332 0 0 0 -0.36475 0.39889 -0.84133 0.010269
0.00028169 0.10395 1.0206 7.0069e-39 218 332 0 0 0 -0.33623 0.40721 -0.84919 0.010208
0.02297 0.10276 1.0206 6.5459e-39 191 332 0 0 0 0.24269 0.38841 -0.88895 0.0055519
0.024772 0.1028 1.021 6.4076e-39 192.5 332 0 0 0 0.26395 0.38519 -0.88429 0.0051907
-0.00091316 0.10404 1.0215 7.0069e-39 217 332 0 0 0 -0.36995 0.40603 -0.83563 0.0098286
0.00028192 0.10524 1.0215 7.1913e-39 273 332 0 0 0 -0.33912 0.41431 -0.84459 0.009984
0.022989 0.10464 1.0215 7.053e-39 264.5 332 0 0 0 0.2343 0.39929 -0.88638 0.0055277
0.024582 0.10444 1.0215 7.4064e-39 256.67 332 0 0 0 0.25832 0.39304 -0.88249 0.0050826
0.0014764 0.10699 1.021 7.7444e-39 390 332 0 0 0 -0.29927 0.43106 -0.85125 0.010378
0.0026699 0.10754 1.0206 7.6522e-39 417 332 0 0 0 -0.266 0.43492 -0.86029 0.011821
0.019387 0.10754 1.0206 7.2835e-39 433 332 0 0 0 0.16914 0.41659 -0.89322 0.008675
0.020979 0.10674 1.0206 7.5907e-39 403 332 0 0 0 0.19681 0.41375 -0.88886 0.0066529
0.0026721 0.10882 1.0215 6.1771e-39 158 333 0 0 0 -0.26883 0.44141 -0.85609 0.011367
0.0062522 0.10873 1.0206 6.0849e-39 161 333 0 0 0 -0.16028 0.44615 -0.88049 0.015381
0.016999 0.10873 1.0206 6.5459e-39 172 333 0 0 0 0.12864 0.42764 -0.89475 0.012626
0.018798 0.10878 1.021 6.5459e-39 173.5 333 0 0 0 0.16226 0.42483 -0.89061 0.0094817
0.020598 0.10882 1.0215 5.9927e-39 175 333 0 0 0 0.18894 0.42117 -0.88708 0.0075123
0.0038672 0.11002 1.0215 7.0069e-39 206 333 0 0 0 -0.22913 0.44611 -0.86515 0.013358
0.0050623 0.11002 1.0215 7.3757e-39 207 333 0 0 0 -0.20051 0.4472 -0.87167 0.013945
0.0068519 0.11057 1.021 8.0671e-39 232 333 0 0 0 -0.14033 0.45218 -0.88082 0.015708
0.0092374 0.11112 1.0206 8.7586e-39 257.5 333 0 0 0 -0.082049 0.45147 -0.8885 0.018091
0.011029 0.11112 1.0206 8.7586e-39 259 333 0 0 0 -0.016206 0.44943 -0.89317 0.019525
0.01282 0.11112 1.0206 8.2976e-39 260.5 333 0 0 0 0.036527 0.44508 -0.89474 0.018427
0.015208 0.11112 1.0206 8.1132e-39 262.5 333 0 0 0 0.093627 0.43772 -0.89422 0.01583
0.017013 0.11002 1.0215 6.7303e-39 217 333 0 0 0 0.12634 0.42976 -0.89406 0.013003
0.018208 0.11002 1.0215 6.7303e-39 218 333 0 0 0 0.14725 0.42561 -0.89284 0.011167
0.0074524 0.11241 1.0215 7.0069e-39 297 333 0 0 0 -0.13034 0.44964 -0.88365 0.017073
0.0098426 0.11241 1.0215 7.4678e-39 343 333 0 0 0 -0.059813 0.44806 -0.892 0.01849
0.011038 0.11241 1.0215 7.4678e-39 344 333 0 0 0 -0.018811 0.44468 -0.89549 0.019788
0.01283 0.11241 1.0215 8.1593e-39 345.5 333 0 0 0 0.035681 0.44041 -0.89709 0.018414
0.014623 0.11241 1.0215 8.2054e-39 347 333 0 0 0 0.081937 0.43512 -0.89664 0.016316
-0.017659 0.045518 1.0223 7.4678e-39 280 321 0 0 0 -0.96173 0.053768 -0.26867 0.083662
0.034968 0.044322 1.0223 6.8225e-39 276 321 0 0 0 -0.65992 -0.62041 -0.4238 0.032792
-0.01647 0.047332 1.0228 7.7905e-39 390.5 321 0 0 0 -0.95378 0.047854 -0.29667 0.079077
-0.016477 0.049147 1.0232 6.2693e-39 429 321 0 0 0 -0.94695 -0.0068508 -0.32132 0.078207
-0.01647 0.050921 1.0228 6.2693e-39 207 322 0 0 0 -0.91825 -0.021216 -0.39544 0.073989
-0.01647 0.056905 1.0228 6.5459e-39 307 322.5 0 0 0 -0.80788 0.0045073 -0.58934 0.041711
-0.016477 0.073089 1.0232 6.6381e-39 207 326 0 0 0 -0.71637 0.23228 -0.65792 0.026451
-0.014082 0.07668 1.0232 6.7303e-39 424 326 0 0 0 -0.6567 0.25463 -0.70986 0.020934
-0.012875 0.079009 1.0223 7.2835e-39 266 327 0 0 0 -0.62828 0.26256 -0.73234 0.019178
-0.01288 0.080836 1.0228 7.7444e-39 393.5 327 0 0 0 -0.63101 0.25668 -0.73208 0.017712
0.03736 0.081401 1.0223 6.4537e-39 194 328 0 0 0 0.36267 0.18168 -0.91404 0.012707
0.038557 0.081401 1.0223 6.4537e-39 195 328 0 0 0 0.36352 0.18031 -0.91397 0.013458
-0.012875 0.087381 1.0223 6.3615e-39 196 329 0 0 0 -0.64415 0.25469 -0.72125 0.013732
0.039753 0.086783 1.0223 6.8685e-39 221.5 329 0 0 0 0.36364 0.21483 -0.90643 0.016342
-0.012875 0.089175 1.0223 8.1132e-39 308.5 329 0 0 0 -0.64983 0.25919 -0.71452 0.014293
-0.011679 0.089773 1.0223 8.2976e-39 359 329 0 0 0 -0.63435 0.26221 -0.72721 0.014262
0.039753 0.089175 1.0223 7.8827e-39 378.5 329 0 0 0 0.36282 0.23873 -0.90076 0.016705
-0.012885 0.091045 1.0232 7.7444e-39 413 329 0 0 0 -0.65955 0.26431 -0.70366 0.014483
-0.011688 0.091045 1.0232 7.4678e-39 414 329 0 0 0 -0.64256 0.27079 -0.71679 0.014805
-0.011688 0.092242 1.0232 5.3473e-39 176 330 0 0 0 -0.64097 0.27205 -0.71774 0.014488
0.03736 0.092165 1.0223 7.1913e-39 217 330 0 0 0 0.3758 0.26999 -0.8865 0.015055
-0.010487 0.095196 1.0228 7.6983e-39 344.5 330 0 0 0 -0.61753 0.28475 -0.7332 0.015743
-0.0086884 0.099342 1.0223 8.6664e-39 263.5 331 0 0 0 -0.55496 0.32949 -0.76384 0.01394
0.027792 0.099342 1.0223 7.3757e-39 294 331 0 0 0 0.31025 0.35994 -0.87988 0.0066725
0.028988 0.099342 1.0223 7.3757e-39 295 331 0 0 0 0.32272 0.35563 -0.87714 0.00728
0.030795 0.099383 1.0228 7.053e-39 296.5 331 0 0 0 0.33532 0.35479 -0.87274 0.0079533
0.032576 0.099342 1.0223 8.5742e-39 345 331 0 0 0 0.34545 0.35314 -0.86946 0.0088952
-0.0080971 0.10062 1.0232 7.8366e-39 359 331 0 0 0 -0.55111 0.34401 -0.76022 0.014248
-0.0069 0.10062 1.0232 7.6522e-39 360 331 0 0 0 -0.52681 0.34791 -0.77552 0.013455
-0.0051044 0.10182 1.0232 7.8827e-39 415.5 331 0 0 0 -0.47925 0.37089 -0.79546 0.011918
-0.0033088 0.10182 1.0232 7.7444e-39 417 331 0 0 0 -0.44028 0.38015 -0.81341 0.010402
0.027206 0.10117 1.0228 7.3296e-39 432.5 331 0 0 0 0.29966 0.3725 -0.87832 0.0056979
0.029012 0.10062 1.0232 7.4678e-39 394 331 0 0 0 0.31774 0.36771 -0.87397 0.0063799
0.030209 0.10062 1.0232 7.3757e-39 395 331 0 0 0 0.32543 0.36776 -0.87112 0.0067514
0.033194 0.1012 1.023 7.2835e-39 272.75 331.5 0 0 0 0.33288 0.36835 -0.86805 0.0074077
-0.0027094 0.10297 1.0228 5.7622e-39 167.5 332 0 0 0 -0.42561 0.38893 -0.81706 0.0099825
0.026618 0.10302 1.0232 6.4537e-39 194 332 0 0 0 0.28723 0.38614 -0.87658 0.0050817
0.033772 0.10293 1.0223 6.8225e-39 200 332 0 0 0 0.32617 0.38071 -0.86526 0.0071364
-0.0021117 0.10421 1.0232 6.8225e-39 216 332 0 0 0 -0.40894 0.40096 -0.81976 0.0095157
-0.00091468 0.10541 1.0232 7.6522e-39 272 332 0 0 0 -0.37522 0.41227 -0.83021 0.0094589
0.0254 0.10532 1.0223 7.56e-39 294 332 0 0 0 0.26697 0.39616 -0.87851 0.0047764
0.026618 0.10481 1.0232 8.0671e-39 270 332 0 0 0 0.28263 0.39435 -0.87442 0.0047154
0.033786 0.10477 1.0228 7.8366e-39 300.5 332 0 0 0 0.32142 0.38947 -0.86313 0.006594
0.00028239 0.10661 1.0232 8.021e-39 363 332 0 0 0 -0.34329 0.42413 -0.83801 0.0099508
0.021812 0.10771 1.0223 7.8366e-39 435 332 0 0 0 0.20761 0.41638 -0.88517 0.0062864
0.023027 0.10661 1.0232 7.6522e-39 389 332 0 0 0 0.23285 0.40823 -0.88268 0.0056016
0.024822 0.10661 1.0232 7.9749e-39 390.5 332 0 0 0 0.2578 0.40412 -0.87762 0.0050122
0.0014795 0.109 1.0232 6.3615e-39 157 333 0 0 0 -0.3093 0.43576 -0.84525 0.010203
0.02183 0.109 1.0232 5.7161e-39 176 333 0 0 0 0.20649 0.4198 -0.88382 0.0066382
