# .PCD v.7 - Point Cloud Data file format
VERSION .7
FIELDS x y z rgb u v vx vy vz normal_x normal_y normal_z curvature
SIZE 4 4 4 4 4 4 4 4 4 4 4 4 4
TYPE F F F F F F F F F F F F F
COUNT 1 1 1 1 1 1 1 1 1 1 1 1 1
WIDTH 564
HEIGHT 1
VIEWPOINT 0 0 0 1 0 0 0
POINTS 564
DATA ascii
-0.26491 0.072697 1.2666 6.9147e-39 225 339 0 0 0 -0.59464 0.061041 -0.80167 0.004327
-0.26343 0.072697 1.2666 6.9147e-39 226 339 0 0 0 -0.6006 0.065695 -0.79685 0.0044783
-0.11968 0.072697 1.2666 6.0849e-39 542 339 0 0 0 0.47097 0.11564 -0.87454 0.013048
-0.11672 0.072697 1.2666 4.1488e-39 544 339 0 0 0 0.44839 0.11153 -0.88686 0.013463
-0.11524 0.072697 1.2666 2.6737e-39 545 339 0 0 0 0.44674 0.113 -0.8875 0.014911
-0.11302 0.072697 1.2666 2.0283e-39 546.5 339 0 0 0 0.44179 0.11386 -0.88987 0.016948
-0.11091 0.072772 1.2679 2.1205e-39 548 339 0 0 0 0.45605 0.1297 -0.88045 0.02147
-0.10942 0.072772 1.2679 2.3049e-39 549 339 0 0 0 0.44902 0.12597 -0.8846 0.023441
-0.26491 0.07492 1.2666 4.1027e-39 417 339.5 0 0 0 -0.58922 0.063207 -0.80549 0.0049209
-0.26343 0.074179 1.2666 4.8864e-39 137 340 0 0 0 -0.59743 0.065911 -0.79921 0.0046605
-0.11919 0.075167 1.2666 4.5483e-39 208.33 340.67 0 0 0 0.47837 0.15456 -0.86445 0.015211
-0.11672 0.07492 1.2666 4.9325e-39 227 340.5 0 0 0 0.46135 0.14759 -0.87485 0.015928
-0.1153 0.074959 1.2673 4.8403e-39 228 340.5 0 0 0 0.46947 0.15946 -0.86843 0.018964
-0.11308 0.074959 1.2673 5.1168e-39 229.5 340.5 0 0 0 0.47558 0.16823 -0.86344 0.021316
-0.11091 0.074997 1.2679 5.8083e-39 231 340.5 0 0 0 0.48901 0.18229 -0.85302 0.025529
-0.10942 0.074255 1.2679 6.5459e-39 283 340 0 0 0 0.47489 0.164 -0.86463 0.025729
-0.11968 0.077143 1.2666 6.0849e-39 396 341 0 0 0 0.4881 0.17483 -0.8551 0.014994
-0.11672 0.077143 1.2666 6.0849e-39 402 341 0 0 0 0.47994 0.18357 -0.85788 0.01738
-0.11536 0.077222 1.2679 6.0849e-39 403 341 0 0 0 0.48467 0.19435 -0.85283 0.020507
-0.11308 0.077183 1.2673 6.3615e-39 404.5 341 0 0 0 0.48943 0.19719 -0.84945 0.021988
-0.119 0.078665 1.2673 7.6522e-39 194.5 342 0 0 0 0.50256 0.19881 -0.84138 0.016403
-0.11684 0.078705 1.2679 7.8366e-39 196 342 0 0 0 0.5015 0.20959 -0.83939 0.018732
-0.11536 0.078705 1.2679 7.6522e-39 197 342 0 0 0 0.50842 0.216 -0.83358 0.020864
-0.11313 0.078705 1.2679 7.1452e-39 198.5 342 0 0 0 0.51925 0.22308 -0.825 0.022654
-0.12117 0.081589 1.2666 6.6381e-39 208 343 0 0 0 0.51059 0.2049 -0.83505 0.014151
-0.11878 0.080656 1.2675 7.9595e-39 346.33 342.33 0 0 0 0.50973 0.21723 -0.83246 0.016777
-0.11684 0.080189 1.2679 7.56e-39 416 342 0 0 0 0.50948 0.22094 -0.83164 0.018598
-0.12413 0.08307 1.2666 7.4678e-39 417 343 0 0 0 0.52694 0.19832 -0.82644 0.014017
-0.12117 0.08307 1.2666 7.9288e-39 419 343 0 0 0 0.52239 0.211 -0.82619 0.014948
-0.11832 0.083156 1.2679 7.1913e-39 421 343 0 0 0 0.5288 0.22845 -0.81742 0.018327
-0.12487 0.084552 1.2666 6.4537e-39 216.5 344 0 0 0 0.54261 0.1921 -0.81773 0.013698
-0.12117 0.084552 1.2666 6.3615e-39 219 344 0 0 0 0.52852 0.21246 -0.82191 0.015038
-0.26343 0.087516 1.2666 7.3757e-39 428 344 0 0 0 -0.66073 0.18828 -0.72662 0.01533
-0.12487 0.086775 1.2666 8.5974e-39 315 344.5 0 0 0 0.55313 0.20253 -0.8081 0.012897
-0.12265 0.086775 1.2666 6.8225e-39 316.5 344.5 0 0 0 0.54819 0.21254 -0.8089 0.014753
-0.12117 0.086775 1.2666 6.6381e-39 317.5 344.5 0 0 0 0.536 0.21594 -0.81613 0.014825
-0.26343 0.088998 1.2666 5.7161e-39 231 345 0 0 0 -0.6726 0.20887 -0.70992 0.016095
-0.12709 0.088998 1.2666 7.9288e-39 407 345 0 0 0 0.56703 0.19131 -0.80117 0.010101
-0.12494 0.089043 1.2673 8.2054e-39 408.5 345 0 0 0 0.56253 0.20077 -0.80203 0.011931
-0.12277 0.089089 1.2679 8.5742e-39 410 345 0 0 0 0.56412 0.21417 -0.79744 0.014723
-0.12129 0.089089 1.2679 8.482e-39 411 345 0 0 0 0.56627 0.221 -0.79404 0.015735
-0.26343 0.09048 1.2666 7.3757e-39 422 345 0 0 0 -0.6792 0.22731 -0.69787 0.015405
-0.26096 0.091468 1.2666 6.5459e-39 292.33 345.67 0 0 0 -0.69683 0.23504 -0.67763 0.014821
-0.25898 0.091962 1.2666 5.9927e-39 229 346 0 0 0 -0.70565 0.23142 -0.6697 0.013909
-0.12709 0.091221 1.2666 7.0069e-39 307 346 0 0 0 0.57261 0.19454 -0.79641 0.0095285
-0.125 0.090573 1.2679 6.2693e-39 209.5 346 0 0 0 0.56884 0.19951 -0.79788 0.011287
-0.12277 0.090573 1.2679 6.0849e-39 211 346 0 0 0 0.57404 0.2143 -0.79029 0.014039
-0.12129 0.090573 1.2679 6.2693e-39 212 346 0 0 0 0.57357 0.22159 -0.78862 0.014683
-0.26491 0.093444 1.2666 7.0069e-39 420 346 0 0 0 -0.70258 0.27469 -0.65645 0.016316
-0.2637 0.092798 1.2679 6.4076e-39 322 346 0 0 0 -0.69978 0.26809 -0.66214 0.016575
-0.26134 0.093492 1.2673 7.3757e-39 422.5 346 0 0 0 -0.70923 0.26003 -0.65527 0.015029
-0.25898 0.093444 1.2666 7.9288e-39 424 346 0 0 0 -0.71851 0.24511 -0.6509 0.013631
-0.12709 0.093444 1.2666 6.1771e-39 210 347 0 0 0 0.57696 0.19239 -0.79379 0.0084235
-0.125 0.092798 1.2679 7.0069e-39 309.5 346.5 0 0 0 0.5787 0.20337 -0.78978 0.010454
-0.12277 0.092798 1.2679 7.2374e-39 311 346.5 0 0 0 0.58792 0.21425 -0.78003 0.012923
-0.12129 0.092798 1.2679 7.3757e-39 312 346.5 0 0 0 0.58765 0.2229 -0.7778 0.014154
-0.26222 0.095023 1.2679 5.9005e-39 229 347 0 0 0 -0.72108 0.28338 -0.63225 0.014388
-0.25925 0.095023 1.2679 5.6239e-39 232 347 0 0 0 -0.73465 0.26909 -0.6228 0.013716
-0.12709 0.094926 1.2666 7.3757e-39 415 347 0 0 0 0.58284 0.19302 -0.78933 0.0080895
-0.125 0.095023 1.2679 7.2835e-39 416.5 347 0 0 0 0.58947 0.20493 -0.78136 0.00987
-0.12277 0.095023 1.2679 7.2835e-39 418 347 0 0 0 0.59869 0.20926 -0.77316 0.011661
-0.12129 0.095023 1.2679 7.3757e-39 419 347 0 0 0 0.60387 0.22062 -0.76595 0.012902
-0.25763 0.097199 1.2673 6.2693e-39 344 347.5 0 0 0 -0.74344 0.25869 -0.61675 0.012503
-0.12858 0.097149 1.2666 6.9607e-39 321 348 0 0 0 0.58387 0.19157 -0.78892 0.0074334
-0.12709 0.097149 1.2666 7.0069e-39 322 348 0 0 0 0.58716 0.19562 -0.78548 0.007838
-0.12574 0.097248 1.2679 7.053e-39 323 348 0 0 0 0.5889 0.20206 -0.78254 0.0089973
-0.25602 0.099371 1.2666 5.3473e-39 439 348 0 0 0 -0.75162 0.25558 -0.60807 0.011055
-0.12858 0.099371 1.2666 6.0849e-39 229 349 0 0 0 0.58508 0.1913 -0.78809 0.007285
-0.12709 0.099371 1.2666 6.0849e-39 230 349 0 0 0 0.58905 0.19101 -0.7852 0.0079005
-0.12574 0.099473 1.2679 5.8083e-39 232 349 0 0 0 0.59864 0.19916 -0.77586 0.0091018
-0.25628 0.10096 1.2679 5.6239e-39 268 349 0 0 0 -0.76515 0.26792 -0.58547 0.010319
-0.25454 0.10085 1.2666 5.9005e-39 269 349 0 0 0 -0.75743 0.2502 -0.60308 0.0098309
-0.12858 0.10085 1.2666 7.2835e-39 419 349 0 0 0 0.58782 0.19845 -0.78427 0.0076606
-0.12709 0.10085 1.2666 7.4678e-39 420 349 0 0 0 0.59301 0.19795 -0.78049 0.0081747
-0.12574 0.10096 1.2679 7.6522e-39 421 349 0 0 0 0.60473 0.20356 -0.76998 0.0091039
-0.25467 0.10313 1.2673 5.9005e-39 352 349.5 0 0 0 -0.77066 0.25348 -0.58466 0.0089159
-0.13006 0.10382 1.2666 8.021e-39 410 350 0 0 0 0.58808 0.19448 -0.78508 0.0071005
-0.12865 0.10313 1.2673 7.0069e-39 317 350 0 0 0 0.58922 0.19672 -0.78366 0.0077792
-0.12716 0.10313 1.2673 7.053e-39 320.5 350 0 0 0 0.59754 0.20601 -0.77493 0.0088694
-0.12574 0.10244 1.2679 6.1771e-39 230 350 0 0 0 0.60432 0.20656 -0.7695 0.0094375
-0.2548 0.10541 1.2679 6.0849e-39 431 350 0 0 0 -0.78358 0.25163 -0.56805 0.0073945
-0.13302 0.1053 1.2666 5.8083e-39 221 351 0 0 0 0.57963 0.1869 -0.79316 0.0064352
-0.1308 0.1053 1.2666 5.8544e-39 222.5 351 0 0 0 0.58811 0.19218 -0.78562 0.0074114
-0.12871 0.10541 1.2679 6.0849e-39 224 351 0 0 0 0.59956 0.2008 -0.77473 0.0087856
-0.12722 0.10541 1.2679 5.7161e-39 229 351 0 0 0 0.60845 0.21248 -0.76461 0.0098623
-0.2548 0.10689 1.2679 6.5459e-39 261 351 0 0 0 -0.79118 0.24783 -0.55912 0.0067102
-0.25306 0.10678 1.2666 5.8083e-39 269 351 0 0 0 -0.77894 0.23871 -0.57988 0.0061891
-0.13302 0.10678 1.2666 8.2054e-39 409 351 0 0 0 0.5864 0.19041 -0.78732 0.0072718
-0.1308 0.10678 1.2666 7.9749e-39 410.5 351 0 0 0 0.58863 0.19301 -0.78503 0.0076777
-0.12871 0.10689 1.2679 8.1132e-39 412 351 0 0 0 0.60423 0.20865 -0.769 0.0093436
-0.12722 0.10689 1.2679 7.8366e-39 413 351 0 0 0 0.61304 0.21516 -0.76019 0.010055
-0.2548 0.10837 1.2679 5.9927e-39 431 351 0 0 0 -0.79671 0.23724 -0.55585 0.0055191
-0.25319 0.10906 1.2673 5.4856e-39 354 351.5 0 0 0 -0.79051 0.23052 -0.56742 0.0049207
-0.13302 0.109 1.2666 6.6842e-39 320 352 0 0 0 0.59609 0.19226 -0.77956 0.0081601
-0.1308 0.109 1.2666 6.7764e-39 322.5 352 0 0 0 0.59786 0.20157 -0.77585 0.0090679
-0.25332 0.11134 1.2679 5.163e-39 441 352 0 0 0 -0.79973 0.21831 -0.55927 0.003754
-0.13302 0.11123 1.2666 5.6239e-39 256 353 0 0 0 0.6082 0.1885 -0.77108 0.00927
-0.1308 0.11123 1.2666 6.0388e-39 257.5 353 0 0 0 0.60891 0.19979 -0.76767 0.010238
-0.25332 0.11282 1.2679 4.3332e-39 289 353 0 0 0 -0.80424 0.21026 -0.55586 0.0033737
-0.13302 0.11271 1.2666 7.0069e-39 423 353 0 0 0 0.61549 0.18573 -0.76594 0.0095573
-0.1308 0.11271 1.2666 6.2693e-39 424.5 353 0 0 0 0.61356 0.19416 -0.7654 0.010241
-0.25157 0.11567 1.2666 5.5317e-39 354 354 0 0 0 -0.78592 0.20282 -0.58412 0.0027001
-0.1345 0.11567 1.2666 5.6239e-39 433 354 0 0 0 0.62889 0.17687 -0.7571 0.0091062
-0.13302 0.11493 1.2666 5.8544e-39 352 354 0 0 0 0.62846 0.18233 -0.75617 0.0096731
-0.13083 0.11496 1.2669 5.8313e-39 353.5 354 0 0 0 0.62677 0.19514 -0.75437 0.010714
-0.25183 0.11727 1.2679 6.1771e-39 472 354 0 0 0 -0.78901 0.19831 -0.5815 0.0028959
-0.1345 0.11715 1.2666 4.8864e-39 285 355 0 0 0 0.63701 0.17602 -0.75049 0.0088546
-0.13316 0.11727 1.2679 4.6098e-39 286 355 0 0 0 0.64224 0.18405 -0.74408 0.0096688
-0.13087 0.11721 1.2673 4.5637e-39 287.5 355 0 0 0 0.64061 0.19429 -0.74288 0.010426
-0.1345 0.11864 1.2666 5.5317e-39 444 355 0 0 0 0.64266 0.17171 -0.74666 0.0082609
-0.13316 0.11876 1.2679 5.8083e-39 445 355 0 0 0 0.64701 0.18226 -0.74038 0.0087523
-0.13093 0.11876 1.2679 6.2693e-39 458.5 355 0 0 0 0.65275 0.19306 -0.73256 0.0099555
-0.25022 0.12092 1.2673 3.8722e-39 461.5 355.5 0 0 0 -0.77688 0.18982 -0.60036 0.0034641
-0.1345 0.12086 1.2666 5.4856e-39 376.5 356 0 0 0 0.65097 0.16708 -0.74048 0.0076213
-0.13316 0.12098 1.2679 5.209e-39 377.5 356 0 0 0 0.65647 0.17311 -0.73422 0.0081945
-0.13118 0.12073 1.2679 4.6712e-39 352 356 0 0 0 0.65846 0.18306 -0.73001 0.0091193
-0.25035 0.12321 1.2679 6.0849e-39 184 357 0 0 0 -0.77652 0.17655 -0.60485 0.0033441
-0.1345 0.12308 1.2666 4.0566e-39 300 357 0 0 0 0.65746 0.16578 -0.73502 0.0074123
-0.13316 0.12321 1.2679 5.6239e-39 330 357 0 0 0 0.66467 0.16541 -0.72859 0.0077652
-0.13168 0.12321 1.2679 5.3473e-39 331 357 0 0 0 0.66753 0.17318 -0.72417 0.0083102
-0.25035 0.12469 1.2679 6.5459e-39 375 357 0 0 0 -0.77028 0.17563 -0.61304 0.0029578
-0.1345 0.12456 1.2666 5.4395e-39 463 357 0 0 0 0.65974 0.16254 -0.7337 0.0075594
-0.13316 0.12469 1.2679 5.0708e-39 464 357 0 0 0 0.66754 0.16787 -0.72541 0.0076018
-0.13168 0.12469 1.2679 4.8864e-39 465 357 0 0 0 0.67129 0.17133 -0.72112 0.0080846
-0.25035 0.12618 1.2679 6.4537e-39 189 358 0 0 0 -0.76276 0.17356 -0.62296 0.0031252
-0.13524 0.12679 1.2666 5.7391e-39 403.5 358 0 0 0 0.6624 0.16611 -0.73051 0.0076511
-0.13316 0.12692 1.2679 5.7162e-39 405 358 0 0 0 0.66955 0.16423 -0.72438 0.007769
-0.24861 0.12901 1.2666 6.6381e-39 196 359 0 0 0 -0.7494 0.17344 -0.639 0.0030873
-0.13532 0.12908 1.2673 4.8403e-39 358.5 359 0 0 0 0.66092 0.16901 -0.73118 0.0075309
-0.13316 0.12914 1.2679 5.3473e-39 362 359 0 0 0 0.66934 0.16814 -0.72368 0.0079821
-0.24861 0.13123 1.2666 5.624e-39 298 359.5 0 0 0 -0.74279 0.17306 -0.64678 0.0031082
-0.13895 0.13197 1.2666 6.1771e-39 366 360 0 0 0 0.64331 0.17592 -0.74512 0.0065491
-0.1368 0.1313 1.2673 6.4998e-39 422 359.5 0 0 0 0.65265 0.17104 -0.7381 0.0071844
-0.13464 0.13063 1.2679 5.9005e-39 547 359 0 0 0 0.66432 0.17167 -0.72746 0.0077039
-0.24861 0.13346 1.2666 8.1132e-39 399 360 0 0 0 -0.73801 0.17795 -0.6509 0.0031236
-0.13895 0.13346 1.2666 5.9927e-39 548 360 0 0 0 0.64331 0.18078 -0.74395 0.0066832
-0.13658 0.13305 1.2675 6.4844e-39 489 360 0 0 0 0.65427 0.17973 -0.7346 0.007173
-0.24887 0.13508 1.2679 5.9005e-39 209 361 0 0 0 -0.74092 0.17641 -0.64801 0.0031601
-0.13895 0.13494 1.2666 5.163e-39 361 361 0 0 0 0.6399 0.1909 -0.74437 0.0069199
-0.13747 0.13494 1.2666 5.2552e-39 362 361 0 0 0 0.64223 0.18703 -0.74334 0.0069801
-0.24887 0.13656 1.2679 1.0602e-38 393 361 0 0 0 -0.7368 0.18313 -0.65084 0.0032946
-0.14043 0.13716 1.2666 5.8083e-39 406 361.5 0 0 0 0.63207 0.20223 -0.74806 0.0072455
-0.13895 0.13716 1.2666 5.624e-39 407 361.5 0 0 0 0.63722 0.20118 -0.74396 0.0072083
-0.13761 0.13656 1.2679 6.1771e-39 476 361 0 0 0 0.64977 0.20035 -0.73325 0.0073679
-0.24887 0.13804 1.2679 5.6239e-39 201 362 0 0 0 -0.73279 0.19068 -0.65319 0.0036761
-0.24713 0.13938 1.2666 8.2054e-39 376 362 0 0 0 -0.71692 0.20214 -0.66721 0.0034818
-0.14043 0.13938 1.2666 5.4395e-39 462 362 0 0 0 0.62998 0.21489 -0.74628 0.0075007
-0.13895 0.13938 1.2666 5.6239e-39 463 362 0 0 0 0.63469 0.21467 -0.74235 0.0075459
-0.13761 0.13879 1.2679 5.3012e-39 402 362 0 0 0 0.64271 0.20989 -0.7368 0.0078944
-0.24713 0.14086 1.2666 5.5317e-39 163 363 0 0 0 -0.71594 0.20947 -0.666 0.0037311
-0.14043 0.14086 1.2666 4.8864e-39 289 363 0 0 0 0.62553 0.21977 -0.74861 0.0076819
-0.13895 0.14086 1.2666 5.163e-39 290 363 0 0 0 0.6319 0.21808 -0.74374 0.0079427
-0.13761 0.14101 1.2679 4.8864e-39 291 363 0 0 0 0.63598 0.21722 -0.74051 0.0082244
-0.24738 0.14323 1.2679 5.7162e-39 414.5 363 0 0 0 -0.71654 0.21806 -0.66259 0.0040475
-0.24565 0.14383 1.2666 6.3615e-39 475 363 0 0 0 -0.7073 0.22076 -0.67156 0.0039109
-0.14043 0.14309 1.2666 6.9608e-39 351.5 363.5 0 0 0 0.62101 0.22053 -0.75214 0.0079178
-0.13895 0.14309 1.2666 7.2374e-39 354 363.5 0 0 0 0.62884 0.22548 -0.74412 0.0082566
-0.13712 0.14299 1.2679 7.7137e-39 386.67 363.33 0 0 0 0.63471 0.22619 -0.7389 0.008805
-0.24565 0.14531 1.2666 4.241e-39 293 364 0 0 0 -0.70629 0.22667 -0.67065 0.0041496
-0.14043 0.14531 1.2666 9.4961e-39 396 364 0 0 0 0.62189 0.21897 -0.75187 0.0083816
-0.13909 0.14546 1.2679 9.5883e-39 397 364 0 0 0 0.62543 0.22716 -0.74648 0.0086505
-0.24565 0.14679 1.2666 6.2693e-39 412 364 0 0 0 -0.70472 0.23259 -0.67028 0.0043663
-0.14117 0.14679 1.2666 5.7161e-39 190.5 365 0 0 0 0.62284 0.21524 -0.75216 0.0085711
-0.13909 0.14694 1.2679 5.6239e-39 193 365 0 0 0 0.6225 0.22629 -0.74919 0.0088226
-0.1434 0.14901 1.2666 5.6701e-39 348 365 0 0 0 0.62038 0.20549 -0.7569 0.0098466
-0.14117 0.14901 1.2666 5.6931e-39 349.5 365 0 0 0 0.61364 0.21087 -0.76091 0.0089573
-0.13909 0.14917 1.2679 5.5317e-39 351 365 0 0 0 0.61592 0.22241 -0.75576 0.0095432
-0.1434 0.15124 1.2666 5.7161e-39 169 366 0 0 0 0.61147 0.20289 -0.76481 0.011039
-0.14117 0.15124 1.2666 6.131e-39 170.5 366 0 0 0 0.60576 0.20283 -0.76936 0.0095159
-0.14488 0.15272 1.2666 5.3473e-39 275 366 0 0 0 0.61481 0.19299 -0.7647 0.012898
-0.1434 0.15272 1.2666 5.2552e-39 276 366 0 0 0 0.60452 0.19112 -0.77332 0.011306
-0.14191 0.15272 1.2666 5.3473e-39 277 366 0 0 0 0.59435 0.19755 -0.77957 0.01011
-0.14488 0.1542 1.2666 7.8366e-39 377 366 0 0 0 0.60711 0.18569 -0.77262 0.012843
-0.13627 0.032753 1.2692 8.2976e-39 234 318 0 0 0 -0.070169 -0.8132 -0.57774 0.03598
-0.23427 0.034238 1.2692 3.2268e-39 146 319 0 0 0 -0.08515 -0.81224 -0.57707 0.01507
-0.23279 0.034238 1.2692 3.78e-39 147 319 0 0 0 -0.095603 -0.82169 -0.56185 0.01124
-0.22982 0.034238 1.2692 7.9288e-39 231 319 0 0 0 -0.095672 -0.8439 -0.52791 0.0098703
-0.22685 0.034238 1.2692 6.3615e-39 233 319 0 0 0 -0.074912 -0.86221 -0.50098 0.0085152
-0.22536 0.034238 1.2692 7.1913e-39 234 319 0 0 0 -0.066744 -0.87246 -0.4841 0.0086074
-0.22239 0.034238 1.2692 8.3898e-39 236 319 0 0 0 -0.033393 -0.89306 -0.44871 0.0085549
-0.212 0.035723 1.2692 9.3118e-39 236 321 0 0 0 0.082566 -0.9434 -0.32122 0.0045627
-0.20606 0.035723 1.2692 8.3898e-39 240 321 0 0 0 0.1113 -0.945 -0.30756 0.0031779
-0.13924 0.035723 1.2692 6.4537e-39 410 321 0 0 0 -0.063251 -0.84227 -0.53533 0.02844
-0.13701 0.03498 1.2692 5.2551e-39 279.5 320.5 0 0 0 -0.029298 -0.81359 -0.5807 0.043752
-0.13478 0.034238 1.2692 4.4254e-39 149 320 0 0 0 0.011087 -0.8068 -0.59072 0.058611
-0.20309 0.037208 1.2692 5.8083e-39 388 322 0 0 0 0.11532 -0.9409 -0.31845 0.0034911
-0.2016 0.037208 1.2692 5.9927e-39 389 322 0 0 0 0.11732 -0.9388 -0.32387 0.0035229
-0.18898 0.037208 1.2692 6.3615e-39 399.5 322 0 0 0 0.059109 -0.91689 -0.39475 0.0034166
-0.18378 0.037208 1.2692 6.4537e-39 403 322 0 0 0 0.029047 -0.92003 -0.39076 0.0022646
-0.18081 0.037208 1.2692 6.4537e-39 405 322 0 0 0 0.022157 -0.92151 -0.38772 0.0021549
-0.17933 0.037208 1.2692 6.4537e-39 406 322 0 0 0 0.020353 -0.92171 -0.38735 0.0020908
-0.1719 0.037208 1.2692 6.2693e-39 413 322 0 0 0 0.026839 -0.9261 -0.37633 0.0020205
-0.14221 0.037208 1.2692 5.8083e-39 430 322 0 0 0 -0.097441 -0.86544 -0.49144 0.016486
-0.16893 0.038693 1.2692 5.7161e-39 394 323 0 0 0 0.030242 -0.93018 -0.36585 0.0019076
-0.16596 0.038693 1.2692 5.7161e-39 396 323 0 0 0 0.02511 -0.93469 -0.35459 0.0016734
-0.15854 0.038693 1.2692 5.9005e-39 401 323 0 0 0 -0.011123 -0.93076 -0.36546 0.0032246
-0.15705 0.038693 1.2692 6.0849e-39 402 323 0 0 0 -0.020223 -0.93031 -0.36621 0.0037023
-0.15483 0.038693 1.2692 6.3615e-39 403.5 323 0 0 0 -0.046001 -0.92069 -0.38757 0.0067149
-0.14666 0.038693 1.2692 6.3615e-39 409 323 0 0 0 -0.10609 -0.89877 -0.4254 0.008429
-0.14369 0.038693 1.2692 6.8225e-39 411 323 0 0 0 -0.094928 -0.87876 -0.46772 0.012986
-0.26546 0.040178 1.2692 6.4537e-39 426 323 0 0 0 -0.33605 -0.23507 -0.91204 0.05025
-0.11399 0.050572 1.2692 4.6098e-39 151 330 0 0 0 0.44629 0.038748 -0.89405 0.0089779
-0.11399 0.0528 1.2692 5.9005e-39 335 330.5 0 0 0 0.43702 0.031035 -0.89892 0.0091535
-0.11399 0.055027 1.2692 7.9288e-39 197 332 0 0 0 0.41832 0.015759 -0.90816 0.008427
-0.11399 0.057255 1.2692 5.6701e-39 439.5 332.5 0 0 0 0.40872 0.012242 -0.91258 0.0078117
-0.11399 0.059482 1.2692 6.9147e-39 212 334 0 0 0 0.39553 0.0072353 -0.91842 0.0067655
-0.11399 0.060967 1.2692 5.0708e-39 139 335 0 0 0 0.39584 0.012084 -0.91824 0.006689
-0.11399 0.063194 1.2692 6.8686e-39 324 335.5 0 0 0 0.39085 0.023514 -0.92015 0.0073318
-0.11102 0.063937 1.2692 6.8225e-39 224 336 0 0 0 0.37665 0.021237 -0.92611 0.0090513
-0.10954 0.063194 1.2692 7.053e-39 327 335.5 0 0 0 0.35936 0.0062245 -0.93318 0.0076279
-0.11399 0.065422 1.2692 4.7942e-39 154 337 0 0 0 0.39794 0.038715 -0.91659 0.0088531
-0.11102 0.065422 1.2692 4.7942e-39 156 337 0 0 0 0.38473 0.035523 -0.92234 0.011211
-0.10954 0.065422 1.2692 4.241e-39 157 337 0 0 0 0.37886 0.031259 -0.92493 0.012187
-0.11399 0.066907 1.2692 6.6381e-39 400 337 0 0 0 0.4103 0.050489 -0.91055 0.010671
-0.10954 0.066907 1.2692 6.2693e-39 403 337 0 0 0 0.39017 0.04975 -0.9194 0.014713
-0.11399 0.068392 1.2692 5.2552e-39 187 338 0 0 0 0.42751 0.073406 -0.90103 0.013436
-0.10954 0.069135 1.2692 7.2374e-39 309.5 338 0 0 0 0.41075 0.076179 -0.90856 0.018765
-0.10954 0.075816 1.2692 5.5317e-39 181 341 0 0 0 0.5157 0.20433 -0.83204 0.028395
-0.11102 0.077301 1.2692 6.9147e-39 406 341 0 0 0 0.5383 0.23064 -0.81058 0.027973
-0.10954 0.077301 1.2692 7.0069e-39 407 341 0 0 0 0.53397 0.23527 -0.81211 0.029024
-0.11102 0.078786 1.2692 7.2835e-39 200 342 0 0 0 0.55741 0.24577 -0.79302 0.026248
-0.11993 0.081756 1.2692 6.5459e-39 209 343 0 0 0 0.52342 0.22507 -0.82181 0.017292
-0.11696 0.081756 1.2692 6.1771e-39 211 343 0 0 0 0.5284 0.24125 -0.814 0.020214
-0.11548 0.080271 1.2692 7.4678e-39 417 342 0 0 0 0.52836 0.23625 -0.81549 0.021435
-0.11325 0.080271 1.2692 7.7905e-39 418.5 342 0 0 0 0.54364 0.24953 -0.80137 0.023048
-0.11993 0.083241 1.2692 7.56e-39 420 343 0 0 0 0.53071 0.22626 -0.8168 0.017788
-0.11919 0.084726 1.2692 6.3154e-39 220.5 344 0 0 0 0.55131 0.23334 -0.80101 0.019424
-0.11919 0.086211 1.2692 7.2835e-39 418.5 344 0 0 0 0.56232 0.23613 -0.79249 0.019098
-0.261 0.095121 1.2692 5.9927e-39 230 347 0 0 0 -0.72727 0.28733 -0.62331 0.014366
-0.25952 0.096606 1.2692 7.0991e-39 431 347 0 0 0 -0.74375 0.27979 -0.60709 0.013293
-0.12439 0.096606 1.2692 5.9927e-39 223 348 0 0 0 0.60606 0.20924 -0.7674 0.010993
-0.1229 0.096606 1.2692 5.9005e-39 229 348 0 0 0 0.61552 0.21158 -0.75919 0.011674
-0.12142 0.096606 1.2692 6.0849e-39 230 348 0 0 0 0.62376 0.21857 -0.75043 0.012975
-0.25803 0.099576 1.2692 5.7161e-39 438 348 0 0 0 -0.76254 0.27322 -0.58641 0.011491
-0.12439 0.098834 1.2692 6.9607e-39 329 348.5 0 0 0 0.61243 0.20914 -0.76236 0.010651
-0.1229 0.098834 1.2692 6.8224e-39 330 348.5 0 0 0 0.62021 0.21329 -0.75489 0.011569
-0.12142 0.098834 1.2692 6.7303e-39 331 348.5 0 0 0 0.63301 0.2163 -0.74331 0.012552
-0.12439 0.10106 1.2692 7.7444e-39 422 349 0 0 0 0.61624 0.21239 -0.75838 0.010302
-0.1229 0.10106 1.2692 7.8366e-39 423 349 0 0 0 0.62802 0.21489 -0.74794 0.010987
-0.12142 0.10106 1.2692 8.2054e-39 424 349 0 0 0 0.63722 0.22457 -0.73724 0.011387
-0.25655 0.10255 1.2692 5.9927e-39 437 349 0 0 0 -0.77705 0.2697 -0.56873 0.0097958
-0.12439 0.10255 1.2692 5.8083e-39 232 350 0 0 0 0.62118 0.21836 -0.75263 0.010313
-0.1229 0.10255 1.2692 5.6239e-39 233 350 0 0 0 0.62949 0.2246 -0.74384 0.010706
-0.12142 0.10255 1.2692 5.3473e-39 234 350 0 0 0 0.64298 0.22808 -0.73113 0.011147
-0.25655 0.10403 1.2692 6.1771e-39 261 350 0 0 0 -0.78566 0.26186 -0.5605 0.0085839
-0.12587 0.10477 1.2692 7.0991e-39 321.5 350.5 0 0 0 0.6218 0.2203 -0.75155 0.010492
-0.12587 0.107 1.2692 7.56e-39 414 351 0 0 0 0.6274 0.22751 -0.74472 0.010761
-0.25506 0.10997 1.2692 5.163e-39 275 352 0 0 0 -0.80612 0.23034 -0.54509 0.0049341
-0.12884 0.10923 1.2692 7.0991e-39 324.5 352 0 0 0 0.6224 0.22079 -0.75092 0.011023
-0.12736 0.10923 1.2692 7.0068e-39 326 352 0 0 0 0.62736 0.22414 -0.74578 0.011062
-0.25506 0.11146 1.2692 5.0708e-39 440 352 0 0 0 -0.80678 0.21771 -0.54928 0.0037414
-0.12884 0.11146 1.2692 6.1771e-39 259 353 0 0 0 0.63236 0.21612 -0.74392 0.011559
-0.12736 0.11146 1.2692 6.3615e-39 260 353 0 0 0 0.6363 0.22586 -0.73764 0.011619
-0.25506 0.11294 1.2692 4.4254e-39 288 353 0 0 0 -0.80651 0.21208 -0.55187 0.003621
-0.12884 0.11294 1.2692 6.1771e-39 426 353 0 0 0 0.63962 0.21653 -0.73757 0.011429
-0.12736 0.11294 1.2692 6.4537e-39 427 353 0 0 0 0.64292 0.2245 -0.73229 0.011582
-0.25358 0.11517 1.2692 5.7162e-39 406 353.5 0 0 0 -0.80793 0.19087 -0.55751 0.0029254
-0.12884 0.11517 1.2692 5.3473e-39 355 354 0 0 0 0.65233 0.21195 -0.7277 0.01127
-0.12736 0.11443 1.2692 5.4395e-39 274 354 0 0 0 0.65237 0.22138 -0.72485 0.01124
-0.25209 0.11888 1.2692 5.7161e-39 365 355 0 0 0 -0.78892 0.18438 -0.58619 0.0030278
-0.25209 0.12037 1.2692 1.8439e-39 553 355 0 0 0 -0.78689 0.18096 -0.58996 0.0030518
-0.13033 0.12185 1.2692 5.9005e-39 462 356 0 0 0 0.6716 0.18266 -0.71804 0.0088825
-0.13033 0.12333 1.2692 5.163e-39 332 357 0 0 0 0.67561 0.17817 -0.71541 0.0084498
-0.13033 0.12482 1.2692 4.8864e-39 466 357 0 0 0 0.67858 0.17659 -0.71299 0.0081717
-0.25061 0.12779 1.2692 8.2976e-39 382 358 0 0 0 -0.76376 0.16543 -0.62394 0.0029507
-0.13107 0.12705 1.2692 5.6239e-39 409.75 358 0 0 0 0.68205 0.16651 -0.7121 0.0082229
-0.25061 0.12927 1.2692 6.5459e-39 195 359 0 0 0 -0.75951 0.16398 -0.62949 0.0028789
-0.13181 0.12927 1.2692 5.163e-39 363 359 0 0 0 0.67957 0.17128 -0.71333 0.0081984
-0.25061 0.13076 1.2692 5.5317e-39 391 359 0 0 0 -0.7572 0.16481 -0.63205 0.0026903
-0.1333 0.13076 1.2692 5.9927e-39 548 359 0 0 0 0.67561 0.17554 -0.71605 0.0076949
-0.25061 0.13298 1.2692 6.9607e-39 300.5 360 0 0 0 -0.75308 0.16813 -0.63609 0.0027929
-0.13478 0.13298 1.2692 6.9147e-39 460 360 0 0 0 0.66969 0.18136 -0.72015 0.0076426
-0.1333 0.13298 1.2692 6.4076e-39 461 360 0 0 0 0.67597 0.17971 -0.71468 0.0079051
-0.25061 0.13521 1.2692 5.8083e-39 208 361 0 0 0 -0.74995 0.16872 -0.63961 0.0028149
-0.13627 0.13521 1.2692 5.3473e-39 363 361 0 0 0 0.66089 0.19066 -0.72586 0.0073821
-0.13478 0.13521 1.2692 5.4395e-39 364 361 0 0 0 0.66752 0.18509 -0.72122 0.0073215
-0.25061 0.1367 1.2692 9.7727e-39 392 361 0 0 0 -0.74582 0.17531 -0.64266 0.00305
-0.13627 0.1367 1.2692 6.1771e-39 477 361 0 0 0 0.65803 0.19862 -0.72632 0.0075119
-0.24912 0.13967 1.2692 8.021e-39 375 362 0 0 0 -0.73595 0.19632 -0.64795 0.003776
-0.13627 0.13893 1.2692 5.3473e-39 403 362 0 0 0 0.65443 0.21097 -0.72609 0.0079161
-0.24912 0.14115 1.2692 5.2552e-39 162 363 0 0 0 -0.73345 0.20241 -0.6489 0.0039378
-0.13627 0.14115 1.2692 4.4254e-39 292 363 0 0 0 0.65078 0.21891 -0.72703 0.0081786
-0.24764 0.14561 1.2692 4.241e-39 292 364 0 0 0 -0.71893 0.23334 -0.65475 0.0042287
-0.13676 0.14511 1.2692 7.7444e-39 355.33 364 0 0 0 0.6379 0.2297 -0.73507 0.0094805
-0.13775 0.14709 1.2692 5.6239e-39 194 365 0 0 0 0.62969 0.23101 -0.7417 0.0097264
-0.13775 0.14858 1.2692 4.4254e-39 299 365 0 0 0 0.62716 0.22949 -0.74432 0.010058
-0.13789 0.0313 1.2705 5.2552e-39 242 315 0 0 0 -0.15011 -0.82551 -0.54406 0.016451
-0.23773 0.03282 1.2719 5.7161e-39 241 316 0 0 0 -0.060917 -0.7927 -0.60656 0.016886
-0.23327 0.03282 1.2719 4.6098e-39 143 317 0 0 0 -0.087834 -0.83533 -0.54269 0.0090676
-0.23091 0.032803 1.2712 5.209e-39 191.5 317 0 0 0 -0.084604 -0.84721 -0.52448 0.008995
-0.2288 0.03282 1.2719 6.3615e-39 240 317 0 0 0 -0.07053 -0.86197 -0.50202 0.0073796
-0.22411 0.032787 1.2705 4.4254e-39 143 318 0 0 0 -0.035128 -0.89285 -0.44898 0.0071084
-0.22285 0.03282 1.2719 3.8722e-39 144 318 0 0 0 -0.013715 -0.90291 -0.42961 0.0060999
-0.22113 0.032787 1.2705 3.6878e-39 145 318 0 0 0 -0.0079671 -0.91168 -0.41083 0.0067229
-0.21965 0.032787 1.2705 3.9644e-39 146 318 0 0 0 0.0034859 -0.91379 -0.40617 0.0069045
-0.13789 0.032787 1.2705 6.9147e-39 233 318 0 0 0 -0.10389 -0.82449 -0.55626 0.024207
-0.13492 0.032787 1.2705 8.1132e-39 235 318 0 0 0 -0.073752 -0.78219 -0.61866 0.043669
-0.24281 0.03429 1.2712 7.3296e-39 240.5 318 0 0 0 -0.049138 -0.74243 -0.66812 0.019402
-0.24071 0.034308 1.2719 7.1913e-39 242 318 0 0 0 -0.065419 -0.76346 -0.64253 0.017528
-0.23897 0.034273 1.2705 4.3332e-39 143 319 0 0 0 -0.073362 -0.7778 -0.62421 0.016033
-0.236 0.034273 1.2705 3.319e-39 145 319 0 0 0 -0.074461 -0.79511 -0.60187 0.016261
-0.21816 0.034273 1.2705 8.2054e-39 239 319 0 0 0 0.018094 -0.91822 -0.39566 0.0071847
-0.21668 0.034273 1.2705 8.2054e-39 240 319 0 0 0 0.029812 -0.93093 -0.36397 0.0063511
-0.21519 0.034273 1.2705 8.2054e-39 241 319 0 0 0 0.050474 -0.9385 -0.34157 0.0054256
-0.20478 0.035759 1.2705 7.7444e-39 241 321 0 0 0 0.11244 -0.94093 -0.31939 0.0031633
-0.18863 0.035796 1.2719 5.3473e-39 244 321 0 0 0 0.055288 -0.91324 -0.40365 0.0033502
-0.18695 0.035759 1.2705 5.9005e-39 397 321 0 0 0 0.043181 -0.91748 -0.39542 0.0028725
-0.1849 0.035796 1.2719 6.3154e-39 399.5 321 0 0 0 0.02878 -0.91558 -0.4011 0.0025301
-0.18119 0.035796 1.2719 5.7161e-39 401 321 0 0 0 0.020879 -0.91625 -0.40005 0.0023163
-0.14547 0.035796 1.2719 6.5459e-39 404 321 0 0 0 -0.12973 -0.87632 -0.46394 0.008857
-0.14295 0.035288 1.2714 5.4088e-39 318.33 320.67 0 0 0 -0.15282 -0.86354 -0.48058 0.0083316
-0.14086 0.035759 1.2705 6.1771e-39 407 321 0 0 0 -0.11794 -0.85196 -0.51015 0.014049
-0.13952 0.034308 1.2719 3.0425e-39 146 320 0 0 0 -0.13051 -0.83723 -0.53104 0.015222
-0.13789 0.034273 1.2705 3.1347e-39 147 320 0 0 0 -0.088942 -0.81395 -0.57408 0.029392
-0.19884 0.037246 1.2705 6.1771e-39 390 322 0 0 0 0.10401 -0.93087 -0.35023 0.0040619
-0.19735 0.037246 1.2705 5.8083e-39 391 322 0 0 0 0.098389 -0.92476 -0.36761 0.0041192
-0.19522 0.037265 1.2712 5.8544e-39 392.5 322 0 0 0 0.092795 -0.92305 -0.37332 0.0042333
-0.19289 0.037246 1.2705 5.9005e-39 397 322 0 0 0 0.084273 -0.92228 -0.37722 0.0043026
-0.19141 0.037246 1.2705 6.3615e-39 398 322 0 0 0 0.067961 -0.91487 -0.398 0.0036754
-0.18267 0.037284 1.2719 6.6381e-39 404 322 0 0 0 0.025775 -0.9155 -0.40149 0.0023068
-0.17803 0.037246 1.2705 6.3615e-39 407 322 0 0 0 0.022416 -0.91988 -0.39157 0.002186
-0.17654 0.037246 1.2705 6.4537e-39 410 322 0 0 0 0.023402 -0.92208 -0.38628 0.0021999
-0.17505 0.037246 1.2705 6.9147e-39 411 322 0 0 0 0.022453 -0.92258 -0.38516 0.0022393
-0.17357 0.037246 1.2705 6.8225e-39 412 322 0 0 0 0.025133 -0.92527 -0.37847 0.0020083
-0.16482 0.037284 1.2719 5.7161e-39 416 322 0 0 0 0.023607 -0.93252 -0.36033 0.0018583
-0.16333 0.037284 1.2719 6.1771e-39 417 322 0 0 0 0.018201 -0.93027 -0.36644 0.0021088
-0.15887 0.037284 1.2719 7.0069e-39 419 322 0 0 0 -0.011374 -0.92449 -0.38103 0.0035521
-0.15738 0.037284 1.2719 6.9147e-39 420 322 0 0 0 -0.018185 -0.9211 -0.38891 0.0040673
-0.15498 0.037246 1.2705 6.0849e-39 421.5 322 0 0 0 -0.047854 -0.91466 -0.40137 0.0071105
-0.15143 0.037284 1.2719 6.2693e-39 424 322 0 0 0 -0.090519 -0.89748 -0.43167 0.0082885
-0.1492 0.037284 1.2719 6.592e-39 425.5 322 0 0 0 -0.10701 -0.89115 -0.44091 0.0091143
-0.14696 0.037284 1.2719 6.2693e-39 427 322 0 0 0 -0.1255 -0.87971 -0.45864 0.0088552
-0.14532 0.037246 1.2705 6.0849e-39 428 322 0 0 0 -0.12835 -0.88197 -0.45349 0.0086715
-0.14384 0.037246 1.2705 5.8083e-39 429 322 0 0 0 -0.13271 -0.87731 -0.46122 0.0087179
-0.16762 0.038732 1.2705 5.7161e-39 395 323 0 0 0 0.031473 -0.93053 -0.36487 0.0018309
-0.16093 0.038732 1.2705 6.3615e-39 399.5 323 0 0 0 0.010544 -0.93136 -0.36394 0.0022566
-0.15276 0.038732 1.2705 6.3615e-39 405 323 0 0 0 -0.0631 -0.91219 -0.40488 0.0071311
-0.15127 0.038732 1.2705 6.4537e-39 406 323 0 0 0 -0.083404 -0.90921 -0.4079 0.0079422
-0.14904 0.038732 1.2705 6.3154e-39 407.5 323 0 0 0 -0.10133 -0.90194 -0.4198 0.00852
-0.11114 0.053597 1.2705 6.3615e-39 262 331 0 0 0 0.39102 0.019492 -0.92018 0.0084111
-0.11114 0.055084 1.2705 6.2693e-39 199 332 0 0 0 0.38473 0.012819 -0.92294 0.0085281
-0.11125 0.056628 1.2719 5.4395e-39 482 332 0 0 0 0.37494 -0.0016982 -0.92705 0.007918
-0.11125 0.059604 1.2719 7.2835e-39 214 334 0 0 0 0.36556 -0.006342 -0.93077 0.0067725
-0.11114 0.06103 1.2705 4.241e-39 152 335 0 0 0 0.36694 0.0054803 -0.93023 0.0072537
-0.11114 0.062516 1.2705 6.7303e-39 428 335 0 0 0 0.3634 0.0089686 -0.93159 0.0073117
-0.10965 0.078867 1.2705 7.3757e-39 201 342 0 0 0 0.57978 0.25902 -0.77251 0.027379
-0.11485 0.08184 1.2705 6.5459e-39 217.5 343 0 0 0 0.55675 0.2631 -0.78791 0.022816
-0.11262 0.08184 1.2705 6.3615e-39 219 343 0 0 0 0.5916 0.27318 -0.75854 0.02393
-0.11125 0.080437 1.2719 7.2835e-39 420 342 0 0 0 0.59879 0.27613 -0.7518 0.025533
-0.11708 0.083327 1.2705 7.0991e-39 422 343 0 0 0 0.55665 0.24939 -0.79243 0.022056
-0.11497 0.083413 1.2719 7.514e-39 423.5 343 0 0 0 0.58028 0.26536 -0.76997 0.023596
-0.11274 0.083413 1.2719 8.2976e-39 425 343 0 0 0 0.61496 0.27743 -0.73814 0.023153
-0.11708 0.084813 1.2705 6.2693e-39 222 344 0 0 0 0.57122 0.25083 -0.78153 0.022043
-0.12005 0.087786 1.2705 6.4537e-39 219 345 0 0 0 0.58117 0.24207 -0.77695 0.019357
-0.11857 0.087786 1.2705 6.3615e-39 220 345 0 0 0 0.58386 0.24744 -0.77323 0.020339
-0.11714 0.087088 1.2712 6.9607e-39 320.5 344.5 0 0 0 0.59068 0.2555 -0.76539 0.021654
-0.12005 0.089273 1.2705 8.8508e-39 412 345 0 0 0 0.58997 0.2395 -0.77109 0.018863
-0.11857 0.089273 1.2705 9.4961e-39 413 345 0 0 0 0.59103 0.24563 -0.76834 0.019524
-0.12005 0.090759 1.2705 5.9927e-39 213 346 0 0 0 0.59965 0.23917 -0.76369 0.018015
-0.11869 0.090853 1.2719 6.3615e-39 214 346 0 0 0 0.62114 0.24914 -0.74304 0.019644
-0.12005 0.092989 1.2705 7.6983e-39 313 346.5 0 0 0 0.61404 0.23587 -0.75321 0.016606
-0.11869 0.093085 1.2719 7.6061e-39 314 346.5 0 0 0 0.63032 0.24902 -0.73532 0.017931
-0.26424 0.095219 1.2705 6.1771e-39 225 347 0 0 0 -0.72598 0.31025 -0.61375 0.014592
-0.12005 0.095219 1.2705 7.3757e-39 420 347 0 0 0 0.62795 0.23318 -0.7425 0.015307
-0.11869 0.095317 1.2719 7.1913e-39 421 347 0 0 0 0.64483 0.24851 -0.7228 0.0161
-0.26276 0.096705 1.2705 7.0069e-39 429 347 0 0 0 -0.73737 0.30755 -0.60142 0.013351
-0.26127 0.096705 1.2705 7.0069e-39 430 347 0 0 0 -0.73809 0.302 -0.60333 0.013813
-0.12005 0.096705 1.2705 5.7161e-39 232 348 0 0 0 0.64132 0.22829 -0.73252 0.014045
-0.26005 0.098293 1.2719 5.6239e-39 255 348 0 0 0 -0.74831 0.30682 -0.58813 0.012514
-0.12005 0.098935 1.2705 6.4998e-39 332 348.5 0 0 0 0.64923 0.22794 -0.72563 0.01275
-0.2583 0.10116 1.2705 6.2693e-39 266 349 0 0 0 -0.77282 0.2836 -0.56773 0.010866
-0.12005 0.10116 1.2705 8.3898e-39 425 349 0 0 0 0.6568 0.22763 -0.71889 0.011524
-0.12005 0.10265 1.2705 5.7161e-39 235 350 0 0 0 0.66209 0.23452 -0.71178 0.011271
-0.25681 0.10562 1.2705 6.1771e-39 430 350 0 0 0 -0.79454 0.26409 -0.54678 0.007898
-0.12451 0.10488 1.2705 6.7303e-39 323 350.5 0 0 0 0.6361 0.23075 -0.73629 0.010767
-0.12309 0.10493 1.2712 6.4076e-39 324 350.5 0 0 0 0.64844 0.2389 -0.72281 0.01064
-0.12113 0.1047 1.2714 6.4537e-39 355.67 350.33 0 0 0 0.66626 0.24087 -0.70575 0.010329
-0.25681 0.10711 1.2705 6.3615e-39 260 351 0 0 0 -0.8007 0.25505 -0.54206 0.0071508
-0.12464 0.10722 1.2719 7.2835e-39 415 351 0 0 0 0.65173 0.23805 -0.72012 0.010322
-0.12315 0.10722 1.2719 7.1913e-39 416 351 0 0 0 0.65705 0.24532 -0.71282 0.0099722
-0.25681 0.1086 1.2705 5.7161e-39 430 351 0 0 0 -0.80633 0.24541 -0.53815 0.0069301
-0.12532 0.10865 1.2712 5.67e-39 241 352 0 0 0 0.65003 0.23875 -0.72143 0.010365
-0.25707 0.11094 1.2719 5.3012e-39 355.5 352 0 0 0 -0.81322 0.22748 -0.53566 0.0050212
-0.126 0.11083 1.2705 7.5601e-39 341 352.5 0 0 0 0.64765 0.23526 -0.72471 0.011099
-0.12613 0.11317 1.2719 6.2693e-39 428 353 0 0 0 0.66401 0.23626 -0.70941 0.0099148
-0.25532 0.11454 1.2705 5.9005e-39 458 353 0 0 0 -0.81231 0.19383 -0.55007 0.0029166
-0.12613 0.11466 1.2719 5.5317e-39 275 354 0 0 0 0.66689 0.22923 -0.70902 0.0097648
-0.25559 0.11615 1.2719 5.6239e-39 330 354 0 0 0 -0.8044 0.16755 -0.56998 0.0037744
-0.25384 0.11752 1.2705 6.1771e-39 471 354 0 0 0 -0.80819 0.17203 -0.56324 0.0031146
-0.12897 0.11752 1.2705 4.241e-39 289 355 0 0 0 0.66599 0.20833 -0.71628 0.009907
-0.12704 0.11657 1.271 4.8864e-39 389 354.33 0 0 0 0.66923 0.22155 -0.70925 0.0094325
-0.2541 0.11912 1.2719 5.4395e-39 364 355 0 0 0 -0.79989 0.15622 -0.57946 0.0039022
-0.12897 0.119 1.2705 6.1771e-39 460 355 0 0 0 0.671 0.20677 -0.71204 0.0093841
-0.12762 0.11912 1.2719 6.0849e-39 461 355 0 0 0 0.67564 0.21387 -0.70553 0.0087283
-0.25235 0.12198 1.2705 6.0849e-39 368 356 0 0 0 -0.78768 0.16692 -0.59305 0.0029493
-0.12897 0.12049 1.2705 3.9644e-39 299 356 0 0 0 0.67731 0.19781 -0.7086 0.0088072
-0.25235 0.12346 1.2705 1.6595e-39 556 356 0 0 0 -0.78195 0.1657 -0.60091 0.0029405
-0.12911 0.12285 1.2719 5.2551e-39 398 356.5 0 0 0 0.68609 0.18724 -0.70301 0.0076782
-0.25235 0.12495 1.2705 6.3615e-39 374 357 0 0 0 -0.77872 0.15898 -0.6069 0.0028735
-0.12911 0.12508 1.2719 5.0708e-39 467 357 0 0 0 0.68976 0.18003 -0.7013 0.0075839
-0.25235 0.12718 1.2705 7.4679e-39 284.5 358 0 0 0 -0.77723 0.15518 -0.60977 0.0028041
-0.12911 0.12656 1.2719 5.6239e-39 355 358 0 0 0 0.69358 0.17115 -0.69976 0.0074866
-0.25261 0.12954 1.2719 5.7161e-39 194 359 0 0 0 -0.76834 0.14948 -0.62234 0.0032151
-0.13046 0.12941 1.2705 5.2552e-39 364 359 0 0 0 0.69118 0.17547 -0.70106 0.007752
-0.12911 0.12879 1.2719 5.67e-39 419.5 358.5 0 0 0 0.69525 0.17452 -0.69726 0.0072721
-0.25261 0.13103 1.2719 6.1771e-39 390 359 0 0 0 -0.76452 0.15228 -0.62635 0.0031793
-0.1312 0.13089 1.2705 5.67e-39 549.5 359 0 0 0 0.68856 0.17718 -0.7032 0.0077304
-0.25261 0.13252 1.2719 5.4395e-39 202 360 0 0 0 -0.76117 0.15718 -0.62922 0.0029241
-0.13127 0.13245 1.2712 7.5601e-39 371.5 360 0 0 0 0.68852 0.17741 -0.70318 0.0072612
-0.25261 0.13475 1.2719 7.0068e-39 302 360.5 0 0 0 -0.76497 0.15824 -0.62433 0.00249
-0.13253 0.13495 1.2714 5.1015e-39 428 360.67 0 0 0 0.68374 0.18111 -0.70689 0.007447
-0.13492 0.13684 1.2705 5.8083e-39 478 361 0 0 0 0.66702 0.1923 -0.71979 0.0073154
-0.13276 0.13691 1.2712 6.0388e-39 479.5 361 0 0 0 0.67945 0.18846 -0.7091 0.0071239
-0.25086 0.13907 1.2705 7.0068e-39 287 362 0 0 0 -0.74647 0.18391 -0.63949 0.0032407
-0.13492 0.13907 1.2705 5.4395e-39 405 362 0 0 0 0.6628 0.20575 -0.71997 0.0078243
-0.13343 0.13907 1.2705 5.1169e-39 406 362 0 0 0 0.66919 0.20277 -0.7149 0.0073903
-0.25112 0.14145 1.2719 1.7517e-39 559 362 0 0 0 -0.74879 0.1907 -0.63478 0.003268
-0.13492 0.1413 1.2705 4.241e-39 293 363 0 0 0 0.65995 0.21386 -0.72023 0.0079034
-0.13343 0.1413 1.2705 4.241e-39 294 363 0 0 0 0.6669 0.21318 -0.714 0.007735
-0.25112 0.14293 1.2719 5.163e-39 353 363 0 0 0 -0.74389 0.20535 -0.63597 0.0037245
-0.24938 0.14279 1.2705 5.0708e-39 354 363 0 0 0 -0.73485 0.20721 -0.6458 0.0040438
-0.13492 0.14279 1.2705 8.7586e-39 451 363 0 0 0 0.65708 0.22053 -0.72084 0.0082927
-0.13276 0.14286 1.2712 8.6664e-39 452.5 363 0 0 0 0.67146 0.21695 -0.70857 0.0081241
-0.24951 0.14509 1.2712 5.3934e-39 382 363.5 0 0 0 -0.73462 0.22603 -0.63972 0.0040294
-0.13492 0.14502 1.2705 6.4998e-39 335 364 0 0 0 0.65357 0.2271 -0.72199 0.0089803
-0.13303 0.14487 1.2714 6.2386e-39 314.67 364 0 0 0 0.66772 0.21972 -0.71125 0.0086629
-0.24789 0.14725 1.2705 6.2693e-39 411 364 0 0 0 -0.72075 0.25053 -0.64635 0.0044213
-0.24789 0.14873 1.2705 5.6239e-39 198 365 0 0 0 -0.71714 0.25984 -0.64668 0.0044305
-0.235 0.032854 1.2732 5.8083e-39 242 316 0 0 0 -0.07133 -0.82853 -0.55538 0.011451
-0.22681 0.032854 1.2732 6.6381e-39 241.5 317 0 0 0 -0.044377 -0.88183 -0.46948 0.0057383
-0.19105 0.035833 1.2732 6.0388e-39 242.5 321 0 0 0 0.061483 -0.91119 -0.40737 0.0036527
-0.18733 0.034344 1.2732 7.0991e-39 242 319 0 0 0 0.041292 -0.91126 -0.40976 0.0029445
-0.15605 0.035833 1.2732 6.0849e-39 402 321 0 0 0 -0.040906 -0.9095 -0.41368 0.0069761
-0.14711 0.035833 1.2732 6.4537e-39 403 321 0 0 0 -0.12944 -0.88157 -0.45396 0.0095358
-0.14413 0.034344 1.2732 5.9005e-39 243 319 0 0 0 -0.15356 -0.86894 -0.47049 0.009178
-0.14116 0.034344 1.2732 3.2268e-39 145 320 0 0 0 -0.17152 -0.84634 -0.50427 0.0087761
-0.17095 0.037323 1.2732 5.8083e-39 414 322 0 0 0 0.03671 -0.92548 -0.37703 0.0019182
-0.16052 0.037323 1.2732 6.6381e-39 418 322 0 0 0 0.0017311 -0.92581 -0.37798 0.0031161
-0.15307 0.037323 1.2732 5.9927e-39 423 322 0 0 0 -0.073213 -0.90043 -0.42879 0.0078883
-0.10987 0.08052 1.2732 7.0069e-39 421 342 0 0 0 0.62726 0.29323 -0.7215 0.024829
-0.11508 0.084988 1.2732 6.0388e-39 223.5 344 0 0 0 0.61361 0.26834 -0.74262 0.0233
-0.11285 0.084988 1.2732 5.8083e-39 225 344 0 0 0 0.63615 0.2776 -0.7199 0.023375
-0.11732 0.089457 1.2732 9.5883e-39 414 345 0 0 0 0.62308 0.26323 -0.73654 0.020991
-0.11732 0.090946 1.2732 6.8225e-39 215 346 0 0 0 0.63418 0.25841 -0.72873 0.019976
-0.11732 0.09318 1.2732 7.4679e-39 315 346.5 0 0 0 0.64748 0.25985 -0.71641 0.017941
-0.11732 0.095415 1.2732 7.2835e-39 422 347 0 0 0 0.65892 0.25691 -0.70698 0.016189
-0.11881 0.096905 1.2732 5.5317e-39 233 348 0 0 0 0.6633 0.2382 -0.70943 0.014407
-0.11732 0.096905 1.2732 5.6239e-39 235 348 0 0 0 0.66921 0.2521 -0.699 0.014809
-0.11881 0.099139 1.2732 6.3615e-39 338.5 348.5 0 0 0 0.67241 0.23652 -0.70138 0.012735
-0.11732 0.099139 1.2732 6.2693e-39 339.5 348.5 0 0 0 0.68253 0.24612 -0.68817 0.012618
-0.11881 0.10137 1.2732 8.2054e-39 426 349 0 0 0 0.67883 0.23703 -0.69498 0.011808
-0.11732 0.10137 1.2732 7.7444e-39 427 349 0 0 0 0.69001 0.24255 -0.68195 0.011478
-0.25883 0.10286 1.2732 6.1771e-39 436 349 0 0 0 -0.78171 0.28996 -0.55214 0.010002
-0.11732 0.10286 1.2732 5.7161e-39 249 350 0 0 0 0.6943 0.24201 -0.67777 0.010895
-0.1203 0.10584 1.2732 5.7161e-39 235 351 0 0 0 0.67648 0.24599 -0.69416 0.010025
-0.12179 0.10733 1.2732 7.4678e-39 417 351 0 0 0 0.67027 0.24755 -0.69961 0.0092309
-0.12328 0.10882 1.2732 6.1771e-39 250 352 0 0 0 0.66451 0.2486 -0.70471 0.0091748
-0.25734 0.11329 1.2732 4.5176e-39 287 353 0 0 0 -0.80413 0.18707 -0.56424 0.0054355
-0.25585 0.11776 1.2732 6.3615e-39 470 354 0 0 0 -0.79812 0.15413 -0.58245 0.004641
-0.25436 0.12074 1.2732 2.1205e-39 552 355 0 0 0 -0.79382 0.14357 -0.59096 0.0048407
-0.12775 0.12074 1.2732 4.0566e-39 300 356 0 0 0 0.6845 0.20484 -0.69964 0.0078836
-0.25436 0.12297 1.2732 3.9183e-39 461 356 0 0 0 -0.78472 0.14072 -0.60366 0.0053381
-0.12775 0.12297 1.2732 5.163e-39 399 356.5 0 0 0 0.68932 0.19044 -0.69898 0.0071988
-0.25436 0.12521 1.2732 6.0849e-39 373 357 0 0 0 -0.77424 0.13828 -0.61761 0.0055199
-0.12775 0.12521 1.2732 5.4395e-39 468 357 0 0 0 0.69366 0.184 -0.69641 0.0070299
-0.25436 0.1267 1.2732 6.3615e-39 187 358 0 0 0 -0.77063 0.13969 -0.62179 0.0052224
-0.12775 0.1267 1.2732 5.4395e-39 356 358 0 0 0 0.69679 0.17294 -0.69611 0.0069996
-0.25436 0.12819 1.2732 8.2976e-39 380 358 0 0 0 -0.76427 0.14591 -0.62817 0.0048374
-0.12775 0.12819 1.2732 5.9005e-39 475 358 0 0 0 0.69656 0.17519 -0.69578 0.0070732
-0.12924 0.13116 1.2732 4.7942e-39 551 359 0 0 0 0.69604 0.17448 -0.69648 0.0069925
-0.13073 0.13414 1.2732 2.0283e-39 554 360 0 0 0 0.69346 0.17276 -0.69948 0.0071385
-0.25287 0.13712 1.2732 8.8508e-39 391 361 0 0 0 -0.76139 0.16067 -0.62806 0.0030732
-0.25287 0.13861 1.2732 6.3615e-39 197 362 0 0 0 -0.76019 0.16611 -0.62811 0.0028398
-0.13222 0.13861 1.2732 5.5317e-39 347 362 0 0 0 0.68818 0.19011 -0.70019 0.0069629
-0.13222 0.14085 1.2732 4.5637e-39 381.5 362.5 0 0 0 0.68662 0.20484 -0.69757 0.006697
-0.25138 0.14457 1.2732 5.9005e-39 472 363 0 0 0 -0.74962 0.21212 -0.62696 0.0033614
-0.13222 0.14606 1.2732 6.4537e-39 402 364 0 0 0 0.68289 0.21773 -0.69732 0.0072614
-0.2484 0.15053 1.2732 5.163e-39 331 365 0 0 0 -0.72344 0.28517 -0.62874 0.0039223
-0.16963 0.037361 1.2745 5.5317e-39 415 322 0 0 0 0.04074 -0.92629 -0.37459 0.0020107
-0.11106 0.082648 1.2754 7.0683e-39 289 343 0 0 0 0.65008 0.29825 -0.69889 0.021884
-0.11521 0.086567 1.2745 7.56e-39 421.5 344 0 0 0 0.63515 0.27431 -0.72204 0.022626
-0.11297 0.086567 1.2745 7.4678e-39 423 344 0 0 0 0.6578 0.28165 -0.69855 0.022584
-0.11526 0.088104 1.2752 5.9466e-39 222.5 345 0 0 0 0.64725 0.27405 -0.71131 0.021504
-0.11309 0.088149 1.2758 5.8083e-39 224 345 0 0 0 0.67462 0.28187 -0.68223 0.021322
-0.26086 0.10009 1.2758 5.9927e-39 437 348 0 0 0 -0.77152 0.31153 -0.55471 0.011096
-0.11458 0.10158 1.2758 7.0069e-39 429 349 0 0 0 0.71317 0.24283 -0.65759 0.010241
-0.11893 0.10297 1.2745 5.8083e-39 248 350 0 0 0 0.6895 0.23866 -0.68384 0.010737
-0.2591 0.1052 1.2745 6.3154e-39 344.5 350 0 0 0 -0.79285 0.28359 -0.53941 0.0083999
-0.11906 0.10457 1.2758 7.0991e-39 418 350 0 0 0 0.69296 0.24233 -0.67903 0.010501
-0.11744 0.10446 1.2745 7.3757e-39 419 350 0 0 0 0.69866 0.24087 -0.67369 0.010617
-0.25936 0.10755 1.2758 6.3615e-39 259 351 0 0 0 -0.79965 0.2396 -0.5506 0.0076625
-0.12043 0.10744 1.2745 7.7444e-39 418 351 0 0 0 0.68027 0.24859 -0.68952 0.009305
-0.12192 0.10893 1.2745 6.1771e-39 251 352 0 0 0 0.67633 0.248 -0.6936 0.0089125
-0.1249 0.11117 1.2745 7.0991e-39 343 352.5 0 0 0 0.66332 0.24762 -0.70618 0.0089073
-0.12354 0.11054 1.2758 8.1132e-39 423 352 0 0 0 0.67174 0.24748 -0.69822 0.0087193
-0.1249 0.11341 1.2745 5.9005e-39 429 353 0 0 0 0.66752 0.23949 -0.70503 0.0089721
-0.25761 0.1149 1.2745 5.8083e-39 446 353 0 0 0 -0.8007 0.16368 -0.57627 0.00582
-0.12503 0.11502 1.2758 5.4395e-39 276 354 0 0 0 0.6734 0.23624 -0.70052 0.0087165
-0.25787 0.11651 1.2758 4.0566e-39 299 354 0 0 0 -0.7949 0.13459 -0.59162 0.0070321
-0.12639 0.11788 1.2745 4.3332e-39 291 355 0 0 0 0.6767 0.22136 -0.7022 0.0083894
-0.25611 0.11937 1.2745 5.2552e-39 363 355 0 0 0 -0.78936 0.13271 -0.59941 0.0061801
-0.12639 0.11937 1.2745 5.9927e-39 462 355 0 0 0 0.67778 0.21703 -0.7025 0.0081779
-0.25611 0.12086 1.2745 3.0425e-39 551 355 0 0 0 -0.78452 0.12855 -0.60663 0.0064724
-0.12652 0.12099 1.2758 5.6239e-39 330 356 0 0 0 0.68293 0.20439 -0.7013 0.007633
-0.25611 0.12309 1.2745 3.9183e-39 460 356 0 0 0 -0.77922 0.12572 -0.61402 0.0069283
-0.12652 0.12248 1.2758 4.9786e-39 465 356 0 0 0 0.68665 0.1975 -0.69964 0.0073316
-0.25638 0.12546 1.2758 5.8083e-39 372 357 0 0 0 -0.77429 0.11591 -0.62212 0.0073212
-0.25638 0.12696 1.2758 6.1771e-39 186 358 0 0 0 -0.77201 0.1197 -0.62423 0.0071866
-0.25462 0.12981 1.2745 5.5317e-39 193 359 0 0 0 -0.75936 0.14444 -0.63444 0.0057276
-0.12788 0.12981 1.2745 5.9005e-39 366 359 0 0 0 0.69837 0.17707 -0.69349 0.0070628
-0.25489 0.13144 1.2758 6.2693e-39 389 359 0 0 0 -0.75881 0.14638 -0.63465 0.0065533
-0.12801 0.13144 1.2758 3.5034e-39 552 359 0 0 0 0.69947 0.17762 -0.69224 0.0071725
-0.25489 0.13293 1.2758 5.5317e-39 201 360 0 0 0 -0.75621 0.15182 -0.63648 0.005996
-0.12869 0.13286 1.2752 8.021e-39 373.5 360 0 0 0 0.70161 0.1742 -0.69094 0.0068601
-0.13086 0.13577 1.2745 8.482e-39 367 361 0 0 0 0.69546 0.1805 -0.69553 0.0069073
-0.12951 0.13442 1.2758 1.7517e-39 555 360 0 0 0 0.69925 0.17055 -0.69423 0.006787
-0.13086 0.13726 1.2745 6.0849e-39 548 361 0 0 0 0.69442 0.18159 -0.69628 0.0069924
-0.12951 0.13741 1.2758 6.2693e-39 549 361 0 0 0 0.69842 0.1744 -0.69412 0.0069166
-0.13086 0.13875 1.2745 5.7161e-39 348 362 0 0 0 0.69135 0.18595 -0.69819 0.0068143
-0.25326 0.14107 1.2752 4.8403e-39 465.5 362 0 0 0 -0.76032 0.1739 -0.62583 0.0032688
-0.13086 0.14099 1.2745 4.9325e-39 382.5 362.5 0 0 0 0.687 0.19479 -0.70007 0.0066661
-0.25339 0.14338 1.2758 5.3473e-39 351 363 0 0 0 -0.75862 0.18969 -0.62331 0.0031147
-0.13086 0.14323 1.2745 8.943e-39 454 363 0 0 0 0.68745 0.19651 -0.69914 0.0067843
-0.13086 0.14472 1.2745 5.6239e-39 273 364 0 0 0 0.68713 0.19735 -0.69922 0.006702
-0.25102 0.14703 1.2752 5.5778e-39 350 364 0 0 0 -0.75016 0.23147 -0.61942 0.0032696
-0.25041 0.14935 1.2758 6.0849e-39 197 365 0 0 0 -0.74663 0.25472 -0.61455 0.0035598
-0.11022 0.083758 1.2771 8.1132e-39 427 343 0 0 0 0.68636 0.30708 -0.65925 0.018917
-0.11022 0.085252 1.2771 5.9005e-39 230 344 0 0 0 0.70029 0.30198 -0.64684 0.019787
-0.11619 0.089734 1.2771 8.1132e-39 415 345 0 0 0 0.68099 0.26177 -0.68391 0.0194
-0.1147 0.089734 1.2771 7.2835e-39 416 345 0 0 0 0.68672 0.27011 -0.67487 0.019696
-0.11619 0.091229 1.2771 6.7303e-39 216 346 0 0 0 0.68473 0.26176 -0.68017 0.017715
-0.11619 0.095711 1.2771 7.6522e-39 423 347 0 0 0 0.69704 0.25646 -0.6696 0.013292
-0.1147 0.095711 1.2771 8.1132e-39 424 347 0 0 0 0.70977 0.25524 -0.65656 0.013027
-0.1147 0.097205 1.2771 5.7161e-39 248 348 0 0 0 0.71463 0.24785 -0.65412 0.011422
-0.1147 0.098699 1.2771 6.8225e-39 432 348 0 0 0 0.71639 0.2463 -0.65278 0.010959
-0.11619 0.10169 1.2771 7.3757e-39 428 349 0 0 0 0.70905 0.24393 -0.66162 0.010223
-0.1147 0.10019 1.2771 5.9927e-39 251 349 0 0 0 0.71699 0.24192 -0.65376 0.010401
-0.1147 0.10318 1.2771 6.1771e-39 251 350 0 0 0 0.72016 0.24307 -0.64984 0.010019
-0.11918 0.10617 1.2771 5.8083e-39 248 351 0 0 0 0.69861 0.23996 -0.67406 0.010117
-0.11769 0.10617 1.2771 5.8083e-39 249 351 0 0 0 0.70394 0.24088 -0.66816 0.010039
-0.25963 0.10916 1.2771 5.9927e-39 429 351 0 0 0 -0.79265 0.21736 -0.56962 0.0096512
-0.12068 0.10916 1.2771 5.9005e-39 252 352 0 0 0 0.68306 0.24327 -0.68866 0.0097692
-0.12217 0.11065 1.2771 7.6522e-39 424 352 0 0 0 0.67646 0.24494 -0.69455 0.0093388
-0.12316 0.11265 1.2771 5.9005e-39 323 353 0 0 0 0.67401 0.24077 -0.69839 0.0090738
-0.12516 0.11663 1.2771 5.163e-39 440 354 0 0 0 0.67511 0.23261 -0.70009 0.0091488
-0.25814 0.11812 1.2771 6.3615e-39 469 354 0 0 0 -0.7904 0.11992 -0.60074 0.0081292
-0.12665 0.12484 1.2771 5.5779e-39 402 357 0 0 0 0.68773 0.18789 -0.70123 0.0081625
-0.12665 0.12709 1.2771 5.163e-39 357 358 0 0 0 0.69005 0.18141 -0.70065 0.0080291
-0.25664 0.12858 1.2771 8.2054e-39 379 358 0 0 0 -0.76787 0.11902 -0.62946 0.0077423
-0.12665 0.12858 1.2771 6.0849e-39 476 358 0 0 0 0.69238 0.18099 -0.69847 0.0079087
-0.12665 0.13008 1.2771 6.3615e-39 367 359 0 0 0 0.69583 0.17537 -0.69646 0.0075619
-0.25515 0.13456 1.2771 8.2976e-39 396 360 0 0 0 -0.75308 0.1494 -0.64074 0.0066056
-0.25515 0.1368 1.2771 7.0069e-39 298 361 0 0 0 -0.75137 0.15427 -0.64159 0.0066734
-0.12964 0.13605 1.2771 1.051e-38 368 361 0 0 0 0.70147 0.1696 -0.69223 0.0069178
-0.12964 0.13904 1.2771 5.9005e-39 349 362 0 0 0 0.69918 0.17687 -0.69272 0.0068575
-0.25216 0.14801 1.2771 6.2693e-39 409 364 0 0 0 -0.76446 0.21793 -0.60672 0.0026477
-0.25067 0.151 1.2771 5.3473e-39 330 365 0 0 0 -0.74956 0.27026 -0.60425 0.0033443
-0.11183 0.08534 1.2784 5.8083e-39 229 344 0 0 0 0.69732 0.30401 -0.64909 0.019844
-0.11119 0.086926 1.2798 7.6522e-39 424.5 344 0 0 0 0.71544 0.30151 -0.63026 0.019863
-0.11332 0.089827 1.2784 7.0991e-39 417 345 0 0 0 0.71482 0.26879 -0.64558 0.018539
-0.11482 0.091323 1.2784 6.4537e-39 217 346 0 0 0 0.702 0.26494 -0.66106 0.01746
-0.11344 0.091418 1.2798 6.4537e-39 218 346 0 0 0 0.72922 0.26017 -0.63289 0.017166
-0.11631 0.092819 1.2784 7.9288e-39 414 346 0 0 0 0.70069 0.26028 -0.66429 0.01555
-0.11494 0.092915 1.2798 7.6522e-39 415 346 0 0 0 0.72526 0.25826 -0.6382 0.015211
