# .PCD v.7 - Point Cloud Data file format
VERSION .7
FIELDS x y z rgb u v vx vy vz normal_x normal_y normal_z curvature
SIZE 4 4 4 4 4 4 4 4 4 4 4 4 4
TYPE F F F F F F F F F F F F F
COUNT 1 1 1 1 1 1 1 1 1 1 1 1 1
WIDTH 569
HEIGHT 1
VIEWPOINT 0 0 0 1 0 0 0
POINTS 569
DATA ascii
0.26736 0.14864 1.0283 6.4536e-39 339.5 347 0 0 0 -0.96704 0.058233 -0.24788 0.021773
0.26736 0.15105 1.0283 7.3757e-39 308.5 348.5 0 0 0 -0.96198 0.056756 -0.26716 0.024097
0.26758 0.15298 1.0291 5.8083e-39 425 349 0 0 0 -0.96413 0.058421 -0.25891 0.021638
0.26781 0.15492 1.03 6.5459e-39 290.5 350.5 0 0 0 -0.96351 0.054215 -0.26211 0.021318
0.26781 0.15672 1.03 7.56e-39 385 351 0 0 0 -0.95681 0.062266 -0.28397 0.022016
0.37443 0.16128 1.0283 5.0708e-39 295 354 0 0 0 0.16983 0.34452 -0.92329 0.0034851
0.26781 0.16396 1.03 5.0708e-39 144 355 0 0 0 -0.92529 0.13353 -0.35497 0.022716
0.26856 0.16308 1.0283 6.5459e-39 272.5 354.5 0 0 0 -0.88651 0.15139 -0.43724 0.02638
0.37459 0.16315 1.0287 6.6842e-39 393 354.5 0 0 0 0.18642 0.34228 -0.92092 0.0037436
0.26856 0.16489 1.0283 7.1913e-39 374 355 0 0 0 -0.87913 0.1712 -0.44477 0.02526
0.37474 0.16502 1.0291 5.8083e-39 142 356 0 0 0 0.20174 0.33781 -0.91934 0.0039369
0.26781 0.16757 1.03 6.1771e-39 391 356 0 0 0 -0.90626 0.17277 -0.38579 0.022029
0.26879 0.16683 1.0291 6.4076e-39 324 356 0 0 0 -0.88044 0.18136 -0.4381 0.025693
0.36721 0.16729 1.0283 6.3615e-39 241 357 0 0 0 0.16767 0.31621 -0.93376 0.0038227
0.36962 0.16729 1.0283 7.0069e-39 243 357 0 0 0 0.17509 0.32108 -0.93073 0.0039989
0.37082 0.16669 1.0283 6.6381e-39 303 356.5 0 0 0 0.18033 0.32493 -0.92839 0.0040525
0.37253 0.16694 1.0286 6.0542e-39 284.67 356.67 0 0 0 0.19085 0.3283 -0.92509 0.0042077
0.3749 0.1669 1.0295 6.0388e-39 306 356.5 0 0 0 0.21229 0.33255 -0.91888 0.0038705
0.26781 0.16938 1.03 7.7905e-39 340.5 357 0 0 0 -0.89824 0.19186 -0.39543 0.020898
0.26879 0.16923 1.0291 7.8366e-39 341.5 357 0 0 0 -0.86465 0.20715 -0.45767 0.025687
0.36691 0.16934 1.0286 7.8059e-39 305.33 357.67 0 0 0 0.1726 0.3112 -0.93454 0.0037642
0.36925 0.1692 1.0289 7.8136e-39 325 357.5 0 0 0 0.18341 0.31629 -0.93076 0.0040145
0.37128 0.1693 1.0295 8.3437e-39 326.5 357.5 0 0 0 0.19459 0.31634 -0.92848 0.0042017
0.3731 0.16931 1.0295 8.3207e-39 328 357.5 0 0 0 0.20814 0.31823 -0.92488 0.0041711
0.37506 0.16938 1.03 7.8827e-39 329.5 357.5 0 0 0 0.2282 0.32228 -0.91873 0.0041012
0.26781 0.17119 1.03 5.2552e-39 302 358 0 0 0 -0.88604 0.20316 -0.41672 0.021601
0.26928 0.17097 1.0287 6.131e-39 303.5 358 0 0 0 -0.83956 0.22609 -0.49398 0.026082
0.36481 0.1709 1.0283 6.3615e-39 405 358 0 0 0 0.1722 0.29997 -0.93828 0.0036819
0.36677 0.17097 1.0287 6.7764e-39 406.5 358 0 0 0 0.17777 0.30346 -0.93612 0.003922
0.36872 0.17104 1.0291 6.5459e-39 408 358 0 0 0 0.19025 0.30825 -0.93209 0.0040165
0.37024 0.17119 1.03 6.1771e-39 409 358 0 0 0 0.19468 0.30909 -0.93089 0.0041823
0.3731 0.17111 1.0295 5.67e-39 411.5 358 0 0 0 0.21542 0.31225 -0.92526 0.0044338
0.37506 0.17119 1.03 5.6239e-39 413 358 0 0 0 0.23604 0.31623 -0.91885 0.0041871
0.26939 0.17285 1.0291 6.1541e-39 429 358.5 0 0 0 -0.83762 0.23091 -0.49504 0.026813
0.35338 0.17331 1.0283 5.5317e-39 449 359 0 0 0 0.14198 0.27489 -0.95093 0.0027377
0.35518 0.1727 1.0283 6.1771e-39 373.5 359 0 0 0 0.15083 0.27866 -0.94847 0.0030607
0.35699 0.1727 1.0283 5.624e-39 376 359 0 0 0 0.15851 0.28043 -0.9467 0.0032545
0.35939 0.1727 1.0283 5.5087e-39 378.5 359 0 0 0 0.16484 0.28289 -0.94488 0.0035397
0.3612 0.17331 1.0283 5.8083e-39 460 359 0 0 0 0.16998 0.28263 -0.94405 0.0037232
0.3628 0.17291 1.0283 5.2244e-39 408 359 0 0 0 0.17644 0.2884 -0.94111 0.0037282
0.36496 0.17278 1.0287 5.3473e-39 383 359 0 0 0 0.18215 0.29288 -0.93864 0.0040025
0.36647 0.17292 1.0295 5.5779e-39 384 359 0 0 0 0.18458 0.29372 -0.9379 0.0041959
0.37385 0.17239 1.03 6.2693e-39 310 359 0 0 0 0.22793 0.30906 -0.92332 0.0043692
0.27108 0.17518 1.0287 7.2374e-39 309.5 360 0 0 0 -0.77966 0.25506 -0.57191 0.033382
0.34195 0.17571 1.0283 5.3473e-39 456 360 0 0 0 0.10563 0.29119 -0.95081 0.0034783
0.34917 0.17571 1.0283 5.4395e-39 463 360 0 0 0 0.11644 0.2681 -0.95633 0.0022403
0.35097 0.17571 1.0283 5.5778e-39 464.5 360 0 0 0 0.12817 0.26403 -0.95596 0.0021969
0.35328 0.17496 1.0286 5.7161e-39 363 360 0 0 0 0.14196 0.26559 -0.95358 0.0028058
0.35498 0.17541 1.0288 5.8698e-39 435.33 360 0 0 0 0.15373 0.26439 -0.95208 0.0030752
0.35729 0.17526 1.0291 6.5228e-39 418.5 360 0 0 0 0.16586 0.26746 -0.94919 0.0033919
0.35909 0.17526 1.0291 6.2694e-39 420 360 0 0 0 0.16993 0.27101 -0.94746 0.0036097
0.36082 0.17522 1.0289 6.3615e-39 421.5 360 0 0 0 0.1744 0.27432 -0.94569 0.0038651
0.36323 0.17522 1.0289 5.7622e-39 423.5 360 0 0 0 0.18527 0.28008 -0.94193 0.0038777
0.36511 0.17526 1.0291 5.7162e-39 269.5 360.5 0 0 0 0.18842 0.28326 -0.94035 0.0041163
0.36662 0.1748 1.03 6.2693e-39 346 360 0 0 0 0.19269 0.28685 -0.93839 0.0043307
0.27142 0.17721 1.03 7.2835e-39 252 361 0 0 0 -0.78447 0.25214 -0.5666 0.036697
0.27217 0.17692 1.0283 7.0991e-39 253 361 0 0 0 -0.73081 0.2718 -0.62613 0.037467
0.34195 0.17692 1.0283 5.7161e-39 311 361 0 0 0 0.10347 0.28458 -0.95305 0.0032327
0.34796 0.17692 1.0283 7.4678e-39 340 361 0 0 0 0.10934 0.26745 -0.95735 0.002347
0.34917 0.17692 1.0283 7.4678e-39 341 361 0 0 0 0.11346 0.26447 -0.9577 0.0021064
0.35097 0.17692 1.0283 7.0991e-39 342.5 361 0 0 0 0.12583 0.25886 -0.95768 0.0021149
0.35307 0.17706 1.0291 6.2693e-39 344 361 0 0 0 0.14239 0.25642 -0.95602 0.0026487
0.35487 0.17706 1.0291 6.4076e-39 345.5 361 0 0 0 0.15245 0.25687 -0.95435 0.0030588
0.35729 0.17706 1.0291 7.8366e-39 347.5 361 0 0 0 0.16767 0.26164 -0.95049 0.0034383
0.35909 0.17706 1.0291 8.943e-39 349 361 0 0 0 0.17391 0.26501 -0.94843 0.0036434
0.36089 0.17706 1.0291 8.6664e-39 350.5 361 0 0 0 0.18146 0.26887 -0.94593 0.0037954
0.3633 0.17706 1.0291 7.7444e-39 352.5 361 0 0 0 0.1919 0.27352 -0.94253 0.0038459
0.36511 0.17706 1.0291 7.3757e-39 354 361 0 0 0 0.19509 0.27663 -0.94097 0.0040522
0.27265 0.17897 1.0286 6.9454e-39 296 361.67 0 0 0 -0.69585 0.28379 -0.65973 0.040006
0.32992 0.17932 1.0283 6.2693e-39 299 362 0 0 0 0.079445 0.28658 -0.95476 0.0028132
0.33714 0.17872 1.0283 5.9005e-39 381.5 361.5 0 0 0 0.088167 0.28733 -0.95377 0.0031632
0.34195 0.17812 1.0283 5.6239e-39 462 361 0 0 0 0.10039 0.27798 -0.95533 0.0029923
0.34223 0.17947 1.0291 5.9005e-39 309 362 0 0 0 0.095665 0.26664 -0.95904 0.0024274
0.34556 0.17932 1.0283 5.5317e-39 312 362 0 0 0 0.09893 0.26191 -0.96001 0.0022065
0.34736 0.17872 1.0283 6.3154e-39 403.25 361.5 0 0 0 0.10372 0.2616 -0.95959 0.0020725
0.34946 0.17887 1.0291 6.4997e-39 418 361.5 0 0 0 0.11268 0.25539 -0.96025 0.0017216
0.35112 0.17879 1.0287 6.3154e-39 419.5 361.5 0 0 0 0.12567 0.25243 -0.95942 0.0019526
0.35307 0.17887 1.0291 6.4076e-39 421 361.5 0 0 0 0.14144 0.25184 -0.95738 0.0026191
0.35495 0.17891 1.0293 6.1771e-39 422.5 361.5 0 0 0 0.15962 0.25214 -0.95443 0.0033538
0.35718 0.17872 1.0294 5.04e-39 450.67 361.33 0 0 0 0.17078 0.25623 -0.95141 0.0034299
0.35899 0.17922 1.03 6.5459e-39 285.33 362 0 0 0 0.18129 0.26027 -0.94836 0.0035786
0.36112 0.17898 1.0298 6.8225e-39 264.25 362 0 0 0 0.18757 0.26578 -0.94561 0.0037688
0.36331 0.17877 1.0297 6.4844e-39 247 362 0 0 0 0.19713 0.27072 -0.94226 0.0038036
0.36502 0.17922 1.03 6.9761e-39 300 362 0 0 0 0.20451 0.27504 -0.93943 0.0039122
0.27305 0.18098 1.0286 6.423e-39 324.67 362.33 0 0 0 -0.67534 0.28048 -0.68209 0.040686
0.32511 0.18173 1.0283 8.1132e-39 274 363 0 0 0 0.096232 0.27566 -0.95643 0.0027508
0.32751 0.18113 1.0283 6.4998e-39 356.5 362.5 0 0 0 0.086076 0.27714 -0.95697 0.0026632
0.32912 0.18092 1.0283 6.1464e-39 384.67 362.33 0 0 0 0.079167 0.27944 -0.95689 0.0026253
0.3309 0.18143 1.0288 7.2834e-39 332.33 362.67 0 0 0 0.076402 0.2774 -0.95771 0.0024827
0.33232 0.18173 1.0283 8.482e-39 280 363 0 0 0 0.077306 0.27615 -0.958 0.0024166
0.33593 0.18173 1.0283 7.6522e-39 283 363 0 0 0 0.080358 0.27416 -0.95832 0.0024748
0.33714 0.18113 1.0283 6.6381e-39 364.5 362.5 0 0 0 0.084764 0.27494 -0.95772 0.0025705
0.33834 0.18173 1.0283 7.6522e-39 285 363 0 0 0 0.085679 0.26809 -0.95958 0.0023682
0.34075 0.18113 1.0283 6.4537e-39 367.5 362.5 0 0 0 0.09326 0.26849 -0.95876 0.0023981
0.34254 0.18143 1.0288 6.6381e-39 342 362.67 0 0 0 0.092102 0.26178 -0.96072 0.0022302
0.34496 0.18113 1.0283 6.2463e-39 371 362.5 0 0 0 0.095793 0.25911 -0.96108 0.0020819
0.34736 0.18113 1.0283 6.4537e-39 374.75 362.5 0 0 0 0.099455 0.2558 -0.9616 0.0017607
0.34946 0.18128 1.0291 6.4537e-39 377 362.5 0 0 0 0.10959 0.25285 -0.96128 0.0016591
0.35127 0.18128 1.0291 6.4767e-39 378.5 362.5 0 0 0 0.12592 0.2509 -0.95979 0.0019662
0.35307 0.18128 1.0291 6.5919e-39 380 362.5 0 0 0 0.14412 0.2495 -0.95759 0.0027449
0.35518 0.18083 1.03 6.0849e-39 464.5 362 0 0 0 0.1662 0.25138 -0.95351 0.0035397
0.35698 0.18083 1.03 6.2693e-39 466 362 0 0 0 0.17477 0.25529 -0.95094 0.0034474
0.35819 0.18083 1.03 5.5317e-39 496 362 0 0 0 0.17993 0.25722 -0.94945 0.0035068
0.3618 0.18083 1.03 5.4395e-39 499 362 0 0 0 0.19644 0.26566 -0.94384 0.0035712
0.36301 0.18083 1.03 5.4395e-39 500 362 0 0 0 0.20431 0.26876 -0.94129 0.0036293
0.36481 0.18083 1.03 5.3473e-39 501.5 362 0 0 0 0.20825 0.27556 -0.93846 0.0039611
0.27312 0.18256 1.0295 6.4075e-39 284.5 363 0 0 0 -0.68605 0.26584 -0.67725 0.04619
0.32511 0.18293 1.0283 5.8083e-39 400 363 0 0 0 0.096079 0.27378 -0.95698 0.0026247
0.32705 0.18301 1.0287 5.4856e-39 401.5 363 0 0 0 0.089501 0.27214 -0.95809 0.0025288
0.32899 0.18308 1.0291 5.3473e-39 403 363 0 0 0 0.080721 0.27146 -0.95906 0.0024225
0.33079 0.18308 1.0291 5.67e-39 404.5 363 0 0 0 0.077337 0.27329 -0.95882 0.0023933
0.33232 0.18293 1.0283 6.0849e-39 406 363 0 0 0 0.077418 0.27346 -0.95876 0.0023284
0.33593 0.18293 1.0283 5.4395e-39 409 363 0 0 0 0.08011 0.27187 -0.95899 0.0023183
0.33714 0.18293 1.0283 5.3473e-39 410 363 0 0 0 0.082694 0.26894 -0.9596 0.0023414
0.33834 0.18293 1.0283 5.2552e-39 411 363 0 0 0 0.084203 0.26787 -0.95977 0.0022901
0.34075 0.18293 1.0283 5.3473e-39 413 363 0 0 0 0.08923 0.26376 -0.96045 0.0022024
0.34269 0.18301 1.0287 5.67e-39 415 363 0 0 0 0.089247 0.25962 -0.96158 0.0020489
0.34496 0.18293 1.0283 6.1771e-39 417.5 363 0 0 0 0.092733 0.2577 -0.96177 0.001949
0.34676 0.18293 1.0283 5.9005e-39 423 363 0 0 0 0.09551 0.25663 -0.96178 0.0018014
0.349 0.18316 1.0295 5.5778e-39 424.5 363 0 0 0 0.10877 0.25599 -0.96054 0.0017748
0.35095 0.18324 1.03 5.8083e-39 433 363 0 0 0 0.12283 0.25586 -0.95888 0.0021099
0.35276 0.18324 1.03 5.5778e-39 434.5 363 0 0 0 0.14099 0.25622 -0.95628 0.0027817
0.35497 0.18243 1.03 6.3615e-39 344.33 363 0 0 0 0.16748 0.25312 -0.95283 0.0036682
0.35698 0.18203 1.03 6.0849e-39 300 363 0 0 0 0.17605 0.25532 -0.95069 0.0035237
0.35819 0.18203 1.03 5.2552e-39 301 363 0 0 0 0.18173 0.25913 -0.94859 0.0034666
0.3618 0.18203 1.03 4.9786e-39 304 363 0 0 0 0.2002 0.26868 -0.94219 0.0035934
0.27372 0.18497 1.0295 5.5778e-39 235 364 0 0 0 -0.64785 0.25494 -0.71784 0.049628
0.27458 0.18474 1.0283 5.67e-39 236 364 0 0 0 -0.6056 0.26931 -0.74881 0.051661
0.32029 0.18474 1.0283 6.8685e-39 303 364 0 0 0 0.10595 0.27514 -0.95555 0.0028243
0.3239 0.18534 1.0283 8.5742e-39 373 364 0 0 0 0.096725 0.26647 -0.95898 0.0024286
0.32511 0.18474 1.0283 7.9288e-39 310.5 364 0 0 0 0.094238 0.2683 -0.95871 0.0024834
0.32705 0.18481 1.0287 7.7905e-39 312 364 0 0 0 0.089328 0.2668 -0.9596 0.0023858
0.32899 0.18489 1.0291 7.514e-39 313.5 364 0 0 0 0.081686 0.26805 -0.95993 0.0023228
0.33107 0.18505 1.03 7.6983e-39 315 364 0 0 0 0.077494 0.26652 -0.96071 0.0022361
0.33272 0.18494 1.0283 7.7752e-39 338 364 0 0 0 0.076512 0.26864 -0.9602 0.0022247
0.33513 0.18453 1.0283 7.2527e-39 297.67 364 0 0 0 0.075603 0.26953 -0.96002 0.0022109
0.33702 0.18509 1.0291 7.345e-39 341.67 364 0 0 0 0.079541 0.26713 -0.96037 0.0021865
0.33908 0.18481 1.0287 7.3757e-39 322.5 364 0 0 0 0.081993 0.26546 -0.96063 0.002142
0.34103 0.18489 1.0291 7.1452e-39 324 364 0 0 0 0.08574 0.26305 -0.96097 0.0021431
0.34276 0.18485 1.0289 6.8916e-39 325.5 364 0 0 0 0.088158 0.26098 -0.96131 0.0020726
0.34525 0.18489 1.0291 6.8225e-39 327.5 364 0 0 0 0.093143 0.2589 -0.9614 0.001956
0.3469 0.18481 1.0287 7.1452e-39 329 364 0 0 0 0.096054 0.25851 -0.96122 0.0018596
0.34875 0.18474 1.0294 6.6688e-39 309.33 364 0 0 0 0.10535 0.25968 -0.95993 0.0019556
0.35095 0.18505 1.03 6.1771e-39 332 364 0 0 0 0.12359 0.26399 -0.95657 0.0024126
0.35276 0.18505 1.03 6.5228e-39 333.5 364 0 0 0 0.14172 0.26366 -0.95415 0.0029945
0.27383 0.18685 1.03 5.5317e-39 446 364 0 0 0 -0.63239 0.24249 -0.73572 0.053619
0.27524 0.18718 1.0285 6.7764e-39 363 364.5 0 0 0 -0.55526 0.26105 -0.78965 0.054314
0.31548 0.18774 1.0283 5.4395e-39 312 365 0 0 0 0.10924 0.27721 -0.95458 0.0028516
0.31735 0.18718 1.0285 5.9236e-39 264 365 0 0 0 0.10896 0.27602 -0.95496 0.0028571
0.31909 0.18774 1.0283 8.2976e-39 341 365 0 0 0 0.10483 0.26951 -0.95727 0.0026435
0.32103 0.18722 1.0287 6.8225e-39 273.75 365 0 0 0 0.10009 0.26703 -0.95848 0.002509
0.3231 0.18694 1.0283 5.962e-39 253 365 0 0 0 0.095939 0.26487 -0.9595 0.0023107
0.32498 0.1875 1.0291 6.6073e-39 300 365 0 0 0 0.094225 0.26271 -0.96026 0.0021865
0.32718 0.1873 1.0291 6.6842e-39 279 365 0 0 0 0.087836 0.2621 -0.96103 0.0022271
0.32899 0.1873 1.0291 7.1913e-39 280.5 365 0 0 0 0.081394 0.26099 -0.9619 0.0021557
0.33118 0.1872 1.0297 6.3307e-39 259.33 365 0 0 0 0.077368 0.26353 -0.96154 0.0021843
0.33307 0.18722 1.0287 6.3384e-39 284 365 0 0 0 0.076795 0.26525 -0.96112 0.0021732
0.33501 0.1873 1.0291 6.4998e-39 285.5 365 0 0 0 0.077241 0.26471 -0.96123 0.0021894
0.33661 0.1871 1.0291 6.1771e-39 264 365 0 0 0 0.0773 0.26762 -0.96042 0.0022098
0.33923 0.1873 1.0291 6.7764e-39 290.25 365 0 0 0 0.080935 0.26763 -0.96012 0.0022865
0.34103 0.1873 1.0291 7.3757e-39 293 365 0 0 0 0.084371 0.26998 -0.95916 0.0024016
0.34284 0.1873 1.0291 7.3526e-39 294.5 365 0 0 0 0.08752 0.26954 -0.959 0.0024181
0.34504 0.1871 1.0291 7.2835e-39 274.33 365 0 0 0 0.093463 0.26894 -0.95861 0.0023568
0.34705 0.1867 1.0291 6.7303e-39 232 365 0 0 0 0.0987 0.26733 -0.95854 0.0021072
0.34825 0.1873 1.0291 6.9608e-39 299 365 0 0 0 0.10251 0.27252 -0.95667 0.0023352
0.35095 0.18685 1.03 5.163e-39 235 365 0 0 0 0.12504 0.27408 -0.95354 0.0026753
0.35276 0.18685 1.03 5.8083e-39 236.5 365 0 0 0 0.14301 0.27315 -0.95128 0.0033026
0.27383 0.18866 1.03 7.1913e-39 339 365 0 0 0 -0.62592 0.21761 -0.74891 0.056783
0.27529 0.18902 1.0287 6.0388e-39 402.5 365 0 0 0 -0.55995 0.24147 -0.79256 0.055515
0.31308 0.18895 1.0283 5.4395e-39 502 365 0 0 0 0.11241 0.28439 -0.95209 0.0030271
0.31548 0.18895 1.0283 4.4254e-39 504 365 0 0 0 0.10813 0.27813 -0.95444 0.0028787
0.31695 0.1891 1.0291 4.0566e-39 505 365 0 0 0 0.10369 0.271 -0.95698 0.0026181
0.31862 0.18902 1.0287 6.0389e-39 506.5 365 0 0 0 0.10309 0.26953 -0.95746 0.0025269
0.32117 0.1891 1.0291 7.56e-39 508.5 365 0 0 0 0.095345 0.26626 -0.95917 0.0023087
0.3227 0.18895 1.0283 7.0991e-39 510 365 0 0 0 0.094471 0.26273 -0.96023 0.0021317
0.32477 0.1891 1.0291 6.131e-39 511.5 365 0 0 0 0.093738 0.26201 -0.9605 0.0020777
0.32658 0.1891 1.0291 6.2693e-39 157 366 0 0 0 0.088715 0.261 -0.96125 0.0020459
0.32866 0.18926 1.03 6.0849e-39 159.5 366 0 0 0 0.08339 0.25891 -0.96229 0.002161
0.33078 0.18881 1.0297 6.5151e-39 228.33 365.67 0 0 0 0.079846 0.26114 -0.96199 0.0021588
0.3332 0.1891 1.0291 5.9005e-39 169.5 366 0 0 0 0.078403 0.26513 -0.96102 0.0022295
0.33501 0.1891 1.0291 6.2693e-39 171 366 0 0 0 0.077326 0.26637 -0.96076 0.0024048
0.3372 0.18881 1.0297 6.4537e-39 243 365.67 0 0 0 0.081319 0.26705 -0.96025 0.0024167
0.33922 0.1891 1.0291 5.163e-39 190.5 366 0 0 0 0.082595 0.2697 -0.9594 0.0024953
0.34131 0.18926 1.03 4.9786e-39 193 366 0 0 0 0.087412 0.27417 -0.9577 0.0026704
0.34312 0.18926 1.03 5.2551e-39 194.5 366 0 0 0 0.090806 0.27694 -0.95659 0.0027386
0.34493 0.18926 1.03 5.6239e-39 196 366 0 0 0 0.097571 0.28029 -0.95494 0.002811
0.34674 0.18866 1.03 6.6381e-39 281 365.5 0 0 0 0.10149 0.28128 -0.95424 0.0027446
0.34854 0.18926 1.03 4.8864e-39 201 366 0 0 0 0.11003 0.28939 -0.95087 0.0030338
0.35336 0.18866 1.03 6.3154e-39 288 365.5 0 0 0 0.1504 0.28771 -0.94583 0.0037069
0.27383 0.19107 1.03 7.8827e-39 315 366 0 0 0 -0.60681 0.19165 -0.77139 0.057075
0.27529 0.19083 1.0287 7.998e-39 316.5 366 0 0 0 -0.54149 0.20886 -0.81435 0.055589
0.27698 0.19075 1.0283 7.6983e-39 318 366 0 0 0 -0.47566 0.22972 -0.8491 0.053865
0.30225 0.19135 1.0283 6.5459e-39 402 366 0 0 0 0.071724 0.32604 -0.94263 0.0024068
0.30465 0.19135 1.0283 5.9005e-39 404 366 0 0 0 0.080259 0.31667 -0.94513 0.0024905
0.30706 0.19135 1.0283 5.5317e-39 406 366 0 0 0 0.090123 0.3065 -0.94759 0.0026019
0.30826 0.19135 1.0283 5.163e-39 407 366 0 0 0 0.093336 0.30106 -0.94903 0.0027765
0.31067 0.19135 1.0283 5.3473e-39 409 366 0 0 0 0.096605 0.29136 -0.95172 0.0027979
0.31308 0.19075 1.0283 6.9146e-39 354.5 366 0 0 0 0.10424 0.28377 -0.95321 0.002897
0.31488 0.19075 1.0283 6.592e-39 356 366 0 0 0 0.10413 0.27793 -0.95494 0.0028052
0.31695 0.19091 1.0291 6.4998e-39 364 366 0 0 0 0.10084 0.27306 -0.9567 0.0026599
0.31876 0.19091 1.0291 6.1541e-39 365.5 366 0 0 0 0.099037 0.27011 -0.95772 0.0024672
0.32096 0.19071 1.0291 6.2693e-39 342.33 366 0 0 0 0.094646 0.26739 -0.95893 0.0022521
0.32266 0.19116 1.0294 6.2693e-39 393.67 366 0 0 0 0.092853 0.26743 -0.95909 0.0021942
0.32491 0.19099 1.0295 6.3615e-39 370.5 366 0 0 0 0.089743 0.26405 -0.96033 0.0021055
0.32685 0.19107 1.03 6.4998e-39 372 366 0 0 0 0.088688 0.26398 -0.96044 0.0020914
0.32866 0.19107 1.03 6.4306e-39 374 366 0 0 0 0.083497 0.26341 -0.96106 0.0022099
0.33094 0.19099 1.0295 6.4076e-39 379.5 366 0 0 0 0.080832 0.26243 -0.96156 0.0022986
0.3331 0.19076 1.0294 6.3308e-39 356 366 0 0 0 0.080675 0.26525 -0.9608 0.0024423
0.33479 0.19122 1.0297 5.9312e-39 423.33 366 0 0 0 0.081665 0.27095 -0.95912 0.0026796
0.33689 0.19087 1.03 5.839e-39 370.67 366 0 0 0 0.082168 0.27365 -0.95831 0.002804
0.33937 0.19039 1.0295 7.1452e-39 307.5 366 0 0 0 0.08505 0.27266 -0.95834 0.0027482
0.34071 0.19107 1.03 6.0849e-39 406.5 366 0 0 0 0.088765 0.28083 -0.95564 0.003024
0.34312 0.19047 1.03 6.0388e-39 310.5 366 0 0 0 0.092403 0.28275 -0.95473 0.0030133
0.34493 0.19047 1.03 5.4395e-39 312 366 0 0 0 0.099946 0.28967 -0.95189 0.0031281
0.34613 0.19047 1.03 5.7161e-39 313 366 0 0 0 0.10181 0.29187 -0.95103 0.0030785
0.34854 0.19047 1.03 8.2054e-39 340 366 0 0 0 0.1122 0.3001 -0.94729 0.0033381
0.27383 0.19288 1.03 4.9786e-39 215 367 0 0 0 -0.6172 0.17526 -0.76704 0.058056
0.27529 0.19324 1.0287 6.5229e-39 284 367 0 0 0 -0.50783 0.1875 -0.8408 0.056051
0.27698 0.19316 1.0283 6.6842e-39 285.5 367 0 0 0 -0.41706 0.21989 -0.88188 0.050616
0.27859 0.19336 1.0283 7.1912e-39 309.33 367 0 0 0 -0.36538 0.22862 -0.90235 0.047096
0.283 0.19376 1.0283 8.3898e-39 358 367 0 0 0 -0.2025 0.27357 -0.9403 0.031266
0.28541 0.19376 1.0283 8.021e-39 360 367 0 0 0 -0.15242 0.29488 -0.9433 0.025142
0.29383 0.19376 1.0283 8.021e-39 367 367 0 0 0 0.022308 0.32826 -0.94433 0.0027344
0.29684 0.19376 1.0283 7.8366e-39 369.5 367 0 0 0 0.036036 0.32992 -0.94332 0.0019947
0.29864 0.19376 1.0283 7.9288e-39 371 367 0 0 0 0.047013 0.3293 -0.94306 0.0019124
0.30285 0.19316 1.0283 7.0069e-39 307.5 367 0 0 0 0.066222 0.32192 -0.94445 0.0021715
0.30532 0.1932 1.0285 7.4679e-39 313.25 367 0 0 0 0.077757 0.31264 -0.94668 0.0021876
0.30732 0.19332 1.0291 7.7905e-39 315 367 0 0 0 0.081447 0.30671 -0.94831 0.0022813
0.30893 0.1932 1.0285 7.8827e-39 316.5 367 0 0 0 0.08536 0.29925 -0.95035 0.0026346
0.31133 0.1932 1.0285 7.5831e-39 318.5 367 0 0 0 0.09244 0.29369 -0.95142 0.0028735
0.31321 0.19324 1.0287 7.6522e-39 320.5 367 0 0 0 0.096177 0.2883 -0.9527 0.0029241
0.31508 0.19328 1.0289 7.6753e-39 322 367 0 0 0 0.097915 0.28499 -0.95352 0.0029523
0.31695 0.19272 1.0291 7.2835e-39 261 367 0 0 0 0.098034 0.27612 -0.95611 0.0026664
0.31876 0.19332 1.0291 7.6752e-39 325 367 0 0 0 0.096593 0.27746 -0.95587 0.0027188
0.32056 0.19332 1.0291 7.3296e-39 326.5 367 0 0 0 0.093281 0.27467 -0.957 0.0025607
0.32266 0.19317 1.0294 7.1912e-39 307.33 367 0 0 0 0.09177 0.27571 -0.95685 0.0025729
0.32457 0.19312 1.0291 7.0376e-39 309 367 0 0 0 0.089212 0.27317 -0.95782 0.0023932
0.32658 0.19272 1.0291 6.9147e-39 269 367 0 0 0 0.0869 0.26715 -0.95973 0.002258
0.32866 0.19288 1.03 7.0991e-39 270.5 367 0 0 0 0.086387 0.26952 -0.95911 0.0024102
0.33094 0.1928 1.0295 6.7764e-39 272.5 367 0 0 0 0.083718 0.26961 -0.95932 0.0026197
0.33288 0.19288 1.03 6.6381e-39 274 367 0 0 0 0.086438 0.2744 -0.95772 0.0028598
0.33469 0.19288 1.03 7.6983e-39 275.5 367 0 0 0 0.084714 0.27857 -0.95667 0.0030118
0.27383 0.19468 1.03 7.3757e-39 259 367.5 0 0 0 -0.59841 0.16091 -0.78487 0.058707
0.27481 0.19512 1.0291 5.9005e-39 169 368 0 0 0 -0.52881 0.17255 -0.83102 0.057732
0.27662 0.19512 1.0291 6.1771e-39 170.5 368 0 0 0 -0.43598 0.1901 -0.87965 0.052262
0.27879 0.19496 1.0283 5.6239e-39 173 368 0 0 0 -0.33245 0.21709 -0.9178 0.044147
0.2818 0.19496 1.0283 5.7161e-39 178 368 0 0 0 -0.22307 0.25031 -0.94212 0.03346
0.283 0.19496 1.0283 5.5317e-39 185 368 0 0 0 -0.18852 0.26556 -0.94548 0.028098
0.2848 0.19496 1.0283 6.131e-39 186.5 368 0 0 0 -0.15406 0.28329 -0.94658 0.02472
0.28661 0.19496 1.0283 5.6239e-39 188 368 0 0 0 -0.10637 0.29405 -0.94985 0.017924
0.29082 0.19496 1.0283 5.4395e-39 191.5 368 0 0 0 -0.02177 0.31731 -0.94807 0.0065106
0.29262 0.19496 1.0283 5.9005e-39 193 368 0 0 0 0.0065971 0.32182 -0.94678 0.0036616
0.29455 0.19504 1.0287 5.4395e-39 194.5 368 0 0 0 0.027537 0.32552 -0.94513 0.0023076
0.29684 0.19496 1.0283 5.3934e-39 196.5 368 0 0 0 0.038966 0.32746 -0.94406 0.0019478
0.29924 0.19496 1.0283 4.9786e-39 200.5 368 0 0 0 0.049542 0.32621 -0.944 0.0018097
0.30105 0.19496 1.0283 5.163e-39 202 368 0 0 0 0.054656 0.32389 -0.94451 0.0018951
0.3031 0.19512 1.0291 5.4395e-39 203.5 368 0 0 0 0.062799 0.31838 -0.94588 0.0019118
0.30491 0.19512 1.0291 4.9786e-39 207 368 0 0 0 0.071561 0.31576 -0.94614 0.0020913
0.30684 0.19521 1.0295 4.8864e-39 208.5 368 0 0 0 0.077075 0.31182 -0.94701 0.002242
0.30912 0.19512 1.0291 5.3934e-39 210.5 368 0 0 0 0.080215 0.30704 -0.94831 0.0026235
0.31093 0.19512 1.0291 5.4395e-39 212 368 0 0 0 0.087604 0.30186 -0.94932 0.0029043
0.31274 0.19512 1.0291 5.2551e-39 213.5 368 0 0 0 0.091159 0.29762 -0.95032 0.0030099
0.31454 0.19512 1.0291 4.9786e-39 215 368 0 0 0 0.09191 0.29259 -0.95181 0.002952
0.31681 0.19489 1.03 6.0235e-39 273 367.67 0 0 0 0.094905 0.29074 -0.95208 0.0032005
0.31889 0.19521 1.0295 5.4856e-39 218.5 368 0 0 0 0.09463 0.2877 -0.95303 0.0031254
0.32083 0.19529 1.03 5.0708e-39 220 368 0 0 0 0.09371 0.28645 -0.9535 0.0030265
0.32243 0.19489 1.03 5.5625e-39 277.67 367.67 0 0 0 0.089921 0.2853 -0.95421 0.0029288
0.32525 0.19489 1.03 5.3474e-39 280 367.67 0 0 0 0.088274 0.28614 -0.95411 0.0028902
0.32685 0.19468 1.03 5.8083e-39 309.5 367.5 0 0 0 0.087681 0.28269 -0.9552 0.0027632
0.33167 0.19468 1.03 6.0388e-39 313.5 367.5 0 0 0 0.086544 0.28692 -0.95404 0.0030911
0.33288 0.19408 1.03 6.2693e-39 399 367 0 0 0 0.088055 0.28242 -0.95524 0.0030652
0.27383 0.19649 1.03 8.2054e-39 288 368 0 0 0 -0.58607 0.15327 -0.79563 0.059722
0.27481 0.19693 1.0291 6.4537e-39 357 368 0 0 0 -0.49495 0.17001 -0.85213 0.057878
0.27662 0.19693 1.0291 6.592e-39 367 368 0 0 0 -0.39736 0.19517 -0.89667 0.04993
0.27896 0.19689 1.0289 6.4768e-39 369 368 0 0 0 -0.30499 0.21522 -0.92772 0.043499
0.28099 0.19656 1.0283 6.3308e-39 345.33 368 0 0 0 -0.24076 0.24478 -0.93921 0.037092
0.28284 0.19713 1.0291 5.9927e-39 397.67 368 0 0 0 -0.19155 0.25197 -0.94859 0.02863
0.28498 0.19689 1.0289 6.3845e-39 374 368 0 0 0 -0.1303 0.27114 -0.95368 0.020556
0.28709 0.19702 1.0286 6.0234e-39 401.67 368 0 0 0 -0.081247 0.28462 -0.95519 0.014039
0.28901 0.19737 1.0283 6.0849e-39 455 368 0 0 0 -0.038574 0.29395 -0.95504 0.0083056
0.291 0.19689 1.0289 6.3845e-39 382.5 368 0 0 0 -0.0081744 0.30789 -0.95139 0.0053294
0.29274 0.19684 1.0287 6.2232e-39 384.5 368 0 0 0 0.014208 0.31464 -0.94911 0.003176
0.2948 0.19701 1.0295 5.9927e-39 394.5 368 0 0 0 0.030762 0.31831 -0.94749 0.0019557
0.29714 0.19697 1.0293 6.2232e-39 405 368 0 0 0 0.041018 0.3208 -0.94626 0.0016439
0.29889 0.19693 1.0291 6.131e-39 406.5 368 0 0 0 0.048033 0.32158 -0.94566 0.0016908
0.3007 0.19693 1.0291 5.1399e-39 408 368 0 0 0 0.050535 0.32173 -0.94548 0.0017885
0.30335 0.1971 1.03 5.9927e-39 410 368 0 0 0 0.061786 0.32047 -0.94524 0.0019066
0.30516 0.1971 1.03 7.6983e-39 424 368 0 0 0 0.067801 0.31964 -0.94511 0.0020587
0.30684 0.19701 1.0295 7.6753e-39 425.5 368 0 0 0 0.074499 0.31875 -0.94491 0.0023576
0.30958 0.19689 1.03 7.6522e-39 280.67 368.33 0 0 0 0.0794 0.31461 -0.9459 0.00292
0.31119 0.19649 1.03 8.2976e-39 344 368 0 0 0 0.083987 0.30851 -0.94751 0.0030297
0.31293 0.19706 1.0298 6.9146e-39 253 368.5 0 0 0 0.086698 0.3084 -0.9473 0.0033194
0.3148 0.1971 1.03 7.1452e-39 254.5 368.5 0 0 0 0.090898 0.30603 -0.94767 0.0033735
0.31661 0.19649 1.03 9.2196e-39 348.5 368 0 0 0 0.091577 0.29932 -0.94975 0.0034514
0.31896 0.19706 1.0298 7.6522e-39 258 368.5 0 0 0 0.092655 0.30204 -0.94878 0.0036286
0.32083 0.19649 1.03 8.2054e-39 352 368 0 0 0 0.090988 0.29879 -0.94997 0.0035912
0.32324 0.1971 1.03 7.1452e-39 261.5 368.5 0 0 0 0.091671 0.30301 -0.94857 0.0036368
0.32504 0.1971 1.03 7.0991e-39 263 368.5 0 0 0 0.091579 0.30403 -0.94825 0.0034096
0.32685 0.1971 1.03 7.1913e-39 264.5 368.5 0 0 0 0.087621 0.30508 -0.94829 0.0034713
0.27504 0.1989 1.03 6.0849e-39 242 369 0 0 0 -0.49873 0.1667 -0.85058 0.060678
0.27682 0.19914 1.0291 7.0376e-39 286.33 369 0 0 0 -0.36767 0.18997 -0.91034 0.044549
0.27882 0.19914 1.0291 7.0991e-39 288 369 0 0 0 -0.28277 0.21258 -0.93533 0.039065
0.28083 0.19934 1.0291 7.4679e-39 312 369 0 0 0 -0.22266 0.22897 -0.94763 0.031694
0.28287 0.1989 1.03 7.053e-39 251.5 369 0 0 0 -0.18075 0.24478 -0.95258 0.028584
0.28528 0.1989 1.03 7.2835e-39 253.5 369 0 0 0 -0.1108 0.25808 -0.95975 0.01691
0.28709 0.1989 1.03 7.0069e-39 255 369 0 0 0 -0.076414 0.27149 -0.9594 0.012616
0.28845 0.19914 1.0291 7.3757e-39 298 369 0 0 0 -0.038773 0.28201 -0.95863 0.0080867
0.29131 0.1989 1.03 7.4218e-39 258.5 369 0 0 0 0.010956 0.30088 -0.9536 0.0034675
0.29311 0.1989 1.03 6.9147e-39 260 369 0 0 0 0.026781 0.3104 -0.95023 0.0023851
0.29552 0.1989 1.03 7.4678e-39 262 369 0 0 0 0.040249 0.31421 -0.9485 0.0016663
0.29733 0.1989 1.03 7.56e-39 263.5 369 0 0 0 0.045266 0.31763 -0.94713 0.0015592
0.29889 0.19874 1.0291 7.8366e-39 265 369 0 0 0 0.04867 0.31993 -0.94619 0.001594
0.30082 0.19882 1.0295 8.1132e-39 266.5 369 0 0 0 0.050353 0.3202 -0.94601 0.0017679
0.30275 0.1989 1.03 8.021e-39 268 369 0 0 0 0.059263 0.323 -0.94454 0.0020118
0.30516 0.1989 1.03 7.9288e-39 270 369 0 0 0 0.069491 0.32427 -0.94341 0.0022952
0.30637 0.1989 1.03 7.3757e-39 271 369 0 0 0 0.070945 0.3249 -0.94308 0.002459
0.31239 0.1989 1.03 7.0069e-39 276 369 0 0 0 0.082853 0.32086 -0.9435 0.0033083
0.31902 0.1989 1.03 7.9749e-39 281.5 369 0 0 0 0.092396 0.31816 -0.94352 0.0039839
0.27504 0.20071 1.03 7.2835e-39 274 369.5 0 0 0 -0.4906 0.17968 -0.85266 0.058038
0.27664 0.20091 1.03 6.761e-39 244.67 369.67 0 0 0 -0.39017 0.20529 -0.89757 0.050099
0.27938 0.20085 1.0297 6.5459e-39 248.33 369.67 0 0 0 -0.249 0.22784 -0.94132 0.036217
0.28083 0.20114 1.0291 6.3615e-39 187 370 0 0 0 -0.19627 0.24359 -0.94981 0.02841
0.28267 0.20051 1.03 7.1605e-39 313.67 369.33 0 0 0 -0.16594 0.25314 -0.95309 0.024943
0.28468 0.20011 1.03 8.5742e-39 378 369 0 0 0 -0.11148 0.25783 -0.95974 0.016584
0.28709 0.20071 1.03 7.053e-39 286 369.5 0 0 0 -0.060224 0.27387 -0.95988 0.010079
0.2891 0.20091 1.03 6.5459e-39 256.33 369.67 0 0 0 -0.016503 0.28922 -0.95712 0.0057667
0.29151 0.20051 1.03 6.8224e-39 321 369.33 0 0 0 0.020081 0.3007 -0.95351 0.0033156
0.29311 0.20071 1.03 6.5458e-39 291 369.5 0 0 0 0.034129 0.30708 -0.95107 0.0024417
0.29733 0.20071 1.03 5.7392e-39 297.75 369.5 0 0 0 0.049457 0.32012 -0.94608 0.0018569
0.29914 0.20071 1.03 5.7622e-39 300.5 369.5 0 0 0 0.050432 0.32345 -0.9449 0.0019149
0.30094 0.20071 1.03 5.5778e-39 302.25 369.5 0 0 0 0.053163 0.3257 -0.94398 0.0021742
0.30275 0.20071 1.03 5.5779e-39 304 369.5 0 0 0 0.060211 0.32964 -0.94219 0.0024319
0.30516 0.20071 1.03 5.624e-39 306 369.5 0 0 0 0.069867 0.33005 -0.94137 0.0025832
0.30637 0.20071 1.03 5.9466e-39 307 369.5 0 0 0 0.069865 0.33105 -0.94102 0.0027347
0.27504 0.20252 1.03 6.7303e-39 299 370 0 0 0 -0.42904 0.20822 -0.87896 0.052075
0.27705 0.20292 1.03 6.423e-39 348.67 370 0 0 0 -0.33398 0.2371 -0.91227 0.044862
0.27925 0.20312 1.03 6.1771e-39 374.5 370 0 0 0 -0.24205 0.25106 -0.93722 0.035854
0.28106 0.20312 1.03 6.2693e-39 376 370 0 0 0 -0.19222 0.25863 -0.94666 0.029297
0.2889 0.20252 1.03 6.3615e-39 310.5 370 0 0 0 -0.0092237 0.2956 -0.95527 0.0054386
0.29311 0.20252 1.03 8.2976e-39 340 370 0 0 0 0.040962 0.31331 -0.94877 0.0029435
0.29914 0.20252 1.03 9.0352e-39 345 370 0 0 0 0.053727 0.33146 -0.94194 0.0024541
0.30094 0.20252 1.03 8.7586e-39 346.5 370 0 0 0 0.054532 0.33469 -0.94075 0.0026925
0.27865 0.20493 1.03 6.3615e-39 246 371 0 0 0 -0.2481 0.27012 -0.93031 0.035157
0.27865 0.20613 1.03 8.2976e-39 379 371 0 0 0 -0.222 0.28852 -0.93138 0.030341
0.37568 0.10508 1.0317 5.8083e-39 269 331 0 0 0 -0.32976 -0.85938 -0.39079 0.013589
0.28153 0.1075 1.0317 5.9005e-39 469 331 0 0 0 -0.28346 -0.91031 -0.30162 0.036949
0.2825 0.10741 1.0309 6.0849e-39 470 331 0 0 0 -0.24799 -0.91935 -0.30544 0.03027
0.28515 0.10629 1.0317 7.8366e-39 362 331 0 0 0 -0.15263 -0.94297 -0.29584 0.018055
0.28684 0.10746 1.0313 5.8544e-39 473.5 331 0 0 0 -0.11557 -0.94821 -0.29589 0.015167
0.37276 0.10707 1.0314 6.4844e-39 320.33 331.67 0 0 0 -0.33119 -0.85927 -0.38983 0.013313
0.37497 0.10701 1.0309 6.3307e-39 322.33 331.67 0 0 0 -0.32769 -0.85811 -0.39531 0.013472
0.2749 0.10991 1.0317 5.67e-39 453.5 332 0 0 0 -0.59108 -0.74944 -0.29827 0.053049
0.27707 0.10982 1.0309 5.6239e-39 455.5 332 0 0 0 -0.50809 -0.80851 -0.29691 0.0517
0.27888 0.10982 1.0309 5.9927e-39 457 332 0 0 0 -0.4329 -0.84722 -0.30794 0.04921
0.2807 0.10921 1.0309 6.9608e-39 406.5 332 0 0 0 -0.35846 -0.88017 -0.31114 0.046828
0.28998 0.1087 1.0317 8.1132e-39 362 332 0 0 0 -0.03031 -0.95826 -0.28427 0.0073742
0.29119 0.1087 1.0317 8.021e-39 363 332 0 0 0 -0.0042999 -0.9596 -0.28132 0.0056526
0.29276 0.10861 1.0309 7.8827e-39 365 332 0 0 0 0.017798 -0.95906 -0.28263 0.004515
0.29481 0.1087 1.0317 7.8366e-39 367 332 0 0 0 0.041275 -0.96075 -0.27433 0.0037686
0.3018 0.10982 1.0309 6.3615e-39 478 332 0 0 0 0.084914 -0.95804 -0.27378 0.0018759
0.30326 0.10991 1.0317 6.0849e-39 479 332 0 0 0 0.083766 -0.9575 -0.276 0.0020983
0.30688 0.10991 1.0317 6.0849e-39 482 332 0 0 0 0.05976 -0.95712 -0.28346 0.0029452
0.31654 0.10991 1.0317 5.2552e-39 189 333 0 0 0 0.00711 -0.94221 -0.33494 0.0054341
0.31895 0.10991 1.0317 5.2552e-39 191 333 0 0 0 -0.0061248 -0.93525 -0.35393 0.0055861
0.32304 0.10986 1.0313 5.163e-39 194.5 333 0 0 0 -0.016115 -0.92107 -0.38906 0.0048133
0.32499 0.10991 1.0317 5.5317e-39 197 333 0 0 0 -0.024594 -0.9162 -0.39997 0.0044667
0.32679 0.10991 1.0317 5.5317e-39 213.5 333 0 0 0 -0.030145 -0.912 -0.40907 0.0043165
0.32921 0.10991 1.0317 5.163e-39 234.5 333 0 0 0 -0.036876 -0.90663 -0.42032 0.004072
0.33102 0.10991 1.0317 5.3473e-39 236 333 0 0 0 -0.036429 -0.90203 -0.43013 0.0040731
0.33344 0.10991 1.0317 6.6381e-39 238 333 0 0 0 -0.035002 -0.8993 -0.43593 0.004112
0.33495 0.10907 1.0314 6.3308e-39 346.67 332.33 0 0 0 -0.034565 -0.89828 -0.43806 0.004382
0.33706 0.1087 1.0317 6.3615e-39 402 332 0 0 0 -0.036737 -0.89595 -0.44263 0.0047439
0.33886 0.1093 1.0317 7.1451e-39 323 332.5 0 0 0 -0.040204 -0.89454 -0.44518 0.0054723
0.34129 0.10945 1.0312 7.0683e-39 298.33 332.67 0 0 0 -0.018529 -0.8878 -0.45986 0.0066945
0.34295 0.10926 1.0313 7.0529e-39 326.5 332.5 0 0 0 0.010832 -0.88372 -0.46789 0.0070829
0.3443 0.1087 1.0317 5.9005e-39 408 332 0 0 0 0.031028 -0.88577 -0.46308 0.0063061
0.37105 0.10904 1.0312 7.56e-39 365 332.33 0 0 0 -0.33697 -0.85516 -0.39389 0.013801
0.27308 0.11112 1.0317 5.6239e-39 282 333 0 0 0 -0.67787 -0.68021 -0.27895 0.053076
0.27466 0.11103 1.0309 5.9466e-39 286.5 333 0 0 0 -0.62119 -0.73137 -0.28146 0.053106
0.30904 0.11103 1.0309 7.7444e-39 366 333 0 0 0 0.054818 -0.95512 -0.29109 0.0034426
0.31386 0.11103 1.0309 7.0991e-39 370 333 0 0 0 0.028205 -0.94822 -0.31636 0.0049484
0.31748 0.11103 1.0309 6.8225e-39 373 333 0 0 0 0.0046534 -0.93997 -0.34123 0.0056049
0.31989 0.11103 1.0309 6.4537e-39 375 333 0 0 0 -0.0024992 -0.93443 -0.35614 0.0056995
0.32136 0.11112 1.0317 6.1771e-39 376 333 0 0 0 -0.0117 -0.92891 -0.37012 0.0054601
0.32713 0.11103 1.0309 6.3615e-39 381 333 0 0 0 -0.027816 -0.91178 -0.40973 0.0046212
0.32833 0.11103 1.0309 6.9147e-39 382 333 0 0 0 -0.031062 -0.90841 -0.41692 0.0043686
0.33195 0.11103 1.0309 6.6381e-39 385 333 0 0 0 -0.034511 -0.89951 -0.43553 0.0040885
0.33316 0.11103 1.0309 6.2693e-39 386 333 0 0 0 -0.034486 -0.89785 -0.43894 0.0041785
0.33919 0.11103 1.0309 6.9147e-39 391 333 0 0 0 -0.028339 -0.88983 -0.45541 0.0057728
0.34039 0.11103 1.0309 6.7303e-39 392 333 0 0 0 -0.029622 -0.88767 -0.45952 0.0063048
0.36965 0.11112 1.0317 5.9927e-39 405 333 0 0 0 -0.33697 -0.85516 -0.39389 0.013801
0.27165 0.11344 1.0309 6.8225e-39 266 334 0 0 0 -0.75839 -0.60106 -0.25216 0.049994
0.35909 0.11223 1.0309 5.2091e-39 235.5 334 0 0 0 0.00054458 -0.89723 -0.44157 0.016414
0.3612 0.11233 1.0317 5.2552e-39 237 334 0 0 0 -0.027619 -0.90691 -0.42042 0.024178
0.36286 0.11228 1.0313 6.2693e-39 238.5 334 0 0 0 -0.065851 -0.90643 -0.4172 0.027353
0.36502 0.11307 1.0312 6.423e-39 333.67 334 0 0 0 -0.34854 -0.84327 -0.40916 0.014634
0.36663 0.11233 1.0317 7.6983e-39 241.5 334 0 0 0 -0.34451 -0.84936 -0.39988 0.013769
0.36889 0.11228 1.0313 7.6061e-39 243.5 334 0 0 0 -0.34008 -0.84952 -0.4033 0.014048
0.27067 0.11595 1.0317 5.8083e-39 239 335 0 0 0 -0.83634 -0.50567 -0.21175 0.043934
0.27067 0.12198 1.0317 7.56e-39 361 336 0 0 0 -0.92022 -0.3654 -0.14027 0.028024
0.26946 0.1256 1.0317 7.56e-39 248 337 0 0 0 -0.95988 -0.25943 -0.10646 0.013684
0.26924 0.12731 1.0309 6.5458e-39 414.5 337 0 0 0 -0.97033 -0.22332 -0.092718 0.0086106
0.26924 0.12912 1.0309 5.5317e-39 276 338 0 0 0 -0.97995 -0.18233 -0.08028 0.0056599
0.26814 0.1346 1.0313 6.9147e-39 321 340 0 0 0 -0.99381 -0.086794 -0.069356 0.0040514
0.26803 0.13635 1.0309 7.7444e-39 248 341 0 0 0 -0.99435 -0.064029 -0.084654 0.0054133
0.26803 0.15867 1.0309 7.0069e-39 339.5 352 0 0 0 -0.95677 0.068221 -0.28274 0.020246
0.26803 0.16107 1.0309 5.4856e-39 364.5 353 0 0 0 -0.95081 0.094617 -0.29496 0.020727
0.26803 0.16289 1.0309 8.2976e-39 347 354 0 0 0 -0.94781 0.10973 -0.29935 0.020588
0.26803 0.1653 1.0309 7.0991e-39 373 355 0 0 0 -0.93207 0.14057 -0.3339 0.022236
0.26705 0.16785 1.0317 5.9005e-39 390 356 0 0 0 -0.93804 0.15275 -0.31105 0.018698
0.26803 0.1665 1.0309 5.9927e-39 255 356 0 0 0 -0.92612 0.15523 -0.34381 0.021807
0.26705 0.16906 1.0317 8.5742e-39 272 357 0 0 0 -0.93192 0.16148 -0.32474 0.019657
0.26705 0.17026 1.0317 6.7303e-39 407 357 0 0 0 -0.92258 0.17319 -0.34475 0.020231
0.37175 0.17133 1.0309 5.8083e-39 410 358 0 0 0 0.2057 0.31148 -0.92772 0.0044556
0.26705 0.17268 1.0317 6.1771e-39 497 358 0 0 0 -0.91019 0.18676 -0.3697 0.02154
0.26814 0.17321 1.0313 7.0069e-39 427.5 358.5 0 0 0 -0.8942 0.19818 -0.4014 0.022403
0.36889 0.17321 1.0313 5.9466e-39 385.5 359 0 0 0 0.20138 0.29406 -0.93433 0.004482
0.37054 0.17253 1.0309 6.3615e-39 307 359 0 0 0 0.20607 0.30488 -0.92983 0.0044619
0.37276 0.17303 1.0314 6.423e-39 371.33 359 0 0 0 0.22164 0.30509 -0.92617 0.0045785
0.37507 0.17339 1.0312 5.7468e-39 436 359 0 0 0 0.25007 0.30452 -0.91909 0.0045176
0.26924 0.17495 1.0309 6.9147e-39 236 360 0 0 0 -0.85363 0.22194 -0.47123 0.026834
0.27044 0.17495 1.0309 6.9147e-39 237 360 0 0 0 -0.83263 0.2361 -0.50099 0.030667
0.37416 0.17495 1.0309 8.2976e-39 352 360 0 0 0 0.24212 0.29735 -0.92356 0.0048877
0.27067 0.1763 1.0317 7.56e-39 375 360 0 0 0 -0.83514 0.22996 -0.49967 0.032289
0.36693 0.17675 1.0309 6.4076e-39 275 361 0 0 0 0.20213 0.28307 -0.93756 0.0041978
0.37448 0.1763 1.0317 4.7942e-39 201 361 0 0 0 0.24595 0.29013 -0.92484 0.0049385
0.27165 0.17917 1.0309 6.6381e-39 317 361.5 0 0 0 -0.78129 0.25566 -0.5694 0.040766
0.36723 0.17871 1.0317 5.4395e-39 198 362 0 0 0 0.21206 0.28128 -0.9359 0.0041193
0.27187 0.18113 1.0317 7.3757e-39 379 362 0 0 0 -0.78401 0.23618 -0.57407 0.043466
0.35969 0.18098 1.0309 5.5317e-39 497 362 0 0 0 0.18826 0.26049 -0.94694 0.0035664
0.3609 0.18098 1.0309 5.5317e-39 498 362 0 0 0 0.19322 0.26526 -0.94462 0.0036705
0.27187 0.18234 1.0317 5.163e-39 211 363 0 0 0 -0.77385 0.23786 -0.58701 0.044917
0.27285 0.18339 1.0309 7.7444e-39 356 363 0 0 0 -0.72324 0.24021 -0.64747 0.049209
0.35667 0.18339 1.0309 5.3012e-39 437.5 363 0 0 0 0.17961 0.26045 -0.94863 0.003583
0.35939 0.18304 1.0312 4.9479e-39 393.67 363 0 0 0 0.19366 0.26641 -0.9442 0.0036133
0.3609 0.18279 1.0309 4.8403e-39 372 363 0 0 0 0.19982 0.26855 -0.94231 0.0035622
0.36291 0.18299 1.0309 5.6546e-39 396.67 363 0 0 0 0.21159 0.2735 -0.93831 0.0036776
0.36511 0.18279 1.0309 5.9235e-39 375.5 363 0 0 0 0.21899 0.27803 -0.93527 0.0039611
0.27285 0.1852 1.0309 5.4857e-39 234 364 0 0 0 -0.70455 0.22905 -0.67168 0.049353
0.35004 0.1858 1.0309 6.9147e-39 394 364 0 0 0 0.1174 0.2671 -0.95649 0.002389
0.35487 0.1852 1.0309 7.3296e-39 335 364 0 0 0 0.16667 0.267 -0.94917 0.0037553
0.35675 0.18524 1.0311 7.2604e-39 336.5 364 0 0 0 0.18375 0.26993 -0.94519 0.0036716
0.35931 0.18532 1.0315 6.7994e-39 338.5 364 0 0 0 0.19891 0.27539 -0.94053 0.003597
0.3612 0.18536 1.0317 6.6381e-39 340 364 0 0 0 0.20988 0.28094 -0.93649 0.0036465
0.363 0.18535 1.0317 6.9377e-39 341.5 364 0 0 0 0.22087 0.28511 -0.9327 0.0037938
0.36482 0.18536 1.0317 6.9608e-39 343 364 0 0 0 0.22806 0.28972 -0.92954 0.0039273
0.36603 0.18536 1.0317 6.638e-39 344 364 0 0 0 0.23459 0.29311 -0.92685 0.0039679
0.27308 0.18716 1.0317 5.7161e-39 445 364 0 0 0 -0.70299 0.20856 -0.67993 0.054811
0.35004 0.18701 1.0309 5.0708e-39 234 365 0 0 0 0.1198 0.27553 -0.9538 0.0026894
0.35487 0.18701 1.0309 5.9927e-39 238 365 0 0 0 0.16693 0.27682 -0.94631 0.0038069
0.35698 0.18716 1.0317 5.8544e-39 242.5 365 0 0 0 0.1869 0.27987 -0.94167 0.003969
0.35878 0.18716 1.0317 6.1771e-39 244 365 0 0 0 0.20081 0.28158 -0.93829 0.0037071
0.27297 0.1889 1.0313 7.053e-39 338 365 0 0 0 -0.68968 0.1988 -0.69629 0.054687
0.35065 0.18881 1.0309 6.4767e-39 284.5 365.5 0 0 0 0.125 0.29209 -0.94819 0.0032891
0.35245 0.18881 1.0309 6.6381e-39 286 365.5 0 0 0 0.14299 0.29292 -0.94539 0.0036127
0.35487 0.18881 1.0309 6.2693e-39 289 365.5 0 0 0 0.16678 0.29018 -0.94233 0.0039622
0.35698 0.18898 1.0317 6.569e-39 290.5 365.5 0 0 0 0.18719 0.29207 -0.9379 0.0041488
0.35878 0.18898 1.0317 6.9608e-39 292 365.5 0 0 0 0.20308 0.2924 -0.93448 0.003989
0.27285 0.19123 1.0309 7.7444e-39 314 366 0 0 0 -0.67097 0.1758 -0.72035 0.054801
0.33798 0.19183 1.0309 5.2552e-39 502 366 0 0 0 0.08666 0.2826 -0.95532 0.0030725
0.33919 0.19183 1.0309 5.0708e-39 503 366 0 0 0 0.089111 0.28631 -0.95399 0.0032423
0.3416 0.19183 1.0309 4.1488e-39 505 366 0 0 0 0.095088 0.29211 -0.95165 0.0032729
0.34281 0.19183 1.0309 4.9786e-39 506 366 0 0 0 0.098152 0.29731 -0.94972 0.003413
0.34461 0.19183 1.0309 7.1913e-39 507.5 366 0 0 0 0.10326 0.30242 -0.94757 0.0034139
0.34723 0.19143 1.0309 7.6215e-39 452.67 366 0 0 0 0.11081 0.30839 -0.94478 0.0034703
0.34884 0.19183 1.0309 6.6381e-39 511 366 0 0 0 0.11889 0.31304 -0.94227 0.0035611
0.35086 0.19135 1.0315 7.514e-39 338 366.25 0 0 0 0.13266 0.31356 -0.94026 0.0035488
0.35313 0.19127 1.0311 7.3295e-39 251.5 366.5 0 0 0 0.146 0.31196 -0.93881 0.0038295
0.35516 0.19139 1.0317 6.8224e-39 253 366.5 0 0 0 0.16748 0.31163 -0.93533 0.0041374
0.35758 0.19078 1.0317 8.2054e-39 347 366 0 0 0 0.19113 0.30662 -0.93244 0.0041634
0.27187 0.1932 1.0317 5.6239e-39 213 367 0 0 0 -0.69727 0.1501 -0.70091 0.055038
0.27285 0.19304 1.0309 5.3473e-39 214 367 0 0 0 -0.65838 0.16128 -0.7352 0.05579
0.33678 0.19304 1.0309 8.2054e-39 277 367 0 0 0 0.087421 0.28751 -0.95378 0.0032845
0.33873 0.19312 1.0313 8.6664e-39 278.5 367 0 0 0 0.093023 0.29756 -0.95016 0.0036145
0.341 0.19304 1.0309 8.021e-39 280.5 367 0 0 0 0.095908 0.30052 -0.94894 0.0036773
0.34281 0.19304 1.0309 7.6522e-39 282 367 0 0 0 0.10183 0.30572 -0.94666 0.0036588
0.34461 0.19304 1.0309 7.56e-39 283.5 367 0 0 0 0.10635 0.31314 -0.94373 0.0035268
0.34717 0.19312 1.0313 8.0671e-39 285.5 367 0 0 0 0.11635 0.32335 -0.9391 0.0035617
0.34884 0.19304 1.0309 8.3898e-39 287 367 0 0 0 0.12217 0.32481 -0.93786 0.0036007
0.35033 0.1932 1.0317 8.1132e-39 288 367 0 0 0 0.13156 0.33021 -0.93469 0.0035496
0.35396 0.1932 1.0317 6.9147e-39 291 367 0 0 0 0.1537 0.3315 -0.93085 0.0037937
0.27147 0.19521 1.0317 7.3757e-39 226.33 367.67 0 0 0 -0.69981 0.12419 -0.70345 0.054348
0.27297 0.19493 1.0313 7.6983e-39 258 367.5 0 0 0 -0.64763 0.14515 -0.748 0.057883
0.32894 0.19485 1.0309 5.7853e-39 311 367.5 0 0 0 0.086741 0.28863 -0.9535 0.0030279
0.33074 0.19484 1.0309 5.9466e-39 312.5 367.5 0 0 0 0.086771 0.29177 -0.95254 0.0031919
0.33316 0.19545 1.0309 6.0849e-39 230 368 0 0 0 0.089622 0.29736 -0.95055 0.0033918
0.33511 0.19492 1.0313 6.4767e-39 316 367.5 0 0 0 0.092044 0.2991 -0.94977 0.0035432
0.33706 0.19501 1.0317 6.4076e-39 317.5 367.5 0 0 0 0.095815 0.3069 -0.94691 0.0036855
0.33886 0.19441 1.0317 6.2693e-39 403.5 367 0 0 0 0.095639 0.30696 -0.9469 0.0037768
0.34121 0.19497 1.0315 5.5087e-39 321 367.5 0 0 0 0.10552 0.31876 -0.94194 0.0038886
0.34309 0.19501 1.0317 5.624e-39 322.5 367.5 0 0 0 0.11122 0.32556 -0.93896 0.0037562
0.34491 0.19501 1.0317 5.7162e-39 324 367.5 0 0 0 0.11409 0.33063 -0.93684 0.0035658
0.34711 0.19481 1.0317 5.8083e-39 362 367.33 0 0 0 0.12037 0.33624 -0.93405 0.0034109
0.34913 0.19441 1.0317 5.163e-39 424 367 0 0 0 0.12638 0.34128 -0.93143 0.0033439
0.27132 0.19711 1.0312 7.3756e-39 331 368 0 0 0 -0.67572 0.12345 -0.72675 0.054758
0.27308 0.19682 1.0317 8.2054e-39 287 368 0 0 0 -0.62603 0.1414 -0.76687 0.059359
0.27406 0.19786 1.0309 5.163e-39 424 368 0 0 0 -0.57575 0.15641 -0.80253 0.060566
0.30904 0.19786 1.0309 6.3615e-39 512 368 0 0 0 0.075066 0.31928 -0.94468 0.0029279
0.31145 0.19786 1.0309 5.4395e-39 159 369 0 0 0 0.083277 0.31699 -0.94477 0.0032848
0.31687 0.19786 1.0309 6.131e-39 163.5 369 0 0 0 0.091714 0.31221 -0.94558 0.0038287
0.3211 0.19786 1.0309 6.3615e-39 167 369 0 0 0 0.091749 0.31156 -0.94579 0.0039136
0.3223 0.19666 1.0309 8.482e-39 353 368 0 0 0 0.09057 0.30196 -0.94901 0.0035526
0.32921 0.19682 1.0317 8.5281e-39 358.5 368 0 0 0 0.089175 0.3097 -0.94664 0.0034945
0.33164 0.19711 1.0312 7.222e-39 299 368.33 0 0 0 0.089301 0.31352 -0.94537 0.0036242
0.33344 0.19682 1.0317 8.2054e-39 362 368 0 0 0 0.094611 0.31374 -0.94478 0.0035975
0.33464 0.19682 1.0317 8.8508e-39 363 368 0 0 0 0.095175 0.31499 -0.94431 0.0036506
0.34671 0.19682 1.0317 8.2976e-39 373 368 0 0 0 0.12547 0.35433 -0.92666 0.0031003
0.271 0.19878 1.0314 6.0234e-39 297 368.67 0 0 0 -0.68923 0.11774 -0.71491 0.052894
0.27308 0.19863 1.0317 5.7622e-39 331.5 368.5 0 0 0 -0.62103 0.13592 -0.77191 0.059047
0.27406 0.19907 1.0309 6.1771e-39 241 369 0 0 0 -0.56015 0.15672 -0.81343 0.061865
0.29456 0.19907 1.0309 7.1913e-39 261 369 0 0 0 0.037069 0.3124 -0.94923 0.0019689
0.30421 0.19907 1.0309 7.9288e-39 269 369 0 0 0 0.065366 0.32587 -0.94315 0.0022684
0.30783 0.19907 1.0309 7.2835e-39 272 369 0 0 0 0.07334 0.32773 -0.94192 0.0028571
0.30904 0.19907 1.0309 6.9147e-39 273 369 0 0 0 0.075841 0.32581 -0.94239 0.0030113
0.31085 0.19907 1.0309 6.3615e-39 274.5 369 0 0 0 0.080426 0.32423 -0.94255 0.0032604
0.31386 0.19907 1.0309 8.1132e-39 277 369 0 0 0 0.085848 0.32064 -0.9433 0.0034742
0.31507 0.19907 1.0309 8.6664e-39 278 369 0 0 0 0.087737 0.32101 -0.943 0.0034963
0.31687 0.19907 1.0309 8.4359e-39 279.5 369 0 0 0 0.091323 0.3195 -0.94318 0.0037286
0.3211 0.19907 1.0309 8.021e-39 283 369 0 0 0 0.091944 0.32381 -0.94164 0.0039112
0.32288 0.19878 1.0314 7.4986e-39 245.67 369 0 0 0 0.09147 0.32112 -0.94261 0.003905
0.32531 0.19907 1.0309 7.9749e-39 286.5 369 0 0 0 0.092257 0.32342 -0.94175 0.0037647
0.32713 0.19907 1.0309 8.1132e-39 288 369 0 0 0 0.089174 0.32451 -0.94167 0.0037671
0.32861 0.19803 1.0317 5.9005e-39 173 369 0 0 0 0.088506 0.31899 -0.94362 0.0036581
0.33102 0.19803 1.0317 5.4395e-39 175 369 0 0 0 0.090664 0.31923 -0.94333 0.0036602
0.33284 0.19863 1.0317 6.3154e-39 234.5 369 0 0 0 0.095571 0.32992 -0.93916 0.0036799
0.27127 0.20105 1.0317 6.9146e-39 270.5 369.5 0 0 0 -0.66507 0.14048 -0.73345 0.055926
0.27308 0.20105 1.0317 6.8224e-39 272 369.5 0 0 0 -0.60172 0.1605 -0.78241 0.058116
0.27406 0.20087 1.0309 7.0069e-39 273 369.5 0 0 0 -0.54032 0.17456 -0.82315 0.059844
0.28371 0.20148 1.0309 5.6239e-39 189 370 0 0 0 -0.14179 0.25809 -0.95566 0.02191
0.28491 0.20148 1.0309 5.5317e-39 190 370 0 0 0 -0.10647 0.26227 -0.9591 0.016008
0.28612 0.20087 1.0309 7.0068e-39 285 369.5 0 0 0 -0.084434 0.2693 -0.95935 0.013285
0.29094 0.20148 1.0309 5.5317e-39 195 370 0 0 0 0.019191 0.30343 -0.95266 0.0035868
0.29517 0.20088 1.0309 6.4076e-39 294.5 369.5 0 0 0 0.045255 0.31937 -0.94655 0.0022986
0.30421 0.20087 1.0309 5.6701e-39 305 369.5 0 0 0 0.065744 0.33334 -0.94051 0.002655
0.30783 0.20087 1.0309 6.0849e-39 308 369.5 0 0 0 0.071426 0.33331 -0.94011 0.0030105
0.30917 0.20096 1.0313 5.7622e-39 309 369.5 0 0 0 0.073831 0.3333 -0.93993 0.0032322
0.31085 0.20088 1.0309 5.5548e-39 310.5 369.5 0 0 0 0.079151 0.33014 -0.94061 0.0032564
0.31305 0.20067 1.0309 5.8698e-39 342 369.33 0 0 0 0.084307 0.33045 -0.94005 0.0034385
0.31484 0.20119 1.0314 5.624e-39 284 369.67 0 0 0 0.08726 0.33314 -0.93883 0.0035231
0.31707 0.201 1.0315 6.2693e-39 315.5 369.5 0 0 0 0.091938 0.33491 -0.93775 0.0036743
0.31928 0.20088 1.0309 5.6931e-39 317.5 369.5 0 0 0 0.09176 0.33277 -0.93853 0.0038494
0.32136 0.20105 1.0317 5.4395e-39 319 369.5 0 0 0 0.093194 0.33586 -0.93729 0.003733
0.32378 0.20105 1.0317 5.7161e-39 321 369.5 0 0 0 0.092611 0.33687 -0.93699 0.0036451
0.32521 0.20073 1.0312 5.6546e-39 352.33 369.33 0 0 0 0.093208 0.33633 -0.93712 0.003786
0.327 0.20125 1.0317 5.9005e-39 294.33 369.67 0 0 0 0.090935 0.34275 -0.93501 0.0036745
0.27187 0.20286 1.0317 6.7303e-39 296 370 0 0 0 -0.61729 0.16845 -0.76849 0.060499
0.27308 0.20286 1.0317 7.0991e-39 297 370 0 0 0 -0.57768 0.18314 -0.79545 0.060032
0.27466 0.20329 1.0309 6.5459e-39 370.5 370 0 0 0 -0.47946 0.20648 -0.85293 0.056453
0.27647 0.20389 1.0309 6.3615e-39 444 370 0 0 0 -0.37044 0.24353 -0.89636 0.049362
0.28311 0.20329 1.0309 6.5228e-39 377.5 370 0 0 0 -0.13783 0.27434 -0.9517 0.02123
0.28491 0.20329 1.0309 6.7764e-39 379 370 0 0 0 -0.095622 0.28194 -0.95465 0.014807
0.28693 0.20309 1.0309 7.099e-39 357 370 0 0 0 -0.056264 0.29109 -0.95504 0.00987
0.28913 0.20389 1.0309 5.9005e-39 456 370 0 0 0 0.0029718 0.31183 -0.95013 0.0050889
0.29094 0.20329 1.0309 5.7161e-39 385 370 0 0 0 0.026033 0.31471 -0.94883 0.003943
0.29255 0.20349 1.0309 5.839e-39 412.67 370 0 0 0 0.040101 0.31991 -0.9466 0.0033796
0.29529 0.20278 1.0313 8.7586e-39 341.5 370 0 0 0 0.052678 0.32477 -0.94433 0.0028696
0.29698 0.20329 1.0309 7.3757e-39 408 370 0 0 0 0.056253 0.3328 -0.94132 0.0028316
0.29858 0.20349 1.0309 6.423e-39 449.67 370 0 0 0 0.055967 0.33656 -0.94 0.0027865
0.3012 0.20389 1.0309 4.8403e-39 504.5 370 0 0 0 0.059782 0.34512 -0.93665 0.0032017
0.30301 0.20329 1.0309 6.6842e-39 427 370 0 0 0 0.062635 0.34432 -0.93676 0.0030168
0.30502 0.20309 1.0309 8.021e-39 402.33 370 0 0 0 0.068818 0.34304 -0.9368 0.0030982
0.30722 0.20269 1.0309 8.7125e-39 351.5 370 0 0 0 0.07205 0.34092 -0.93733 0.003292
0.30929 0.20286 1.0317 8.3898e-39 353 370 0 0 0 0.075047 0.34439 -0.93582 0.0034394
0.31111 0.20286 1.0317 7.9749e-39 354.5 370 0 0 0 0.078321 0.34408 -0.93567 0.0034484
0.31292 0.20286 1.0317 7.8366e-39 356 370 0 0 0 0.085133 0.34155 -0.936 0.0035309
0.31533 0.20286 1.0317 8.5742e-39 358 370 0 0 0 0.090337 0.34268 -0.9351 0.0035557
0.31714 0.20286 1.0317 8.2515e-39 359.5 370 0 0 0 0.093274 0.3431 -0.93466 0.0036298
0.31895 0.20286 1.0317 7.9288e-39 361 370 0 0 0 0.093477 0.34539 -0.93379 0.0036169
0.32016 0.20286 1.0317 7.9288e-39 362 370 0 0 0 0.093027 0.34603 -0.9336 0.0035905
