# .PCD v.7 - Point Cloud Data file format
VERSION .7
FIELDS x y z rgb u v vx vy vz normal_x normal_y normal_z curvature
SIZE 4 4 4 4 4 4 4 4 4 4 4 4 4
TYPE F F F F F F F F F F F F F
COUNT 1 1 1 1 1 1 1 1 1 1 1 1 1
WIDTH 555
HEIGHT 1
VIEWPOINT 0 0 0 1 0 0 0
POINTS 555
DATA ascii
-0.016314 0.067036 1.0131 6.4998e-39 322 330 0 0 0 -0.53076 0.22057 -0.81831 0.0090589
-0.015129 0.067036 1.0131 6.4537e-39 323 330 0 0 0 -0.50877 0.22468 -0.83106 0.0095982
-0.013944 0.067036 1.0131 6.3615e-39 324 330 0 0 0 -0.4922 0.22519 -0.84085 0.0092808
0.015675 0.066981 1.0123 5.7161e-39 434 330 0 0 0 0.50589 0.18224 -0.84313 0.03211
0.01686 0.066981 1.0123 5.4856e-39 436 330 0 0 0 0.53837 0.16705 -0.82599 0.032733
0.018667 0.06709 1.0139 5.5778e-39 450.25 330 0 0 0 0.61237 0.11519 -0.78213 0.03219
0.020446 0.066497 1.0139 5.6239e-39 389 330 0 0 0 0.65611 0.090109 -0.74927 0.030984
-0.016314 0.069406 1.0131 5.1629e-39 196.5 331 0 0 0 -0.52379 0.23289 -0.81939 0.0087991
-0.015141 0.06887 1.0139 4.0566e-39 157 331 0 0 0 -0.51059 0.23363 -0.82748 0.0092864
-0.013346 0.069377 1.0127 4.4945e-39 199 331 0 0 0 -0.47531 0.23895 -0.84675 0.0088728
-0.011564 0.069349 1.0123 4.1949e-39 200.5 331 0 0 0 -0.43817 0.23892 -0.86656 0.0089162
0.015675 0.069349 1.0123 6.592e-39 304 331 0 0 0 0.47576 0.18554 -0.85978 0.02688
0.01686 0.069349 1.0123 6.4998e-39 305 331 0 0 0 0.49751 0.17669 -0.84927 0.026247
0.018464 0.069246 1.0136 6.761e-39 275.33 331 0 0 0 0.57173 0.13801 -0.80875 0.028572
-0.016328 0.071242 1.0139 5.5317e-39 427 331 0 0 0 -0.53116 0.24586 -0.81081 0.0097047
-0.015141 0.070649 1.0139 5.7161e-39 333 331 0 0 0 -0.52005 0.24347 -0.8187 0.0095589
-0.013352 0.071184 1.0131 5.7622e-39 429.5 331 0 0 0 -0.48042 0.24802 -0.84124 0.0093566
-0.010971 0.071126 1.0123 6.131e-39 431.5 331 0 0 0 -0.42573 0.2464 -0.87066 0.009158
0.015675 0.071126 1.0123 3.4112e-39 544 331 0 0 0 0.4456 0.19642 -0.87342 0.022963
0.01686 0.071126 1.0123 3.4112e-39 545 331 0 0 0 0.47524 0.18621 -0.85992 0.023044
0.018865 0.070847 1.0139 4.2717e-39 497.67 331 0 0 0 0.56507 0.14855 -0.81156 0.026695
0.020446 0.070056 1.0139 6.1771e-39 401 331 0 0 0 0.61516 0.11404 -0.78011 0.026453
-0.016328 0.073022 1.0139 4.2871e-39 223 332 0 0 0 -0.53252 0.24909 -0.80894 0.010479
-0.015141 0.073022 1.0139 4.5637e-39 224 332 0 0 0 -0.51923 0.25173 -0.81672 0.010846
-0.013356 0.072992 1.0135 7.9519e-39 288 332 0 0 0 -0.48697 0.24965 -0.83698 0.010263
-0.010976 0.072932 1.0127 7.2604e-39 290 332 0 0 0 -0.43182 0.25136 -0.86623 0.0095899
0.012122 0.07231 1.0123 7.0991e-39 215 332 0 0 0 0.33265 0.24312 -0.91117 0.019718
0.015289 0.073139 1.0128 6.423e-39 348.33 332 0 0 0 0.41194 0.21593 -0.88526 0.018969
0.016874 0.072962 1.0131 6.6381e-39 317 332 0 0 0 0.45519 0.1965 -0.86844 0.019637
0.018074 0.073022 1.0139 6.7303e-39 318 332 0 0 0 0.50541 0.16719 -0.84653 0.02314
-0.015141 0.074801 1.0139 5.9927e-39 477 332 0 0 0 -0.52355 0.24771 -0.81519 0.011146
-0.012764 0.075364 1.0135 5.9005e-39 341.5 332.5 0 0 0 -0.47259 0.25088 -0.84482 0.011197
-0.01098 0.075333 1.0131 6.2232e-39 343 332.5 0 0 0 -0.4323 0.25571 -0.86472 0.011201
-0.0086029 0.075863 1.0123 7.7444e-39 207.5 333 0 0 0 -0.35092 0.26387 -0.89846 0.012819
0.012714 0.075863 1.0123 7.0069e-39 225.5 333 0 0 0 0.30599 0.24799 -0.91917 0.015036
0.015093 0.075317 1.0129 5.4165e-39 190 333 0 0 0 0.38034 0.22372 -0.89738 0.016058
0.016881 0.075364 1.0135 5.4856e-39 191.5 333 0 0 0 0.41886 0.20266 -0.88515 0.015681
-0.012769 0.077174 1.0139 6.1771e-39 399 333 0 0 0 -0.47237 0.25316 -0.84426 0.012087
-0.01099 0.077174 1.0139 5.9927e-39 400.5 333 0 0 0 -0.43361 0.25539 -0.86415 0.012661
-0.0086029 0.077047 1.0123 6.4998e-39 403 333 0 0 0 -0.35152 0.26533 -0.89779 0.012944
0.012719 0.077078 1.0127 6.5459e-39 429.5 333 0 0 0 0.29828 0.24551 -0.92236 0.014011
0.015102 0.077142 1.0135 7.1913e-39 431.5 333 0 0 0 0.35686 0.22971 -0.90547 0.013689
0.016887 0.077174 1.0139 7.0991e-39 433 333 0 0 0 0.39612 0.20762 -0.89442 0.013668
-0.01099 0.07836 1.0139 4.1027e-39 542.5 333 0 0 0 -0.43522 0.25821 -0.8625 0.013216
-0.0086135 0.078921 1.0135 5.1629e-39 380 333.5 0 0 0 -0.35264 0.26657 -0.89699 0.013864
-0.0068293 0.078856 1.0127 4.8864e-39 381.5 333.5 0 0 0 -0.29445 0.26934 -0.91693 0.014167
-0.005249 0.079043 1.0126 5.4088e-39 328 333.67 0 0 0 -0.25934 0.2735 -0.92625 0.015227
-0.0032736 0.079416 1.0123 6.4537e-39 220 334 0 0 0 -0.18923 0.27901 -0.94146 0.017006
0.010938 0.078823 1.0123 5.2551e-39 196.5 334 0 0 0 0.24092 0.25851 -0.93548 0.013833
0.012722 0.078872 1.0129 4.6789e-39 198 334 0 0 0 0.28273 0.24224 -0.92811 0.013081
0.015102 0.078921 1.0135 4.3563e-39 206.5 334 0 0 0 0.34027 0.22712 -0.91249 0.012125
0.016887 0.078953 1.0139 4.3793e-39 214.5 334 0 0 0 0.37395 0.21277 -0.90271 0.011512
-0.0086171 0.081326 1.0139 5.5548e-39 282.25 334.5 0 0 0 -0.35566 0.2689 -0.8951 0.014742
-0.0068321 0.081258 1.0131 5.3473e-39 286.5 334.5 0 0 0 -0.29378 0.2722 -0.9163 0.015067
-0.0050541 0.081258 1.0131 5.6009e-39 288.5 334.5 0 0 0 -0.24073 0.27527 -0.93074 0.015431
-0.0032736 0.081192 1.0123 5.7622e-39 290 334.5 0 0 0 -0.19341 0.28341 -0.93929 0.016299
0.0093591 0.081389 1.0123 3.5342e-39 266.33 334.67 0 0 0 0.19404 0.26991 -0.94313 0.012703
0.010938 0.081192 1.0123 4.241e-39 317.5 334.5 0 0 0 0.22044 0.26272 -0.93935 0.012078
0.012728 0.081275 1.0133 4.6328e-39 319 334.5 0 0 0 0.25915 0.2518 -0.93244 0.011179
0.01491 0.081128 1.0139 5.2244e-39 370.67 334.33 0 0 0 0.31769 0.2314 -0.91953 0.011245
0.016887 0.081326 1.0139 8.1131e-39 329.5 334.5 0 0 0 0.35158 0.21788 -0.91045 0.0099903
-0.0086171 0.083105 1.0139 7.053e-39 215.5 335 0 0 0 -0.35478 0.2695 -0.89527 0.014552
-0.0068321 0.083037 1.0131 6.5459e-39 217 335 0 0 0 -0.28892 0.27479 -0.91707 0.014712
-0.0050541 0.083037 1.0131 6.4537e-39 218.5 335 0 0 0 -0.24376 0.2796 -0.92866 0.014797
-0.0032736 0.082969 1.0123 6.4537e-39 220 335 0 0 0 -0.19215 0.28247 -0.93983 0.016047
0.0091617 0.082969 1.0123 6.0388e-39 232.5 335 0 0 0 0.18494 0.27081 -0.9447 0.012078
0.010947 0.083037 1.0131 5.8083e-39 234 335 0 0 0 0.21261 0.25932 -0.9421 0.011276
0.012736 0.083105 1.0139 6.131e-39 262.5 335 0 0 0 0.25293 0.25128 -0.93428 0.010372
0.014515 0.083105 1.0139 5.7161e-39 264 335 0 0 0 0.2932 0.24098 -0.92518 0.010798
-0.0086171 0.084291 1.0139 6.4537e-39 421.5 335 0 0 0 -0.35171 0.27051 -0.89617 0.014845
-0.0068377 0.084884 1.0139 5.9005e-39 288.5 335.5 0 0 0 -0.28954 0.27839 -0.91579 0.015169
-0.0050562 0.084849 1.0135 6.1541e-39 290 335.5 0 0 0 -0.23554 0.2834 -0.92963 0.014009
-0.0026832 0.084797 1.0129 5.647e-39 292.25 335.5 0 0 0 -0.16505 0.28721 -0.94354 0.014881
-0.00090493 0.084745 1.0123 5.5779e-39 294 335.5 0 0 0 -0.11035 0.28839 -0.95113 0.014926
0.00087184 0.084762 1.0125 5.8544e-39 295.5 335.5 0 0 0 -0.058782 0.28763 -0.95594 0.013902
0.0030428 0.084942 1.0123 5.2551e-39 252.67 335.67 0 0 0 0.0056481 0.287 -0.95791 0.014198
0.0050166 0.084745 1.0123 5.4856e-39 299 335.5 0 0 0 0.069306 0.28389 -0.95635 0.014202
0.0069925 0.084966 1.0126 4.3332e-39 256 335.67 0 0 0 0.13009 0.27819 -0.95168 0.01226
0.009173 0.084849 1.0135 3.9875e-39 317 335.5 0 0 0 0.17663 0.27228 -0.94587 0.010951
0.010956 0.084884 1.0139 4.1949e-39 318.5 335.5 0 0 0 0.20158 0.26405 -0.94321 0.010724
0.012736 0.084291 1.0139 5.67e-39 468.5 335 0 0 0 0.24966 0.25252 -0.93483 0.010175
-0.0050583 0.086664 1.0139 7.2374e-39 214.5 336 0 0 0 -0.24117 0.28986 -0.92618 0.013711
-0.0026854 0.087239 1.0137 6.6151e-39 315 336 0 0 0 -0.17131 0.29531 -0.93992 0.014153
-0.00090567 0.087186 1.0131 6.2693e-39 316.5 336 0 0 0 -0.10938 0.2943 -0.94943 0.013687
0.0008725 0.087186 1.0131 6.0618e-39 318 336 0 0 0 -0.056011 0.29598 -0.95355 0.012638
0.0032415 0.08715 1.0127 6.3384e-39 320 336 0 0 0 0.0082313 0.2919 -0.95641 0.012721
0.0050207 0.087186 1.0131 6.4537e-39 321.5 336 0 0 0 0.068679 0.28699 -0.95547 0.012519
0.0068017 0.087221 1.0135 6.8456e-39 323 336 0 0 0 0.11555 0.28524 -0.95147 0.011419
0.0091767 0.087257 1.0139 6.8686e-39 326.5 336 0 0 0 0.166 0.28048 -0.9454 0.0099822
-0.0020927 0.089036 1.0139 3.0425e-39 545 336 0 0 0 -0.14932 0.30354 -0.94105 0.013923
-0.00090642 0.089036 1.0139 2.9503e-39 546 336 0 0 0 -0.11707 0.30345 -0.94563 0.013153
0.00027961 0.088963 1.0131 3.0425e-39 547 336 0 0 0 -0.074025 0.30031 -0.95096 0.012163
0.0032439 0.089 1.0135 3.2729e-39 549.5 336 0 0 0 0.007304 0.29591 -0.95519 0.011715
0.0050249 0.089036 1.0139 5.163e-39 137 337 0 0 0 0.065786 0.29231 -0.95406 0.011513
0.0062111 0.089036 1.0139 5.2552e-39 138 337 0 0 0 0.097733 0.29136 -0.95161 0.010797
0.00027984 0.090815 1.0139 5.9928e-39 240.5 337 0 0 0 -0.07894 0.31135 -0.94701 0.011309
0.0038386 0.090222 1.0139 7.7444e-39 199 337 0 0 0 0.024078 0.30106 -0.9533 0.011229
-0.02109 0.048743 1.0148 6.9147e-39 225 325 0 0 0 -0.60202 0.087682 -0.79365 0.018355
-0.017528 0.049931 1.0148 5.6239e-39 245 325 0 0 0 -0.57552 0.10875 -0.81052 0.014683
-0.015154 0.048743 1.0148 9.404e-39 230 325 0 0 0 -0.56744 0.11693 -0.81507 0.016452
0.02048 0.053536 1.0156 8.8508e-39 232 326 0 0 0 0.77361 0.013765 -0.63352 0.035868
0.020463 0.05468 1.0148 6.0849e-39 409 326 0 0 0 0.75466 0.029027 -0.65548 0.037365
-0.022277 0.057054 1.0148 6.5459e-39 212 327 0 0 0 -0.59671 0.14948 -0.78842 0.01201
-0.022287 0.058859 1.0152 4.702e-39 467.5 327 0 0 0 -0.59778 0.16586 -0.78431 0.011674
-0.02109 0.058835 1.0148 4.6559e-39 468.5 327 0 0 0 -0.59109 0.16852 -0.78881 0.011435
-0.018716 0.059429 1.0148 4.8864e-39 139 328 0 0 0 -0.57402 0.17964 -0.79889 0.010596
0.021668 0.059477 1.0156 6.3615e-39 217 328 0 0 0 0.74339 -0.0040354 -0.66885 0.029881
-0.022296 0.060666 1.0156 6.4537e-39 229 328 0 0 0 -0.60375 0.17626 -0.77744 0.011641
-0.021107 0.06126 1.0156 6.2693e-39 326 328 0 0 0 -0.59662 0.1849 -0.78093 0.011056
-0.018716 0.061209 1.0148 6.7764e-39 328 328 0 0 0 -0.56982 0.18917 -0.7997 0.010199
0.021668 0.06126 1.0156 5.4856e-39 278 328.5 0 0 0 0.73723 0.015077 -0.67548 0.031572
0.022856 0.061854 1.0156 4.241e-39 149 329 0 0 0 0.74874 0.0081752 -0.66281 0.029197
-0.021107 0.063042 1.0156 9.404e-39 204 329 0 0 0 -0.59696 0.19137 -0.77911 0.010986
-0.018731 0.063042 1.0156 7.6522e-39 206 329 0 0 0 -0.57916 0.19614 -0.79127 0.010093
0.021668 0.063042 1.0156 6.1771e-39 240 329 0 0 0 0.72883 0.035001 -0.6838 0.030182
0.022856 0.063042 1.0156 6.0849e-39 241 329 0 0 0 0.74192 0.024791 -0.67003 0.028526
-0.021107 0.064824 1.0156 4.6098e-39 464.5 329 0 0 0 -0.60434 0.19717 -0.77195 0.010974
-0.019317 0.064797 1.0152 4.5406e-39 466 329 0 0 0 -0.58642 0.20247 -0.7843 0.010299
0.021668 0.064824 1.0156 5.7161e-39 319 329.5 0 0 0 0.71905 0.047144 -0.69336 0.029671
0.022856 0.064824 1.0156 5.5778e-39 320 329.5 0 0 0 0.73065 0.036863 -0.68176 0.028282
-0.019919 0.067201 1.0156 6.131e-39 319 330 0 0 0 -0.59084 0.21441 -0.77777 0.0098965
-0.017528 0.067145 1.0148 6.3615e-39 321 330 0 0 0 -0.56039 0.21571 -0.79964 0.010799
0.021266 0.06738 1.0153 5.3473e-39 490.33 330 0 0 0 0.68509 0.077866 -0.72428 0.028184
0.022856 0.067201 1.0156 5.0246e-39 466.5 330 0 0 0 0.7129 0.06965 -0.6978 0.026674
-0.017528 0.068926 1.0148 4.4254e-39 155 331 0 0 0 -0.55769 0.23159 -0.79709 0.0093689
0.021065 0.068954 1.0152 6.9608e-39 215.5 331 0 0 0 0.64604 0.10104 -0.75659 0.026754
0.022837 0.068926 1.0148 6.9147e-39 217 331 0 0 0 0.68125 0.087446 -0.72681 0.025475
0.024044 0.068983 1.0156 7.0991e-39 218 331 0 0 0 0.70994 0.080826 -0.6996 0.025239
-0.017543 0.070765 1.0156 5.9466e-39 331 331 0 0 0 -0.56277 0.24197 -0.79041 0.0099029
0.021266 0.070944 1.0153 5.7469e-39 225.67 331.67 0 0 0 0.64145 0.10692 -0.75968 0.025461
0.022847 0.070736 1.0152 6.0849e-39 271 331.5 0 0 0 0.66463 0.095105 -0.7411 0.02477
0.024044 0.070171 1.0156 6.6381e-39 404 331 0 0 0 0.69944 0.078758 -0.71034 0.024202
-0.017543 0.072548 1.0156 2.8581e-39 166 332 0 0 0 -0.55813 0.24671 -0.79222 0.010611
0.019276 0.073082 1.0148 6.7303e-39 319 332 0 0 0 0.55748 0.14841 -0.81682 0.023707
0.020463 0.073082 1.0148 6.4998e-39 320 332 0 0 0 0.58201 0.13979 -0.80107 0.023482
0.022856 0.072548 1.0156 6.7303e-39 224 332 0 0 0 0.64771 0.11344 -0.7534 0.024357
-0.016341 0.074863 1.0148 5.9927e-39 476 332 0 0 0 -0.5402 0.24843 -0.80404 0.011552
-0.013967 0.074863 1.0148 5.7161e-39 478 332 0 0 0 -0.51149 0.25012 -0.82208 0.011509
0.018691 0.074894 1.0152 4.8403e-39 155.5 333 0 0 0 0.51587 0.17108 -0.83941 0.021798
0.020463 0.074863 1.0148 4.8864e-39 157 333 0 0 0 0.55523 0.15935 -0.81629 0.021846
-0.016355 0.076706 1.0156 5.8544e-39 298.5 333 0 0 0 -0.54735 0.24705 -0.79961 0.012008
-0.01516 0.076676 1.0152 6.2232e-39 299.5 333 0 0 0 -0.52877 0.24822 -0.81166 0.012056
-0.013973 0.076676 1.0152 6.1771e-39 300.5 333 0 0 0 -0.51381 0.25074 -0.82045 0.012579
0.018691 0.076675 1.0152 6.8225e-39 332.5 333 0 0 0 0.48859 0.17814 -0.85414 0.019051
0.02048 0.076706 1.0156 6.7303e-39 334 333 0 0 0 0.54026 0.15915 -0.82631 0.021778
-0.015166 0.078489 1.0156 5.9927e-39 539 333 0 0 0 -0.53079 0.24744 -0.81058 0.01297
-0.013179 0.078841 1.0151 6.0542e-39 431 333.33 0 0 0 -0.49321 0.25187 -0.83265 0.013252
-0.010999 0.079611 1.0148 7.1452e-39 213.5 334 0 0 0 -0.43855 0.25682 -0.86123 0.013825
0.018691 0.07905 1.0152 4.218e-39 219.25 334 0 0 0 0.41181 0.19686 -0.88975 0.010709
0.020471 0.07905 1.0152 4.5176e-39 224 334 0 0 0 0.50085 0.17907 -0.84681 0.018908
-0.01279 0.080865 1.0156 5.9005e-39 416 334 0 0 0 -0.4823 0.25529 -0.83798 0.014428
-0.010999 0.081393 1.0148 5.7392e-39 277.5 334.5 0 0 0 -0.43621 0.25517 -0.86291 0.014644
0.015714 0.081986 1.0148 1.1617e-38 186 335 0 0 0 0.33168 0.22793 -0.91544 0.010165
0.01849 0.081217 1.0151 6.4537e-39 378.33 334.33 0 0 0 0.38191 0.20799 -0.90049 0.0095361
0.020463 0.081392 1.0148 5.5317e-39 332.5 334.5 0 0 0 0.41473 0.19464 -0.88889 0.0090528
-0.01279 0.082648 1.0156 5.0707e-39 380.5 334.5 0 0 0 -0.4831 0.25121 -0.83875 0.014835
-0.010999 0.083173 1.0148 7.0991e-39 213.5 335 0 0 0 -0.43087 0.26101 -0.86385 0.015049
0.015714 0.083173 1.0148 5.2552e-39 277 335 0 0 0 0.31464 0.23669 -0.91923 0.010119
0.016901 0.083173 1.0148 5.2552e-39 278 335 0 0 0 0.3424 0.22963 -0.91106 0.0092795
0.018896 0.082846 1.0156 5.5932e-39 249.33 335 0 0 0 0.38228 0.21365 -0.89901 0.0089968
0.020463 0.083173 1.0148 5.6239e-39 281 335 0 0 0 0.39411 0.20863 -0.89507 0.008694
-0.01279 0.085024 1.0156 5.624e-39 278 335.5 0 0 0 -0.46354 0.25891 -0.84741 0.01537
-0.011008 0.085024 1.0156 5.6009e-39 282.25 335.5 0 0 0 -0.43237 0.26502 -0.86187 0.015141
-0.0086241 0.085548 1.0148 4.4254e-39 152.5 336 0 0 0 -0.35126 0.27661 -0.89449 0.015072
0.012746 0.085548 1.0148 3.5495e-39 171.5 336 0 0 0 0.24207 0.25858 -0.93517 0.0097299
0.015124 0.084971 1.015 6.7073e-39 324.25 335.5 0 0 0 0.30062 0.24707 -0.92119 0.0094545
0.016901 0.084954 1.0148 8.5281e-39 327.5 335.5 0 0 0 0.32734 0.23779 -0.9145 0.0090035
0.018698 0.085024 1.0156 7.053e-39 329 335.5 0 0 0 0.35234 0.23206 -0.90665 0.0081056
0.020471 0.084989 1.0152 6.2232e-39 330.5 335.5 0 0 0 0.37441 0.2227 -0.90012 0.0083358
-0.01279 0.086806 1.0156 8.2054e-39 208 336 0 0 0 -0.46812 0.26477 -0.84306 0.016089
-0.011008 0.086806 1.0156 7.8827e-39 209.5 336 0 0 0 -0.41699 0.27082 -0.86763 0.014842
-0.0086258 0.087347 1.015 6.7764e-39 308.75 336 0 0 0 -0.35762 0.28144 -0.89045 0.015801
-0.0068433 0.087329 1.0148 6.4998e-39 311.5 336 0 0 0 -0.28972 0.28847 -0.91261 0.014422
-0.0050625 0.087922 1.0148 6.6381e-39 411.5 336 0 0 0 -0.25379 0.29566 -0.92096 0.014136
0.010965 0.087329 1.0148 7.0068e-39 328 336 0 0 0 0.19425 0.27303 -0.94219 0.010117
0.012751 0.087365 1.0152 6.7072e-39 329.5 336 0 0 0 0.23443 0.26753 -0.9346 0.0092381
0.014935 0.087202 1.0156 6.423e-39 317 336 0 0 0 0.28532 0.25631 -0.92352 0.0085049
0.016915 0.0874 1.0156 6.592e-39 346.5 336 0 0 0 0.31597 0.2498 -0.9153 0.0087041
0.019292 0.086806 1.0156 5.2552e-39 276 336 0 0 0 0.35617 0.23812 -0.90357 0.0079211
0.02048 0.0874 1.0156 6.1772e-39 355 336 0 0 0 0.36705 0.23842 -0.89913 0.0077961
-0.0086312 0.089183 1.0156 6.0849e-39 539.5 336 0 0 0 -0.3463 0.29411 -0.89083 0.016529
-0.0068489 0.089183 1.0156 5.8083e-39 541 336 0 0 0 -0.29243 0.30049 -0.90785 0.01492
-0.0050643 0.089146 1.0152 4.8864e-39 542.5 336 0 0 0 -0.25765 0.30104 -0.91815 0.014408
-0.0032816 0.089109 1.0148 3.2268e-39 544 336 0 0 0 -0.19307 0.3054 -0.93245 0.013589
0.0014673 0.089109 1.0148 3.1347e-39 548 336 0 0 0 -0.050674 0.30137 -0.95216 0.011919
0.0074034 0.089109 1.0148 5.0708e-39 139 337 0 0 0 0.13163 0.2884 -0.94842 0.010389
0.0091843 0.089109 1.0148 4.6098e-39 151.5 337 0 0 0 0.16539 0.2834 -0.94463 0.0095792
0.010974 0.089183 1.0156 4.5176e-39 153 337 0 0 0 0.19137 0.27914 -0.94099 0.0097511
0.012757 0.089183 1.0156 4.8864e-39 154.5 337 0 0 0 0.22205 0.27119 -0.93656 0.008813
-0.0092254 0.090965 1.0156 4.8403e-39 232.5 337 0 0 0 -0.36784 0.30345 -0.87898 0.01533
-0.0068489 0.090371 1.0156 5.8083e-39 190 337 0 0 0 -0.29014 0.31018 -0.90532 0.014638
-0.0050666 0.090965 1.0156 5.5318e-39 236 337 0 0 0 -0.2514 0.31648 -0.91468 0.01395
-0.0026887 0.090909 1.015 5.624e-39 238 337 0 0 0 -0.1753 0.31397 -0.93311 0.013712
-0.00090716 0.09089 1.0148 5.7622e-39 239.5 337 0 0 0 -0.11738 0.31325 -0.94239 0.012632
0.0014673 0.09089 1.0148 6.1772e-39 241.5 337 0 0 0 -0.05408 0.31146 -0.94872 0.011315
0.0030503 0.091088 1.0148 6.2386e-39 289.33 337 0 0 0 0.00048083 0.30799 -0.95139 0.010894
0.005029 0.09089 1.0148 7.1452e-39 292 337 0 0 0 0.063169 0.30071 -0.95162 0.010462
0.0068126 0.090928 1.0152 6.9838e-39 294 337 0 0 0 0.1056 0.29682 -0.94908 0.010234
0.0091881 0.090928 1.0152 6.9838e-39 296 337 0 0 0 0.16063 0.29101 -0.94314 0.0091226
0.010974 0.090371 1.0156 7.4678e-39 205 337 0 0 0 0.18999 0.2809 -0.94074 0.0091196
-0.0092254 0.092747 1.0156 7.4678e-39 430 337 0 0 0 -0.35618 0.32152 -0.87736 0.014683
-0.0050666 0.093341 1.0156 5.9466e-39 299 337.5 0 0 0 -0.25301 0.33114 -0.90903 0.013811
-0.0026902 0.093341 1.0156 5.8083e-39 301 337.5 0 0 0 -0.17903 0.33157 -0.92629 0.0136
-0.00090791 0.093341 1.0156 5.7161e-39 302.5 337.5 0 0 0 -0.12624 0.32566 -0.93702 0.01282
0.00087429 0.093303 1.0152 5.0708e-39 311.5 337.5 0 0 0 -0.073878 0.32331 -0.9434 0.011495
0.0032492 0.093303 1.0152 4.7481e-39 313.5 337.5 0 0 0 -0.00052761 0.31847 -0.94793 0.010359
0.0050331 0.093341 1.0156 4.8864e-39 315 337.5 0 0 0 0.052628 0.31506 -0.94761 0.0099911
0.0068154 0.093341 1.0156 4.6328e-39 317.75 337.5 0 0 0 0.1018 0.31006 -0.94525 0.0096414
0.0091919 0.093341 1.0156 4.2641e-39 321 337.5 0 0 0 0.14904 0.30532 -0.94051 0.008994
-0.0020961 0.095124 1.0156 7.0069e-39 220 338 0 0 0 -0.16488 0.3427 -0.92486 0.014053
-0.00090791 0.095124 1.0156 6.9147e-39 221 338 0 0 0 -0.12295 0.34263 -0.93139 0.012919
0.00087429 0.095085 1.0152 6.5459e-39 222.5 338 0 0 0 -0.073067 0.33686 -0.93871 0.01173
0.0032492 0.095085 1.0152 7.0069e-39 224.5 338 0 0 0 -0.0059394 0.33342 -0.94276 0.010644
0.0050331 0.095124 1.0156 7.0991e-39 226 338 0 0 0 0.052378 0.32838 -0.94309 0.010045
0.0074095 0.095124 1.0156 6.1771e-39 228 338 0 0 0 0.11177 0.32544 -0.93894 0.0098226
0.0085977 0.095124 1.0156 6.0849e-39 229 338 0 0 0 0.13552 0.31973 -0.93777 0.0092374
-0.0020961 0.096312 1.0156 6.0849e-39 402 338 0 0 0 -0.16603 0.35508 -0.91997 0.014134
-0.00090791 0.096906 1.0156 4.4715e-39 476.5 338 0 0 0 -0.11832 0.36034 -0.92529 0.012612
0.0002803 0.096906 1.0156 4.4254e-39 477.5 338 0 0 0 -0.090316 0.35959 -0.92873 0.012109
0.0032508 0.096906 1.0156 4.8172e-39 480 338 0 0 0 -0.010749 0.34699 -0.93781 0.010909
0.0050331 0.096312 1.0156 6.7303e-39 412 338 0 0 0 0.043369 0.34106 -0.93904 0.010494
0.0074095 0.096312 1.0156 5.9927e-39 414 338 0 0 0 0.10911 0.33145 -0.93714 0.0098908
0.032415 0.041723 1.0173 6.4537e-39 404 323 0 0 0 0.88343 0.13767 -0.44788 0.11049
-0.018746 0.048824 1.0164 8.2054e-39 227 325 0 0 0 -0.59646 0.093771 -0.79715 0.01685
-0.01697 0.048844 1.0168 8.6664e-39 228.5 325 0 0 0 -0.59421 0.10166 -0.79786 0.017802
0.020514 0.051244 1.0173 6.1771e-39 409 325 0 0 0 0.80713 -0.026554 -0.58977 0.037705
0.020497 0.052391 1.0164 3.5034e-39 542 325 0 0 0 0.79837 0.0005692 -0.60217 0.03638
0.021704 0.057195 1.0173 5.8083e-39 249 327 0 0 0 0.77379 -0.0089429 -0.63338 0.030793
0.021686 0.058337 1.0164 5.6239e-39 430 327 0 0 0 0.76161 0.0078973 -0.64799 0.030347
0.022884 0.058955 1.0168 5.7622e-39 324.5 327.5 0 0 0 0.77095 -0.0074127 -0.63686 0.02711
-0.022314 0.061905 1.0164 6.5459e-39 421 328 0 0 0 -0.61067 0.1845 -0.77009 0.011899
0.022875 0.060716 1.0164 6.2693e-39 409 328 0 0 0 0.75885 -0.0018434 -0.65127 0.026766
0.024084 0.061361 1.0173 5.3012e-39 280 328.5 0 0 0 0.77327 -0.015412 -0.63388 0.02363
-0.022314 0.063094 1.0164 1.0879e-38 203 329 0 0 0 -0.61584 0.19152 -0.76424 0.011969
0.024064 0.063094 1.0164 5.8083e-39 242 329 0 0 0 0.76141 0.0084718 -0.64822 0.025634
-0.022314 0.064877 1.0164 4.7942e-39 463.5 329 0 0 0 -0.61445 0.1974 -0.76386 0.01152
0.024064 0.064877 1.0164 5.6239e-39 321 329.5 0 0 0 0.74327 0.028528 -0.66838 0.026681
-0.022323 0.067284 1.0168 6.6381e-39 317 330 0 0 0 -0.61774 0.21157 -0.75739 0.010744
-0.021125 0.067256 1.0164 6.4076e-39 318 330 0 0 0 -0.61075 0.21082 -0.76324 0.010396
-0.018746 0.067256 1.0164 6.0849e-39 320 330 0 0 0 -0.59288 0.21158 -0.777 0.010921
0.024669 0.067284 1.0168 4.8172e-39 468 330 0 0 0 0.74834 0.04412 -0.66185 0.023549
-0.022332 0.069097 1.0173 4.702e-39 151 331 0 0 0 -0.6166 0.23193 -0.75234 0.0098751
-0.021125 0.06904 1.0164 4.3332e-39 152 331 0 0 0 -0.60355 0.22822 -0.76396 0.0094364
-0.019341 0.06904 1.0164 4.1027e-39 153.5 331 0 0 0 -0.58947 0.2304 -0.77424 0.0092728
0.025274 0.069097 1.0173 7.0069e-39 219 331 0 0 0 0.74367 0.048782 -0.66677 0.023813
-0.021142 0.070882 1.0173 6.4537e-39 328 331 0 0 0 -0.60899 0.2387 -0.7564 0.010077
-0.019341 0.070824 1.0164 6.3615e-39 329.5 331 0 0 0 -0.58706 0.24219 -0.77247 0.0098647
0.024864 0.071041 1.0167 5.3474e-39 231.33 331.67 0 0 0 0.71734 0.075269 -0.69265 0.023536
-0.019153 0.073044 1.017 3.8108e-39 197.33 332 0 0 0 -0.58616 0.2459 -0.77198 0.01056
-0.017557 0.073797 1.0164 6.0849e-39 264 332 0 0 0 -0.56235 0.24592 -0.78948 0.011061
0.021686 0.073202 1.0164 6.4076e-39 321 332 0 0 0 0.63409 0.12386 -0.76328 0.023952
0.022875 0.073797 1.0164 6.1771e-39 420 332 0 0 0 0.63772 0.11389 -0.7618 0.02366
0.024669 0.073232 1.0168 6.6151e-39 323.75 332 0 0 0 0.69222 0.095141 -0.71539 0.024898
-0.018762 0.075048 1.0173 5.9005e-39 473 332 0 0 0 -0.57975 0.24417 -0.77735 0.011139
-0.017557 0.074986 1.0164 5.8083e-39 475 332 0 0 0 -0.56211 0.24408 -0.79023 0.011289
0.021686 0.074986 1.0164 4.5176e-39 158 333 0 0 0 0.60592 0.13655 -0.78372 0.023679
0.022875 0.074986 1.0164 4.0566e-39 159 333 0 0 0 0.62288 0.12521 -0.77224 0.023399
0.024679 0.075048 1.0173 3.5034e-39 160.5 333 0 0 0 0.67069 0.10255 -0.73462 0.024189
-0.017572 0.076833 1.0173 5.9005e-39 297 333 0 0 0 -0.56819 0.24248 -0.78636 0.011474
0.021695 0.076801 1.0168 5.7161e-39 350 333 0 0 0 0.58911 0.14541 -0.79486 0.023875
0.022884 0.076801 1.0168 5.8544e-39 351 333 0 0 0 0.60678 0.13767 -0.78286 0.023865
0.024679 0.076833 1.0173 6.0849e-39 352.5 333 0 0 0 0.64 0.1167 -0.75946 0.023626
-0.016368 0.079148 1.0164 6.8224e-39 348 333.5 0 0 0 -0.54587 0.2452 -0.80118 0.012452
-0.015179 0.079743 1.0164 7.56e-39 210 334 0 0 0 -0.53422 0.24499 -0.80907 0.013042
-0.01399 0.079743 1.0164 7.1913e-39 211 334 0 0 0 -0.51918 0.24741 -0.81807 0.013455
0.021704 0.079213 1.0173 4.7481e-39 225 334 0 0 0 0.55678 0.1582 -0.81546 0.022942
0.022894 0.079213 1.0173 7.3296e-39 286 334 0 0 0 0.58077 0.14733 -0.80062 0.02295
0.024084 0.078618 1.0173 6.9147e-39 191 334 0 0 0 0.60651 0.13462 -0.7836 0.023325
-0.016382 0.080998 1.0173 6.5459e-39 413 334 0 0 0 -0.55529 0.24644 -0.7943 0.013234
-0.015179 0.080932 1.0164 6.5459e-39 414 334 0 0 0 -0.53169 0.2469 -0.81015 0.01383
-0.01399 0.080932 1.0164 6.0849e-39 415 334 0 0 0 -0.51159 0.25098 -0.82176 0.014155
-0.016382 0.082784 1.0173 5.5778e-39 377.5 334.5 0 0 0 -0.55729 0.24743 -0.79259 0.013626
-0.015185 0.08275 1.0168 5.4856e-39 378.5 334.5 0 0 0 -0.53354 0.25002 -0.80798 0.014629
-0.01399 0.082715 1.0164 5.3012e-39 379.5 334.5 0 0 0 -0.50518 0.24999 -0.82602 0.01479
-0.014794 0.084966 1.0173 5.0093e-39 460.33 335 0 0 0 -0.52642 0.25609 -0.81074 0.015315
-0.01399 0.085688 1.0164 5.163e-39 137 336 0 0 0 -0.5052 0.25893 -0.82324 0.015946
-0.014001 0.086949 1.0173 8.2976e-39 207 336 0 0 0 -0.50994 0.26394 -0.81872 0.016895
0.018118 0.086878 1.0164 5.5317e-39 264 336 0 0 0 0.34225 0.24139 -0.90807 0.0083403
-0.014001 0.088139 1.0173 6.2693e-39 401 336 0 0 0 -0.5058 0.27109 -0.81895 0.016967
-0.012806 0.088699 1.0168 5.8083e-39 440 336 0 0 0 -0.46935 0.27992 -0.83747 0.017365
-0.011019 0.08868 1.0166 5.8314e-39 441.5 336 0 0 0 -0.42451 0.28351 -0.85989 0.016314
0.015344 0.08886 1.0164 5.3474e-39 247.33 336.67 0 0 0 0.28767 0.25873 -0.92212 0.0084977
0.016929 0.089256 1.0164 4.3332e-39 159 337 0 0 0 0.31071 0.26087 -0.91401 0.0083446
0.018713 0.088662 1.0164 6.0849e-39 296 336.5 0 0 0 0.34158 0.25005 -0.90598 0.0083234
0.020497 0.089256 1.0164 4.5176e-39 162 337 0 0 0 0.36647 0.25057 -0.89606 0.0079899
-0.012811 0.091115 1.0173 5.209e-39 228.5 337 0 0 0 -0.46953 0.29691 -0.83149 0.017965
-0.011022 0.091077 1.0168 4.9786e-39 230.5 337 0 0 0 -0.42079 0.29904 -0.85645 0.016438
-0.0080438 0.091039 1.0164 4.8403e-39 233.5 337 0 0 0 -0.33745 0.31231 -0.88803 0.016032
-0.0068546 0.091634 1.0164 4.4254e-39 279 337 0 0 0 -0.2999 0.31772 -0.89951 0.015537
0.010983 0.091634 1.0164 5.9927e-39 390 337 0 0 0 0.18802 0.28761 -0.93911 0.0088995
0.012767 0.09104 1.0164 7.0529e-39 299.25 337 0 0 0 0.22185 0.27598 -0.93521 0.0086102
0.015149 0.091059 1.0166 7.2604e-39 301.5 337 0 0 0 0.27058 0.27721 -0.92192 0.007278
0.016936 0.091077 1.0168 7.099e-39 305 337 0 0 0 0.30288 0.27095 -0.9137 0.0083886
0.01872 0.091077 1.0168 6.6151e-39 306.5 337 0 0 0 0.3336 0.26754 -0.90396 0.0086833
0.020505 0.091077 1.0168 6.592e-39 308 337 0 0 0 0.35519 0.2644 -0.89662 0.0086581
-0.012811 0.0929 1.0173 7.4678e-39 427 337 0 0 0 -0.45892 0.31188 -0.83194 0.017716
-0.011022 0.092862 1.0168 7.1913e-39 428.5 337 0 0 0 -0.4118 0.31762 -0.85413 0.016611
-0.0080438 0.092824 1.0164 7.7444e-39 431 337 0 0 0 -0.32991 0.32609 -0.88591 0.015548
-0.0068546 0.092824 1.0164 7.6522e-39 432 337 0 0 0 -0.28985 0.32945 -0.89858 0.014893
0.010983 0.092824 1.0164 5.163e-39 467 337 0 0 0 0.18394 0.29739 -0.93687 0.0090734
0.012772 0.092862 1.0168 5.5317e-39 468.5 337 0 0 0 0.22152 0.29466 -0.92957 0.0088003
0.015158 0.0929 1.0173 5.9005e-39 470.5 337 0 0 0 0.27292 0.29348 -0.91618 0.0077004
0.016943 0.0929 1.0173 5.4395e-39 472 337 0 0 0 0.29278 0.29248 -0.91035 0.0077871
0.018728 0.0929 1.0173 5.4856e-39 474 337 0 0 0 0.35516 0.29124 -0.88828 0.012443
-0.010431 0.094685 1.0173 5.7622e-39 186.5 338 0 0 0 -0.39702 0.33961 -0.85267 0.016336
-0.00864 0.094627 1.0166 5.9927e-39 188 338 0 0 0 -0.33837 0.34184 -0.87673 0.014819
-0.0068546 0.094608 1.0164 5.6701e-39 189.5 338 0 0 0 -0.28695 0.34365 -0.89419 0.014298
-0.0050708 0.095202 1.0164 6.6842e-39 217.5 338 0 0 0 -0.25574 0.35086 -0.90083 0.013452
-0.003287 0.095202 1.0164 6.8225e-39 219 338 0 0 0 -0.20552 0.34746 -0.9149 0.013864
0.0062265 0.095202 1.0164 6.6381e-39 227 338 0 0 0 0.086935 0.32843 -0.94052 0.010055
0.009794 0.095202 1.0164 6.0849e-39 230 338 0 0 0 0.16349 0.32078 -0.93294 0.0095621
0.010983 0.094608 1.0164 4.9785e-39 204.5 338 0 0 0 0.18078 0.3178 -0.93077 0.0093325
0.012777 0.094685 1.0173 5.6931e-39 206 338 0 0 0 0.21432 0.31204 -0.92558 0.0088013
0.015158 0.09409 1.0173 4.7481e-39 181.5 338 0 0 0 0.26991 0.30353 -0.91379 0.0081835
0.016943 0.09409 1.0173 4.4254e-39 183 338 0 0 0 0.31117 0.30484 -0.90014 0.010016
0.019323 0.09409 1.0173 4.3332e-39 185 338 0 0 0 0.3636 0.30584 -0.87992 0.012931
-0.010431 0.09647 1.0173 6.3615e-39 389 338 0 0 0 -0.38508 0.35569 -0.85159 0.016203
-0.0086436 0.097046 1.0171 6.0849e-39 465 338 0 0 0 -0.33546 0.36333 -0.86917 0.014143
-0.0068574 0.097026 1.0168 6.1771e-39 467 338 0 0 0 -0.28812 0.36371 -0.88583 0.013691
-0.0050708 0.096986 1.0164 6.108e-39 469.75 338 0 0 0 -0.25346 0.36566 -0.89557 0.012859
-0.0028906 0.097184 1.0164 4.1795e-39 496.67 338 0 0 0 -0.2021 0.36833 -0.90746 0.013645
0.0014697 0.096986 1.0164 4.4715e-39 478.5 338 0 0 0 -0.063768 0.35883 -0.93122 0.012077
0.0050373 0.09758 1.0164 4.9786e-39 137 339 0 0 0 0.040781 0.35819 -0.93276 0.011278
0.0066229 0.097184 1.0164 5.4396e-39 230 338.67 0 0 0 0.088016 0.34539 -0.93432 0.010906
0.0092014 0.097006 1.0166 5.2321e-39 281.25 338.5 0 0 0 0.14699 0.34263 -0.9279 0.010068
0.010992 0.097066 1.0173 5.5779e-39 286.5 338.5 0 0 0 0.18018 0.34034 -0.92288 0.010298
0.012777 0.09647 1.0173 7.0069e-39 418.5 338 0 0 0 0.21574 0.33216 -0.91822 0.0094817
-0.0086455 0.098851 1.0173 7.8366e-39 196.5 339 0 0 0 -0.32928 0.38058 -0.86414 0.012988
-0.0068602 0.098851 1.0173 7.4678e-39 198 339 0 0 0 -0.28921 0.38243 -0.87756 0.013483
-0.0050727 0.09881 1.0168 7.4218e-39 199.5 339 0 0 0 -0.24862 0.38127 -0.89041 0.012818
-0.0026937 0.09881 1.0168 8.021e-39 201.5 339 0 0 0 -0.19373 0.38355 -0.90297 0.014465
-0.00090865 0.098769 1.0164 7.9288e-39 203 339 0 0 0 -0.12909 0.38184 -0.91517 0.013266
0.00067692 0.099166 1.0164 6.7303e-39 229.33 339 0 0 0 -0.091948 0.38266 -0.9193 0.012619
0.0034517 0.099166 1.0164 6.9146e-39 231.67 339 0 0 0 -0.012518 0.37519 -0.92686 0.012128
0.0050373 0.098769 1.0164 7.6522e-39 208 339 0 0 0 0.040885 0.36586 -0.92977 0.011271
0.0068236 0.09881 1.0168 7.2374e-39 209.5 339 0 0 0 0.09149 0.36583 -0.92617 0.011841
0.009207 0.098851 1.0173 6.7303e-39 211.5 339 0 0 0 0.14527 0.35947 -0.92178 0.011037
-0.005075 0.10004 1.0173 5.67e-39 274.5 339 0 0 0 -0.24728 0.3914 -0.88637 0.012407
-0.0020996 0.10064 1.0173 6.638e-39 357 339 0 0 0 -0.17081 0.40024 -0.90035 0.013915
-0.0009094 0.10064 1.0173 6.4075e-39 358 339 0 0 0 -0.1399 0.40023 -0.90567 0.013287
0.0010742 0.10083 1.0173 6.2386e-39 390.67 339 0 0 0 -0.089533 0.39921 -0.91248 0.012946
0.0030578 0.10083 1.0173 5.8391e-39 396.67 339 0 0 0 -0.026499 0.39422 -0.91864 0.013235
0.0050414 0.10064 1.0173 5.8544e-39 369.5 339 0 0 0 0.032524 0.39001 -0.92024 0.012944
0.007025 0.10044 1.0173 5.0708e-39 342.33 339 0 0 0 0.093367 0.38114 -0.91979 0.012761
0.0086119 0.10064 1.0173 4.8403e-39 372.5 339 0 0 0 0.13145 0.37858 -0.91619 0.012151
0.0014709 0.10242 1.0173 6.1771e-39 186 340 0 0 0 -0.084317 0.41048 -0.90796 0.012945
0.0038513 0.10242 1.0173 7.0991e-39 188 340 0 0 0 -0.0044345 0.40585 -0.91393 0.012797
0.0050414 0.10242 1.0173 7.0069e-39 189 340 0 0 0 0.031283 0.40176 -0.91521 0.012976
0.0074217 0.10242 1.0173 7.4678e-39 191 340 0 0 0 0.10156 0.39484 -0.91312 0.013347
0.0086119 0.10242 1.0173 7.3757e-39 192 340 0 0 0 0.12703 0.39408 -0.91025 0.013158
0.03068 0.041791 1.0189 6.1771e-39 402.5 323 0 0 0 0.89332 0.063588 -0.4449 0.1177
-0.016409 0.047752 1.019 3.0425e-39 155 325 0 0 0 -0.60194 0.087899 -0.79369 0.022019
0.021757 0.053757 1.0198 9.0352e-39 233 326 0 0 0 0.81917 -0.045218 -0.57176 0.037549
0.02174 0.054905 1.019 6.2693e-39 410 326 0 0 0 0.80257 -0.033721 -0.59561 0.029029
0.021722 0.056051 1.0181 2.9503e-39 155 327 0 0 0 0.78823 -0.031671 -0.61457 0.031251
0.022923 0.056669 1.0186 4.6559e-39 208.5 327 0 0 0 0.79795 -0.030647 -0.60195 0.028395
0.024134 0.056717 1.0194 4.702e-39 209.5 327 0 0 0 0.81056 -0.029968 -0.58489 0.027255
-0.023561 0.059674 1.019 3.5034e-39 542 327 0 0 0 -0.64136 0.16339 -0.74964 0.013999
0.024114 0.059053 1.0186 5.8083e-39 326 327.5 0 0 0 0.79405 -0.018695 -0.60756 0.024603
-0.023561 0.060866 1.019 6.7303e-39 228 328 0 0 0 -0.63833 0.17206 -0.75029 0.013716
-0.025946 0.06325 1.019 3.0425e-39 159 329 0 0 0 -0.65484 0.17466 -0.73531 0.014927
-0.023561 0.062654 1.019 4.8864e-39 290.5 328.5 0 0 0 -0.64013 0.18431 -0.74583 0.013468
0.025337 0.062706 1.0198 5.1629e-39 197 329 0 0 0 0.79697 -0.0091404 -0.60395 0.020899
-0.025946 0.065038 1.019 6.0388e-39 460.5 329 0 0 0 -0.65763 0.18633 -0.72993 0.014445
-0.023561 0.065038 1.019 5.2551e-39 462.5 329 0 0 0 -0.63847 0.19569 -0.74435 0.013098
0.025306 0.065011 1.0186 5.67e-39 322 329.5 0 0 0 0.78538 0.011754 -0.61891 0.022737
0.02653 0.065689 1.0198 5.8083e-39 211 330 0 0 0 0.79856 0.010977 -0.60181 0.020723
-0.025946 0.066826 1.019 7.0069e-39 219 330 0 0 0 -0.64777 0.22112 -0.72904 0.01073
-0.023561 0.066826 1.019 6.8225e-39 221 330 0 0 0 -0.63361 0.21506 -0.74316 0.011224
0.027115 0.066854 1.0194 5.9005e-39 395 330 0 0 0 0.79711 0.020701 -0.60348 0.0211
-0.025967 0.068075 1.0198 6.5459e-39 405 330 0 0 0 -0.6529 0.23611 -0.71971 0.010158
-0.023581 0.068672 1.0198 5.5317e-39 280.5 330.5 0 0 0 -0.63395 0.23166 -0.73787 0.010104
0.027115 0.068643 1.0194 5.3012e-39 383 330.5 0 0 0 0.79278 0.040134 -0.60818 0.021272
-0.02236 0.07097 1.0186 6.4076e-39 327 331 0 0 0 -0.62053 0.23793 -0.74721 0.010247
0.027105 0.070999 1.0189 5.5317e-39 280.5 331.5 0 0 0 0.78085 0.056447 -0.62217 0.022003
-0.022388 0.072847 1.0198 2.5815e-39 162 332 0 0 0 -0.62815 0.24084 -0.73988 0.010327
-0.02116 0.072727 1.0181 2.7659e-39 163 332 0 0 0 -0.60596 0.24173 -0.75788 0.010614
-0.019968 0.073918 1.0181 5.9005e-39 262 332 0 0 0 -0.59689 0.24131 -0.76518 0.01068
0.026913 0.073204 1.0193 6.6381e-39 293 332 0 0 0 0.76482 0.077117 -0.63961 0.024288
-0.021195 0.07404 1.0198 5.5317e-39 243 332 0 0 0 -0.61719 0.24031 -0.74922 0.010592
-0.019968 0.075109 1.0181 6.1771e-39 472 332 0 0 0 -0.59744 0.24189 -0.76456 0.010982
0.026508 0.075171 1.019 2.7659e-39 162 333 0 0 0 0.74304 0.09505 -0.66246 0.02747
-0.020001 0.076427 1.0198 5.5317e-39 198 333 0 0 0 -0.60886 0.24321 -0.75507 0.011474
-0.018785 0.076928 1.0186 6.0849e-39 296 333 0 0 0 -0.58687 0.24595 -0.77143 0.011586
0.02653 0.077023 1.0198 5.8544e-39 354 333 0 0 0 0.75 0.11231 -0.65183 0.029456
-0.018808 0.078813 1.0198 5.3473e-39 485 333 0 0 0 -0.59775 0.24672 -0.76278 0.01178
-0.017586 0.079278 1.0181 6.6842e-39 347 333.5 0 0 0 -0.57122 0.24751 -0.78259 0.012122
0.024898 0.079477 1.0181 6.0234e-39 320.33 334 0 0 0 0.63896 0.13762 -0.75683 0.026587
-0.018808 0.080006 1.0198 7.6522e-39 207 334 0 0 0 -0.5997 0.25412 -0.7588 0.012483
-0.017586 0.081065 1.0181 6.4537e-39 412 334 0 0 0 -0.57218 0.2485 -0.78157 0.01272
0.021722 0.081065 1.0181 5.9927e-39 476 334 0 0 0 0.53803 0.16802 -0.82601 0.022757
0.022913 0.081065 1.0181 5.9927e-39 477 334 0 0 0 0.5595 0.16047 -0.81315 0.022786
0.024699 0.081065 1.0181 5.3012e-39 478.5 334 0 0 0 0.61645 0.15245 -0.77249 0.026972
-0.018808 0.083585 1.0198 7.8366e-39 207 335 0 0 0 -0.60531 0.25932 -0.75256 0.013572
-0.017593 0.082886 1.0186 5.6239e-39 376.5 334.5 0 0 0 -0.58015 0.25283 -0.77428 0.0139
0.021722 0.082851 1.0181 5.7622e-39 287 335 0 0 0 0.50875 0.18691 -0.84038 0.022531
0.022923 0.082886 1.0186 5.3934e-39 289 335 0 0 0 0.5537 0.1812 -0.81276 0.02601
0.024715 0.082903 1.0188 5.7162e-39 291.75 335 0 0 0 0.62269 0.16889 -0.76403 0.030876
-0.018808 0.085971 1.0198 3.1347e-39 546 335 0 0 0 -0.61459 0.26402 -0.74335 0.013817
-0.016994 0.085252 1.0183 4.9094e-39 479.75 335 0 0 0 -0.57382 0.25954 -0.77677 0.015013
0.021722 0.085235 1.0181 5.8544e-39 331.5 335.5 0 0 0 0.44898 0.21203 -0.86802 0.017516
0.022913 0.085235 1.0181 5.3012e-39 332.5 335.5 0 0 0 0.51704 0.19826 -0.83269 0.023886
0.024715 0.085287 1.0187 5.0016e-39 334 335.5 0 0 0 0.59152 0.19016 -0.78354 0.030698
-0.016991 0.087021 1.0181 7.6522e-39 204.5 336 0 0 0 -0.57579 0.26463 -0.77358 0.015353
-0.015204 0.087021 1.0181 8.021e-39 206 336 0 0 0 -0.54765 0.26834 -0.79251 0.01658
0.02174 0.087093 1.019 4.8864e-39 278 336 0 0 0 0.43352 0.22756 -0.87194 0.016773
0.022913 0.087021 1.0181 4.7942e-39 279 336 0 0 0 0.45451 0.22296 -0.86239 0.016327
0.024124 0.087093 1.019 5.163e-39 280 336 0 0 0 0.5205 0.21249 -0.827 0.024324
-0.017005 0.088881 1.019 5.8544e-39 436.25 336 0 0 0 -0.58356 0.27067 -0.76563 0.016096
-0.014815 0.089055 1.0187 6.0234e-39 451 336 0 0 0 -0.54331 0.27769 -0.79228 0.017247
0.02174 0.088881 1.019 5.8083e-39 298.5 336.5 0 0 0 0.44246 0.26394 -0.85707 0.01823
0.022932 0.088881 1.019 5.7622e-39 299.5 336.5 0 0 0 0.47942 0.25663 -0.83923 0.02102
0.024124 0.088881 1.019 5.8544e-39 300.5 336.5 0 0 0 0.50776 0.25752 -0.82211 0.022285
-0.016422 0.09134 1.0198 6.8225e-39 222.5 337 0 0 0 -0.58468 0.29149 -0.75709 0.017265
-0.014621 0.091265 1.0189 5.8314e-39 224 337 0 0 0 -0.53724 0.29437 -0.79039 0.017314
0.021748 0.091303 1.0194 6.9147e-39 309 337 0 0 0 0.45057 0.27931 -0.84792 0.019167
0.022941 0.091303 1.0194 7.0991e-39 310 337 0 0 0 0.47694 0.28099 -0.83281 0.019843
0.024134 0.091303 1.0194 6.8225e-39 311 337 0 0 0 0.49862 0.28059 -0.82015 0.020597
-0.016422 0.09313 1.0198 8.021e-39 424 337 0 0 0 -0.58518 0.30801 -0.75013 0.017672
-0.014621 0.093054 1.0189 7.7444e-39 425.5 337 0 0 0 -0.53381 0.30689 -0.78795 0.018114
0.021143 0.093054 1.0189 5.7161e-39 476.5 337 0 0 0 0.42526 0.2991 -0.85422 0.016762
0.022951 0.09313 1.0198 5.5317e-39 478 337 0 0 0 0.49818 0.29852 -0.81406 0.022737
-0.01403 0.094881 1.0194 6.0388e-39 183 338 0 0 0 -0.51895 0.32536 -0.79046 0.019233
-0.012827 0.094803 1.0186 5.8083e-39 184 338 0 0 0 -0.47013 0.32757 -0.81956 0.018513
-0.011635 0.094803 1.0186 5.624e-39 185.5 338 0 0 0 -0.43477 0.33753 -0.83489 0.017845
0.01517 0.095359 1.0181 6.3615e-39 256.5 338 0 0 0 0.28527 0.32648 -0.90113 0.011948
0.016957 0.095359 1.0181 5.8083e-39 261 338 0 0 0 0.32253 0.32358 -0.88953 0.013575
0.018545 0.094962 1.0181 5.4395e-39 236.33 338 0 0 0 0.36245 0.31981 -0.87541 0.015891
0.020945 0.094643 1.019 5.2244e-39 212.33 338 0 0 0 0.42469 0.3127 -0.84962 0.0172
-0.014036 0.097306 1.0198 5.7622e-39 427 338 0 0 0 -0.50224 0.35098 -0.7903 0.019141
-0.012837 0.097266 1.0194 6.0849e-39 428 338 0 0 0 -0.45944 0.35415 -0.81455 0.017972
-0.011243 0.097425 1.019 5.9927e-39 447 338 0 0 0 -0.41535 0.3654 -0.83305 0.016266
0.012788 0.097741 1.0181 4.8403e-39 160.5 339 0 0 0 0.21898 0.34551 -0.91251 0.0096831
0.015177 0.097186 1.0186 6.154e-39 291.5 338.5 0 0 0 0.2921 0.34584 -0.89167 0.014204
0.016964 0.097186 1.0186 6.2232e-39 293 338.5 0 0 0 0.33297 0.34254 -0.87852 0.016095
0.018759 0.097226 1.019 6.2923e-39 294.5 338.5 0 0 0 0.37855 0.34371 -0.8594 0.01627
0.020564 0.096709 1.0198 8.021e-39 425 338 0 0 0 0.43305 0.34038 -0.83463 0.018964
-0.012843 0.099096 1.0198 7.0069e-39 193 339 0 0 0 -0.45311 0.36961 -0.81122 0.017768
-0.011045 0.099014 1.0189 7.0991e-39 194.5 339 0 0 0 -0.39919 0.37413 -0.83706 0.014862
0.011001 0.098932 1.0181 6.5459e-39 213 339 0 0 0 0.18341 0.36043 -0.91458 0.011337
0.012793 0.098973 1.0186 6.9608e-39 214.5 339 0 0 0 0.22605 0.36354 -0.90374 0.01221
0.015183 0.099014 1.019 6.7303e-39 216.5 339 0 0 0 0.29781 0.36399 -0.88251 0.015062
0.016971 0.099014 1.019 7.0991e-39 218 339 0 0 0 0.34497 0.36148 -0.86621 0.016601
0.018178 0.099096 1.0198 7.2835e-39 219 339 0 0 0 0.37009 0.36366 -0.85486 0.016685
-0.010452 0.10085 1.0194 6.7303e-39 350 339 0 0 0 -0.37654 0.3904 -0.84013 0.01302
-0.0086562 0.10076 1.0186 7.0299e-39 351.5 339 0 0 0 -0.34121 0.3929 -0.85394 0.013211
-0.0068687 0.10076 1.0186 6.9146e-39 353 339 0 0 0 -0.29588 0.3976 -0.86855 0.013125
-0.0050792 0.10131 1.0181 7.9749e-39 434.5 339 0 0 0 -0.25522 0.40212 -0.8793 0.01277
-0.0032924 0.10071 1.0181 6.7302e-39 356 339 0 0 0 -0.21236 0.39759 -0.89265 0.013694
0.0062367 0.10131 1.0181 5.3473e-39 457 339 0 0 0 0.069181 0.3957 -0.91577 0.013904
0.0098102 0.10071 1.0181 5.0247e-39 375.5 339 0 0 0 0.15454 0.37796 -0.91283 0.012171
0.011001 0.10071 1.0181 4.9786e-39 376.5 339 0 0 0 0.18165 0.37888 -0.90744 0.011913
0.012804 0.10085 1.0194 5.647e-39 425.25 339 0 0 0 0.23991 0.38728 -0.8902 0.015444
0.015196 0.10089 1.0198 6.2002e-39 447.25 339 0 0 0 0.30626 0.38254 -0.8717 0.017964
0.016985 0.10029 1.0198 6.4537e-39 388 339 0 0 0 0.34306 0.37406 -0.86162 0.016933
-0.0086669 0.10268 1.0198 2.9963e-39 177.5 340 0 0 0 -0.33941 0.39714 -0.85269 0.012859
-0.0068772 0.10268 1.0198 3.9644e-39 179 340 0 0 0 -0.29969 0.4042 -0.86418 0.012351
-0.0050855 0.10323 1.0194 5.2321e-39 207 340 0 0 0 -0.25595 0.41051 -0.8752 0.012467
-0.0026994 0.10319 1.019 5.3012e-39 209 340 0 0 0 -0.19077 0.41225 -0.89087 0.013321
-0.00091052 0.10315 1.0186 5.67e-39 219 340 0 0 0 -0.14388 0.41394 -0.89886 0.013459
0.0006781 0.10333 1.0184 6.0542e-39 232 340 0 0 0 -0.099457 0.41751 -0.90321 0.012843
0.0030611 0.10333 1.0184 6.3615e-39 234 340 0 0 0 -0.02748 0.41931 -0.90743 0.013437
0.0050456 0.1037 1.0181 5.5317e-39 259 340 0 0 0 0.030053 0.41492 -0.90936 0.013367
0.0066355 0.10333 1.0184 6.0849e-39 237 340 0 0 0 0.075782 0.40736 -0.91012 0.014171
0.0094185 0.10336 1.0187 6.1771e-39 239.33 340 0 0 0 0.15019 0.40565 -0.90161 0.01389
0.01101 0.10318 1.019 6.3615e-39 229 340 0 0 0 0.18192 0.40456 -0.89623 0.013647
0.012213 0.10328 1.0198 6.5919e-39 230 340 0 0 0 0.22514 0.40891 -0.88437 0.016894
-0.0021048 0.10506 1.0198 6.5459e-39 409 340 0 0 0 -0.1759 0.42398 -0.88842 0.013246
-0.0009109 0.10497 1.019 6.7303e-39 410 340 0 0 0 -0.14007 0.42486 -0.89436 0.013225
0.00087666 0.10493 1.0186 7.053e-39 411.5 340 0 0 0 -0.093401 0.42639 -0.89971 0.013082
0.0032615 0.10497 1.019 6.8686e-39 413.5 340 0 0 0 -0.029891 0.42934 -0.90265 0.013292
0.0050456 0.10489 1.0181 6.8225e-39 415 340 0 0 0 0.032294 0.42043 -0.90675 0.013372
0.0068349 0.10493 1.0186 7.0991e-39 416.5 340 0 0 0 0.081443 0.42308 -0.90243 0.014622
0.0092186 0.10493 1.0186 8.021e-39 418.5 340 0 0 0 0.14937 0.41803 -0.89607 0.013957
0.01101 0.10497 1.019 8.2054e-39 420 340 0 0 0 0.17927 0.41987 -0.8897 0.014902
0.012213 0.10506 1.0198 8.1132e-39 421 340 0 0 0 0.22444 0.42099 -0.87886 0.016495
-0.00091166 0.10625 1.0198 4.9786e-39 466 340 0 0 0 -0.14392 0.4326 -0.89003 0.01282
0.00087743 0.10621 1.0194 5.3473e-39 467.5 340 0 0 0 -0.092956 0.43222 -0.89696 0.012819
0.0032634 0.10683 1.0196 6.9377e-39 355.25 340.5 0 0 0 -0.026338 0.4384 -0.89839 0.01391
0.0050477 0.10672 1.0186 6.7764e-39 372.5 340.5 0 0 0 0.018736 0.43511 -0.90018 0.013158
0.0068392 0.10679 1.0192 6.5459e-39 374 340.5 0 0 0 0.067606 0.43564 -0.89758 0.014226
0.0092245 0.10679 1.0192 5.67e-39 376 340.5 0 0 0 0.1439 0.43261 -0.89002 0.015208
0.011014 0.10681 1.0194 4.5637e-39 377.5 340.5 0 0 0 0.18271 0.43049 -0.88391 0.015617
0.0050518 0.10919 1.0194 7.053e-39 353.5 341 0 0 0 0.01741 0.44733 -0.8942 0.014063
0.0068436 0.10864 1.0198 6.4076e-39 282.5 341 0 0 0 0.072563 0.4427 -0.89373 0.014808
0.0086332 0.10864 1.0198 5.6239e-39 284 341 0 0 0 0.12969 0.44207 -0.88756 0.016192
0.022989 0.053846 1.0215 8.7586e-39 234 326 0 0 0 0.82958 -0.099092 -0.54952 0.038135
0.02297 0.054996 1.0206 6.9147e-39 411 326 0 0 0 0.82397 -0.057548 -0.5637 0.033643
0.024164 0.054996 1.0206 6.9147e-39 412 326 0 0 0 0.82715 -0.071143 -0.55746 0.034147
0.025379 0.059822 1.0215 6.4537e-39 220 328 0 0 0 0.81894 -0.027416 -0.57323 0.024707
0.025358 0.060966 1.0206 6.5459e-39 411 328 0 0 0 0.8109 -0.01847 -0.58489 0.022632
-0.024794 0.062758 1.0206 5.1168e-39 289.5 328.5 0 0 0 -0.65484 0.17466 -0.73531 0.014927
0.026972 0.063009 1.0215 5.1015e-39 213.67 329 0 0 0 0.81362 -0.025715 -0.58083 0.02137
-0.028389 0.065173 1.021 5.7161e-39 380.5 329 0 0 0 -0.67544 0.21567 -0.70517 0.012152
-0.024794 0.065146 1.0206 5.8544e-39 461.5 329 0 0 0 -0.65473 0.19106 -0.73132 0.014372
0.027356 0.064965 1.0209 5.9927e-39 361 329.33 0 0 0 0.81624 0.011397 -0.5776 0.020516
-0.024794 0.066937 1.0206 7.0991e-39 220 330 0 0 0 -0.65004 0.22159 -0.72688 0.010695
-0.02601 0.069382 1.0215 4.6098e-39 148 331 0 0 0 -0.66586 0.24406 -0.70503 0.010221
-0.024815 0.068187 1.0215 6.2693e-39 410 330 0 0 0 -0.65457 0.23772 -0.71766 0.01009
0.028964 0.068784 1.0215 5.8544e-39 179.5 331 0 0 0 0.8313 0.042994 -0.55416 0.018559
-0.02361 0.071146 1.021 6.3615e-39 326 331 0 0 0 -0.64386 0.23725 -0.72743 0.010408
0.028964 0.071176 1.0215 5.3934e-39 282 331.5 0 0 0 0.83672 0.076478 -0.54227 0.019925
-0.022416 0.07473 1.021 6.0388e-39 354.5 332 0 0 0 -0.64259 0.24319 -0.72659 0.010594
-0.021212 0.075296 1.0206 6.2693e-39 471 332 0 0 0 -0.62517 0.24143 -0.74221 0.010941
0.027757 0.07473 1.021 4.5176e-39 294 332.5 0 0 0 0.81989 0.10498 -0.56281 0.024439
-0.020018 0.077684 1.0206 6.2693e-39 392 333 0 0 0 -0.61309 0.24671 -0.7505 0.011418
-0.020035 0.078943 1.0215 5.2552e-39 484 333 0 0 0 -0.62798 0.25291 -0.73599 0.011565
0.026552 0.078878 1.0206 4.8864e-39 193 334 0 0 0 0.75745 0.13303 -0.63919 0.03263
-0.018824 0.081266 1.0206 6.3615e-39 411 334 0 0 0 -0.61175 0.25455 -0.74898 0.012421
-0.018824 0.08246 1.0206 3.4112e-39 544 334 0 0 0 -0.61189 0.2555 -0.74853 0.013081
-0.018824 0.084848 1.0206 6.2693e-39 410 335 0 0 0 -0.62029 0.26265 -0.73909 0.013999
-0.020027 0.086675 1.021 5.3473e-39 373.5 335.5 0 0 0 -0.65814 0.27548 -0.70069 0.013978
-0.018824 0.087237 1.0206 7.7444e-39 203 336 0 0 0 -0.62768 0.27188 -0.72945 0.014448
-0.020018 0.089028 1.0206 5.9927e-39 433.5 336 0 0 0 -0.65945 0.27789 -0.6985 0.0144
-0.018839 0.088504 1.0215 5.9005e-39 396 336 0 0 0 -0.64821 0.27909 -0.70847 0.015776
-0.01763 0.090819 1.0206 8.7586e-39 181 337 0 0 0 -0.61117 0.29133 -0.73593 0.017163
-0.017644 0.092687 1.0215 6.8685e-39 342.5 337 0 0 0 -0.63131 0.3081 -0.7117 0.017965
0.024164 0.093207 1.0206 5.4395e-39 479 337 0 0 0 0.5251 0.29393 -0.79867 0.022919
-0.016436 0.094401 1.0206 4.702e-39 154 338 0 0 0 -0.59757 0.31986 -0.73526 0.018991
-0.015242 0.094401 1.0206 4.9786e-39 155 338 0 0 0 -0.56786 0.32166 -0.75767 0.019832
0.021775 0.095595 1.0206 5.4395e-39 265 338 0 0 0 0.46316 0.32568 -0.82427 0.019566
0.02297 0.094998 1.0206 5.7622e-39 227.5 338 0 0 0 0.48985 0.32154 -0.81035 0.020615
0.024184 0.094479 1.0215 6.1771e-39 189 338 0 0 0 0.55962 0.30957 -0.76876 0.026541
0.021178 0.097387 1.0206 6.131e-39 296.5 338.5 0 0 0 0.44888 0.34577 -0.82399 0.018538
0.022989 0.096869 1.0215 7.7444e-39 427 338 0 0 0 0.48704 0.34564 -0.80207 0.019064
-0.014047 0.099178 1.0206 7.3757e-39 192 339 0 0 0 -0.492 0.35648 -0.79427 0.01946
0.019387 0.099178 1.0206 7.2835e-39 220 339 0 0 0 0.41778 0.36304 -0.83286 0.018422
0.021196 0.098662 1.0215 5.5779e-39 194.5 339 0 0 0 0.45832 0.35835 -0.81335 0.018244
-0.012853 0.10037 1.0206 5.6239e-39 266 339 0 0 0 -0.45878 0.36808 -0.80873 0.019313
-0.011659 0.10037 1.0206 5.9927e-39 267 339 0 0 0 -0.43346 0.38291 -0.81578 0.017701
0.016999 0.10157 1.0206 6.2693e-39 541 339 0 0 0 0.34879 0.38828 -0.85299 0.01719
0.018798 0.10101 1.021 5.8313e-39 466 339 0 0 0 0.40776 0.37812 -0.83112 0.018621
-0.010474 0.10284 1.0215 2.7659e-39 176 340 0 0 0 -0.38853 0.37589 -0.84128 0.018957
-0.008674 0.10395 1.0206 5.9466e-39 230.5 340 0 0 0 -0.33199 0.39474 -0.85671 0.013894
-0.0068829 0.10395 1.0206 6.1771e-39 232 340 0 0 0 -0.29496 0.40586 -0.86503 0.01213
0.013417 0.10336 1.0206 6.8224e-39 231 340 0 0 0 0.26901 0.41064 -0.87121 0.018117
0.015208 0.10335 1.0206 6.615e-39 233 340 0 0 0 0.31342 0.40611 -0.8584 0.018956
0.016999 0.10276 1.0206 7.1913e-39 199 340 0 0 0 0.35011 0.40141 -0.84634 0.017948
0.018798 0.1028 1.021 7.514e-39 200.5 340 0 0 0 0.40532 0.39352 -0.82514 0.019356
-0.0086813 0.10524 1.0215 6.2693e-39 399 340 0 0 0 -0.31477 0.38617 -0.86706 0.017356
-0.0068886 0.10524 1.0215 6.7303e-39 405 340 0 0 0 -0.2964 0.40776 -0.86364 0.012317
-0.0050918 0.10515 1.0206 7.0069e-39 406.5 340 0 0 0 -0.25877 0.41634 -0.87161 0.012285
-0.0033006 0.10515 1.0206 6.5459e-39 408 340 0 0 0 -0.21817 0.42253 -0.8797 0.012673
0.013428 0.10524 1.0215 8.1132e-39 422 340 0 0 0 0.2681 0.42482 -0.86467 0.019087
0.015214 0.1052 1.021 8.3437e-39 423.5 340 0 0 0 0.31815 0.41841 -0.85071 0.01953
0.017013 0.10404 1.0215 5.6239e-39 271 340 0 0 0 0.35448 0.40867 -0.84103 0.017936
0.018208 0.10404 1.0215 5.9005e-39 272 340 0 0 0 0.38813 0.40245 -0.82909 0.019757
-0.0021065 0.10634 1.0206 5.0708e-39 465 340 0 0 0 -0.17496 0.43055 -0.88545 0.012794
-0.00091316 0.10763 1.0215 7.4678e-39 199 341 0 0 0 -0.13696 0.44068 -0.88715 0.012642
0.00087886 0.10758 1.021 7.4679e-39 200.5 341 0 0 0 -0.093453 0.44083 -0.89271 0.013203
0.012628 0.1068 1.0212 3.4727e-39 435 340.33 0 0 0 0.23806 0.43287 -0.86945 0.019702
0.015221 0.10643 1.0215 2.0283e-39 549.5 340 0 0 0 0.32166 0.42273 -0.84725 0.019755
0.001477 0.10882 1.0215 6.2693e-39 278 341 0 0 0 -0.075752 0.44633 -0.89166 0.012662
0.003267 0.10873 1.0206 5.9005e-39 279.5 341 0 0 0 -0.026683 0.44886 -0.89321 0.014467
0.0068492 0.10992 1.0206 7.5601e-39 427.5 341 0 0 0 0.079252 0.44681 -0.89111 0.015579
