# .PCD v.7 - Point Cloud Data file format
VERSION .7
FIELDS x y z rgb u v vx vy vz normal_x normal_y normal_z curvature
SIZE 4 4 4 4 4 4 4 4 4 4 4 4 4
TYPE F F F F F F F F F F F F F
COUNT 1 1 1 1 1 1 1 1 1 1 1 1 1
WIDTH 564
HEIGHT 1
VIEWPOINT 0 0 0 1 0 0 0
POINTS 564
DATA ascii
-0.010405 0.11285 1.0148 7.8366e-39 396 340 0 0 0 -0.63634 0.31667 -0.70341 0.032204
0.03471 0.11285 1.0148 5.5317e-39 442 340 0 0 0 0.69622 0.34556 -0.62918 0.014691
-0.012784 0.11468 1.0152 6.6381e-39 309 340.5 0 0 0 -0.65129 0.30064 -0.69673 0.035806
-0.010807 0.11489 1.0153 6.0849e-39 267 340.67 0 0 0 -0.6292 0.31323 -0.71133 0.033179
0.033523 0.11523 1.0148 6.2693e-39 223 341 0 0 0 0.65755 0.37357 -0.65427 0.013288
0.034738 0.11413 1.0156 5.7161e-39 154 341 0 0 0 0.69759 0.34488 -0.62803 0.014302
-0.012779 0.11701 1.0148 7.2835e-39 266.5 341 0 0 0 -0.62735 0.30761 -0.7154 0.033029
-0.011008 0.1171 1.0156 7.4909e-39 268 341 0 0 0 -0.60766 0.31575 -0.72873 0.032046
-0.0086241 0.11701 1.0148 7.4218e-39 289.5 341 0 0 0 -0.58301 0.33023 -0.74233 0.028118
-0.0068433 0.11701 1.0148 7.6061e-39 291.5 341 0 0 0 -0.55266 0.34181 -0.76008 0.026387
-0.0056584 0.11706 1.0152 7.9749e-39 296.5 341 0 0 0 -0.52842 0.35371 -0.77179 0.023291
0.03355 0.1171 1.0156 7.4679e-39 341 341 0 0 0 0.65069 0.37351 -0.66112 0.013174
-0.01279 0.11889 1.0156 7.9288e-39 401 341 0 0 0 -0.61781 0.30857 -0.72325 0.034234
-0.0086241 0.11879 1.0148 7.8827e-39 404.5 341 0 0 0 -0.56213 0.34201 -0.75302 0.026223
-0.0068489 0.11889 1.0156 7.4678e-39 408 341 0 0 0 -0.53077 0.3527 -0.77064 0.024489
-0.0050648 0.11943 1.0152 7.1913e-39 446 341 0 0 0 -0.48973 0.37126 -0.78888 0.021016
0.031148 0.11998 1.0148 5.4395e-39 159 342 0 0 0 0.57405 0.39183 -0.71899 0.016657
0.032335 0.11879 1.0148 7.2835e-39 446 341 0 0 0 0.60764 0.38443 -0.69497 0.014961
-0.0086312 0.12067 1.0156 6.3615e-39 326 341.5 0 0 0 -0.53507 0.35244 -0.76778 0.024271
-0.0068489 0.12008 1.0156 7.1913e-39 481 341 0 0 0 -0.51197 0.36181 -0.77909 0.022851
-0.0044689 0.12116 1.0148 4.9786e-39 177 342 0 0 0 -0.45254 0.38685 -0.80346 0.017378
-0.002688 0.12116 1.0148 5.5779e-39 186 342 0 0 0 -0.42069 0.40172 -0.81341 0.014906
0.029961 0.12116 1.0148 6.4537e-39 223 342 0 0 0 0.53878 0.40586 -0.73824 0.017624
0.031174 0.12126 1.0156 7.3757e-39 224 342 0 0 0 0.56956 0.38517 -0.72611 0.017873
0.032362 0.12008 1.0156 5.3473e-39 160 342 0 0 0 0.60539 0.3757 -0.70168 0.016825
-0.0044725 0.12304 1.0156 7.7905e-39 296.5 342 0 0 0 -0.43254 0.40363 -0.80622 0.015277
-0.0026898 0.12302 1.0154 7.8136e-39 298 342 0 0 0 -0.4015 0.41642 -0.81572 0.013067
0.027586 0.12354 1.0148 7.0991e-39 383 342 0 0 0 0.46095 0.42663 -0.77814 0.018296
0.029379 0.123 1.0152 7.3526e-39 335.5 342 0 0 0 0.51794 0.39712 -0.75765 0.019902
-0.0020961 0.12483 1.0156 7.6522e-39 404 342 0 0 0 -0.37057 0.43474 -0.82078 0.011101
-0.00090716 0.12532 1.0148 7.6983e-39 440.5 342 0 0 0 -0.34028 0.44939 -0.82599 0.0096855
0.00028007 0.12591 1.0148 7.8366e-39 477 342 0 0 0 -0.32325 0.4602 -0.82687 0.0092632
0.025212 0.12591 1.0148 5.8083e-39 146 343 0 0 0 0.37218 0.44861 -0.81254 0.018788
0.027004 0.12478 1.0152 5.8083e-39 428.5 342 0 0 0 0.43939 0.42488 -0.79146 0.02012
-0.0020961 0.12602 1.0156 8.1132e-39 454 342 0 0 0 -0.35275 0.44493 -0.82317 0.0095676
-0.00090716 0.1271 1.0148 4.702e-39 169 343 0 0 0 -0.3279 0.45791 -0.82632 0.0090614
0.00087368 0.1271 1.0148 5.0247e-39 170.5 343 0 0 0 -0.31371 0.46531 -0.82769 0.0088278
0.024629 0.12716 1.0152 5.4856e-39 204.5 343 0 0 0 0.34932 0.45362 -0.81988 0.019148
0.027015 0.12602 1.0156 5.3934e-39 147.5 343 0 0 0 0.43822 0.42276 -0.79324 0.020329
-0.00090791 0.12899 1.0156 7.1452e-39 258.5 343 0 0 0 -0.31554 0.46313 -0.82822 0.008641
0.0008741 0.12896 1.0154 7.2835e-39 260 343 0 0 0 -0.30838 0.46914 -0.82753 0.0076886
0.0030503 0.12908 1.0148 7.9288e-39 272 343 0 0 0 -0.27271 0.47895 -0.83441 0.0090108
0.02165 0.12948 1.0148 7.56e-39 347 343 0 0 0 0.25679 0.47961 -0.83907 0.019482
0.022837 0.12829 1.0148 6.9147e-39 256 343 0 0 0 0.28856 0.47349 -0.83219 0.018718
0.024044 0.12839 1.0156 6.6381e-39 257 343 0 0 0 0.32876 0.45707 -0.82644 0.019774
0.0014685 0.13077 1.0156 7.7444e-39 379 343 0 0 0 -0.28957 0.47318 -0.83202 0.0074287
0.0032495 0.13131 1.0152 6.8224e-39 401.5 343 0 0 0 -0.25325 0.48496 -0.83706 0.0094117
0.0050311 0.13131 1.0152 7.0069e-39 403 343 0 0 0 -0.22645 0.49226 -0.84048 0.011104
0.0068126 0.13131 1.0152 6.9608e-39 404.5 343 0 0 0 -0.19594 0.50283 -0.84188 0.013151
0.0091843 0.13185 1.0148 6.131e-39 427.5 343 0 0 0 -0.13717 0.51685 -0.84502 0.015067
0.01097 0.13131 1.0152 7.0068e-39 408 343 0 0 0 -0.084586 0.52088 -0.84943 0.018083
0.012746 0.13185 1.0148 5.8544e-39 430.5 343 0 0 0 -0.017996 0.52558 -0.85056 0.017188
0.014923 0.13145 1.0148 6.3922e-39 418.33 343 0 0 0 0.073126 0.52461 -0.84819 0.018124
0.016908 0.13131 1.0152 6.6841e-39 413 343 0 0 0 0.12962 0.5205 -0.84397 0.01596
0.01869 0.13131 1.0152 6.8685e-39 414.5 343 0 0 0 0.17616 0.50683 -0.84386 0.016739
0.02087 0.13113 1.0153 7.4064e-39 409.33 343 0 0 0 0.23338 0.4824 -0.84429 0.019771
0.0091919 0.13315 1.0156 5.8544e-39 508.5 343 0 0 0 -0.13254 0.5173 -0.84548 0.014705
0.012757 0.13315 1.0156 6.5459e-39 511.5 343 0 0 0 -0.01932 0.53014 -0.84769 0.016287
0.015133 0.13315 1.0156 8.021e-39 513.5 343 0 0 0 0.075452 0.53072 -0.84418 0.015822
-0.016368 0.041689 1.0164 5.8083e-39 219 321 0 0 0 0.93457 0.051485 -0.35204 0.11881
-0.015191 0.041723 1.0173 5.5317e-39 220 321 0 0 0 0.90386 0.051124 -0.42477 0.11749
-0.01399 0.041689 1.0164 5.4395e-39 221 321 0 0 0 0.90386 0.051124 -0.42477 0.11749
-0.011611 0.041689 1.0164 5.3473e-39 225 321 0 0 0 0.86018 -0.028673 -0.50918 0.11797
-0.012811 0.042913 1.0173 7.1913e-39 423 321 0 0 0 0.85349 -0.085861 -0.51399 0.11731
0.040713 0.04704 1.0164 7.4679e-39 359.5 323 0 0 0 0.53287 -0.79541 -0.28874 0.077252
0.040713 0.048824 1.0164 5.4395e-39 224 324 0 0 0 0.59256 -0.75802 -0.27253 0.07495
0.04073 0.050628 1.0168 6.3154e-39 288 324.5 0 0 0 0.65554 -0.71953 -0.22923 0.079718
-0.016368 0.05358 1.0164 5.7161e-39 226 325 0 0 0 0.9529 -0.18523 -0.24014 0.068871
-0.012811 0.052434 1.0173 5.2552e-39 171 325 0 0 0 0.76816 -0.46269 -0.44255 0.076388
0.037176 0.053625 1.0173 8.2054e-39 284 325 0 0 0 0.62938 -0.73383 -0.25569 0.081546
0.038945 0.053603 1.0168 7.7905e-39 285.5 325 0 0 0 0.68854 -0.68113 -0.24896 0.078467
0.04073 0.053007 1.0168 6.5458e-39 254.5 325 0 0 0 0.71467 -0.6588 -0.235 0.078444
0.039524 0.05477 1.0164 5.8083e-39 401 325 0 0 0 0.75058 -0.62028 -0.22778 0.078905
0.041919 0.055387 1.0168 6.4998e-39 417.5 325 0 0 0 0.84405 -0.50954 -0.16717 0.073627
0.044317 0.057195 1.0173 5.7161e-39 202 326 0 0 0 0.91022 -0.39484 -0.12489 0.070089
0.044317 0.058385 1.0173 7.6522e-39 350 326 0 0 0 0.93123 -0.34519 -0.11688 0.062673
0.043127 0.061956 1.0173 5.9005e-39 368 327 0 0 0 0.94662 -0.25374 -0.19881 0.048464
0.044317 0.061956 1.0173 5.3473e-39 370 327 0 0 0 0.95045 -0.2372 -0.20097 0.042588
0.043127 0.063146 1.0173 6.5459e-39 497 327 0 0 0 0.95138 -0.22352 -0.21193 0.047687
0.044317 0.063146 1.0173 4.9786e-39 156 328 0 0 0 0.95198 -0.20215 -0.22993 0.040532
0.043109 0.064904 1.0168 6.9146e-39 344 328 0 0 0 0.9478 -0.17122 -0.26899 0.038256
0.04428 0.064877 1.0164 7.1452e-39 345 328 0 0 0 0.94577 -0.15998 -0.28272 0.035878
0.043091 0.074986 1.0164 5.3473e-39 388 331 0 0 0 0.9108 0.097918 -0.40108 0.01144
0.04428 0.074986 1.0164 5.4395e-39 389 331 0 0 0 0.92111 0.094464 -0.37766 0.0098285
0.043127 0.076238 1.0173 6.3615e-39 477 331 0 0 0 0.91894 0.1169 -0.37667 0.0085541
0.044317 0.076238 1.0173 5.5317e-39 495 331 0 0 0 0.92616 0.11345 -0.35965 0.0076781
0.040713 0.085688 1.0164 5.4395e-39 355 334 0 0 0 0.88852 0.15221 -0.43285 0.013418
-0.015179 0.088067 1.0164 7.56e-39 471 334 0 0 0 -0.89019 0.21964 -0.39915 0.015188
-0.015191 0.0929 1.0173 4.702e-39 165 336 0 0 0 -0.88609 0.19206 -0.42185 0.019947
-0.014001 0.098851 1.0173 6.2693e-39 385 337 0 0 0 -0.85676 0.19208 -0.47861 0.033791
0.039524 0.099959 1.0164 5.6239e-39 171 338 0 0 0 0.85586 0.18913 -0.48139 0.014815
-0.012811 0.10123 1.0173 6.1771e-39 199 338 0 0 0 -0.83569 0.20042 -0.51132 0.039508
0.039556 0.10123 1.0173 5.4395e-39 279 338 0 0 0 0.85996 0.19125 -0.47318 0.013312
-0.011616 0.10535 1.0168 5.4395e-39 365 338.5 0 0 0 -0.77644 0.24809 -0.5793 0.044613
0.038334 0.10709 1.0164 7.9288e-39 401 339 0 0 0 0.80934 0.25028 -0.53135 0.015826
-0.013395 0.10947 1.0164 8.8508e-39 510.5 339 0 0 0 -0.74453 0.26644 -0.61212 0.045305
-0.011621 0.10837 1.0173 5.9927e-39 415 339 0 0 0 -0.74972 0.26414 -0.60675 0.045002
0.038366 0.10837 1.0173 5.9927e-39 485 339 0 0 0 0.80614 0.25638 -0.5333 0.014873
-0.0128 0.11126 1.0164 6.5459e-39 248 340 0 0 0 -0.72073 0.2829 -0.63286 0.042203
0.035956 0.11185 1.0164 6.9147e-39 383 340 0 0 0 0.74296 0.30993 -0.59325 0.014286
0.037161 0.1113 1.0168 6.3615e-39 325 340 0 0 0 0.76432 0.29561 -0.57309 0.014155
-0.011611 0.11304 1.0164 8.2054e-39 395 340 0 0 0 -0.66469 0.30174 -0.68348 0.035769
0.035986 0.11313 1.0173 5.6239e-39 443 340 0 0 0 0.73912 0.31751 -0.59404 0.013646
-0.016382 0.11432 1.0173 7.2835e-39 451 340 0 0 0 -0.74802 0.25305 -0.61354 0.048349
-0.015179 0.11423 1.0164 7.4678e-39 452 340 0 0 0 -0.70662 0.27776 -0.6508 0.04302
-0.011611 0.11423 1.0164 7.6522e-39 469 340 0 0 0 -0.65782 0.29755 -0.69191 0.036018
0.034767 0.11542 1.0164 6.7303e-39 224 341 0 0 0 0.68858 0.35228 -0.63384 0.012809
0.034796 0.11729 1.0173 7.4679e-39 342 341 0 0 0 0.68773 0.34021 -0.64131 0.014331
-0.011016 0.11899 1.0164 7.6061e-39 402.5 341 0 0 0 -0.59686 0.31749 -0.73686 0.032455
0.033578 0.11899 1.0164 7.4678e-39 447 341 0 0 0 0.64624 0.35307 -0.67654 0.016458
0.034796 0.11908 1.0173 7.4678e-39 448 341 0 0 0 0.67029 0.33817 -0.66057 0.016928
-0.0128 0.12077 1.0164 6.1771e-39 322.5 341.5 0 0 0 -0.58888 0.32101 -0.74174 0.032715
-0.011019 0.12079 1.0166 6.4998e-39 324 341.5 0 0 0 -0.56871 0.33133 -0.75285 0.029949
-0.0068546 0.12136 1.0164 5.0708e-39 175 342 0 0 0 -0.50641 0.36357 -0.7819 0.022803
-0.0056677 0.12081 1.0168 6.0389e-39 329 341.5 0 0 0 -0.49297 0.36923 -0.78781 0.021694
0.0332 0.12103 1.017 7.0068e-39 204 342 0 0 0 0.62182 0.35196 -0.69962 0.018807
-0.012806 0.12319 1.0168 7.5601e-39 266 342 0 0 0 -0.56258 0.34168 -0.75283 0.030977
-0.011611 0.12255 1.0164 7.56e-39 235 342 0 0 0 -0.55337 0.33967 -0.76053 0.029089
-0.0086419 0.12319 1.0168 7.5601e-39 269.75 342 0 0 0 -0.50456 0.36774 -0.78114 0.022817
-0.0068602 0.12325 1.0173 7.9288e-39 294.5 342 0 0 0 -0.47479 0.38451 -0.79166 0.019715
-0.0056701 0.12265 1.0173 8.3898e-39 248 342 0 0 0 -0.46654 0.38555 -0.79605 0.019479
0.031225 0.12265 1.0173 6.9147e-39 288 342 0 0 0 0.57404 0.36725 -0.73185 0.020264
0.032415 0.12265 1.0173 7.2835e-39 289 342 0 0 0 0.59271 0.35577 -0.72258 0.020416
-0.0086455 0.12503 1.0173 7.6061e-39 398.5 342 0 0 0 -0.46787 0.38544 -0.79532 0.019471
-0.0044762 0.12493 1.0164 7.7444e-39 402 342 0 0 0 -0.40369 0.41865 -0.81349 0.012364
-0.003287 0.12493 1.0164 7.56e-39 403 342 0 0 0 -0.39078 0.42268 -0.8177 0.012347
0.028821 0.12493 1.0164 5.8083e-39 430 342 0 0 0 0.49407 0.40107 -0.77139 0.021081
0.03001 0.12493 1.0164 5.9005e-39 431 342 0 0 0 0.51976 0.38853 -0.76085 0.021443
-0.004478 0.12676 1.0168 6.4537e-39 309 342.5 0 0 0 -0.37786 0.43121 -0.81932 0.010312
-0.0028915 0.12695 1.0167 5.9927e-39 262.67 342.67 0 0 0 -0.35483 0.44241 -0.82363 0.0092109
0.027038 0.12731 1.0164 5.5778e-39 206.5 343 0 0 0 0.42851 0.42138 -0.79926 0.02159
0.028833 0.12676 1.0168 5.5778e-39 178.5 343 0 0 0 0.47933 0.39641 -0.78301 0.022454
0.030035 0.12622 1.0173 5.7161e-39 150 343 0 0 0 0.51004 0.38225 -0.77055 0.023448
-0.0020996 0.1292 1.0173 7.514e-39 257.5 343 0 0 0 -0.31973 0.45807 -0.82942 0.0085404
0.022875 0.12969 1.0164 7.7444e-39 348 343 0 0 0 0.28769 0.45778 -0.84123 0.020892
0.024669 0.12914 1.0168 6.9147e-39 303.5 343 0 0 0 0.34248 0.44054 -0.82984 0.020767
0.027059 0.1286 1.0173 5.6239e-39 259.5 343 0 0 0 0.42195 0.41514 -0.80599 0.022413
-0.00090865 0.13088 1.0164 6.4537e-39 377 343 0 0 0 -0.30625 0.46356 -0.83146 0.0075263
0.00028053 0.13088 1.0164 7.2835e-39 378 343 0 0 0 -0.29858 0.46764 -0.83197 0.0074355
0.022875 0.13088 1.0164 7.6522e-39 397 343 0 0 0 0.2782 0.46473 -0.84061 0.021089
0.024084 0.13099 1.0173 7.6522e-39 398 343 0 0 0 0.30631 0.44909 -0.83934 0.021755
-0.0009094 0.13218 1.0173 5.7161e-39 419 343 0 0 0 -0.30283 0.46711 -0.83073 0.00678
0.00087547 0.13272 1.0168 5.693e-39 452 343 0 0 0 -0.28828 0.47573 -0.83101 0.0068382
0.0032535 0.13326 1.0164 5.4395e-39 485.5 343 0 0 0 -0.24317 0.48763 -0.8385 0.0093636
0.0050373 0.13326 1.0164 5.6239e-39 487 343 0 0 0 -0.21245 0.49721 -0.84122 0.011155
0.0068211 0.13326 1.0164 5.67e-39 497.5 343 0 0 0 -0.17625 0.50636 -0.84412 0.013079
0.010983 0.13326 1.0164 6.0849e-39 510 343 0 0 0 -0.077071 0.52562 -0.84722 0.016896
0.016929 0.13326 1.0164 8.7586e-39 515 343 0 0 0 0.11583 0.51943 -0.84663 0.015518
0.018713 0.13326 1.0164 7.6061e-39 330.5 343.5 0 0 0 0.15027 0.49874 -0.85363 0.017732
0.021296 0.1329 1.0167 6.0849e-39 244 343.67 0 0 0 0.22563 0.47823 -0.84876 0.020633
0.022894 0.13218 1.0173 6.0849e-39 440 343 0 0 0 0.26717 0.46126 -0.84608 0.021725
0.0032562 0.13456 1.0173 5.9005e-39 186.5 344 0 0 0 -0.23825 0.48702 -0.84027 0.00923
0.0050414 0.13456 1.0173 5.3473e-39 191 344 0 0 0 -0.20245 0.49603 -0.84438 0.011221
0.0068239 0.1351 1.0168 6.5689e-39 211.5 344 0 0 0 -0.16315 0.50616 -0.84687 0.012847
0.0092032 0.1351 1.0168 7.0991e-39 213.5 344 0 0 0 -0.11643 0.51974 -0.84635 0.014642
0.010992 0.13515 1.0173 7.1452e-39 215 344 0 0 0 -0.063664 0.52576 -0.84825 0.016254
0.012769 0.13507 1.0166 6.9147e-39 216.5 344 0 0 0 -0.010084 0.53522 -0.84465 0.015595
0.015145 0.13504 1.0164 6.7533e-39 218.5 344 0 0 0 0.066666 0.53397 -0.84287 0.014869
0.016936 0.1351 1.0168 6.7764e-39 220 344 0 0 0 0.098204 0.51521 -0.85142 0.016195
0.01872 0.1351 1.0168 6.9838e-39 225 344 0 0 0 0.14136 0.50075 -0.85397 0.017629
0.020505 0.1351 1.0168 7.0068e-39 226.5 344 0 0 0 0.19249 0.48846 -0.85109 0.019807
0.0062316 0.13694 1.0173 7.0069e-39 283 344 0 0 0 -0.16227 0.50998 -0.84474 0.011915
0.009207 0.13694 1.0173 7.0991e-39 285.5 344 0 0 0 -0.10385 0.51802 -0.84904 0.014436
0.010992 0.13694 1.0173 7.56e-39 287 344 0 0 0 -0.058861 0.52941 -0.84632 0.014813
0.012777 0.13694 1.0173 7.6522e-39 288.5 344 0 0 0 0.0011029 0.53598 -0.84423 0.013756
0.015158 0.13694 1.0173 7.1913e-39 290.5 344 0 0 0 0.050305 0.52587 -0.84908 0.014687
0.016943 0.13694 1.0173 7.2835e-39 292 344 0 0 0 0.090949 0.51928 -0.84975 0.01556
0.018728 0.13694 1.0173 7.0991e-39 293.5 344 0 0 0 0.12994 0.50532 -0.85309 0.017216
0.020514 0.13694 1.0173 7.1913e-39 295 344 0 0 0 0.17678 0.49568 -0.85032 0.01975
0.013373 0.13813 1.0173 5.163e-39 368 344 0 0 0 0.017424 0.53261 -0.84618 0.012575
0.015158 0.13813 1.0173 5.5778e-39 369.5 344 0 0 0 0.049003 0.52255 -0.8512 0.01439
-0.010448 0.0406 1.019 7.3757e-39 424 320 0 0 0 0.77468 -0.057939 -0.6297 0.11758
-0.016395 0.042948 1.0181 7.7444e-39 420 321 0 0 0 0.90386 0.051124 -0.42477 0.11749
-0.01462 0.042984 1.019 7.2374e-39 421.5 321 0 0 0 0.85234 -0.055978 -0.51998 0.11775
-0.01164 0.042984 1.019 7.4678e-39 424 321 0 0 0 0.78507 -0.15697 -0.59918 0.11748
-0.016422 0.044213 1.0198 6.0849e-39 209 322 0 0 0 0.88057 -0.025519 -0.47324 0.11749
-0.012832 0.044176 1.019 6.0849e-39 212 322 0 0 0 0.81825 -0.14327 -0.55673 0.11638
0.037253 0.044791 1.0194 5.3473e-39 426 322 0 0 0 -0.61841 -0.2039 -0.75895 0.073244
0.039025 0.045368 1.019 5.9005e-39 488.5 322 0 0 0 0.067979 -0.83216 -0.55035 0.087072
0.037268 0.047196 1.0198 7.6522e-39 356.5 323 0 0 0 -0.58759 -0.3217 -0.74246 0.08053
0.039009 0.047137 1.0186 7.5831e-39 358 323 0 0 0 0.19831 -0.84956 -0.4888 0.089918
0.041971 0.047118 1.0181 7.0991e-39 360.5 323 0 0 0 0.56116 -0.78967 -0.24805 0.089227
0.037268 0.048985 1.0198 5.7161e-39 221 324 0 0 0 -0.83178 0.35713 -0.42497 0.093947
0.039025 0.048945 1.019 5.5317e-39 222.5 324 0 0 0 0.5532 -0.80428 -0.21702 0.089154
0.041971 0.048904 1.0181 5.3473e-39 225 324 0 0 0 0.62414 -0.74806 -0.22549 0.085962
-0.016422 0.051371 1.0198 7.56e-39 414 324 0 0 0 0.86692 -0.23173 -0.44132 0.10265
-0.015216 0.051329 1.019 7.4678e-39 415 324 0 0 0 0.82217 -0.35123 -0.44796 0.094371
-0.012832 0.051329 1.019 8.021e-39 417 324 0 0 0 0.73396 -0.46946 -0.49084 0.092958
-0.01163 0.051287 1.0181 8.021e-39 418 324 0 0 0 0.70363 -0.5218 -0.48232 0.087208
0.037268 0.050774 1.0198 6.592e-39 285 324.5 0 0 0 -0.84333 0.40829 -0.34942 0.091625
0.039025 0.050733 1.019 6.4306e-39 286.5 324.5 0 0 0 0.60711 -0.77137 -0.1908 0.088131
0.042023 0.050754 1.0194 6.2232e-39 289 324.5 0 0 0 0.75154 -0.65721 -0.057138 0.089179
-0.016395 0.052478 1.0181 4.9786e-39 168 325 0 0 0 0.89728 -0.26216 -0.3552 0.084804
-0.014013 0.053669 1.0181 5.8083e-39 228 325 0 0 0 0.80195 -0.42468 -0.42015 0.077846
-0.010439 0.052478 1.0181 5.0708e-39 173 325 0 0 0 0.68128 -0.54761 -0.48579 0.082841
-0.0092482 0.052478 1.0181 5.0708e-39 174 325 0 0 0 0.62638 -0.59588 -0.50257 0.080164
0.033689 0.053757 1.0198 7.56e-39 281 325 0 0 0 0.59903 -0.79171 -0.11982 0.086753
0.034824 0.053669 1.0181 8.1132e-39 282 325 0 0 0 0.58704 -0.77708 -0.227 0.08413
0.036641 0.053117 1.019 7.3757e-39 251 325 0 0 0 0.67827 -0.72539 -0.11733 0.090082
0.038994 0.052478 1.0181 5.9927e-39 220.5 325 0 0 0 0.69967 -0.69151 -0.17964 0.082209
0.042023 0.053139 1.0194 6.6381e-39 287 325 0 0 0 0.82274 -0.56829 -0.01219 0.088649
-0.017586 0.056051 1.0181 7.6522e-39 405 325 0 0 0 0.94431 -0.19969 -0.26153 0.068578
0.043215 0.056717 1.0194 5.7622e-39 317 325.5 0 0 0 -0.92753 0.36939 -0.056921 0.078092
0.044353 0.056051 1.0181 6.1771e-39 434 325 0 0 0 0.9059 -0.41646 -0.076794 0.07433
0.04318 0.059053 1.0186 6.4998e-39 359 326 0 0 0 0.94064 -0.33716 -0.038873 0.067918
0.044353 0.059625 1.0181 5.5317e-39 432 326 0 0 0 0.94642 -0.30765 -0.098245 0.059038
0.043162 0.060816 1.0181 6.2693e-39 214 327 0 0 0 0.9496 -0.29619 -0.10268 0.063323
0.044353 0.060816 1.0181 6.0849e-39 215 327 0 0 0 0.94893 -0.27638 -0.15214 0.052163
0.043162 0.077492 1.0181 6.1771e-39 215 332 0 0 0 0.92577 0.12601 -0.35646 0.0068171
0.044353 0.077492 1.0181 6.2693e-39 218 332 0 0 0 0.92955 0.12412 -0.34718 0.0062905
0.043198 0.078748 1.019 7.2835e-39 394 332 0 0 0 0.93008 0.12837 -0.34419 0.0060843
0.045024 0.078813 1.0198 7.3757e-39 395.5 332 0 0 0 0.93637 0.12573 -0.32771 0.0057902
0.043233 0.080006 1.0198 5.9005e-39 496 332 0 0 0 0.93027 0.13661 -0.34049 0.0056716
0.041971 0.083447 1.0181 5.8083e-39 479 333 0 0 0 0.90572 0.15341 -0.39514 0.0091653
0.04204 0.084778 1.0198 6.6381e-39 208 334 0 0 0 0.92391 0.14414 -0.35443 0.0062303
0.040814 0.087093 1.019 5.9005e-39 432 334 0 0 0 0.90973 0.14371 -0.38955 0.0089174
-0.015204 0.089403 1.0181 6.4537e-39 198 335 0 0 0 -0.90717 0.21472 -0.36186 0.0098966
-0.015204 0.09119 1.0181 7.0991e-39 387 335 0 0 0 -0.89985 0.20898 -0.38289 0.011906
-0.01521 0.094803 1.0186 7.8366e-39 343 336 0 0 0 -0.90233 0.16048 -0.40007 0.022084
-0.015229 0.097306 1.0198 5.8083e-39 188.5 337 0 0 0 -0.91055 0.14266 -0.38801 0.026165
-0.014019 0.10076 1.0186 6.7303e-39 338 337.5 0 0 0 -0.85956 0.18821 -0.47512 0.039363
-0.01403 0.10323 1.0194 7.3296e-39 349 338 0 0 0 -0.86035 0.1797 -0.47697 0.043946
-0.012822 0.1031 1.0181 7.4679e-39 350 338 0 0 0 -0.82752 0.20936 -0.52094 0.043679
0.039605 0.10315 1.0186 7.0529e-39 450.5 338 0 0 0 0.86101 0.19527 -0.46961 0.012747
-0.012832 0.10497 1.019 6.7303e-39 516 338 0 0 0 -0.82878 0.201 -0.52223 0.04873
0.039621 0.10497 1.019 5.6239e-39 203 339 0 0 0 0.85319 0.20432 -0.47991 0.013371
-0.012837 0.1068 1.0194 6.592e-39 254 339 0 0 0 -0.80958 0.218 -0.54503 0.049738
-0.01163 0.10727 1.0181 6.9147e-39 297 339 0 0 0 -0.78374 0.2443 -0.57102 0.047175
0.039654 0.10625 1.0198 7.3757e-39 286 339 0 0 0 0.84829 0.20837 -0.48681 0.013474
-0.014013 0.10846 1.0181 6.4537e-39 413 339 0 0 0 -0.7942 0.2375 -0.55932 0.047975
-0.012822 0.10846 1.0181 6.0849e-39 414 339 0 0 0 -0.78388 0.24567 -0.57024 0.048145
0.038398 0.10965 1.0181 5.8083e-39 200 340 0 0 0 0.79937 0.26342 -0.54001 0.014322
-0.018808 0.11103 1.0198 6.0849e-39 206 340 0 0 0 -0.85574 0.18121 -0.48463 0.050514
-0.015216 0.11094 1.019 6.4537e-39 208 340 0 0 0 -0.7893 0.23307 -0.56806 0.049549
0.038429 0.11094 1.019 5.8083e-39 267 340 0 0 0 0.79333 0.2697 -0.5458 0.014219
-0.017601 0.11213 1.019 7.6522e-39 283 340 0 0 0 -0.81775 0.21825 -0.53259 0.051039
-0.015204 0.11263 1.0181 7.4218e-39 338 340 0 0 0 -0.75462 0.25195 -0.60587 0.046881
0.037206 0.11323 1.0181 5.6239e-39 444 340 0 0 0 0.7569 0.30128 -0.57995 0.013609
0.038445 0.11277 1.0194 6.7764e-39 415 340 0 0 0 0.78367 0.27933 -0.55482 0.014164
0.036633 0.11508 1.0188 6.7764e-39 190.5 341 0 0 0 0.74353 0.3112 -0.59188 0.013516
0.036656 0.11694 1.0194 7.7444e-39 292.5 341 0 0 0 0.72696 0.31455 -0.6104 0.014951
0.036656 0.11874 1.0194 7.8366e-39 422 341 0 0 0 0.70798 0.31205 -0.63355 0.016967
0.034838 0.12101 1.0186 6.4997e-39 194.5 342 0 0 0 0.658 0.32329 -0.68009 0.018907
0.03606 0.12111 1.0194 6.4536e-39 195.5 342 0 0 0 0.67764 0.31214 -0.66586 0.019162
-0.011034 0.12336 1.0181 7.1913e-39 267.5 342 0 0 0 -0.54531 0.35275 -0.7604 0.028364
-0.0056747 0.12395 1.0181 7.3757e-39 343 342 0 0 0 -0.44348 0.39615 -0.80398 0.017494
0.031251 0.12395 1.0181 7.8366e-39 386 342 0 0 0 0.56622 0.35854 -0.74219 0.022151
0.033037 0.12336 1.0181 7.6983e-39 338.5 342 0 0 0 0.59959 0.3478 -0.72078 0.021092
0.034882 0.12296 1.0198 7.2835e-39 291 342 0 0 0 0.64532 0.31683 -0.69511 0.02093
-0.011049 0.1247 1.0194 7.514e-39 348 342 0 0 0 -0.51849 0.36701 -0.77232 0.025848
-0.0068659 0.12514 1.0181 8.2054e-39 400 342 0 0 0 -0.43289 0.39974 -0.80797 0.016794
-0.0056794 0.12524 1.019 8.021e-39 401 342 0 0 0 -0.42209 0.4028 -0.81216 0.015523
0.031277 0.12524 1.019 6.0849e-39 432 342 0 0 0 0.55712 0.35442 -0.751 0.023699
0.033273 0.12488 1.0193 6.5766e-39 418.33 342 0 0 0 0.59802 0.33478 -0.72822 0.02296
-0.00866 0.12703 1.019 6.5228e-39 305.5 342.5 0 0 0 -0.43021 0.40702 -0.80576 0.015983
-0.0068715 0.12643 1.019 7.4678e-39 450 342 0 0 0 -0.422 0.40503 -0.81109 0.015407
-0.0056841 0.12654 1.0198 7.3757e-39 451 342 0 0 0 -0.39979 0.41544 -0.81706 0.013552
0.030084 0.12763 1.019 5.8083e-39 209 343 0 0 0 0.49998 0.37749 -0.77943 0.023879
0.032495 0.12654 1.0198 5.6239e-39 152 343 0 0 0 0.56354 0.3477 -0.74935 0.024016
-0.0080703 0.12892 1.0198 5.8083e-39 222 343 0 0 0 -0.3829 0.43132 -0.81692 0.011529
-0.0044836 0.12931 1.0181 7.2835e-39 255.5 343 0 0 0 -0.35021 0.44631 -0.8235 0.0093484
-0.0032924 0.12871 1.0181 7.8366e-39 226 343 0 0 0 -0.33553 0.44996 -0.82762 0.0086374
0.025295 0.1299 1.0181 6.5459e-39 350 343 0 0 0 0.36048 0.42862 -0.82846 0.022155
0.027082 0.1299 1.0181 5.4856e-39 351.5 343 0 0 0 0.40742 0.41081 -0.81563 0.023084
0.028868 0.12871 1.0181 5.6239e-39 261 343 0 0 0 0.46742 0.39385 -0.79146 0.023434
0.030109 0.12892 1.0198 6.0849e-39 262 343 0 0 0 0.49306 0.37177 -0.78656 0.024426
-0.0044873 0.1312 1.019 5.9005e-39 374 343 0 0 0 -0.33783 0.45465 -0.82411 0.0083424
-0.0028972 0.13077 1.0187 6.3308e-39 346 343 0 0 0 -0.32958 0.45522 -0.82713 0.0071831
0.025316 0.1312 1.019 7.6522e-39 399 343 0 0 0 0.35032 0.42821 -0.83302 0.022905
0.027104 0.1312 1.019 7.8827e-39 400.5 343 0 0 0 0.39389 0.40977 -0.82276 0.023776
0.028904 0.13066 1.0194 6.6381e-39 377.5 343 0 0 0 0.4436 0.38921 -0.8073 0.024423
-0.004491 0.1325 1.0198 5.5317e-39 416 343 0 0 0 -0.3394 0.46096 -0.81995 0.0075138
-0.0025019 0.13286 1.0195 5.8698e-39 438.67 343 0 0 0 -0.31337 0.46441 -0.82832 0.006265
-0.00091015 0.13348 1.0181 6.3615e-39 482 343 0 0 0 -0.29364 0.4673 -0.83391 0.0067335
0.022913 0.13348 1.0181 5.4395e-39 148 344 0 0 0 0.25777 0.46475 -0.84709 0.021661
0.024715 0.13296 1.0187 6.0158e-39 295.5 343.5 0 0 0 0.31064 0.44361 -0.84066 0.02254
0.026928 0.1329 1.0198 6.6381e-39 346 343.33 0 0 0 0.36967 0.41714 -0.83027 0.023367
-0.0009109 0.13478 1.019 5.4395e-39 176 344 0 0 0 -0.29131 0.4753 -0.8302 0.006982
0.00087693 0.13532 1.0186 6.0388e-39 201.5 344 0 0 0 -0.27168 0.48357 -0.83208 0.0074837
0.0032588 0.13586 1.0181 7.56e-39 227.5 344 0 0 0 -0.22695 0.49372 -0.83948 0.009659
0.0050456 0.13586 1.0181 7.56e-39 229 344 0 0 0 -0.19277 0.50201 -0.8431 0.011646
0.021731 0.13532 1.0186 7.053e-39 227.5 344 0 0 0 0.21892 0.47868 -0.85026 0.020969
0.022923 0.13532 1.0186 7.053e-39 228.5 344 0 0 0 0.23818 0.47166 -0.84901 0.021515
0.024124 0.13537 1.019 7.1452e-39 229.5 344 0 0 0 0.2674 0.4603 -0.84654 0.022371
-0.00091166 0.13608 1.0198 6.0849e-39 224 344 0 0 0 -0.28545 0.48693 -0.82548 0.0070788
0.00087791 0.13722 1.0194 5.3012e-39 278.5 344 0 0 0 -0.2637 0.49324 -0.82896 0.0078951
0.0032615 0.13716 1.019 5.0247e-39 280.5 344 0 0 0 -0.22471 0.49921 -0.83683 0.0096878
0.0050456 0.13705 1.0181 5.5317e-39 282 344 0 0 0 -0.1915 0.50433 -0.84201 0.011363
0.0074279 0.13705 1.0181 7.2835e-39 284 344 0 0 0 -0.13743 0.51361 -0.84694 0.013225
0.02174 0.13716 1.019 7.2835e-39 296 344 0 0 0 0.20423 0.48527 -0.85018 0.02091
0.022951 0.13728 1.0198 7.0991e-39 297 344 0 0 0 0.22396 0.48133 -0.84745 0.021898
0.024144 0.13728 1.0198 7.0069e-39 298 344 0 0 0 0.24687 0.46801 -0.84854 0.022517
0.037268 0.13728 1.0198 8.2054e-39 348 344 0 0 0 0.48052 0.32837 -0.81319 0.030607
0.0032643 0.13847 1.0198 5.3012e-39 356.5 344 0 0 0 -0.21099 0.50763 -0.83534 0.010503
0.0050539 0.13847 1.0198 5.2552e-39 358 344 0 0 0 -0.17775 0.5131 -0.83972 0.011751
0.0068379 0.13895 1.0189 6.4998e-39 378.5 344 0 0 0 -0.14453 0.5189 -0.84252 0.012208
0.0092202 0.13892 1.0187 6.6842e-39 380.5 344 0 0 0 -0.089453 0.52641 -0.84551 0.013713
0.011006 0.1389 1.0186 6.7303e-39 382.5 344 0 0 0 -0.039564 0.53007 -0.84703 0.013891
0.012589 0.13903 1.0181 6.7303e-39 390.67 344 0 0 0 -0.0025504 0.53089 -0.84744 0.01281
0.01517 0.13943 1.0181 7.2374e-39 404.5 344 0 0 0 0.050968 0.52698 -0.84834 0.013576
0.016964 0.1389 1.0186 6.6381e-39 388.5 344 0 0 0 0.088194 0.51804 -0.8508 0.015073
0.018747 0.13886 1.0183 6.0619e-39 390 344 0 0 0 0.1189 0.51368 -0.8497 0.016315
0.020945 0.13875 1.019 6.1464e-39 386 344 0 0 0 0.17367 0.49816 -0.84952 0.020081
0.022951 0.13847 1.0198 6.8225e-39 376 344 0 0 0 0.21649 0.48194 -0.84904 0.02178
0.037237 0.13835 1.019 7.8366e-39 388 344 0 0 0 0.46977 0.32972 -0.8189 0.03055
0.0098264 0.14085 1.0198 5.9927e-39 431 344 0 0 0 -0.059505 0.53459 -0.84302 0.0134
0.011019 0.14085 1.0198 5.9005e-39 432 344 0 0 0 -0.037079 0.5377 -0.84232 0.013081
0.012804 0.14079 1.0194 5.7161e-39 433.5 344 0 0 0 0.00096861 0.53541 -0.84459 0.011946
0.015183 0.14074 1.019 5.6239e-39 435.5 344 0 0 0 0.043109 0.5291 -0.84746 0.01273
0.016985 0.14085 1.0198 6.1771e-39 437 344 0 0 0 0.078601 0.52783 -0.84571 0.013679
0.018774 0.14085 1.0198 6.7303e-39 438.5 344 0 0 0 0.11431 0.5209 -0.84593 0.015681
0.013406 0.14205 1.0198 5.3473e-39 486 344 0 0 0 0.0050268 0.53759 -0.84319 0.01186
0.014599 0.14205 1.0198 5.4395e-39 487 344 0 0 0 0.031598 0.53532 -0.84406 0.011883
0.033079 0.14497 1.0194 6.4997e-39 249.5 345 0 0 0 0.30742 0.43989 -0.8438 0.039075
-0.016449 0.045481 1.0215 5.5317e-39 366 322 0 0 0 0.82792 -0.010855 -0.56074 0.11196
-0.014644 0.044249 1.0206 5.8544e-39 210.5 322 0 0 0 0.81162 -0.097174 -0.57605 0.11607
-0.012853 0.045443 1.0206 6.8225e-39 406 322 0 0 0 0.76597 -0.20055 -0.61079 0.11598
-0.011669 0.044286 1.0215 6.1771e-39 213 322 0 0 0 0.73478 -0.12536 -0.66662 0.11336
-0.012864 0.046676 1.0215 5.5317e-39 169 323 0 0 0 0.76597 -0.20055 -0.61079 0.11598
-0.012853 0.049025 1.0206 5.163e-39 441 323 0 0 0 0.75969 -0.31429 -0.56928 0.10956
-0.016449 0.050261 1.0215 5.8083e-39 227 324 0 0 0 0.82774 -0.20653 -0.52172 0.11256
-0.015242 0.05022 1.0206 6.0849e-39 228 324 0 0 0 0.8189 -0.24227 -0.5203 0.10812
-0.012853 0.05022 1.0206 4.9786e-39 273 324 0 0 0 0.75464 -0.36474 -0.54543 0.10648
-0.011669 0.050261 1.0215 5.163e-39 274 324 0 0 0 0.70611 -0.34683 -0.61735 0.10438
-0.014047 0.052608 1.0206 5.6239e-39 170 325 0 0 0 0.78056 -0.35326 -0.51569 0.10544
0.034911 0.052608 1.0206 5.9005e-39 217 325 0 0 0 -0.7619 -0.026877 -0.64713 0.083538
0.036105 0.052608 1.0206 5.8083e-39 218 325 0 0 0 -0.82387 0.1464 -0.54754 0.088559
0.043305 0.053249 1.0215 6.7764e-39 288 325 0 0 0 -0.88031 0.31822 -0.35183 0.088978
-0.017644 0.055041 1.0215 8.021e-39 353 325 0 0 0 0.8526 -0.27694 -0.44314 0.10832
0.043269 0.054996 1.0206 7.4678e-39 404 325 0 0 0 -0.88461 0.4581 -0.087201 0.085208
0.043269 0.081266 1.0206 6.0849e-39 213 333 0 0 0 0.93104 0.1394 -0.33724 0.0053278
0.045079 0.080702 1.021 6.131e-39 356 332.5 0 0 0 0.93971 0.13526 -0.3141 0.0045565
0.04211 0.086114 1.0215 5.3473e-39 356 334 0 0 0 0.93083 0.13678 -0.33889 0.0051519
0.040915 0.088504 1.0215 5.8083e-39 172 335 0 0 0 0.93145 0.13099 -0.33948 0.0048359
0.040915 0.092687 1.0215 5.9927e-39 206 336 0 0 0 0.9261 0.13415 -0.35263 0.0047073
-0.015242 0.099178 1.0206 6.0849e-39 384 337 0 0 0 -0.92229 0.12137 -0.36695 0.029542
0.040898 0.098622 1.021 6.8224e-39 414 337 0 0 0 0.90649 0.15149 -0.39411 0.0069965
0.040881 0.10097 1.0206 5.7161e-39 226 338 0 0 0 0.89477 0.1615 -0.4163 0.0085024
0.040915 0.10284 1.0215 7.6522e-39 398 338 0 0 0 0.89231 0.16161 -0.4215 0.0092228
-0.014047 0.10515 1.0206 8.1132e-39 515 338 0 0 0 -0.86127 0.17495 -0.47708 0.047398
0.040915 0.10404 1.0215 6.3615e-39 505 338 0 0 0 0.88331 0.17475 -0.435 0.010397
-0.014047 0.10694 1.0206 6.4076e-39 253 339 0 0 0 -0.84254 0.19482 -0.50217 0.049768
0.039687 0.10754 1.0206 7.6522e-39 402 339 0 0 0 0.84496 0.21441 -0.48996 0.013707
0.03972 0.10882 1.0215 5.8083e-39 486 339 0 0 0 0.83824 0.21802 -0.49982 0.01371
-0.015254 0.11002 1.0215 7.4678e-39 509 339 0 0 0 -0.82982 0.20771 -0.51793 0.052233
0.03972 0.11062 1.0215 5.8083e-39 239 340 0 0 0 0.82084 0.23788 -0.51926 0.014266
-0.016436 0.11351 1.0206 7.0991e-39 391 340 0 0 0 -0.80387 0.22743 -0.5496 0.051535
0.038493 0.11529 1.0206 6.4537e-39 192 341 0 0 0 0.75853 0.29825 -0.57938 0.013874
0.038493 0.11709 1.0206 8.021e-39 294 341 0 0 0 0.74622 0.29348 -0.59751 0.015033
0.038509 0.11893 1.021 7.6061e-39 423.5 341 0 0 0 0.73218 0.28479 -0.61872 0.018018
0.037315 0.12132 1.021 6.4536e-39 196.5 342 0 0 0 0.69322 0.28997 -0.65982 0.019789
0.038525 0.12077 1.0215 5.3473e-39 165 342 0 0 0 0.71265 0.27654 -0.64472 0.019092
0.036105 0.12306 1.0206 7.6522e-39 292 342 0 0 0 0.66946 0.2976 -0.68063 0.021014
-0.010465 0.12545 1.0206 7.6522e-39 397 342 0 0 0 -0.50944 0.38001 -0.77206 0.025232
0.034939 0.12436 1.0215 7.6522e-39 389 342 0 0 0 0.64222 0.31092 -0.70063 0.022164
0.036135 0.12436 1.0215 7.56e-39 390 342 0 0 0 0.64799 0.29848 -0.70073 0.022082
-0.0068829 0.12784 1.0206 5.3473e-39 164 343 0 0 0 -0.38702 0.4278 -0.81682 0.011771
-0.0056888 0.12784 1.0206 5.3473e-39 165 343 0 0 0 -0.36786 0.43525 -0.82173 0.010369
0.031341 0.12729 1.021 5.9005e-39 180.5 343 0 0 0 0.54647 0.34848 -0.76154 0.024392
0.033119 0.12724 1.0206 5.7161e-39 182 343 0 0 0 0.56629 0.33379 -0.75359 0.024534
-0.0092711 0.12903 1.0206 5.9005e-39 221 343 0 0 0 -0.40304 0.42961 -0.80808 0.013265
-0.0068886 0.12914 1.0215 6.1771e-39 223 343 0 0 0 -0.3673 0.44092 -0.81895 0.010987
-0.0056935 0.12914 1.0215 6.7303e-39 224 343 0 0 0 -0.358 0.44673 -0.81992 0.010259
-0.008674 0.13082 1.0206 6.0388e-39 325 343 0 0 0 -0.38267 0.44793 -0.80803 0.011403
0.030147 0.13087 1.021 6.638e-39 378.5 343 0 0 0 0.46572 0.36949 -0.8041 0.024912
-0.0086813 0.13272 1.0215 5.6239e-39 412.5 343 0 0 0 -0.38571 0.46354 -0.79772 0.0090365
-0.0044947 0.13381 1.0206 7.3757e-39 479 343 0 0 0 -0.3373 0.4684 -0.8166 0.0063547
-0.0033033 0.13392 1.0215 7.0069e-39 480 343 0 0 0 -0.3236 0.47242 -0.81982 0.0063828
0.027746 0.13381 1.0206 5.9005e-39 152 344 0 0 0 0.37584 0.41258 -0.82977 0.024758
0.028952 0.13326 1.021 6.3615e-39 299 343.5 0 0 0 0.41297 0.39196 -0.82208 0.025304
-0.0021083 0.13511 1.0215 4.9786e-39 167 344 0 0 0 -0.30489 0.48165 -0.82162 0.0070353
0.025358 0.135 1.0206 5.7161e-39 208 344 0 0 0 0.30236 0.43875 -0.84621 0.023357
0.027149 0.135 1.0206 5.8083e-39 209.5 344 0 0 0 0.34504 0.42056 -0.83909 0.024585
-0.00091241 0.13739 1.0206 5.3473e-39 270 344 0 0 0 -0.28468 0.49135 -0.82312 0.0074746
0.025369 0.13684 1.021 7.5601e-39 276 344 0 0 0 0.28291 0.45173 -0.84611 0.024413
0.026972 0.13671 1.0215 7.5908e-39 269.67 344 0 0 0 0.31736 0.43425 -0.84303 0.025128
0.032549 0.1375 1.0215 7.6522e-39 344 344 0 0 0 0.41746 0.37915 -0.82581 0.028593
0.03733 0.13631 1.0215 6.2693e-39 263 344 0 0 0 0.49598 0.32071 -0.80694 0.029771
-0.00091316 0.1387 1.0215 5.6239e-39 353 344 0 0 0 -0.28716 0.50138 -0.81618 0.008155
0.00087874 0.13858 1.0206 5.7622e-39 354.5 344 0 0 0 -0.2591 0.50301 -0.82453 0.0088465
0.0032697 0.13989 1.0215 7.7905e-39 394.5 344 0 0 0 -0.20981 0.51578 -0.83063 0.010936
0.0050581 0.13978 1.0206 7.3757e-39 396 344 0 0 0 -0.16947 0.52072 -0.83674 0.011979
0.021793 0.13989 1.0215 6.0849e-39 410 344 0 0 0 0.17571 0.50698 -0.84386 0.020568
0.02297 0.13978 1.0206 6.1771e-39 411 344 0 0 0 0.20017 0.49207 -0.84723 0.021877
0.024569 0.13902 1.0209 6.8839e-39 389 344 0 0 0 0.23644 0.47233 -0.84912 0.023148
0.032549 0.1387 1.0215 7.4678e-39 384 344 0 0 0 0.40249 0.39473 -0.82595 0.030423
0.0068492 0.14097 1.0206 5.9927e-39 428.5 344 0 0 0 -0.12327 0.53154 -0.83801 0.012352
0.0086404 0.14097 1.0206 5.7161e-39 430 344 0 0 0 -0.087936 0.53592 -0.83968 0.012728
0.020581 0.14097 1.0206 6.9147e-39 440 344 0 0 0 0.14511 0.5172 -0.84347 0.018176
0.022989 0.14109 1.0215 7.2835e-39 442 344 0 0 0 0.19411 0.50438 -0.84138 0.021742
0.034939 0.14109 1.0215 7.7444e-39 452 344 0 0 0 0.40349 0.37403 -0.83504 0.036127
0.0062574 0.14228 1.0215 6.3615e-39 480 344 0 0 0 -0.13139 0.53708 -0.83323 0.011989
0.0098426 0.14228 1.0215 5.6239e-39 483 344 0 0 0 -0.053203 0.54311 -0.83797 0.012419
0.011029 0.14217 1.0206 5.4395e-39 484 344 0 0 0 -0.032617 0.54077 -0.84054 0.012292
0.012826 0.14283 1.021 5.3934e-39 331.5 344.5 0 0 0 0.00071591 0.54198 -0.84039 0.011142
0.015214 0.14283 1.021 5.5317e-39 337 344.5 0 0 0 0.039481 0.53996 -0.84077 0.011796
0.016999 0.14217 1.0206 5.7161e-39 508 344 0 0 0 0.080571 0.53305 -0.84224 0.012993
0.018798 0.14222 1.021 5.9005e-39 509.5 344 0 0 0 0.10911 0.52863 -0.84181 0.015065
0.020598 0.14228 1.0215 5.9005e-39 511 344 0 0 0 0.13936 0.52406 -0.8402 0.017535
0.033133 0.14342 1.021 5.9927e-39 202.5 345 0 0 0 0.34048 0.42789 -0.83724 0.036944
0.034911 0.14217 1.0206 5.5317e-39 151 345 0 0 0 0.37752 0.3798 -0.84453 0.037325
0.032549 0.14467 1.0215 7.4678e-39 231 345 0 0 0 0.31377 0.45549 -0.83311 0.037608
-0.010483 0.04193 1.0223 5.4395e-39 226 321 0 0 0 0.68335 0.063589 -0.72731 0.095673
-0.010491 0.043162 1.0232 7.8366e-39 425 321 0 0 0 0.66914 0.017004 -0.74294 0.090986
-0.014669 0.045518 1.0223 6.131e-39 386 322 0 0 0 0.79189 -0.027463 -0.61005 0.11234
-0.011679 0.045518 1.0223 7.0069e-39 407 322 0 0 0 0.72354 -0.19107 -0.66332 0.11115
0.036164 0.045518 1.0223 5.4395e-39 486 322 0 0 0 -0.63062 -0.10407 -0.76909 0.057602
-0.01647 0.047332 1.0228 6.2693e-39 226.5 323 0 0 0 0.79963 -0.039827 -0.59917 0.10727
-0.015279 0.047352 1.0232 6.0388e-39 259 323 0 0 0 0.78436 -0.069828 -0.61636 0.10698
-0.012875 0.047911 1.0223 7.2835e-39 355 323 0 0 0 0.74492 -0.23192 -0.62555 0.11275
0.036179 0.047332 1.0228 7.6983e-39 355.5 323 0 0 0 -0.66957 -0.055363 -0.74069 0.059588
-0.016463 0.049107 1.0223 5.3473e-39 438 323 0 0 0 0.82022 -0.1503 -0.55195 0.11516
-0.015267 0.049107 1.0223 5.0708e-39 439 323 0 0 0 0.79367 -0.18143 -0.58067 0.11408
-0.011688 0.049147 1.0232 5.163e-39 442 323 0 0 0 0.6973 -0.25992 -0.66799 0.10467
0.036164 0.049107 1.0223 6.1771e-39 220 324 0 0 0 -0.67539 -0.08463 -0.73259 0.061486
-0.014076 0.050921 1.0228 6.8685e-39 322.5 324 0 0 0 0.77315 -0.24193 -0.58627 0.11268
-0.010491 0.051541 1.0232 8.3898e-39 419 324 0 0 0 0.66146 -0.35637 -0.6599 0.10014
-0.0092941 0.051541 1.0232 8.021e-39 420 324 0 0 0 0.64607 -0.36901 -0.66815 0.095702
0.034983 0.050921 1.0228 6.7764e-39 449 324 0 0 0 -0.67866 -0.077502 -0.73035 0.057478
0.036179 0.050921 1.0228 6.638e-39 450 324 0 0 0 -0.69523 -0.055631 -0.71663 0.062065
-0.017659 0.053891 1.0223 5.5317e-39 225 325 0 0 0 0.82419 -0.28 -0.49224 0.11
0.033772 0.052695 1.0223 5.8083e-39 216 325 0 0 0 -0.68783 -0.092722 -0.71993 0.063323
0.043341 0.082597 1.0223 7.56e-39 395 333 0 0 0 0.93579 0.14622 -0.3208 0.0047431
0.044537 0.082597 1.0223 7.4678e-39 396 333 0 0 0 0.93724 0.14592 -0.31667 0.0048063
0.04218 0.087453 1.0232 5.7161e-39 433 334 0 0 0 0.93792 0.13043 -0.32139 0.0051823
0.040983 0.089848 1.0232 7.7444e-39 289 335 0 0 0 0.93824 0.1246 -0.32278 0.0045401
0.040949 0.090969 1.0223 7.0069e-39 417 335 0 0 0 0.93131 0.12896 -0.34063 0.0045451
0.040966 0.095196 1.0228 7.1913e-39 450 336 0 0 0 0.92753 0.13282 -0.34936 0.0047952
0.040949 0.09695 1.0223 6.1771e-39 212 337 0 0 0 0.92125 0.14002 -0.3629 0.0055165
-0.015267 0.10054 1.0223 7.6522e-39 477 337 0 0 0 -0.92601 0.1054 -0.36248 0.032632
0.040949 0.10532 1.0223 5.5317e-39 204 339 0 0 0 0.8774 0.17989 -0.44475 0.01111
-0.015279 0.109 1.0232 7.1913e-39 412 339 0 0 0 -0.87757 0.17978 -0.44446 0.051676
0.039753 0.1125 1.0223 7.7444e-39 386 340 0 0 0 0.8096 0.24897 -0.53157 0.014004
0.03736 0.12326 1.0223 8.1132e-39 293 342 0 0 0 0.67465 0.28325 -0.68163 0.021622
0.038557 0.12207 1.0223 7.7444e-39 230 342 0 0 0 0.69631 0.27671 -0.66225 0.02064
0.034968 0.12566 1.0223 5.5317e-39 435 342 0 0 0 0.62554 0.29684 -0.72152 0.024289
0.036793 0.12516 1.0232 6.5919e-39 413.5 342 0 0 0 0.64952 0.28831 -0.70356 0.022682
-0.010483 0.12685 1.0223 8.1132e-39 447 342 0 0 0 -0.50207 0.39928 -0.76714 0.023469
0.034997 0.12696 1.0232 5.4395e-39 154 343 0 0 0 0.60946 0.30122 -0.73336 0.024759
0.03138 0.12924 1.0223 6.2693e-39 263 343 0 0 0 0.5217 0.3407 -0.78214 0.025291
0.033383 0.12888 1.0226 5.6854e-39 247 343 0 0 0 0.55135 0.32462 -0.76853 0.025166
-0.0068972 0.13109 1.0228 6.6842e-39 328 343 0 0 0 -0.3689 0.45513 -0.81041 0.008574
-0.0056982 0.13104 1.0223 6.6381e-39 329 343 0 0 0 -0.35278 0.45591 -0.81712 0.0083341
0.031406 0.13115 1.0232 6.5919e-39 379.5 343 0 0 0 0.49576 0.34798 -0.7957 0.026422
0.032603 0.13115 1.0232 6.4997e-39 380.5 343 0 0 0 0.50298 0.33954 -0.79481 0.02602
-0.0057029 0.13294 1.0232 5.8083e-39 415 343 0 0 0 -0.35189 0.46714 -0.81114 0.0067239
0.030184 0.13283 1.0223 7.8366e-39 446 343 0 0 0 0.44059 0.37486 -0.8157 0.025784
0.032603 0.13294 1.0232 8.1132e-39 448 343 0 0 0 0.48409 0.34572 -0.80382 0.026907
-0.0080904 0.13403 1.0223 7.8366e-39 454 343 0 0 0 -0.375 0.47175 -0.79801 0.0071171
-0.0045021 0.13522 1.0223 5.2552e-39 163 344 0 0 0 -0.33901 0.47793 -0.81034 0.0066473
-0.0033061 0.13522 1.0223 5.3473e-39 164 344 0 0 0 -0.32431 0.48313 -0.81327 0.0068567
0.028988 0.13522 1.0223 5.7161e-39 211 344 0 0 0 0.38578 0.40169 -0.83056 0.026768
0.030209 0.13414 1.0232 5.3473e-39 154 344 0 0 0 0.42806 0.38032 -0.81983 0.027073
0.032603 0.13474 1.0232 6.2232e-39 185 344 0 0 0 0.45721 0.36313 -0.81185 0.027922
0.03736 0.13522 1.0223 5.9927e-39 218 344 0 0 0 0.51529 0.31769 -0.79596 0.029118
-0.00211 0.13642 1.0223 5.8083e-39 223 344 0 0 0 -0.3036 0.49 -0.81714 0.0069471
0.027792 0.13762 1.0223 7.56e-39 301 344 0 0 0 0.32419 0.43263 -0.84127 0.026635
0.029012 0.13653 1.0232 7.4678e-39 256 344 0 0 0 0.36941 0.41751 -0.83019 0.027737
0.032576 0.13642 1.0223 5.8083e-39 259 344 0 0 0 0.43182 0.37762 -0.81911 0.028527
0.027194 0.13881 1.0223 8.1593e-39 379.5 344 0 0 0 0.29492 0.45779 -0.83872 0.026501
0.031406 0.13893 1.0232 7.1913e-39 383 344 0 0 0 0.38192 0.40513 -0.83067 0.030904
0.0338 0.13893 1.0232 7.9288e-39 385 344 0 0 0 0.41574 0.37738 -0.82749 0.03316
0.034997 0.13893 1.0232 8.021e-39 386 344 0 0 0 0.4332 0.36616 -0.82357 0.033855
0.036194 0.13893 1.0232 7.9288e-39 387 344 0 0 0 0.45248 0.34164 -0.82374 0.034545
0.00088018 0.14001 1.0223 7.8827e-39 392.5 344 0 0 0 -0.25186 0.51451 -0.81966 0.0095015
0.003275 0.14132 1.0232 6.4537e-39 425.5 344 0 0 0 -0.19878 0.53001 -0.82437 0.011516
0.0050665 0.1412 1.0223 6.4537e-39 427 344 0 0 0 -0.15982 0.52981 -0.83292 0.011736
0.02183 0.14132 1.0232 7.0991e-39 441 344 0 0 0 0.16908 0.51556 -0.84001 0.020176
0.024802 0.14061 1.0223 6.4537e-39 428 344 0 0 0 0.23396 0.48667 -0.84167 0.024392
0.026618 0.14012 1.0232 5.4395e-39 414 344 0 0 0 0.26778 0.47482 -0.83836 0.026249
0.033188 0.14066 1.0228 6.3845e-39 435 344 0 0 0 0.39509 0.39999 -0.82699 0.034325
0.034968 0.14001 1.0223 5.5317e-39 421 344 0 0 0 0.41671 0.37039 -0.83016 0.034086
0.036164 0.14001 1.0223 5.5317e-39 422 344 0 0 0 0.43131 0.35552 -0.8292 0.034588
0.0068631 0.14306 1.0228 5.9005e-39 319 344.5 0 0 0 -0.11669 0.54554 -0.82992 0.011821
0.0092568 0.14306 1.0228 5.6239e-39 321.5 344.5 0 0 0 -0.069064 0.55066 -0.83187 0.011453
0.011047 0.1436 1.0223 5.163e-39 163 345 0 0 0 -0.027645 0.54918 -0.83525 0.011949
0.012243 0.1436 1.0223 5.7161e-39 176 345 0 0 0 0.0015496 0.54763 -0.83672 0.010892
0.015831 0.1436 1.0223 6.0849e-39 187 345 0 0 0 0.048308 0.54391 -0.83775 0.012418
0.017027 0.1436 1.0223 5.9005e-39 188 345 0 0 0 0.076188 0.54308 -0.83622 0.012358
0.018837 0.14372 1.0232 5.2091e-39 190.5 345 0 0 0 0.097959 0.54131 -0.8351 0.013734
0.020633 0.14372 1.0232 5.4395e-39 192 345 0 0 0 0.12614 0.53351 -0.83634 0.01661
0.023027 0.14252 1.0232 6.8225e-39 513 344 0 0 0 0.18051 0.51592 -0.8374 0.021236
0.024224 0.14252 1.0232 7.7444e-39 514 344 0 0 0 0.20106 0.51194 -0.83516 0.02223
0.033174 0.1424 1.0223 5.3934e-39 149.5 345 0 0 0 0.36403 0.42139 -0.83061 0.035897
0.014647 0.14491 1.0232 6.3615e-39 216 345 0 0 0 0.03066 0.55487 -0.83137 0.011238
0.030807 0.14671 1.0232 5.9005e-39 283 345 0 0 0 0.26698 0.50628 -0.82 0.033278
0.030184 0.14838 1.0223 5.6239e-39 364 345 0 0 0 0.2279 0.52818 -0.81797 0.029725
-0.0093096 0.040836 1.0249 5.3473e-39 485 320 0 0 0 0.62162 0.1617 -0.76645 0.086036
0.029036 0.042 1.024 8.1132e-39 419 321 0 0 0 -0.58966 0.2958 -0.75153 0.04596
-0.0093096 0.042635 1.0249 6.8224e-39 326.5 321 0 0 0 0.63416 0.092023 -0.7677 0.08489
0.027872 0.042652 1.0253 7.3757e-39 312 321.5 0 0 0 -0.53111 0.39058 -0.75191 0.039093
0.029084 0.04327 1.0257 6.6381e-39 207 322 0 0 0 -0.56605 0.31444 -0.76205 0.041
0.030284 0.04327 1.0257 6.1771e-39 208 322 0 0 0 -0.59166 0.28952 -0.75241 0.044461
-0.010505 0.045014 1.0245 6.7303e-39 311 322 0 0 0 0.65932 0.00035098 -0.75187 0.088158
-0.0093096 0.045033 1.0249 6.7764e-39 312 322 0 0 0 0.63619 0.044763 -0.77023 0.083704
0.033842 0.045014 1.0245 5.3473e-39 404 322 0 0 0 -0.63507 0.090945 -0.76708 0.042135
0.03507 0.045052 1.0253 5.5317e-39 405 322 0 0 0 -0.63795 0.045803 -0.76871 0.04063
-0.014094 0.046792 1.024 5.0708e-39 168 323 0 0 0 0.74743 -0.031627 -0.66359 0.10443
-0.011304 0.047217 1.0246 5.7469e-39 232.33 323 0 0 0 0.68678 -0.077448 -0.72272 0.094254
-0.0093173 0.04687 1.0257 5.0708e-39 172 323 0 0 0 0.62873 -0.040694 -0.77656 0.079697
0.033856 0.046831 1.0249 8.1132e-39 278 323 0 0 0 -0.64741 0.10192 -0.75529 0.045244
0.035085 0.04687 1.0257 8.2054e-39 279 323 0 0 0 -0.6414 0.071969 -0.76382 0.038703
-0.017718 0.04807 1.0257 8.1132e-39 286 323 0 0 0 0.76155 -0.010603 -0.64801 0.10061
-0.0141 0.048609 1.0245 6.4997e-39 397 323 0 0 0 0.7372 -0.049862 -0.67383 0.10232
-0.010513 0.048649 1.0253 5.7162e-39 400 323 0 0 0 0.64835 -0.12438 -0.75111 0.083255
-0.0093135 0.048649 1.0253 5.67e-39 401 323 0 0 0 0.64233 -0.10846 -0.75871 0.082915
0.033856 0.048629 1.0249 6.4537e-39 323.5 323.5 0 0 0 -0.65682 0.04626 -0.75263 0.046837
0.03504 0.048609 1.0245 6.7303e-39 324.5 323.5 0 0 0 -0.6594 0.016485 -0.75161 0.047781
-0.017718 0.05167 1.0257 7.8366e-39 413 324 0 0 0 0.75105 -0.056053 -0.65786 0.09891
-0.0105 0.050386 1.024 6.0849e-39 275 324 0 0 0 0.66223 -0.32423 -0.67552 0.095446
-0.0087095 0.051028 1.0249 7.4679e-39 348.5 324 0 0 0 0.62757 -0.15501 -0.76297 0.076782
-0.0045171 0.05167 1.0257 8.1132e-39 425 324 0 0 0 0.55366 -0.083702 -0.82853 0.062681
0.027884 0.05167 1.0257 5.4395e-39 445 324 0 0 0 -0.58617 0.17336 -0.79142 0.039027
0.029084 0.05167 1.0257 5.6239e-39 488 324 0 0 0 -0.61072 0.12472 -0.78196 0.03871
0.033828 0.050985 1.024 6.7303e-39 448 324 0 0 0 -0.66934 -0.015147 -0.74281 0.051822
-0.017688 0.052782 1.024 4.6098e-39 167 325 0 0 0 0.79032 -0.16548 -0.58993 0.10508
-0.0081105 0.052826 1.0249 5.2552e-39 175 325 0 0 0 0.63034 -0.17151 -0.75713 0.075862
-0.0069115 0.052826 1.0249 5.163e-39 176 325 0 0 0 0.60463 -0.18738 -0.77415 0.073144
0.026662 0.052826 1.0249 5.9927e-39 214 325 0 0 0 -0.5868 0.16459 -0.79283 0.04032
0.043413 0.083932 1.024 5.7161e-39 480 333 0 0 0 0.93808 0.14045 -0.31668 0.0054706
0.044611 0.083932 1.024 5.8083e-39 496 333 0 0 0 0.93802 0.14163 -0.31632 0.0055365
0.043449 0.0852 1.0249 6.8225e-39 209 334 0 0 0 0.93809 0.14136 -0.31623 0.0059561
0.044648 0.0852 1.0249 6.4537e-39 210 334 0 0 0 0.93759 0.14094 -0.31791 0.0060433
-0.016518 0.087671 1.0257 5.5317e-39 360 334 0 0 0 -0.9803 0.086649 -0.17751 0.0055125
0.043485 0.087071 1.0257 5.5778e-39 395.5 334 0 0 0 0.93632 0.13227 -0.32528 0.0063946
0.045072 0.087247 1.0254 5.7468e-39 409.67 334 0 0 0 0.93632 0.13227 -0.32528 0.0063945
0.042868 0.088835 1.0253 5.5317e-39 173.5 335 0 0 0 0.94197 0.12044 -0.31334 0.0058367
0.044685 0.088871 1.0257 5.3473e-39 175 335 0 0 0 0.93601 0.12783 -0.32794 0.006348
0.042285 0.090671 1.0257 7.0069e-39 354 335 0 0 0 0.94074 0.11612 -0.31864 0.0054912
0.045085 0.090871 1.0257 6.4537e-39 377.67 335 0 0 0 0.93922 0.11648 -0.32296 0.0061009
0.042285 0.093072 1.0257 5.9466e-39 207 336 0 0 0 0.93782 0.11606 -0.32715 0.0053318
0.044685 0.093072 1.0257 5.5317e-39 217.5 336 0 0 0 0.93912 0.10839 -0.32605 0.0058433
0.042285 0.094872 1.0257 7.6522e-39 396 336 0 0 0 0.93216 0.12178 -0.34094 0.0055413
0.044685 0.094872 1.0257 7.3757e-39 398 336 0 0 0 0.9356 0.11374 -0.33424 0.0053724
-0.015292 0.1019 1.024 6.2693e-39 197 338 0 0 0 -0.94388 0.079793 -0.32049 0.03129
-0.015292 0.1031 1.024 7.0991e-39 288 338 0 0 0 -0.93737 0.096195 -0.33479 0.032984
-0.015292 0.1049 1.024 8.482e-39 459.5 338 0 0 0 -0.92428 0.10885 -0.36586 0.039005
-0.015292 0.10729 1.024 6.7303e-39 252 339 0 0 0 -0.90942 0.12855 -0.39551 0.045938
0.041034 0.10734 1.0245 7.2374e-39 345 339 0 0 0 0.86651 0.17449 -0.46768 0.011481
-0.016518 0.10927 1.0257 7.6522e-39 411 339 0 0 0 -0.92849 0.12786 -0.34864 0.043561
0.041085 0.10927 1.0257 6.0849e-39 502 339 0 0 0 0.85509 0.17822 -0.48688 0.011784
-0.018902 0.11038 1.0249 6.1771e-39 506 339 0 0 0 -0.92218 0.11576 -0.36903 0.046639
-0.016899 0.11075 1.0246 6.3308e-39 407.33 339.33 0 0 0 -0.90882 0.17169 -0.38021 0.048533
0.041085 0.11047 1.0257 6.2693e-39 202 340 0 0 0 0.84648 0.1869 -0.49854 0.011458
0.039819 0.11388 1.024 6.5459e-39 446 340 0 0 0 0.80123 0.24155 -0.54743 0.013466
0.039819 0.11508 1.024 5.6239e-39 158 341 0 0 0 0.78609 0.25198 -0.56442 0.013016
0.039819 0.11688 1.024 7.3296e-39 261.5 341 0 0 0 0.7698 0.26165 -0.58219 0.014179
0.039819 0.11928 1.024 7.6061e-39 424.5 341 0 0 0 0.74643 0.25728 -0.61372 0.017601
0.039852 0.12117 1.0249 5.2552e-39 166 342 0 0 0 0.72801 0.2437 -0.64079 0.018619
0.039463 0.1232 1.0252 7.8059e-39 273.33 342 0 0 0 0.70434 0.25011 -0.66434 0.020557
0.037454 0.12597 1.0249 5.6239e-39 442 342 0 0 0 0.64799 0.27484 -0.71034 0.024106
0.038685 0.12487 1.0257 7.56e-39 392 342 0 0 0 0.67368 0.25121 -0.69502 0.023516
0.036869 0.12722 1.0253 6.0388e-39 155.5 343 0 0 0 0.62888 0.26846 -0.72968 0.026036
-0.011108 0.12897 1.0249 5.5548e-39 190 343 0 0 0 -0.46756 0.43823 -0.76769 0.016859
0.03504 0.12892 1.0245 5.7622e-39 239.5 343 0 0 0 0.58285 0.29887 -0.75562 0.025943
0.037085 0.12887 1.0257 6.4537e-39 232.33 343 0 0 0 0.60745 0.2728 -0.74604 0.026966
-0.0105 0.13126 1.024 5.3473e-39 322.5 343 0 0 0 -0.42445 0.4583 -0.7809 0.010763
0.033856 0.13136 1.0249 6.4536e-39 381.5 343 0 0 0 0.53274 0.32261 -0.78237 0.027203
0.035085 0.13087 1.0257 5.5317e-39 358 343 0 0 0 0.55033 0.30787 -0.77611 0.027568
0.037485 0.13087 1.0257 5.3473e-39 360 343 0 0 0 0.57861 0.2711 -0.76923 0.028324
-0.0069057 0.13305 1.024 5.6239e-39 414 343 0 0 0 -0.36902 0.47127 -0.80108 0.0070061
0.031432 0.13305 1.024 8.1132e-39 447 343 0 0 0 0.46797 0.35845 -0.80779 0.027515
0.033856 0.13316 1.0249 7.7444e-39 449 343 0 0 0 0.5049 0.33107 -0.79717 0.028382
0.035085 0.13267 1.0257 7.3296e-39 428.5 343 0 0 0 0.53054 0.31507 -0.78693 0.028912
