# .PCD v.7 - Point Cloud Data file format
VERSION .7
FIELDS x y z rgb u v vx vy vz normal_x normal_y normal_z curvature
SIZE 4 4 4 4 4 4 4 4 4 4 4 4 4
TYPE F F F F F F F F F F F F F
COUNT 1 1 1 1 1 1 1 1 1 1 1 1 1
WIDTH 564
HEIGHT 1
VIEWPOINT 0 0 0 1 0 0 0
POINTS 564
DATA ascii
-0.011526 0.086829 1.0089 7.9749e-39 376 335 0 0 0 -0.69084 0.26358 -0.67325 0.025529
-0.010337 0.089117 1.0081 6.4076e-39 289 336 0 0 0 -0.63183 0.29458 -0.71694 0.023091
0.039201 0.089707 1.0081 6.5459e-39 391 336 0 0 0 0.75536 0.17222 -0.63227 0.036495
-0.010337 0.090886 1.0081 7.9288e-39 405 336 0 0 0 -0.64307 0.30796 -0.70116 0.023086
0.039233 0.090961 1.009 5.8083e-39 157 337 0 0 0 0.78431 0.17042 -0.5965 0.032121
-0.010337 0.092655 1.0081 6.6842e-39 254 337 0 0 0 -0.64957 0.30943 -0.69449 0.022392
0.039249 0.09277 1.0094 5.7161e-39 326.5 337 0 0 0 0.77774 0.17691 -0.60317 0.031803
-0.010349 0.095132 1.0094 6.9146e-39 294.5 337.5 0 0 0 -0.67473 0.3059 -0.67169 0.020636
-0.0091576 0.095604 1.0081 6.1771e-39 195 338 0 0 0 -0.64732 0.30448 -0.69876 0.021172
-0.0073884 0.095604 1.0081 6.1771e-39 207.5 338 0 0 0 -0.6256 0.30782 -0.71685 0.02209
-0.0091651 0.096863 1.009 5.7161e-39 276 338 0 0 0 -0.65548 0.31424 -0.68673 0.020061
-0.0073944 0.096863 1.009 5.5778e-39 277.5 338 0 0 0 -0.64019 0.31453 -0.70087 0.020518
0.038021 0.097963 1.0081 5.9927e-39 436 338 0 0 0 0.6527 0.25945 -0.7118 0.030474
-0.0091726 0.098123 1.0098 6.0849e-39 383 338 0 0 0 -0.67784 0.32267 -0.66061 0.018756
-0.0068097 0.098123 1.0098 5.9005e-39 385 338 0 0 0 -0.63781 0.31829 -0.70135 0.020327
0.038053 0.099224 1.009 7.0069e-39 241 339 0 0 0 0.67051 0.26505 -0.69294 0.029537
-0.0056191 0.1015 1.0081 7.6522e-39 361 339 0 0 0 -0.57796 0.3432 -0.74039 0.015828
0.035663 0.1015 1.0081 7.8366e-39 396 339 0 0 0 0.58982 0.28003 -0.75743 0.027161
0.038084 0.10049 1.0098 7.56e-39 302 339 0 0 0 0.69648 0.26032 -0.66869 0.027411
-0.0050317 0.10331 1.0085 5.9005e-39 317 339.5 0 0 0 -0.57463 0.35785 -0.73603 0.014635
0.035663 0.10327 1.0081 6.4076e-39 203.5 340 0 0 0 0.58857 0.29232 -0.75374 0.025635
0.036872 0.10336 1.009 6.6842e-39 204.5 340 0 0 0 0.64227 0.28757 -0.71049 0.02629
0.035692 0.10513 1.009 7.3757e-39 351 340 0 0 0 0.59609 0.30928 -0.74096 0.024469
0.036872 0.10513 1.009 7.6522e-39 352 340 0 0 0 0.6344 0.30106 -0.71197 0.024155
-0.0024773 0.10676 1.0095 5.6854e-39 394 340 0 0 0 -0.53709 0.38977 -0.74808 0.015869
-0.00090124 0.1074 1.0081 5.9005e-39 436 340 0 0 0 -0.495 0.39465 -0.7741 0.016911
0.030945 0.1074 1.0081 5.163e-39 152 341 0 0 0 0.4185 0.35781 -0.83476 0.013953
0.032734 0.10688 1.0087 6.5228e-39 278.5 340.5 0 0 0 0.49968 0.33736 -0.79781 0.021542
0.035116 0.10635 1.0094 7.7905e-39 407.5 340 0 0 0 0.59052 0.31723 -0.74206 0.023715
-0.00090197 0.10926 1.0089 5.6701e-39 241 341 0 0 0 -0.50196 0.41205 -0.76043 0.017187
0.027406 0.10976 1.0081 6.9147e-39 299 341 0 0 0 0.34028 0.3914 -0.85499 0.01197
0.02938 0.1094 1.0084 7.56e-39 283 341 0 0 0 0.38164 0.38196 -0.8417 0.012024
0.030982 0.10931 1.0094 8.021e-39 275.5 341 0 0 0 0.43334 0.37815 -0.81806 0.015299
0.00086797 0.11094 1.0081 7.8366e-39 361.5 341 0 0 0 -0.42622 0.42761 -0.79718 0.016718
0.027406 0.11094 1.0081 6.1771e-39 384 341 0 0 0 0.33754 0.40269 -0.85083 0.011884
0.029211 0.11107 1.0094 7.3757e-39 385.5 341 0 0 0 0.37712 0.40013 -0.83527 0.011878
0.030995 0.11112 1.0098 8.2054e-39 387 341 0 0 0 0.43008 0.39689 -0.81087 0.015024
0.00086939 0.1123 1.0098 7.3757e-39 413.5 341 0 0 0 -0.44646 0.43919 -0.77961 0.017975
0.0026415 0.1123 1.0098 7.1913e-39 415 341 0 0 0 -0.40136 0.44078 -0.80289 0.018935
0.027036 0.113 1.009 6.0542e-39 281 341.67 0 0 0 0.33264 0.42157 -0.84358 0.011336
0.028632 0.1123 1.0098 6.1771e-39 437 341 0 0 0 0.35764 0.41865 -0.83476 0.011034
0.0038198 0.11457 1.009 7.3757e-39 248 342 0 0 0 -0.36227 0.44999 -0.81625 0.018581
0.0050002 0.11516 1.0089 7.1913e-39 273 342 0 0 0 -0.32939 0.45444 -0.82764 0.019368
0.0065721 0.11533 1.0087 7.222e-39 282.33 342 0 0 0 -0.27234 0.45744 -0.84651 0.021121
0.0097141 0.11566 1.0081 7.3757e-39 301 342 0 0 0 -0.15849 0.46984 -0.86841 0.018865
0.010894 0.11566 1.0081 7.8366e-39 302 342 0 0 0 -0.1141 0.47331 -0.87348 0.018056
0.012073 0.11566 1.0081 8.021e-39 303 342 0 0 0 -0.072475 0.47169 -0.87878 0.016679
0.015611 0.11566 1.0081 7.0069e-39 306 342 0 0 0 0.022772 0.46563 -0.88469 0.013871
0.01915 0.11566 1.0081 7.9288e-39 343 342 0 0 0 0.12824 0.45979 -0.87872 0.013029
0.023481 0.1153 1.0084 7.7444e-39 319.33 342 0 0 0 0.24814 0.44818 -0.85881 0.011696
0.025058 0.11512 1.0085 7.7905e-39 307 342 0 0 0 0.29403 0.44323 -0.84681 0.011647
0.026259 0.11521 1.0094 7.7905e-39 308 342 0 0 0 0.3198 0.44113 -0.83853 0.011052
0.0073671 0.11703 1.0098 5.6239e-39 380 342 0 0 0 -0.25286 0.47347 -0.84374 0.020907
0.0091357 0.11698 1.0094 5.6239e-39 381.5 342 0 0 0 -0.17587 0.47608 -0.86164 0.018691
0.010911 0.11703 1.0098 5.9927e-39 383 342 0 0 0 -0.12394 0.4811 -0.86786 0.018495
0.012678 0.11698 1.0094 7.3757e-39 384.5 342 0 0 0 -0.061895 0.47904 -0.87561 0.015909
0.015034 0.11693 1.009 8.482e-39 386.5 342 0 0 0 0.0077035 0.47838 -0.87812 0.014291
0.017388 0.11688 1.0085 8.1132e-39 388.5 342 0 0 0 0.070055 0.47387 -0.8778 0.013398
0.019166 0.11693 1.009 7.7444e-39 390 342 0 0 0 0.12586 0.47233 -0.87239 0.013524
0.020919 0.11683 1.0081 7.8827e-39 391.5 342 0 0 0 0.16835 0.46771 -0.8677 0.012162
0.023307 0.11698 1.0094 8.482e-39 393.5 342 0 0 0 0.2461 0.46354 -0.85122 0.011976
0.02627 0.11703 1.0098 8.1132e-39 396 342 0 0 0 0.31445 0.4545 -0.8334 0.011086
0.013274 0.11821 1.0098 6.2693e-39 432 342 0 0 0 -0.04289 0.48765 -0.87198 0.015061
0.014456 0.11821 1.0098 6.1771e-39 433 342 0 0 0 -0.0085454 0.48894 -0.87228 0.014526
0.017985 0.11811 1.009 5.8083e-39 436 342 0 0 0 0.093131 0.48133 -0.87158 0.013894
0.020953 0.11821 1.0098 5.9466e-39 438.5 342 0 0 0 0.16827 0.48168 -0.86004 0.01291
-0.015104 0.039117 1.0114 7.2835e-39 413 320 0 0 0 0.99816 0.052748 -0.02987 0.072632
-0.013921 0.039117 1.0114 7.56e-39 415 320 0 0 0 0.99676 0.027226 -0.07569 0.080472
-0.012727 0.040267 1.0106 7.6522e-39 354 321 0 0 0 0.99729 -0.07099 -0.019503 0.074185
-0.015104 0.056867 1.0114 6.3615e-39 390 326 0 0 0 -0.98227 -0.074911 -0.17183 0.061633
0.041105 0.084675 1.0114 6.592e-39 388.5 334.5 0 0 0 0.85025 0.13538 -0.50867 0.022263
-0.012727 0.08638 1.0106 8.3898e-39 347 335 0 0 0 -0.75049 0.24894 -0.61221 0.024253
0.040513 0.086451 1.0114 6.9147e-39 392 335 0 0 0 0.83554 0.13932 -0.53147 0.024549
-0.011554 0.088817 1.0114 5.0708e-39 228 336 0 0 0 -0.74992 0.27037 -0.60376 0.025408
0.039313 0.095287 1.011 7.099e-39 376 337.5 0 0 0 0.78581 0.18002 -0.59169 0.029139
-0.010362 0.097021 1.0106 5.8083e-39 275 338 0 0 0 -0.69602 0.31749 -0.64402 0.019123
-0.010371 0.098284 1.0114 5.9005e-39 382 338 0 0 0 -0.71781 0.32479 -0.61584 0.017935
-0.0085921 0.099427 1.011 4.5176e-39 498.5 338 0 0 0 -0.68723 0.32805 -0.64816 0.017765
-0.0074065 0.098795 1.0106 5.9466e-39 269.5 338.5 0 0 0 -0.66693 0.3269 -0.66958 0.019523
-0.0091876 0.10124 1.0114 8.3437e-39 307.5 339 0 0 0 -0.70255 0.33924 -0.62557 0.017052
-0.0068153 0.10116 1.0106 7.7905e-39 309.5 339 0 0 0 -0.65381 0.34135 -0.67528 0.018042
0.038146 0.10183 1.0114 7.6522e-39 398 339 0 0 0 0.71317 0.25315 -0.65369 0.026419
-0.0091876 0.10302 1.0114 6.2693e-39 423 339 0 0 0 -0.70555 0.35018 -0.6161 0.014993
-0.0068209 0.10302 1.0114 6.5459e-39 425 339 0 0 0 -0.65917 0.35549 -0.66267 0.0155
-0.0050418 0.10471 1.0106 5.9927e-39 241 340 0 0 0 -0.61379 0.36791 -0.6985 0.016398
-0.0032682 0.10766 1.0106 5.9005e-39 434 340 0 0 0 -0.56629 0.40047 -0.72037 0.01622
0.035173 0.1077 1.011 5.9466e-39 155.5 341 0 0 0 0.60877 0.32316 -0.72454 0.022592
0.036963 0.10657 1.0114 7.3757e-39 413 340 0 0 0 0.65855 0.30442 -0.68822 0.022811
-0.002677 0.10885 1.0106 5.5317e-39 208.5 341 0 0 0 -0.55319 0.4128 -0.72359 0.016927
0.032794 0.10885 1.0106 8.021e-39 250.5 341 0 0 0 0.53326 0.35345 -0.76857 0.021587
0.034596 0.10893 1.0114 7.56e-39 252 341 0 0 0 0.59364 0.34573 -0.72668 0.020801
-0.002875 0.11045 1.0109 7.2527e-39 299.67 341 0 0 0 -0.56183 0.41764 -0.71409 0.016366
-0.00090345 0.11121 1.0106 7.7444e-39 360 341 0 0 0 -0.5088 0.42397 -0.74925 0.017131
0.032615 0.11048 1.0111 8.0517e-39 331.67 341 0 0 0 0.5275 0.37545 -0.76209 0.02016
0.00087022 0.11362 1.011 6.9608e-39 499.5 341 0 0 0 -0.45397 0.4428 -0.7732 0.018832
0.0026437 0.11357 1.0106 7.0069e-39 501 341 0 0 0 -0.40247 0.44589 -0.7995 0.018994
0.029444 0.11318 1.0106 5.8698e-39 283 341.67 0 0 0 0.38213 0.42215 -0.82205 0.011975
0.031034 0.11303 1.011 5.7622e-39 326 341.5 0 0 0 0.44129 0.41082 -0.7978 0.014338
0.0014625 0.11485 1.0114 7.56e-39 246 342 0 0 0 -0.44134 0.4476 -0.77773 0.019406
0.0032359 0.11539 1.011 7.0069e-39 271.5 342 0 0 0 -0.38507 0.45609 -0.80231 0.018358
0.027473 0.11476 1.0106 8.021e-39 268 342 0 0 0 0.34471 0.43853 -0.82998 0.01089
0.029271 0.11485 1.0114 7.6061e-39 269.5 342 0 0 0 0.38163 0.43674 -0.81463 0.012295
0.0038292 0.11722 1.0114 5.8083e-39 377 342 0 0 0 -0.37216 0.46505 -0.80326 0.01952
0.0050125 0.11722 1.0114 5.9927e-39 378 342 0 0 0 -0.34338 0.46685 -0.81495 0.020217
0.0061959 0.11722 1.0114 5.9005e-39 379 342 0 0 0 -0.31233 0.47365 -0.82347 0.021946
0.025109 0.11712 1.0106 8.2976e-39 395 342 0 0 0 0.29933 0.46134 -0.83521 0.01181
0.027496 0.11603 1.0114 7.3757e-39 350 342 0 0 0 0.34533 0.45112 -0.82295 0.010787
0.0073792 0.1184 1.0114 6.2693e-39 427 342 0 0 0 -0.26114 0.48374 -0.83534 0.021664
0.0091504 0.11894 1.011 5.7852e-39 313.5 342.5 0 0 0 -0.19034 0.48689 -0.85247 0.019439
0.010929 0.1184 1.0114 5.7161e-39 430 342 0 0 0 -0.13179 0.48904 -0.86225 0.020091
0.012694 0.11889 1.0106 6.2232e-39 316.5 342.5 0 0 0 -0.060636 0.49079 -0.86916 0.016527
0.015264 0.11915 1.0111 6.0234e-39 280.33 342.67 0 0 0 0.0090242 0.4957 -0.86845 0.014963
0.016839 0.11894 1.011 5.7161e-39 320 342.5 0 0 0 0.061505 0.49482 -0.86681 0.013696
0.018808 0.11912 1.0109 5.7776e-39 283.33 342.67 0 0 0 0.12468 0.48943 -0.86308 0.01386
0.020971 0.11949 1.0106 5.5317e-39 209 343 0 0 0 0.17844 0.48881 -0.85394 0.013032
0.023345 0.11894 1.011 5.693e-39 328.5 342.5 0 0 0 0.24103 0.48096 -0.84296 0.012367
0.025129 0.1184 1.0114 6.1771e-39 447 342 0 0 0 0.29794 0.47411 -0.82852 0.011595
0.026313 0.1184 1.0114 6.2693e-39 453 342 0 0 0 0.31925 0.46977 -0.82304 0.011541
0.013296 0.12077 1.0114 8.2054e-39 264 343 0 0 0 -0.04837 0.49843 -0.86558 0.015555
0.015663 0.12077 1.0114 7.7444e-39 266 343 0 0 0 0.023167 0.5015 -0.86485 0.014428
0.018029 0.12077 1.0114 7.8366e-39 268 343 0 0 0 0.091062 0.49835 -0.86218 0.01449
0.020983 0.12133 1.0112 7.7214e-39 309 343 0 0 0 0.17542 0.49502 -0.85099 0.013215
0.022763 0.12077 1.0114 6.6381e-39 272 343 0 0 0 0.22766 0.48999 -0.84148 0.012249
-0.015141 0.0404 1.0139 5.7161e-39 234 321 0 0 0 0.99206 0.10388 -0.070886 0.10776
-0.013356 0.040977 1.0135 6.2232e-39 370.5 321 0 0 0 0.99513 -0.011343 -0.097903 0.1092
-0.010971 0.040925 1.0123 7.1452e-39 373 321 0 0 0 0.988 -0.13847 -0.068393 0.097275
0.037023 0.05459 1.0131 8.3898e-39 353 326 0 0 0 0.82151 -0.43666 -0.36668 0.036602
0.038817 0.055205 1.0135 7.2374e-39 369 326 0 0 0 0.85676 -0.38958 -0.33793 0.035566
0.040546 0.055729 1.0123 6.4537e-39 385 326 0 0 0 0.8827 -0.3112 -0.35212 0.032819
-0.013932 0.085337 1.0123 5.4395e-39 213 335 0 0 0 -0.80566 0.22295 -0.54882 0.022911
0.041764 0.085407 1.0131 7.0069e-39 291 335 0 0 0 0.86485 0.11979 -0.48752 0.018096
-0.013552 0.087407 1.0134 8.0517e-39 383.67 335 0 0 0 -0.8372 0.219 -0.50113 0.023212
0.040579 0.087778 1.0131 6.0849e-39 160 336 0 0 0 0.84317 0.12642 -0.52258 0.022273
-0.012769 0.089036 1.0139 5.163e-39 227 336 0 0 0 -0.83487 0.22443 -0.50262 0.025013
-0.011568 0.090704 1.0127 7.9288e-39 376 336 0 0 0 -0.78961 0.25775 -0.55685 0.025178
-0.011573 0.093112 1.0131 7.0069e-39 253 337 0 0 0 -0.79551 0.26274 -0.54601 0.022243
-0.011583 0.094967 1.0139 8.2054e-39 394 337 0 0 0 -0.79993 0.27571 -0.53301 0.020216
0.039362 0.09718 1.0123 8.1132e-39 367 338 0 0 0 0.78857 0.18869 -0.58528 0.027378
-0.010388 0.099631 1.0131 7.0069e-39 496 338 0 0 0 -0.75191 0.32471 -0.57376 0.01801
0.039394 0.099038 1.0131 6.6842e-39 348 338.5 0 0 0 0.78022 0.19605 -0.59399 0.02668
-0.010396 0.1009 1.0139 7.9288e-39 256 339 0 0 0 -0.75995 0.32719 -0.56162 0.016569
-0.0080108 0.10133 1.0123 8.2054e-39 308.5 339 0 0 0 -0.69808 0.34116 -0.62952 0.016991
0.039426 0.1009 1.0139 7.8366e-39 303 339 0 0 0 0.77625 0.21112 -0.59402 0.025998
-0.010396 0.10208 1.0139 8.3898e-39 357 339 0 0 0 -0.74945 0.34255 -0.56655 0.014822
-0.0080108 0.1031 1.0123 6.5459e-39 424 339 0 0 0 -0.69464 0.35337 -0.62658 0.015347
0.038209 0.10319 1.0131 5.8083e-39 156 340 0 0 0 0.73389 0.24821 -0.6323 0.02482
-0.0092026 0.10437 1.0131 5.6239e-39 204 340 0 0 0 -0.72043 0.35915 -0.59329 0.013099
-0.0068321 0.10437 1.0131 5.6239e-39 206 340 0 0 0 -0.68903 0.36474 -0.62626 0.014556
-0.0056468 0.10556 1.0131 5.9927e-39 274 340 0 0 0 -0.66078 0.3795 -0.64757 0.014793
0.038209 0.10497 1.0131 7.8827e-39 304 340 0 0 0 0.71694 0.2686 -0.64332 0.023387
-0.0044597 0.10729 1.0127 6.0388e-39 402.5 340 0 0 0 -0.61986 0.39648 -0.67718 0.015221
0.036993 0.10784 1.0123 5.5317e-39 157 341 0 0 0 0.65555 0.31201 -0.68768 0.021859
0.03824 0.10683 1.0139 7.3757e-39 414 340 0 0 0 0.711 0.27764 -0.64606 0.022212
-0.0044615 0.10911 1.0131 5.7161e-39 207 341 0 0 0 -0.62005 0.40746 -0.67046 0.015162
0.035838 0.10911 1.0131 7.2835e-39 253 341 0 0 0 0.63913 0.32775 -0.69577 0.020497
0.037054 0.1092 1.0139 7.4678e-39 254 341 0 0 0 0.66972 0.31688 -0.67161 0.019647
-0.0044652 0.11039 1.0139 7.4678e-39 269 341 0 0 0 -0.62491 0.41478 -0.6614 0.015612
-0.0020892 0.11139 1.0123 8.2054e-39 359 341 0 0 0 -0.55966 0.41666 -0.71636 0.017155
0.03344 0.11139 1.0123 8.021e-39 389 341 0 0 0 0.56307 0.37276 -0.73756 0.019634
0.035048 0.11069 1.0131 7.5293e-39 333.67 341 0 0 0 0.61071 0.35361 -0.70852 0.019537
-0.0026845 0.11271 1.0135 7.6061e-39 410.5 341 0 0 0 -0.58643 0.41758 -0.69406 0.017616
-0.0009053 0.11321 1.0127 7.0529e-39 455 341 0 0 0 -0.5287 0.42794 -0.73304 0.018406
0.032862 0.11321 1.0127 5.8083e-39 328.5 341.5 0 0 0 0.53602 0.40017 -0.74333 0.017675
0.034681 0.11276 1.0139 6.4537e-39 453 341 0 0 0 0.59593 0.37161 -0.71188 0.018162
-0.00090642 0.11513 1.0139 7.56e-39 244 342 0 0 0 -0.53606 0.43901 -0.72105 0.019731
0.00027938 0.11495 1.0123 7.8366e-39 245 342 0 0 0 -0.47634 0.44959 -0.75563 0.019304
0.031071 0.11495 1.0123 6.8225e-39 271 342 0 0 0 0.43851 0.43067 -0.78882 0.014557
0.032889 0.11508 1.0135 5.9466e-39 272.5 342 0 0 0 0.52817 0.41699 -0.7397 0.015952
0.00087261 0.11686 1.0135 7.1221e-39 334 342 0 0 0 -0.47209 0.45858 -0.75289 0.020458
0.0026512 0.11686 1.0135 6.4998e-39 335.5 342 0 0 0 -0.43449 0.46147 -0.77348 0.021542
0.027519 0.11731 1.0123 7.56e-39 397 342 0 0 0 0.34554 0.46002 -0.81791 0.011076
0.029307 0.11677 1.0127 7.1913e-39 375 342 0 0 0 0.38003 0.45458 -0.80556 0.01108
0.03111 0.11686 1.0135 7.3296e-39 376.5 342 0 0 0 0.45521 0.44854 -0.76915 0.01476
0.032309 0.11692 1.0139 7.1451e-39 377.5 342 0 0 0 0.50307 0.43794 -0.74507 0.01454
0.0014661 0.11929 1.0139 5.7622e-39 291.5 342.5 0 0 0 -0.44218 0.46728 -0.76558 0.021456
0.00344 0.11899 1.0131 6.3e-39 347 342.33 0 0 0 -0.39888 0.47048 -0.78711 0.020626
0.0050186 0.11914 1.0127 6.5459e-39 310 342.5 0 0 0 -0.35862 0.47604 -0.80298 0.021541
0.0065974 0.11932 1.0126 6.0542e-39 273 342.67 0 0 0 -0.2959 0.48259 -0.82435 0.022511
0.010938 0.11968 1.0123 5.7161e-39 200 343 0 0 0 -0.12795 0.49242 -0.8609 0.01956
0.012122 0.11968 1.0123 5.9005e-39 201 343 0 0 0 -0.089837 0.49428 -0.86465 0.017896
0.02515 0.11968 1.0123 5.7161e-39 213 343 0 0 0 0.30252 0.47674 -0.82535 0.01172
0.027146 0.11939 1.0131 6.2078e-39 294.33 342.67 0 0 0 0.34143 0.47547 -0.81078 0.011354
0.029541 0.11909 1.0139 6.3e-39 390.33 342.33 0 0 0 0.3986 0.46964 -0.78775 0.012732
0.0038355 0.12097 1.0131 7.8366e-39 256 343 0 0 0 -0.38225 0.47689 -0.7915 0.021847
0.0050249 0.12107 1.0139 7.8366e-39 257 343 0 0 0 -0.34899 0.4881 -0.79998 0.022705
0.0067987 0.12097 1.0131 7.514e-39 258.5 343 0 0 0 -0.2906 0.49307 -0.82002 0.023343
0.0091617 0.12087 1.0123 7.5601e-39 260.5 343 0 0 0 -0.1955 0.49658 -0.84569 0.021299
0.010947 0.12097 1.0131 8.1132e-39 262 343 0 0 0 -0.12747 0.4975 -0.85805 0.018602
0.012132 0.12097 1.0131 8.2976e-39 263 343 0 0 0 -0.087292 0.50173 -0.86061 0.017264
0.014491 0.12087 1.0123 7.9288e-39 265 343 0 0 0 -0.0045975 0.50287 -0.86435 0.014596
0.01686 0.12087 1.0123 7.8366e-39 267 343 0 0 0 0.061332 0.50243 -0.86244 0.014492
0.019228 0.12087 1.0123 7.56e-39 269 343 0 0 0 0.13406 0.49692 -0.85738 0.014193
0.023966 0.12087 1.0123 5.9927e-39 273 343 0 0 0 0.26964 0.48683 -0.83084 0.012406
0.025171 0.12097 1.0131 5.8083e-39 274 343 0 0 0 0.30014 0.4858 -0.82092 0.011845
0.026356 0.12097 1.0131 5.9927e-39 275 343 0 0 0 0.32389 0.48259 -0.81376 0.011873
0.0038386 0.12225 1.0139 6.5459e-39 300 343 0 0 0 -0.37995 0.48458 -0.78792 0.022199
0.0050249 0.12225 1.0139 7.0991e-39 301 343 0 0 0 -0.35103 0.48883 -0.79864 0.022435
0.0068027 0.12282 1.0137 6.9608e-39 341 343 0 0 0 -0.28751 0.49905 -0.81749 0.022933
0.009171 0.12277 1.0133 7.076e-39 343 343 0 0 0 -0.19892 0.50374 -0.84064 0.021696
0.010956 0.12284 1.0139 7.1913e-39 344.5 343 0 0 0 -0.12646 0.50615 -0.85312 0.018189
0.012725 0.12274 1.0131 7.8827e-39 354.25 343 0 0 0 -0.064095 0.50808 -0.85892 0.016422
0.015095 0.12274 1.0131 8.4359e-39 364.5 343 0 0 0 0.0043926 0.51016 -0.86007 0.014346
0.016874 0.12274 1.0131 8.021e-39 366 343 0 0 0 0.061813 0.50911 -0.85848 0.014428
0.018644 0.1227 1.0127 7.6061e-39 367.5 343 0 0 0 0.10968 0.50614 -0.85545 0.014077
0.021005 0.12324 1.0123 7.4679e-39 391.5 343 0 0 0 0.17535 0.49926 -0.84852 0.013222
0.023189 0.12251 1.0128 7.4371e-39 364 343 0 0 0 0.2427 0.49537 -0.83409 0.012509
0.024796 0.12304 1.0139 7.6522e-39 380 343 0 0 0 0.28519 0.49542 -0.8205 0.012913
0.026377 0.12284 1.0139 7.1913e-39 374 343 0 0 0 0.32699 0.48821 -0.80915 0.011759
0.0093745 0.12502 1.0139 6.423e-39 337.67 343.33 0 0 0 -0.18843 0.51313 -0.83737 0.021086
0.013329 0.12521 1.0139 5.67e-39 298.5 343.5 0 0 0 -0.0479 0.52004 -0.8528 0.015329
0.015301 0.12498 1.0136 5.7776e-39 351.67 343.33 0 0 0 0.0073333 0.51664 -0.85617 0.014251
0.016887 0.12462 1.0139 5.9927e-39 432 343 0 0 0 0.060211 0.51495 -0.8551 0.014027
0.018469 0.12502 1.0139 5.7468e-39 354.33 343.33 0 0 0 0.098782 0.51547 -0.85119 0.013819
0.021031 0.12516 1.0135 5.7391e-39 317 343.5 0 0 0 0.18103 0.51097 -0.84032 0.013114
0.022819 0.12462 1.0139 6.0849e-39 437 343 0 0 0 0.23527 0.50368 -0.83124 0.013301
-0.013978 0.041654 1.0156 5.3473e-39 387 321 0 0 0 0.96798 0.20983 -0.13781 0.1368
-0.011602 0.052348 1.0156 6.2693e-39 403 325 0 0 0 0.98396 -0.1122 -0.13871 0.084971
0.041833 0.086735 1.0148 7.6522e-39 393 335 0 0 0 0.87199 0.1132 -0.47626 0.016378
-0.013978 0.089183 1.0156 5.4395e-39 215 336 0 0 0 -0.86259 0.21096 -0.45983 0.020508
0.040679 0.089183 1.0156 7.2835e-39 291 336 0 0 0 0.8624 0.11563 -0.49284 0.017683
-0.01279 0.090965 1.0156 8.0671e-39 375 336 0 0 0 -0.84453 0.23766 -0.47989 0.020976
0.040679 0.091559 1.0156 5.7161e-39 158 337 0 0 0 0.85303 0.12501 -0.50666 0.018094
-0.01279 0.092747 1.0156 5.6239e-39 213 337 0 0 0 -0.84353 0.24847 -0.47616 0.018566
0.040679 0.093341 1.0156 5.7161e-39 327.5 337 0 0 0 0.84717 0.13935 -0.51272 0.018336
0.040679 0.095124 1.0156 6.8225e-39 493 337 0 0 0 0.83924 0.1437 -0.52442 0.019176
-0.011592 0.096827 1.0148 5.67e-39 218.5 338 0 0 0 -0.8077 0.28878 -0.51403 0.017908
0.040679 0.096906 1.0156 7.4679e-39 314.5 338 0 0 0 0.83094 0.15431 -0.53454 0.020089
-0.011592 0.098607 1.0148 5.8083e-39 381 338 0 0 0 -0.80478 0.29936 -0.51256 0.017236
0.040679 0.099282 1.0156 6.592e-39 363 338.5 0 0 0 0.82038 0.17301 -0.54502 0.021398
0.040679 0.10106 1.0156 7.9288e-39 344 339 0 0 0 0.80695 0.18914 -0.55952 0.022562
-0.010405 0.10336 1.0148 5.9927e-39 422 339 0 0 0 -0.76019 0.34419 -0.55104 0.012805
0.039475 0.10281 1.0152 6.6842e-39 278 339.5 0 0 0 0.77472 0.21642 -0.59412 0.02363
-0.010414 0.10463 1.0156 5.9927e-39 203 340 0 0 0 -0.76616 0.35163 -0.53792 0.012263
-0.0080305 0.10454 1.0148 5.5317e-39 205 340 0 0 0 -0.72928 0.36032 -0.58165 0.013711
-0.0068433 0.10573 1.0148 5.9927e-39 273 340 0 0 0 -0.7026 0.37705 -0.60348 0.012586
-0.0056561 0.10692 1.0148 5.9927e-39 371 340 0 0 0 -0.68106 0.38692 -0.62165 0.013473
-0.0056584 0.10874 1.0152 6.0388e-39 319 340.5 0 0 0 -0.67863 0.39736 -0.61771 0.013233
0.038303 0.10819 1.0156 5.6239e-39 159 341 0 0 0 0.71578 0.28001 -0.63973 0.021224
-0.0050648 0.11112 1.0152 8.2515e-39 312.5 341 0 0 0 -0.66099 0.40771 -0.62997 0.016535
0.035897 0.11167 1.0148 7.7444e-39 391 341 0 0 0 0.63056 0.35084 -0.69232 0.018086
0.037099 0.11112 1.0152 8.2515e-39 367 341 0 0 0 0.66293 0.32974 -0.67216 0.018537
-0.0044725 0.11295 1.0156 7.9288e-39 405 341 0 0 0 -0.63638 0.41668 -0.64915 0.01664
0.035926 0.11295 1.0156 6.6381e-39 454 341 0 0 0 0.63154 0.35796 -0.68777 0.017814
-0.0026891 0.11468 1.0152 6.4537e-39 369.5 341.5 0 0 0 -0.59619 0.42436 -0.68152 0.018837
0.034724 0.11468 1.0152 5.67e-39 243 342 0 0 0 0.59285 0.38958 -0.70481 0.016926
-0.00090716 0.11701 1.0148 6.8685e-39 332.5 342 0 0 0 -0.53079 0.4453 -0.72109 0.02126
0.033523 0.11701 1.0148 7.4218e-39 378.5 342 0 0 0 0.53484 0.42758 -0.72878 0.015245
0.034738 0.11651 1.0156 7.9288e-39 356 342 0 0 0 0.57951 0.40671 -0.70623 0.015647
-0.00090791 0.11889 1.0156 6.1771e-39 420 342 0 0 0 -0.52968 0.45058 -0.71862 0.02098
0.00028007 0.11879 1.0148 5.9927e-39 421 342 0 0 0 -0.48164 0.45466 -0.7492 0.02084
0.0026545 0.11998 1.0148 5.8083e-39 162 343 0 0 0 -0.42209 0.47135 -0.77438 0.021753
0.028774 0.11998 1.0148 5.9005e-39 232 343 0 0 0 0.39371 0.48002 -0.78395 0.013483
0.031148 0.11939 1.0148 6.3154e-39 359 342.5 0 0 0 0.4702 0.46054 -0.75287 0.014624
0.032942 0.11884 1.0152 7.8827e-39 486.5 342 0 0 0 0.51962 0.44175 -0.73134 0.013512
-0.00090791 0.12067 1.0156 6.0388e-39 378.5 342.5 0 0 0 -0.5124 0.4546 -0.72855 0.021572
0.00067597 0.12083 1.0153 6.9146e-39 219.67 343 0 0 0 -0.47316 0.46452 -0.74856 0.021618
0.0026545 0.12116 1.0148 7.9288e-39 255 343 0 0 0 -0.41744 0.47506 -0.77464 0.021507
0.027586 0.12116 1.0148 6.1771e-39 276 343 0 0 0 0.35099 0.48514 -0.8009 0.011508
0.029367 0.12116 1.0148 5.7622e-39 277.5 343 0 0 0 0.40608 0.47882 -0.77835 0.013203
0.031174 0.12126 1.0156 5.5317e-39 279 343 0 0 0 0.46524 0.47148 -0.74917 0.013639
0.032362 0.12008 1.0156 5.6239e-39 235 343 0 0 0 0.50114 0.45778 -0.73437 0.013092
0.001072 0.12281 1.0153 6.4844e-39 323.33 343 0 0 0 -0.45436 0.46936 -0.75714 0.021266
0.003051 0.12318 1.0151 6.1156e-39 350.67 343 0 0 0 -0.40355 0.48277 -0.77723 0.021819
0.005029 0.12354 1.0148 6.0849e-39 378 343 0 0 0 -0.34993 0.49212 -0.7971 0.022989
0.027598 0.123 1.0152 7.0991e-39 375 343 0 0 0 0.36081 0.48885 -0.79425 0.011936
0.029391 0.12245 1.0156 6.7303e-39 354.5 343 0 0 0 0.41222 0.48483 -0.77137 0.012513
0.0014685 0.12483 1.0156 6.2693e-39 419 343 0 0 0 -0.42971 0.4769 -0.76676 0.021649
0.0032492 0.12478 1.0152 6.0849e-39 420.5 343 0 0 0 -0.39347 0.4872 -0.77963 0.022379
0.005029 0.12473 1.0148 5.9005e-39 422 343 0 0 0 -0.34239 0.49583 -0.79807 0.022969
0.0068098 0.12532 1.0148 5.9696e-39 287.5 343.5 0 0 0 -0.28539 0.50174 -0.81658 0.022714
0.0085907 0.12591 1.0148 5.5317e-39 161 344 0 0 0 -0.21892 0.51086 -0.83132 0.021838
0.010965 0.12532 1.0148 6.2232e-39 295 343.5 0 0 0 -0.1304 0.51518 -0.8471 0.018702
0.012152 0.12532 1.0148 6.3154e-39 296.5 343.5 0 0 0 -0.076871 0.51947 -0.85102 0.015936
0.014527 0.12591 1.0148 5.5317e-39 169 344 0 0 0 -0.0080877 0.52063 -0.85375 0.014217
0.016901 0.12591 1.0148 6.0849e-39 195 344 0 0 0 0.060326 0.52194 -0.85085 0.01452
0.019276 0.12591 1.0148 5.5317e-39 197 344 0 0 0 0.13135 0.52145 -0.84311 0.014201
0.022837 0.12591 1.0148 5.7161e-39 200 344 0 0 0 0.23854 0.51207 -0.82516 0.01394
0.024629 0.12478 1.0152 6.0388e-39 438.5 343 0 0 0 0.28848 0.50152 -0.81563 0.013363
0.026421 0.12483 1.0156 5.9005e-39 445 343 0 0 0 0.32942 0.50095 -0.80033 0.011989
0.0038449 0.12662 1.0156 6.9608e-39 376 343.5 0 0 0 -0.37048 0.49388 -0.78666 0.023138
0.0050331 0.12662 1.0156 6.3615e-39 377 343.5 0 0 0 -0.34633 0.4963 -0.79608 0.023256
0.0068154 0.12721 1.0156 7.514e-39 249.5 344 0 0 0 -0.2955 0.50305 -0.81217 0.023173
0.0091843 0.1271 1.0148 7.8366e-39 251.5 344 0 0 0 -0.18345 0.51831 -0.83528 0.019989
0.010974 0.12721 1.0156 7.6522e-39 253 344 0 0 0 -0.10584 0.52616 -0.84377 0.015037
0.012751 0.12716 1.0152 7.5139e-39 254.5 344 0 0 0 -0.066276 0.52273 -0.84992 0.015152
0.015121 0.1271 1.0148 7.4678e-39 256.5 344 0 0 0 0.0072038 0.52303 -0.85228 0.014007
0.016901 0.1271 1.0148 7.4678e-39 258 344 0 0 0 0.065655 0.52615 -0.84785 0.014227
0.018683 0.1271 1.0148 7.1452e-39 259.5 344 0 0 0 0.11251 0.52532 -0.84344 0.013973
0.021056 0.1271 1.0148 7.6983e-39 261.5 344 0 0 0 0.17948 0.51875 -0.83587 0.013769
0.022856 0.12721 1.0156 8.2054e-39 263 344 0 0 0 0.23935 0.51824 -0.82106 0.013782
0.024044 0.12662 1.0156 6.9146e-39 232.5 344 0 0 0 0.27628 0.51232 -0.81314 0.013424
0.0070134 0.12879 1.0156 6.423e-39 316 344 0 0 0 -0.26392 0.50615 -0.82107 0.021156
0.0091898 0.12896 1.0154 6.8455e-39 330 344 0 0 0 -0.17398 0.52033 -0.83605 0.017827
0.010974 0.12839 1.0156 7.4678e-39 295 344 0 0 0 -0.1088 0.52547 -0.84383 0.016062
0.012757 0.12899 1.0156 6.4076e-39 333 344 0 0 0 -0.063957 0.52678 -0.84759 0.014904
0.01513 0.12896 1.0154 6.592e-39 335 344 0 0 0 0.0074775 0.52735 -0.84961 0.014168
0.016915 0.12899 1.0156 6.592e-39 336.5 344 0 0 0 0.067287 0.5291 -0.84588 0.014316
0.018495 0.12875 1.0153 7.0376e-39 325.67 344 0 0 0 0.098926 0.52686 -0.84417 0.014082
0.020876 0.12879 1.0156 7.1605e-39 327.67 344 0 0 0 0.17862 0.52622 -0.83138 0.014164
0.015727 0.13077 1.0156 6.3615e-39 413 344 0 0 0 0.032095 0.53315 -0.84541 0.013923
-0.015179 0.041689 1.0164 5.3473e-39 386 321 0 0 0 0.93551 0.28011 -0.2153 0.13559
-0.010431 0.041723 1.0173 5.9927e-39 390 321 0 0 0 0.85919 0.42718 -0.28164 0.15781
-0.012811 0.042913 1.0173 5.3473e-39 444 321 0 0 0 0.91732 0.32131 -0.23513 0.15372
-0.011621 0.042913 1.0173 5.6239e-39 445 321 0 0 0 0.93406 0.27973 -0.22201 0.15278
0.040746 0.054815 1.0173 7.7444e-39 356 326 0 0 0 0.86221 -0.45673 -0.21906 0.06504
-0.01399 0.091039 1.0164 8.2054e-39 374 336 0 0 0 -0.87117 0.22581 -0.43598 0.01614
0.040713 0.090445 1.0164 7.3757e-39 392 336 0 0 0 0.8622 0.11552 -0.49322 0.016891
-0.01399 0.092824 1.0164 5.5317e-39 212 337 0 0 0 -0.86867 0.2327 -0.43734 0.015929
-0.013395 0.094607 1.0164 7.3526e-39 341.5 337 0 0 0 -0.8554 0.25018 -0.45354 0.016677
-0.014001 0.097066 1.0173 6.2232e-39 216.5 338 0 0 0 -0.87017 0.25813 -0.41973 0.013717
-0.012811 0.09647 1.0173 6.0849e-39 162 338 0 0 0 -0.85599 0.25978 -0.44698 0.015614
-0.011611 0.099959 1.0164 7.0069e-39 495 338 0 0 0 -0.81698 0.30672 -0.48832 0.015054
-0.011621 0.10123 1.0173 7.56e-39 255 339 0 0 0 -0.81818 0.31418 -0.48154 0.01398
-0.011621 0.10242 1.0173 8.3898e-39 356 339 0 0 0 -0.81734 0.32129 -0.47825 0.013505
0.040713 0.10294 1.0164 6.7764e-39 279 339.5 0 0 0 0.80213 0.2022 -0.56187 0.021644
-0.0086384 0.1059 1.0164 6.4537e-39 271.5 340 0 0 0 -0.74861 0.36399 -0.55416 0.012317
0.039524 0.10531 1.0164 8.2054e-39 305 340 0 0 0 0.76381 0.23668 -0.60048 0.021602
0.040713 0.10531 1.0164 8.2515e-39 306 340 0 0 0 0.77799 0.22414 -0.58693 0.020677
-0.0092406 0.10718 1.0173 6.2693e-39 368 340 0 0 0 -0.75722 0.37218 -0.53675 0.011249
-0.0068546 0.10709 1.0164 5.8083e-39 370 340 0 0 0 -0.71685 0.383 -0.58261 0.011144
0.039524 0.10709 1.0164 7.3757e-39 415 340 0 0 0 0.74739 0.25213 -0.61469 0.02166
0.040746 0.10718 1.0173 7.0069e-39 416 340 0 0 0 0.76664 0.24026 -0.59543 0.02025
-0.0092406 0.10896 1.0173 5.9927e-39 316 340.5 0 0 0 -0.74029 0.38762 -0.5493 0.010526
-0.0068546 0.10888 1.0164 5.9005e-39 318 340.5 0 0 0 -0.7069 0.39319 -0.58796 0.011686
0.038945 0.10892 1.0168 6.7303e-39 207.5 341 0 0 0 0.72517 0.27685 -0.63047 0.020691
0.040746 0.10837 1.0173 6.2693e-39 161 341 0 0 0 0.75504 0.25402 -0.60447 0.020443
-0.0092406 0.11075 1.0173 7.6522e-39 265 341 0 0 0 -0.73219 0.38896 -0.55911 0.010307
-0.0068574 0.1113 1.0168 7.9749e-39 311 341 0 0 0 -0.70271 0.39365 -0.59266 0.01261
-0.0056654 0.11185 1.0164 8.1132e-39 356 341 0 0 0 -0.6799 0.40288 -0.61272 0.014669
0.038366 0.11075 1.0173 8.021e-39 343 341 0 0 0 0.70532 0.30258 -0.64107 0.019028
0.037145 0.11304 1.0164 6.7303e-39 455 341 0 0 0 0.65156 0.35095 -0.67254 0.017407
-0.0044799 0.11432 1.0173 6.0849e-39 495 341 0 0 0 -0.65195 0.41139 -0.63696 0.017127
0.035956 0.11482 1.0164 5.9005e-39 244 342 0 0 0 0.61938 0.38179 -0.68601 0.015277
0.037176 0.11491 1.0173 6.131e-39 245 342 0 0 0 0.64684 0.36757 -0.66821 0.016014
-0.0026935 0.11725 1.0168 6.2002e-39 331 342 0 0 0 -0.59717 0.42565 -0.67986 0.02025
0.03558 0.11746 1.017 7.7444e-39 388 342 0 0 0 0.59459 0.40803 -0.6928 0.014691
-0.0020996 0.11908 1.0173 6.6381e-39 419 342 0 0 0 -0.57015 0.43761 -0.69529 0.021637
0.034767 0.11899 1.0164 8.482e-39 489 342 0 0 0 0.56518 0.42834 -0.70505 0.013739
-0.0020996 0.12027 1.0173 6.0849e-39 504 342 0 0 0 -0.55322 0.44308 -0.70543 0.021552
0.033191 0.121 1.0167 5.4088e-39 265.67 343 0 0 0 0.52495 0.45481 -0.71943 0.012422
0.034796 0.12027 1.0173 5.163e-39 237 343 0 0 0 0.5613 0.43717 -0.70272 0.012629
-0.00090865 0.12314 1.0164 6.6381e-39 334.5 343 0 0 0 -0.50272 0.4556 -0.73465 0.021615
0.00028053 0.12374 1.0164 6.3615e-39 374 343 0 0 0 -0.46547 0.46735 -0.75161 0.022305
0.028821 0.12374 1.0164 7.3757e-39 398 343 0 0 0 0.39882 0.4928 -0.77337 0.012634
0.030811 0.12338 1.0167 7.5293e-39 385 343 0 0 0 0.45343 0.48101 -0.75035 0.012081
0.032415 0.12265 1.0173 8.021e-39 357 343 0 0 0 0.50644 0.46918 -0.72345 0.011473
-0.00090865 0.12493 1.0164 6.0849e-39 417 343 0 0 0 -0.49029 0.45933 -0.7407 0.021984
0.00028076 0.12503 1.0173 6.1771e-39 418 343 0 0 0 -0.47098 0.46662 -0.74863 0.022253
0.027632 0.12493 1.0164 6.1771e-39 446 343 0 0 0 0.36779 0.49954 -0.78434 0.012389
0.028845 0.12503 1.0173 6.0849e-39 453 343 0 0 0 0.40337 0.49737 -0.76806 0.012944
0.030035 0.12503 1.0173 6.1771e-39 454 343 0 0 0 0.42773 0.49508 -0.75627 0.012887
-0.0009094 0.12622 1.0173 6.2693e-39 501 343 0 0 0 -0.48806 0.46802 -0.73672 0.021931
0.0010734 0.12655 1.0167 7.1913e-39 416.67 343.33 0 0 0 -0.43975 0.47991 -0.75915 0.021862
0.00266 0.12676 1.0168 7.4218e-39 375 343.5 0 0 0 -0.40892 0.48516 -0.77292 0.022649
0.025253 0.12672 1.0164 7.053e-39 233.5 344 0 0 0 0.31379 0.51216 -0.79952 0.012449
0.027054 0.12679 1.0171 6.8916e-39 235 344 0 0 0 0.3578 0.51126 -0.7814 0.01226
0.028845 0.12622 1.0173 5.7161e-39 205 344 0 0 0 0.39774 0.5044 -0.76642 0.012552
0.0014709 0.1286 1.0173 5.7161e-39 287 344 0 0 0 -0.42504 0.48268 -0.76574 0.022291
0.0034524 0.12893 1.0167 6.7303e-39 313 344 0 0 0 -0.38005 0.48569 -0.78719 0.023316
0.0050373 0.1291 1.0164 6.7303e-39 326.5 344 0 0 0 -0.34392 0.49544 -0.79766 0.02283
0.0062265 0.12969 1.0164 7.8366e-39 364 344 0 0 0 -0.2974 0.50138 -0.81251 0.022839
0.010983 0.12969 1.0164 5.6239e-39 368 344 0 0 0 -0.103 0.52453 -0.84514 0.015118
0.019307 0.12969 1.0164 6.2693e-39 375 344 0 0 0 0.13043 0.53175 -0.8368 0.014583
0.021686 0.12969 1.0164 5.8083e-39 377 344 0 0 0 0.20975 0.53015 -0.82155 0.014053
0.022884 0.12915 1.0168 6.7764e-39 341.5 344 0 0 0 0.2441 0.52824 -0.81325 0.013957
0.024074 0.12915 1.0168 6.6842e-39 342.5 344 0 0 0 0.28138 0.52925 -0.80045 0.013735
0.0038513 0.13099 1.0173 7.4678e-39 403 344 0 0 0 -0.36081 0.49272 -0.79186 0.023115
0.0068236 0.13093 1.0168 8.021e-39 405.5 344 0 0 0 -0.2678 0.50665 -0.81951 0.022054
0.0091994 0.13088 1.0164 7.8366e-39 407.5 344 0 0 0 -0.17926 0.52382 -0.83275 0.017343
0.010992 0.13099 1.0173 7.7444e-39 409 344 0 0 0 -0.10317 0.52771 -0.84314 0.01462
0.012767 0.13088 1.0164 7.6983e-39 410.5 344 0 0 0 -0.062644 0.52682 -0.84767 0.014587
0.014551 0.13088 1.0164 6.8225e-39 412 344 0 0 0 -0.0059459 0.53479 -0.84496 0.013916
0.016929 0.13088 1.0164 6.1771e-39 414 344 0 0 0 0.065936 0.53689 -0.84107 0.014408
0.018721 0.13093 1.0168 6.4998e-39 415.5 344 0 0 0 0.11598 0.53563 -0.83645 0.014467
0.0211 0.13093 1.0168 6.0849e-39 417.5 344 0 0 0 0.18794 0.53562 -0.82328 0.01411
0.0074217 0.13218 1.0173 5.9005e-39 453 344 0 0 0 -0.23177 0.51752 -0.82368 0.019663
0.009207 0.13218 1.0173 5.9005e-39 454.5 344 0 0 0 -0.16822 0.52617 -0.83358 0.016353
0.012777 0.13218 1.0173 6.2693e-39 460 344 0 0 0 -0.06083 0.53541 -0.8424 0.015505
0.015352 0.13254 1.017 6.6381e-39 383 344.33 0 0 0 0.019827 0.5408 -0.84092 0.014392
0.016943 0.13218 1.0173 8.2054e-39 490 344 0 0 0 0.06883 0.54016 -0.83874 0.014803
0.018525 0.13254 1.017 7.4986e-39 395 344.33 0 0 0 0.11105 0.54295 -0.83239 0.014634
0.021109 0.13218 1.0173 8.1593e-39 493.5 344 0 0 0 0.19569 0.5405 -0.81827 0.014399
-0.014626 0.043002 1.0194 5.4395e-39 442.5 321 0 0 0 0.82036 0.44622 -0.35762 0.14475
0.045564 0.047137 1.0186 6.7303e-39 407.5 323.5 0 0 0 0.76894 -0.59468 -0.23472 0.092193
0.039621 0.054905 1.019 7.6522e-39 355 326 0 0 0 0.84914 -0.49718 -0.17826 0.084281
-0.015216 0.056097 1.019 7.4678e-39 362 326 0 0 0 0.97766 -0.11874 -0.17344 0.077612
0.043233 0.081199 1.0198 6.0849e-39 478 333 0 0 0 0.92454 0.074449 -0.37374 0.0092722
0.042006 0.088285 1.019 6.3615e-39 161 336 0 0 0 0.89552 0.091048 -0.4356 0.01183
0.04204 0.091937 1.0198 5.9005e-39 159 337 0 0 0 0.88793 0.10288 -0.44833 0.012069
-0.012822 0.097741 1.0181 5.9005e-39 273 338 0 0 0 -0.86455 0.26947 -0.42419 0.014263
-0.014024 0.099014 1.019 5.7161e-39 379 338 0 0 0 -0.87517 0.26919 -0.40201 0.012451
-0.012832 0.099014 1.019 5.6239e-39 380 338 0 0 0 -0.86983 0.27618 -0.40881 0.012907
-0.01163 0.1037 1.0181 5.8083e-39 421 339 0 0 0 -0.8174 0.32778 -0.47373 0.012724
-0.01165 0.10506 1.0198 6.0849e-39 202 340 0 0 0 -0.83987 0.3258 -0.43414 0.01218
-0.010448 0.10677 1.0189 6.8686e-39 318.5 340 0 0 0 -0.79782 0.35363 -0.48829 0.011896
-0.008057 0.10727 1.0181 5.8083e-39 369 340 0 0 0 -0.75404 0.37636 -0.53831 0.011318
-0.010448 0.10915 1.019 5.9927e-39 315 340.5 0 0 0 -0.77596 0.37045 -0.51054 0.011019
-0.008057 0.10905 1.0181 5.8544e-39 317 340.5 0 0 0 -0.73519 0.38699 -0.55655 0.010725
0.039589 0.10965 1.0181 7.8366e-39 256 341 0 0 0 0.73777 0.27314 -0.61733 0.019644
0.04078 0.10965 1.0181 8.2976e-39 257 341 0 0 0 0.75312 0.26408 -0.60256 0.019647
-0.010439 0.11084 1.0181 7.9288e-39 264 341 0 0 0 -0.75153 0.38422 -0.53626 0.010517
-0.008057 0.11084 1.0181 7.6522e-39 266 341 0 0 0 -0.72928 0.39043 -0.56188 0.010238
0.039589 0.11084 1.0181 8.021e-39 344 341 0 0 0 0.72116 0.29577 -0.62646 0.018945
0.04078 0.11084 1.0181 7.9288e-39 345 341 0 0 0 0.73791 0.28578 -0.61141 0.018042
-0.010448 0.11213 1.019 6.9147e-39 352 341 0 0 0 -0.75056 0.38412 -0.53769 0.0095708
-0.0086595 0.11272 1.019 7.7214e-39 377.5 341 0 0 0 -0.7368 0.38508 -0.55574 0.01094
-0.0068659 0.11323 1.0181 7.4678e-39 403 341 0 0 0 -0.70542 0.39266 -0.59009 0.013622
-0.0056747 0.11323 1.0181 7.56e-39 404 341 0 0 0 -0.69033 0.39952 -0.60319 0.015454
0.03901 0.11268 1.0186 7.3987e-39 438.5 341 0 0 0 0.70101 0.31856 -0.63804 0.017901
0.040831 0.11277 1.0194 7.4679e-39 440 341 0 0 0 0.73081 0.3003 -0.61297 0.017432
-0.0080703 0.11461 1.0198 7.0069e-39 492 341 0 0 0 -0.7302 0.38333 -0.56557 0.011767
-0.0068743 0.11515 1.0194 6.0388e-39 366 341.5 0 0 0 -0.70848 0.39097 -0.58754 0.013816
-0.0050839 0.11511 1.0189 5.6239e-39 367.5 341.5 0 0 0 -0.68338 0.39904 -0.61135 0.016513
0.039042 0.11515 1.0194 5.9696e-39 246.5 342 0 0 0 0.68187 0.3504 -0.64208 0.01516
-0.0044873 0.1169 1.019 5.9927e-39 289 342 0 0 0 -0.64912 0.40715 -0.64256 0.018067
0.037206 0.11739 1.0181 8.1593e-39 381.5 342 0 0 0 0.63412 0.38924 -0.66812 0.013325
0.038429 0.1169 1.019 8.2054e-39 359 342 0 0 0 0.6568 0.37362 -0.65499 0.014129
-0.004491 0.11878 1.0198 6.2232e-39 393.5 342 0 0 0 -0.64497 0.4082 -0.64605 0.018299
-0.0032924 0.11918 1.0181 6.4537e-39 418 342 0 0 0 -0.60564 0.42081 -0.67537 0.020205
0.036626 0.11923 1.0186 8.1593e-39 490.5 342 0 0 0 0.61033 0.4138 -0.67547 0.012733
0.038461 0.11878 1.0198 7.8366e-39 449.5 342 0 0 0 0.6469 0.39705 -0.65105 0.012312
-0.0028954 0.12116 1.0181 7.4986e-39 334.67 342.67 0 0 0 -0.57513 0.43076 -0.69546 0.020385
0.034824 0.12156 1.0181 5.9927e-39 282 343 0 0 0 0.55808 0.44616 -0.69964 0.011273
0.036641 0.12107 1.019 5.8083e-39 261 343 0 0 0 0.60247 0.42786 -0.67376 0.011065
0.038461 0.12057 1.0198 5.4395e-39 240 343 0 0 0 0.63587 0.41002 -0.65388 0.011563
-0.0024983 0.12316 1.0181 7.1298e-39 320.33 343 0 0 0 -0.55584 0.43778 -0.70668 0.021444
0.033037 0.12336 1.0181 7.7905e-39 379.5 343 0 0 0 0.51805 0.46461 -0.71817 0.011561
0.034882 0.12296 1.0198 8.021e-39 359 343 0 0 0 0.5622 0.45234 -0.69233 0.010834
0.036075 0.12296 1.0198 7.9288e-39 360 343 0 0 0 0.58559 0.44573 -0.67706 0.0096341
-0.0028978 0.12484 1.019 6.4844e-39 400.67 343 0 0 0 -0.55867 0.43662 -0.70516 0.020026
0.031277 0.12524 1.019 5.9927e-39 455 343 0 0 0 0.47903 0.48755 -0.72995 0.011344
0.033078 0.1247 1.0194 6.8224e-39 429.5 343 0 0 0 0.52274 0.47338 -0.70898 0.01092
-0.0025019 0.1269 1.0195 5.8083e-39 413.67 343.33 0 0 0 -0.53697 0.45448 -0.71071 0.022325
-0.00091015 0.12752 1.0181 5.8083e-39 243 344 0 0 0 -0.47557 0.46755 -0.74514 0.022002
0.00028099 0.12752 1.0181 6.7303e-39 244 344 0 0 0 -0.45001 0.47681 -0.75507 0.021952
0.028868 0.12752 1.0181 7.56e-39 268 344 0 0 0 0.40485 0.50729 -0.76076 0.01269
0.030482 0.12683 1.019 6.2078e-39 228.33 344 0 0 0 0.45206 0.50175 -0.73749 0.011479
-0.00091015 0.12871 1.0181 5.5317e-39 285 344 0 0 0 -0.47111 0.46949 -0.74675 0.021669
0.00087666 0.12936 1.0186 6.8685e-39 323 344 0 0 0 -0.44199 0.47585 -0.7604 0.02222
0.0026633 0.1299 1.0181 7.9288e-39 361 344 0 0 0 -0.40233 0.48408 -0.77704 0.02254
0.025295 0.12871 1.0181 6.7303e-39 307 344 0 0 0 0.32384 0.52334 -0.78819 0.012967
0.027082 0.12871 1.0181 7.9288e-39 324.5 344 0 0 0 0.35949 0.51835 -0.77594 0.012328
0.028892 0.12882 1.019 8.7586e-39 342 344 0 0 0 0.41428 0.51616 -0.74963 0.011911
0.030109 0.12892 1.0198 8.1132e-39 343 344 0 0 0 0.4441 0.51445 -0.73357 0.011537
-0.0009109 0.13001 1.019 7.7444e-39 358 344 0 0 0 -0.48214 0.4734 -0.73718 0.022515
0.00087743 0.13066 1.0194 7.8366e-39 380 344 0 0 0 -0.44347 0.48058 -0.75655 0.022605
0.0026633 0.13109 1.0181 7.4678e-39 402 344 0 0 0 -0.39896 0.48375 -0.77899 0.023028
0.0050456 0.13109 1.0181 7.56e-39 404 344 0 0 0 -0.33308 0.49689 -0.80134 0.023773
0.022913 0.13109 1.0181 5.9927e-39 419 344 0 0 0 0.25362 0.53605 -0.80519 0.01414
0.024919 0.1308 1.019 6.0542e-39 407 344 0 0 0 0.31427 0.53315 -0.78548 0.013518
0.027115 0.13066 1.0194 6.4306e-39 402 344 0 0 0 0.36194 0.52939 -0.7673 0.012214
0.028916 0.13012 1.0198 7.2835e-39 383 344 0 0 0 0.41846 0.52376 -0.742 0.011166
0.0014746 0.1325 1.0198 5.6239e-39 442 344 0 0 0 -0.4299 0.48919 -0.75886 0.025168
0.003461 0.13283 1.0192 5.9927e-39 351 344.33 0 0 0 -0.37372 0.49888 -0.78195 0.025136
0.0050497 0.13239 1.019 6.1771e-39 446 344 0 0 0 -0.33276 0.5023 -0.7981 0.025301
0.0066375 0.13315 1.0187 5.839e-39 269.67 344.67 0 0 0 -0.26771 0.51915 -0.81167 0.023028
0.0092181 0.13353 1.0186 5.9927e-39 194.5 345 0 0 0 -0.17544 0.53215 -0.82827 0.017789
0.011006 0.13294 1.0186 5.8083e-39 326 344.5 0 0 0 -0.10174 0.53444 -0.83906 0.014584
0.012793 0.13353 1.0186 5.6239e-39 197.5 345 0 0 0 -0.053275 0.54353 -0.8377 0.015174
0.014575 0.13348 1.0181 5.6239e-39 199 345 0 0 0 -0.001211 0.54297 -0.83975 0.01406
0.016957 0.13348 1.0181 5.9005e-39 201 345 0 0 0 0.065742 0.54894 -0.83327 0.014978
0.019339 0.13348 1.0181 6.2693e-39 203 345 0 0 0 0.14416 0.54778 -0.82411 0.014622
0.021135 0.13353 1.0186 6.0849e-39 204.5 345 0 0 0 0.20313 0.54945 -0.81046 0.014639
0.022941 0.13305 1.0194 6.8224e-39 352.5 344.5 0 0 0 0.26251 0.5477 -0.79443 0.014559
0.024134 0.13305 1.0194 6.7303e-39 353.5 344.5 0 0 0 0.29727 0.5435 -0.78501 0.013922
0.0068436 0.13489 1.0198 7.6061e-39 249.5 345 0 0 0 -0.24527 0.52837 -0.81281 0.021754
0.0092257 0.13484 1.0194 7.8366e-39 251.5 345 0 0 0 -0.1689 0.53748 -0.82619 0.016981
0.011019 0.13489 1.0198 7.56e-39 253 345 0 0 0 -0.093485 0.54275 -0.83467 0.013988
0.012799 0.13478 1.019 7.0069e-39 254.5 345 0 0 0 -0.042714 0.54799 -0.83539 0.015442
0.015377 0.13514 1.0187 6.3922e-39 268 345 0 0 0 0.027782 0.55587 -0.83081 0.014944
0.016971 0.13478 1.019 7.4678e-39 258 345 0 0 0 0.071458 0.55613 -0.82802 0.015307
0.018555 0.13514 1.0187 7.1913e-39 270.67 345 0 0 0 0.12122 0.55732 -0.8214 0.014951
0.021152 0.13484 1.0194 7.514e-39 261.5 345 0 0 0 0.20335 0.55587 -0.80601 0.015142
0.0098264 0.13608 1.0198 5.4395e-39 286 345 0 0 0 -0.11326 0.54547 -0.83044 0.013096
0.01281 0.13608 1.0198 6.2693e-39 288.5 345 0 0 0 -0.035221 0.55496 -0.83113 0.014634
0.015196 0.13668 1.0198 6.638e-39 322.5 345 0 0 0 0.028833 0.56249 -0.8263 0.01421
0.016985 0.13608 1.0198 5.7161e-39 292 345 0 0 0 0.080133 0.5665 -0.82016 0.015546
0.018774 0.13668 1.0198 7.56e-39 325.5 345 0 0 0 0.13929 0.56466 -0.81349 0.015192
0.020564 0.13608 1.0198 8.021e-39 295 345 0 0 0 0.19783 0.55819 -0.80578 0.014917
-0.012853 0.044249 1.0206 5.9927e-39 390 322 0 0 0 0.76928 0.46387 -0.43935 0.15048
0.0445 0.047871 1.0215 8.1132e-39 372 324 0 0 0 0.72687 -0.66068 -0.18752 0.12812
0.040881 0.053802 1.0206 5.6239e-39 230 326 0 0 0 0.84877 -0.51538 -0.11819 0.10324
0.045098 0.055041 1.0215 7.6522e-39 359.5 326 0 0 0 0.92771 -0.36458 -0.080168 0.081738
0.042707 0.056835 1.0215 6.9607e-39 406.5 326 0 0 0 0.91774 -0.38721 -0.08846 0.083554
0.04506 0.056787 1.0206 6.7533e-39 408.5 326 0 0 0 0.93965 -0.32146 -0.11715 0.067827
0.043269 0.059175 1.0206 7.7444e-39 343 327 0 0 0 0.94977 -0.2774 -0.1449 0.056773
0.04507 0.059188 1.0208 7.9749e-39 344.5 327 0 0 0 0.95786 -0.25092 -0.13983 0.052936
0.0445 0.061017 1.0215 5.3473e-39 226 328 0 0 0 0.96549 -0.22278 -0.13486 0.046291
0.044898 0.063009 1.0215 7.7444e-39 408.33 328 0 0 0 0.97009 -0.18666 -0.15521 0.037148
0.04689 0.063407 1.0215 7.4678e-39 428 328 0 0 0 0.97143 -0.17115 -0.1644 0.031424
0.045297 0.065399 1.0215 6.0849e-39 356 329 0 0 0 0.97152 -0.15607 -0.17831 0.028992
0.04689 0.0652 1.0215 5.8083e-39 339.5 329 0 0 0 0.97184 -0.16029 -0.17275 0.029426
0.043305 0.066992 1.0215 5.7161e-39 467 329 0 0 0 0.96721 -0.15532 -0.20093 0.026617
0.045098 0.066992 1.0215 5.8083e-39 468.5 329 0 0 0 0.96816 -0.14077 -0.207 0.023316
0.04689 0.066992 1.0215 6.2693e-39 470 329 0 0 0 0.97014 -0.1393 -0.19855 0.023337
0.04689 0.068187 1.0215 8.3898e-39 291 330 0 0 0 0.96917 -0.11611 -0.21732 0.01833
0.043305 0.075358 1.0215 5.6239e-39 287 332 0 0 0 0.94547 0.044519 -0.32265 0.0097065
0.043269 0.077087 1.0206 6.4537e-39 434 332 0 0 0 0.93903 0.059077 -0.33872 0.0088022
0.043305 0.078943 1.0215 5.8083e-39 287 333 0 0 0 0.93866 0.057106 -0.34009 0.0093136
0.043269 0.080072 1.0206 6.1771e-39 389 333 0 0 0 0.92981 0.062038 -0.36278 0.0095441
0.043305 0.082528 1.0215 6.8225e-39 290 334 0 0 0 0.93094 0.06324 -0.35966 0.010276
0.042075 0.090819 1.0206 8.1132e-39 393 336 0 0 0 0.89902 0.087598 -0.42906 0.011184
0.042075 0.093207 1.0206 5.9005e-39 275 337 0 0 0 0.88716 0.099558 -0.4506 0.011785
0.042093 0.095038 1.021 6.4076e-39 438 337 0 0 0 0.88261 0.1079 -0.45756 0.012374
-0.014053 0.10101 1.021 6.8225e-39 373 338.5 0 0 0 -0.88453 0.27386 -0.37764 0.011263
-0.012859 0.10101 1.021 6.9147e-39 374 338.5 0 0 0 -0.87953 0.28364 -0.38206 0.011235
-0.008077 0.11589 1.0206 5.4395e-39 238 342 0 0 0 -0.72763 0.38028 -0.57091 0.012258
-0.0056888 0.11589 1.0206 5.3473e-39 240 342 0 0 0 -0.69181 0.39302 -0.60576 0.016234
0.040881 0.11529 1.0206 5.5778e-39 255.5 342 0 0 0 0.7102 0.33074 -0.62147 0.015736
-0.0068886 0.11719 1.0215 5.7161e-39 287 342 0 0 0 -0.71917 0.38471 -0.57861 0.012346
0.039687 0.11709 1.0206 7.9288e-39 360 342 0 0 0 0.68067 0.36231 -0.63672 0.01411
0.040881 0.11709 1.0206 8.021e-39 361 342 0 0 0 0.69339 0.35813 -0.62526 0.013996
0.039687 0.11888 1.0206 7.6061e-39 450.5 342 0 0 0 0.66718 0.38502 -0.63768 0.012743
0.040915 0.11898 1.0215 7.3296e-39 451.5 342 0 0 0 0.68295 0.37797 -0.62507 0.012361
-0.0044947 0.12127 1.0206 7.2835e-39 375.5 342.5 0 0 0 -0.63463 0.4082 -0.65622 0.018259
0.039106 0.12132 1.021 5.3934e-39 263 343 0 0 0 0.64515 0.40726 -0.64647 0.01155
0.040915 0.12077 1.0215 5.4395e-39 242 343 0 0 0 0.66488 0.39637 -0.63311 0.011385
-0.0044984 0.12316 1.0215 8.021e-39 293 343 0 0 0 -0.62858 0.41866 -0.65544 0.019264
0.03733 0.12316 1.0215 7.8366e-39 361 343 0 0 0 0.61175 0.44161 -0.65631 0.0094769
0.033716 0.12545 1.0206 7.8366e-39 484 343 0 0 0 0.53623 0.47391 -0.69848 0.009981
0.034911 0.12425 1.0206 7.56e-39 403 343 0 0 0 0.56023 0.46015 -0.68877 0.010132
0.036135 0.12436 1.0215 7.6522e-39 404 343 0 0 0 0.58362 0.46 -0.66916 0.0087423
-0.0033033 0.12794 1.0215 5.4395e-39 241 344 0 0 0 -0.56834 0.45364 -0.68644 0.021833
0.031328 0.12784 1.0206 7.4678e-39 270 344 0 0 0 0.48101 0.50224 -0.71861 0.010519
0.032522 0.12664 1.0206 5.2552e-39 211 344 0 0 0 0.51532 0.48393 -0.70729 0.01022
-0.0021065 0.12903 1.0206 5.8083e-39 284 344 0 0 0 -0.52913 0.46498 -0.7098 0.023266
-0.00091241 0.13142 1.0206 7.6522e-39 399 344 0 0 0 -0.48957 0.47866 -0.72884 0.023593
0.00028169 0.13142 1.0206 7.8366e-39 400 344 0 0 0 -0.4671 0.48339 -0.74037 0.024231
0.02894 0.13142 1.0206 6.4537e-39 424 344 0 0 0 0.41783 0.52689 -0.74014 0.011642
0.030134 0.13022 1.0206 7.9288e-39 384 344 0 0 0 0.4477 0.51907 -0.7281 0.011053
0.0026721 0.13392 1.0215 5.9927e-39 164 345 0 0 0 -0.41752 0.49981 -0.75886 0.026571
0.0050581 0.13381 1.0206 5.7161e-39 168 345 0 0 0 -0.33496 0.51228 -0.79081 0.026488
0.025369 0.13326 1.021 6.4537e-39 354.5 344.5 0 0 0 0.34165 0.54471 -0.76588 0.013054
0.02716 0.13327 1.021 6.0388e-39 356 344.5 0 0 0 0.37731 0.54269 -0.75042 0.011725
0.0038672 0.13511 1.0215 6.9147e-39 247 345 0 0 0 -0.36361 0.51642 -0.7753 0.026851
0.0050623 0.13511 1.0215 7.1913e-39 248 345 0 0 0 -0.32398 0.52278 -0.7885 0.026329
0.02297 0.135 1.0206 7.9288e-39 263 345 0 0 0 0.26495 0.55599 -0.78783 0.014746
0.024164 0.135 1.0206 7.7444e-39 264 345 0 0 0 0.30412 0.55126 -0.77693 0.014317
0.0068492 0.13619 1.0206 5.9005e-39 283.5 345 0 0 0 -0.21872 0.53754 -0.81438 0.018509
0.0092415 0.13684 1.021 5.8083e-39 317.5 345 0 0 0 -0.15189 0.55125 -0.8204 0.016453
0.011033 0.13684 1.021 5.7161e-39 319 345 0 0 0 -0.080445 0.55459 -0.82823 0.014209
0.01282 0.13739 1.0206 6.0388e-39 352.5 345 0 0 0 -0.032005 0.56197 -0.82654 0.014351
0.014611 0.13739 1.0206 7.0069e-39 354 345 0 0 0 0.018823 0.56607 -0.82414 0.015229
0.016999 0.13739 1.0206 7.6522e-39 356 345 0 0 0 0.082819 0.57336 -0.81511 0.015703
0.019387 0.13739 1.0206 7.6522e-39 358 345 0 0 0 0.15352 0.56906 -0.80784 0.015039
0.021383 0.13703 1.0209 8.1747e-39 338.33 345 0 0 0 0.23078 0.56524 -0.79199 0.015266
0.022989 0.13631 1.0215 7.3757e-39 297 345 0 0 0 0.27517 0.55919 -0.78204 0.014738
0.024184 0.13631 1.0215 7.0991e-39 298 345 0 0 0 0.30643 0.5601 -0.76967 0.014739
0.013428 0.1387 1.0215 8.1132e-39 385 345 0 0 0 -0.0057646 0.56755 -0.82332 0.014981
0.015208 0.13858 1.0206 8.021e-39 386.5 345 0 0 0 0.043697 0.57117 -0.81967 0.01522
0.017013 0.1387 1.0215 7.56e-39 388 345 0 0 0 0.093339 0.57811 -0.8106 0.015809
0.018798 0.13864 1.021 7.4679e-39 389.5 345 0 0 0 0.14415 0.57653 -0.80426 0.016057
0.020598 0.1387 1.0215 7.3757e-39 391 345 0 0 0 0.20587 0.57348 -0.79293 0.016315
-0.0092864 0.04193 1.0223 5.7161e-39 391 321 0 0 0 0.55656 0.6163 -0.55714 0.096565
-0.010483 0.043126 1.0223 5.8083e-39 455 321 0 0 0 0.58583 0.60974 -0.53387 0.11058
-0.014071 0.044322 1.0223 5.9927e-39 389 322 0 0 0 0.60783 0.60171 -0.51815 0.1248
-0.012885 0.045556 1.0232 5.2552e-39 230 323 0 0 0 0.5858 0.60969 -0.53395 0.11569
-0.011679 0.044322 1.0223 5.7161e-39 391 322 0 0 0 0.61549 0.60154 -0.50924 0.12615
0.044574 0.046753 1.0232 5.2552e-39 441 323 0 0 0 -0.43052 -0.36817 -0.82407 0.13957
0.045153 0.049127 1.0228 8.0671e-39 426.5 324 0 0 0 -0.89586 0.33799 -0.28843 0.13864
-0.011679 0.051499 1.0223 7.7444e-39 355 325 0 0 0 0.86386 -0.16425 -0.4762 0.15777
-0.012885 0.053936 1.0232 5.8083e-39 437 325 0 0 0 0.83223 -0.21461 -0.51121 0.16489
0.039187 0.053936 1.0232 5.2091e-39 228.5 326 0 0 0 -0.81929 0.57325 -0.011851 0.13477
0.044948 0.053507 1.0226 7.1913e-39 299.67 325.67 0 0 0 0.90528 -0.42379 -0.029501 0.1029
