# .PCD v.7 - Point Cloud Data file format
VERSION .7
FIELDS x y z rgb u v vx vy vz normal_x normal_y normal_z curvature
SIZE 4 4 4 4 4 4 4 4 4 4 4 4 4
TYPE F F F F F F F F F F F F F
COUNT 1 1 1 1 1 1 1 1 1 1 1 1 1
WIDTH 565
HEIGHT 1
VIEWPOINT 0 0 0 1 0 0 0
POINTS 565
DATA ascii
0.026882 0.13663 1.0106 7.4679e-39 451.5 339 0 0 0 0.47797 0.62089 -0.62132 0.012792
0.023345 0.13905 1.011 7.3757e-39 254 340 0 0 0 0.39187 0.6637 -0.63713 0.013189
0.026313 0.13852 1.0114 7.4678e-39 224 340 0 0 0 0.45331 0.63303 -0.62752 0.012971
0.01565 0.14195 1.0106 7.6522e-39 403 340 0 0 0 0.23342 0.72279 -0.65045 0.0096217
0.020979 0.14083 1.011 8.1593e-39 371.5 340 0 0 0 0.32322 0.69489 -0.64238 0.013236
-0.0085921 0.14319 1.011 7.6061e-39 414.5 340 0 0 0 -0.090633 0.739 -0.66758 0.010111
-0.0068153 0.14313 1.0106 7.6522e-39 416 340 0 0 0 -0.064478 0.73967 -0.66987 0.0092219
-0.0050436 0.14319 1.011 7.8827e-39 417.5 340 0 0 0 -0.039947 0.75889 -0.64999 0.0089049
-0.0020858 0.14313 1.0106 8.2054e-39 419 340 0 0 0 -0.009365 0.76374 -0.64545 0.0073468
0.0014613 0.14313 1.0106 7.8366e-39 422 340 0 0 0 0.035831 0.76274 -0.64571 0.0065954
0.003826 0.14313 1.0106 8.482e-39 424 340 0 0 0 0.065188 0.76581 -0.63976 0.0068727
0.0061908 0.14313 1.0106 7.8366e-39 426 340 0 0 0 0.094595 0.7629 -0.63956 0.0073169
0.0085555 0.14313 1.0106 7.1913e-39 428 340 0 0 0 0.12348 0.75898 -0.63929 0.0078388
0.018621 0.14207 1.0114 8.5742e-39 405.5 340 0 0 0 0.27785 0.71498 -0.64156 0.011535
-0.054243 0.091334 1.0131 6.4537e-39 252 328 0 0 0 -0.80103 0.53179 -0.27486 0.071782
-0.053058 0.091334 1.0131 6.5459e-39 253 328 0 0 0 -0.79473 0.52908 -0.29745 0.065337
-0.05128 0.093112 1.0131 6.592e-39 316.5 328.5 0 0 0 -0.82383 0.48879 -0.28703 0.05557
-0.053015 0.095996 1.0123 6.8225e-39 460 329 0 0 0 -0.82403 0.46366 -0.32557 0.046213
-0.050729 0.094967 1.0139 8.6664e-39 368 329 0 0 0 -0.82581 0.47023 -0.31132 0.048772
-0.054199 0.09718 1.0123 7.2835e-39 208 330 0 0 0 -0.83316 0.46027 -0.30659 0.04698
-0.053058 0.09726 1.0131 7.1913e-39 209 330 0 0 0 -0.83732 0.45306 -0.306 0.048381
-0.051096 0.096891 1.0134 7.0991e-39 294.33 329.67 0 0 0 -0.83748 0.44269 -0.32041 0.044227
-0.054288 0.098526 1.0139 8.2976e-39 358 330 0 0 0 -0.8468 0.43967 -0.29935 0.04767
-0.053102 0.098526 1.0139 8.3898e-39 359 330 0 0 0 -0.84492 0.43724 -0.3081 0.045497
-0.051124 0.098921 1.0139 7.56e-39 386.33 330 0 0 0 -0.84177 0.42752 -0.32961 0.040111
-0.050729 0.1009 1.0139 5.9927e-39 178 331 0 0 0 -0.84278 0.40617 -0.3532 0.037305
-0.045984 0.10268 1.0139 7.8827e-39 332.5 331 0 0 0 -0.81424 0.4206 -0.40015 0.032212
-0.045984 0.10505 1.0139 7.6983e-39 346.5 331.5 0 0 0 -0.81256 0.41706 -0.40721 0.030477
-0.044724 0.1108 1.0123 7.4218e-39 351 333 0 0 0 -0.79057 0.42884 -0.43715 0.025213
0.046506 0.1103 1.0131 8.8508e-39 413 333 0 0 0 0.83576 0.32614 -0.44174 0.013762
0.044135 0.11385 1.0131 8.3898e-39 420 334 0 0 0 0.79118 0.38127 -0.47818 0.011901
0.041764 0.11741 1.0131 8.7586e-39 401 335 0 0 0 0.75382 0.42206 -0.5036 0.0092645
0.042967 0.11686 1.0135 7.5601e-39 334 335 0 0 0 0.77205 0.4081 -0.48722 0.010579
0.040997 0.11906 1.0136 7.56e-39 393.33 335.33 0 0 0 0.73352 0.44475 -0.51395 0.0074246
0.039426 0.12344 1.0139 6.5459e-39 199 337 0 0 0 0.70326 0.47871 -0.5256 0.005955
0.036993 0.1256 1.0123 8.6664e-39 391 337 0 0 0 0.66844 0.49508 -0.55506 0.0054646
0.038193 0.12506 1.0127 8.3898e-39 335.5 337 0 0 0 0.68629 0.48621 -0.54093 0.0056069
0.035809 0.12679 1.0123 7.3757e-39 457 337 0 0 0 0.65571 0.50676 -0.55968 0.0060014
0.037023 0.12689 1.0131 7.3757e-39 458 337 0 0 0 0.66964 0.50226 -0.5471 0.0058652
0.03824 0.127 1.0139 7.2835e-39 459 337 0 0 0 0.68368 0.50179 -0.52989 0.0060806
0.035868 0.12818 1.0139 6.2693e-39 203 338 0 0 0 0.66336 0.51639 -0.54157 0.0060085
0.033468 0.13163 1.0131 7.6522e-39 446 338 0 0 0 0.62064 0.55463 -0.55425 0.0074873
0.034653 0.13045 1.0131 9.4961e-39 384 338 0 0 0 0.63543 0.53893 -0.55298 0.0070078
0.032876 0.13282 1.0131 5.9927e-39 193.5 339 0 0 0 0.61022 0.56809 -0.55218 0.0082397
-0.034066 0.13508 1.0123 7.4678e-39 270 339 0 0 0 -0.40149 0.42373 -0.81195 0.0052312
-0.031697 0.13508 1.0123 8.1132e-39 272 339 0 0 0 -0.3611 0.43616 -0.82424 0.0056727
0.029912 0.13519 1.0131 8.2054e-39 364 339 0 0 0 0.56471 0.60148 -0.56508 0.011716
0.031097 0.13519 1.0131 8.482e-39 365 339 0 0 0 0.58406 0.59239 -0.55493 0.010304
0.032309 0.13411 1.0139 7.7444e-39 263 339 0 0 0 0.60235 0.58063 -0.54776 0.0090019
-0.032881 0.13626 1.0123 8.3898e-39 372 339 0 0 0 -0.38034 0.43185 -0.81783 0.0055695
-0.03171 0.13691 1.0127 7.9288e-39 402 339 0 0 0 -0.36474 0.43876 -0.82125 0.0061509
0.027519 0.13745 1.0123 6.7303e-39 502 339 0 0 0 0.49876 0.62868 -0.59666 0.014376
0.029325 0.137 1.0133 7.6522e-39 372.5 339.25 0 0 0 0.55093 0.61247 -0.56688 0.012889
0.031122 0.13649 1.0139 7.8366e-39 426 339 0 0 0 0.5786 0.60171 -0.5506 0.011012
0.023985 0.13993 1.0131 7.9288e-39 287 340 0 0 0 0.40939 0.67601 -0.61271 0.015289
0.02516 0.13928 1.0127 7.5601e-39 255.5 340 0 0 0 0.43128 0.66115 -0.6139 0.015287
0.026949 0.13934 1.0131 8.021e-39 257 340 0 0 0 0.4843 0.64157 -0.59484 0.015472
0.022781 0.141 1.0123 7.9288e-39 373 340 0 0 0 0.37037 0.69218 -0.61945 0.015457
0.01272 0.14343 1.0127 7.7905e-39 431.5 340 0 0 0 0.18219 0.76874 -0.61306 0.010939
0.015096 0.14349 1.0131 7.6522e-39 433.5 340 0 0 0 0.22244 0.76097 -0.60946 0.012074
0.01686 0.14337 1.0123 7.2835e-39 435 340 0 0 0 0.24126 0.74117 -0.62646 0.011605
0.018074 0.1436 1.0139 7.4678e-39 436 340 0 0 0 0.26522 0.76494 -0.58697 0.014622
0.021219 0.14269 1.0131 7.8366e-39 418 340 0 0 0 0.32456 0.71571 -0.6184 0.015365
0.022819 0.14242 1.0139 7.7444e-39 409 340 0 0 0 0.3705 0.70682 -0.60261 0.016273
-0.0068321 0.14467 1.0131 6.8225e-39 443 340 0 0 0 -0.058448 0.79151 -0.60836 0.0090075
-0.0050583 0.14479 1.0139 6.9608e-39 444.5 340 0 0 0 -0.036274 0.80913 -0.58651 0.0088459
0.0014649 0.14467 1.0131 7.56e-39 446 340 0 0 0 0.026779 0.80929 -0.5868 0.0072291
0.0032428 0.14467 1.0131 7.7444e-39 447.5 340 0 0 0 0.044982 0.81249 -0.58123 0.0076358
0.0073974 0.14479 1.0139 7.1913e-39 449 340 0 0 0 0.096939 0.80445 -0.58606 0.008393
0.0091727 0.14473 1.0135 6.9147e-39 450.5 340 0 0 0 0.1264 0.79625 -0.59162 0.0093679
0.010947 0.14467 1.0131 7.1913e-39 452 340 0 0 0 0.14645 0.79228 -0.59233 0.0097875
-0.054377 0.090371 1.0156 7.1913e-39 160 328 0 0 0 -0.83142 0.51367 -0.21185 0.085237
-0.053189 0.090371 1.0156 7.2835e-39 161 328 0 0 0 -0.83142 0.51367 -0.21185 0.085237
-0.051958 0.091484 1.0148 6.5459e-39 254 328 0 0 0 -0.82288 0.50819 -0.25419 0.066857
-0.054333 0.099794 1.0148 6.2693e-39 435 330 0 0 0 -0.85287 0.40955 -0.32384 0.044611
-0.053145 0.099794 1.0148 6.1771e-39 436 330 0 0 0 -0.85508 0.40647 -0.3219 0.043052
-0.051958 0.099794 1.0148 6.1771e-39 437 330 0 0 0 -0.84741 0.41187 -0.33506 0.040565
-0.053189 0.10106 1.0156 6.0849e-39 176 331 0 0 0 -0.85673 0.40396 -0.32069 0.042347
-0.051958 0.10098 1.0148 5.9005e-39 177 331 0 0 0 -0.84903 0.40883 -0.33468 0.03945
-0.046022 0.10098 1.0148 6.0849e-39 182 331 0 0 0 -0.82482 0.41554 -0.38342 0.033896
-0.052001 0.10225 1.0156 6.8225e-39 255 331 0 0 0 -0.85477 0.40745 -0.32147 0.041266
-0.050771 0.10217 1.0148 7.56e-39 256 331 0 0 0 -0.8464 0.40727 -0.34314 0.037379
-0.046022 0.10692 1.0148 8.6664e-39 372 332 0 0 0 -0.81936 0.42208 -0.38795 0.029752
0.045395 0.11285 1.0148 8.5742e-39 281 334 0 0 0 0.82968 0.3439 -0.43973 0.014225
0.04482 0.11468 1.0152 7.6061e-39 296 334.5 0 0 0 0.819 0.36519 -0.44257 0.013586
0.044244 0.1171 1.0156 7.7444e-39 335 335 0 0 0 0.79723 0.39755 -0.45428 0.011823
0.041833 0.11998 1.0148 7.6522e-39 230 336 0 0 0 0.75578 0.43834 -0.48646 0.0088095
0.04302 0.11879 1.0148 7.8366e-39 477 335 0 0 0 0.77337 0.4234 -0.47184 0.01026
0.041257 0.12121 1.0152 8.2054e-39 373.5 336 0 0 0 0.74396 0.45123 -0.49286 0.0077566
0.043056 0.12008 1.0156 7.8366e-39 231 336 0 0 0 0.77332 0.4265 -0.46912 0.010286
0.040679 0.12245 1.0156 8.021e-39 447 336 0 0 0 0.73228 0.46349 -0.49895 0.0068116
0.039491 0.12483 1.0156 8.3898e-39 280 337 0 0 0 0.71213 0.48255 -0.50992 0.0060344
0.035926 0.12958 1.0156 7.4678e-39 279 338 0 0 0 0.66456 0.52586 -0.53088 0.0061841
0.037099 0.12894 1.0152 7.053e-39 242 338 0 0 0 0.67459 0.51587 -0.52802 0.0058791
0.038303 0.12839 1.0156 5.9005e-39 205 338 0 0 0 0.68635 0.50898 -0.51949 0.0060551
0.03471 0.13185 1.0148 7.8366e-39 447 338 0 0 0 0.63735 0.55064 -0.53906 0.0072083
0.032956 0.13493 1.0156 8.2054e-39 315 339 0 0 0 0.61178 0.58824 -0.52887 0.0089612
0.031148 0.13779 1.0148 6.7303e-39 139 340 0 0 0 0.58186 0.61482 -0.53239 0.011727
0.02938 0.13903 1.0152 7.9288e-39 226.5 340 0 0 0 0.55404 0.63719 -0.53575 0.014481
0.024618 0.14135 1.0148 8.1593e-39 374.5 340 0 0 0 0.41927 0.69672 -0.58206 0.017319
0.027004 0.14081 1.0152 8.2515e-39 333 340 0 0 0 0.49025 0.67606 -0.55009 0.017922
0.028797 0.14028 1.0156 7.9288e-39 291 340 0 0 0 0.54796 0.65017 -0.52632 0.015583
0.019276 0.14372 1.0148 7.8366e-39 437 340 0 0 0 0.27672 0.76981 -0.57517 0.015587
0.020463 0.14372 1.0148 7.8366e-39 438 340 0 0 0 0.3019 0.74957 -0.58907 0.015653
0.022837 0.14372 1.0148 7.1913e-39 440 340 0 0 0 0.36431 0.74026 -0.56506 0.018388
0.024639 0.14265 1.0156 8.1593e-39 410.5 340 0 0 0 0.42089 0.71245 -0.56148 0.018017
0.012757 0.14503 1.0156 7.6522e-39 453.5 340 0 0 0 0.16891 0.80851 -0.56372 0.010358
0.015727 0.14503 1.0156 7.2835e-39 456 340 0 0 0 0.22369 0.7948 -0.56414 0.012771
0.021668 0.14503 1.0156 6.7303e-39 460 340 0 0 0 0.33165 0.77068 -0.54412 0.018473
0.0038449 0.14622 1.0156 6.4537e-39 471 340 0 0 0 0.042746 0.85076 -0.52381 0.0069772
-0.053277 0.08933 1.0173 9.0352e-39 379 327 0 0 0 -0.85827 0.48789 -0.15918 0.092847
-0.052086 0.09052 1.0173 6.9147e-39 162 328 0 0 0 -0.83389 0.50772 -0.21645 0.080781
-0.046098 0.099959 1.0164 5.6239e-39 442 330 0 0 0 -0.84155 0.41353 -0.34755 0.038123
-0.049665 0.10115 1.0164 5.9927e-39 179 331 0 0 0 -0.85434 0.40806 -0.32186 0.040564
-0.050854 0.10353 1.0164 8.3898e-39 401 331 0 0 0 -0.8559 0.40555 -0.32087 0.039233
-0.049665 0.10234 1.0164 7.4678e-39 257 331 0 0 0 -0.8559 0.40555 -0.32087 0.039233
-0.046098 0.10828 1.0164 7.7444e-39 448 332 0 0 0 -0.82398 0.42958 -0.36947 0.030097
0.046659 0.11185 1.0164 5.6239e-39 176 334 0 0 0 0.86378 0.30261 -0.40287 0.016221
0.046697 0.11313 1.0173 7.8366e-39 342 334 0 0 0 0.86134 0.31421 -0.39922 0.016494
0.04547 0.11542 1.0164 6.9147e-39 172 335 0 0 0 0.827 0.36396 -0.4285 0.013851
0.045507 0.11729 1.0173 7.7905e-39 336 335 0 0 0 0.8257 0.37294 -0.42325 0.014093
0.04428 0.11899 1.0164 7.7444e-39 478 335 0 0 0 0.79569 0.40979 -0.44603 0.01144
0.043091 0.12136 1.0164 9.0352e-39 375 336 0 0 0 0.76989 0.4405 -0.46176 0.0096309
0.04428 0.12077 1.0164 8.4359e-39 304 336 0 0 0 0.78404 0.42429 -0.45306 0.010917
0.041517 0.12338 1.0167 6.9761e-39 283 336.67 0 0 0 0.74926 0.46116 -0.47534 0.0078525
0.043127 0.12265 1.0173 7.9288e-39 449 336 0 0 0 0.76982 0.44571 -0.45686 0.0093426
0.044317 0.12265 1.0173 7.6522e-39 450 336 0 0 0 0.77528 0.43961 -0.45353 0.0099468
0.039556 0.12622 1.0173 9.4961e-39 393 337 0 0 0 0.71801 0.48698 -0.49731 0.0062806
0.038366 0.1298 1.0173 8.482e-39 281 338 0 0 0 0.69121 0.51878 -0.50309 0.0060505
0.035986 0.13099 1.0173 9.0352e-39 385 338 0 0 0 0.66639 0.53844 -0.51577 0.0062364
0.034796 0.13337 1.0173 6.2693e-39 195 339 0 0 0 0.64356 0.56885 -0.5121 0.0072314
0.033605 0.13575 1.0173 9.2196e-39 367 339 0 0 0 0.62745 0.58904 -0.50926 0.0082294
0.032389 0.13682 1.0164 7.56e-39 427 339 0 0 0 0.60837 0.6016 -0.51766 0.0096798
0.031199 0.1392 1.0164 7.56e-39 228 340 0 0 0 0.58555 0.62643 -0.51451 0.012041
0.032415 0.13813 1.0173 6.6381e-39 140 340 0 0 0 0.60707 0.61568 -0.5024 0.010122
0.027632 0.14158 1.0164 8.7586e-39 377 340 0 0 0 0.51521 0.69269 -0.50472 0.018318
0.028821 0.14158 1.0164 8.7586e-39 378 340 0 0 0 0.54013 0.66885 -0.51078 0.017234
0.03001 0.14039 1.0164 8.021e-39 292 340 0 0 0 0.56463 0.65184 -0.50625 0.014696
0.024064 0.14396 1.0164 7.0069e-39 441 340 0 0 0 0.41011 0.73897 -0.53454 0.019767
0.027049 0.14283 1.0168 7.8366e-39 412.5 340 0 0 0 0.478 0.71677 -0.5077 0.020184
0.014551 0.14515 1.0164 7.56e-39 455 340 0 0 0 0.20181 0.80505 -0.55782 0.011812
0.019323 0.14527 1.0173 6.7303e-39 458 340 0 0 0 0.27755 0.79724 -0.53608 0.015908
0.020514 0.14527 1.0173 6.7303e-39 459 340 0 0 0 0.30575 0.79726 -0.52048 0.017856
0.022875 0.14515 1.0164 6.8225e-39 461 340 0 0 0 0.36002 0.76974 -0.52715 0.019669
0.025274 0.14408 1.0173 6.9147e-39 442 340 0 0 0 0.4334 0.74581 -0.5059 0.02009
-0.0044762 0.14634 1.0164 7.2835e-39 463 340 0 0 0 -0.037359 0.85312 -0.52037 0.0076619
0.0026589 0.14634 1.0164 6.5459e-39 470 340 0 0 0 0.024785 0.86619 -0.49909 0.0066816
0.0074217 0.14646 1.0173 6.3615e-39 472 340 0 0 0 0.080501 0.8716 -0.48356 0.0066084
0.0092029 0.1464 1.0168 6.4537e-39 473.5 340 0 0 0 0.10612 0.86024 -0.49872 0.0076171
0.010992 0.14646 1.0173 6.4537e-39 475 340 0 0 0 0.1354 0.8617 -0.48902 0.0083952
-0.054512 0.089403 1.0181 9.0352e-39 378 327 0 0 0 0.89941 -0.42995 0.078725 0.09302
-0.046212 0.099014 1.019 8.7586e-39 364 330 0 0 0 -0.87578 0.39555 -0.27668 0.049571
-0.049747 0.10012 1.0181 7.1913e-39 439 330 0 0 0 -0.87967 0.39095 -0.27082 0.048978
-0.052129 0.1037 1.0181 8.3898e-39 400 331 0 0 0 -0.87071 0.39846 -0.28828 0.044058
-0.049788 0.10378 1.019 8.6664e-39 402 331 0 0 0 -0.88392 0.39019 -0.25776 0.048349
-0.051022 0.10506 1.0198 8.021e-39 471 331 0 0 0 -0.8883 0.39217 -0.23899 0.048369
-0.046174 0.10965 1.0181 5.7161e-39 182 333 0 0 0 -0.83281 0.43636 -0.34061 0.031739
0.047966 0.10974 1.019 7.1913e-39 264 333 0 0 0 0.90663 0.22124 -0.35927 0.01886
-0.046212 0.11094 1.019 6.6381e-39 275 333 0 0 0 -0.83737 0.43922 -0.32541 0.032882
-0.046212 0.11273 1.019 7.1452e-39 304 333.5 0 0 0 -0.84276 0.43313 -0.31963 0.032668
0.046755 0.11506 1.0186 7.6522e-39 297.5 334.5 0 0 0 0.85424 0.33364 -0.3987 0.015948
0.046813 0.11699 1.0198 6.8225e-39 269 335 0 0 0 0.84578 0.35339 -0.39971 0.015645
0.045545 0.11918 1.0181 7.4678e-39 479 335 0 0 0 0.81675 0.39377 -0.42174 0.013394
0.045564 0.12101 1.0186 8.1132e-39 305 336 0 0 0 0.80554 0.41404 -0.42387 0.012439
0.043162 0.12395 1.0181 5.9005e-39 202 337 0 0 0 0.76629 0.45588 -0.45274 0.00881
0.044987 0.12346 1.0189 6.8224e-39 327 336.5 0 0 0 0.78602 0.44259 -0.43161 0.010733
0.04078 0.12514 1.0181 8.5742e-39 281 337 0 0 0 0.74335 0.47218 -0.47378 0.0073538
0.042602 0.12524 1.019 8.2054e-39 282.5 337 0 0 0 0.76294 0.46046 -0.45376 0.0087759
0.044427 0.12534 1.0198 8.5742e-39 284 337 0 0 0 0.77426 0.45573 -0.43913 0.0097659
0.039654 0.12773 1.0198 7.1913e-39 460 337 0 0 0 0.73011 0.49701 -0.46896 0.0066458
0.040847 0.12654 1.0198 9.404e-39 394 337 0 0 0 0.74554 0.48019 -0.46215 0.0072856
0.04204 0.12654 1.0198 9.3118e-39 395 337 0 0 0 0.75492 0.47433 -0.45288 0.0078626
0.037206 0.13109 1.0181 9.2196e-39 386 338 0 0 0 0.68268 0.53588 -0.49676 0.0058661
0.038461 0.13131 1.0198 9.4961e-39 387 338 0 0 0 0.6972 0.53351 -0.47884 0.0057648
0.036656 0.13245 1.0194 7.5601e-39 448.5 338 0 0 0 0.67581 0.54985 -0.49087 0.0059871
0.034824 0.13467 1.0181 6.9147e-39 265 339 0 0 0 0.64071 0.5827 -0.49995 0.0074968
0.033633 0.13705 1.0181 7.3757e-39 428 339 0 0 0 0.62711 0.59864 -0.49836 0.008568
0.034882 0.13608 1.0198 8.3898e-39 368 339 0 0 0 0.64569 0.59185 -0.48249 0.00745
0.033051 0.13889 1.0186 7.2374e-39 195.5 340 0 0 0 0.61465 0.62151 -0.48572 0.0098793
0.03006 0.14181 1.0181 8.3898e-39 379 340 0 0 0 0.56994 0.66795 -0.47855 0.014534
0.018148 0.14539 1.0181 6.8225e-39 457 340 0 0 0 0.26273 0.81631 -0.5144 0.014744
0.0014734 0.14789 1.019 6.8225e-39 477 340 0 0 0 0.011957 0.89414 -0.44763 0.00454
0.0038576 0.14789 1.019 6.0849e-39 138 341 0 0 0 0.025359 0.89436 -0.44664 0.0044465
0.012203 0.1467 1.019 6.5459e-39 476 340 0 0 0 0.14652 0.87429 -0.46277 0.0084809
0.0026677 0.14801 1.0198 6.9147e-39 478 340 0 0 0 0.018241 0.9 -0.4355 0.003505
-0.047522 0.10165 1.0215 5.7161e-39 181 331 0 0 0 -0.90807 0.36642 -0.20283 0.055704
-0.047522 0.10284 1.0215 6.8225e-39 259 331 0 0 0 -0.9031 0.37534 -0.20862 0.052924
-0.052259 0.10515 1.0206 8.1132e-39 470 331 0 0 0 -0.90304 0.37306 -0.21292 0.054471
0.048046 0.11112 1.0206 9.3118e-39 414 333 0 0 0 0.90717 0.21961 -0.35891 0.020071
0.048085 0.113 1.0215 6.5919e-39 260 334 0 0 0 0.89683 0.23875 -0.37242 0.020017
0.048046 0.11529 1.0206 7.7905e-39 298.5 334.5 0 0 0 0.87332 0.30378 -0.38084 0.01822
0.048085 0.11719 1.0215 7.56e-39 270 335 0 0 0 0.86194 0.32715 -0.38733 0.017343
0.046852 0.11888 1.0206 7.9749e-39 442.5 335 0 0 0 0.84221 0.3693 -0.39281 0.016183
0.048046 0.11888 1.0206 7.9749e-39 443.5 335 0 0 0 0.84563 0.36228 -0.39198 0.016236
0.04689 0.12137 1.0215 8.2054e-39 312.5 336 0 0 0 0.82704 0.39801 -0.39697 0.015192
0.048046 0.12127 1.0206 8.021e-39 313.5 336 0 0 0 0.82913 0.39492 -0.3957 0.014957
0.048085 0.12316 1.0215 8.2054e-39 453 336 0 0 0 0.81906 0.41333 -0.39786 0.014562
0.045695 0.12436 1.0215 5.8083e-39 204 337 0 0 0 0.80276 0.43093 -0.41217 0.012912
0.040915 0.12794 1.0215 7.2835e-39 461 337 0 0 0 0.74565 0.49152 -0.44991 0.0073085
0.04269 0.12729 1.021 8.0671e-39 429 337 0 0 0 0.76166 0.47681 -0.43878 0.0084936
0.044463 0.12664 1.0206 8.3898e-39 397 337 0 0 0 0.77164 0.46458 -0.43444 0.0094231
0.036135 0.13392 1.0215 6.7303e-39 196 339 0 0 0 0.67165 0.5689 -0.47459 0.0058901
0.0074524 0.14826 1.0215 6.4537e-39 139 341 0 0 0 0.073054 0.90985 -0.40847 0.0029649
0.0098345 0.14814 1.0206 5.9927e-39 141 341 0 0 0 0.10475 0.90531 -0.41162 0.0046467
-0.0476 0.10062 1.0232 6.1771e-39 441 330 0 0 0 0.96511 -0.25476 0.060549 0.053725
-0.049953 0.10532 1.0223 7.9288e-39 472 331 0 0 0 -0.91491 0.35904 -0.18449 0.055627
-0.047561 0.10473 1.0223 8.3437e-39 439 331 0 0 0 -0.91418 0.36788 -0.17011 0.054313
-0.0476 0.10661 1.0232 7.56e-39 217 332 0 0 0 -0.91903 0.35822 -0.1645 0.055814
0.046929 0.12326 1.0223 8.1132e-39 452 336 0 0 0 0.81603 0.41513 -0.40219 0.014485
0.043341 0.12805 1.0223 7.7444e-39 463 337 0 0 0 0.76048 0.48325 -0.43374 0.008601
0.038589 0.13294 1.0232 7.3757e-39 450 338 0 0 0 0.70451 0.54764 -0.45139 0.0055037
0.036762 0.13463 1.0223 6.7764e-39 231.5 339 0 0 0 0.67817 0.57074 -0.46297 0.0054139
0.0026765 0.1497 1.0232 6.5459e-39 190 341 0 0 0 0.058035 0.91003 -0.41046 0.0029994
0.0086547 0.14838 1.0223 6.2693e-39 140 341 0 0 0 0.094536 0.90865 -0.40672 0.0029743
0.011047 0.14838 1.0223 6.7303e-39 172 341 0 0 0 0.12349 0.91011 -0.39553 0.003305
-0.047679 0.099589 1.0249 8.5742e-39 363 330 0 0 0 0.97916 -0.20102 -0.029103 0.043267
-0.048878 0.10199 1.0249 5.9005e-39 180 331 0 0 0 0.97916 -0.20102 -0.029103 0.043267
-0.048838 0.1031 1.024 7.0991e-39 258 331 0 0 0 0.9693 -0.2445 0.026086 0.053157
-0.048898 0.10503 1.0253 8.3898e-39 438 331 0 0 0 0.97592 -0.21572 -0.032383 0.044668
-0.052519 0.10687 1.0257 7.56e-39 213 332 0 0 0 0.97885 -0.20133 -0.036183 0.048806
-0.050719 0.10687 1.0257 7.7905e-39 214.5 332 0 0 0 0.97706 -0.21182 -0.022181 0.050498
-0.04764 0.10789 1.024 8.3898e-39 371 332 0 0 0 -0.94427 0.30852 -0.11477 0.06295
-0.04764 0.10909 1.024 7.0991e-39 447 332 0 0 0 -0.93446 0.32998 -0.13375 0.064475
0.049485 0.10927 1.0257 6.2693e-39 171 333 0 0 0 0.9142 0.085274 -0.39618 0.02196
-0.047679 0.11098 1.0249 6.2232e-39 227.5 333 0 0 0 -0.96279 0.24859 -0.106 0.076461
-0.047679 0.11338 1.0249 7.5601e-39 303 333.5 0 0 0 -0.96216 0.22664 -0.15125 0.079755
0.049485 0.12067 1.0257 7.4218e-39 365.5 335.5 0 0 0 0.85882 0.36391 -0.36055 0.018913
0.045809 0.12586 1.024 8.7586e-39 285 337 0 0 0 0.80309 0.44723 -0.39375 0.013338
0.047027 0.12532 1.0245 7.2374e-39 245.5 337 0 0 0 0.81512 0.43534 -0.38219 0.01542
0.045885 0.12727 1.0257 8.5742e-39 398 337 0 0 0 0.80023 0.45622 -0.38922 0.014046
0.039819 0.12946 1.024 6.3615e-39 206 338 0 0 0 0.74196 0.50615 -0.43966 0.0069737
0.041017 0.12946 1.024 6.9147e-39 207 338 0 0 0 0.74839 0.49854 -0.43746 0.0074913
0.042849 0.12957 1.0249 7.053e-39 208.5 338 0 0 0 0.76307 0.49041 -0.42097 0.0092801
0.039885 0.13087 1.0257 8.3898e-39 282 338 0 0 0 0.73563 0.52222 -0.43144 0.006523
0.037454 0.13556 1.0249 7.6522e-39 267 339 0 0 0 0.69028 0.57451 -0.43983 0.0052448
0.036285 0.13687 1.0257 8.2976e-39 369 339 0 0 0 0.67968 0.59445 -0.42972 0.0058415
0.055578 0.097434 1.0274 7.0991e-39 206 330 0 0 0 -0.76612 -0.19286 -0.61308 0.038532
-0.047798 0.098636 1.0274 7.6522e-39 213 330 0 0 0 0.97919 -0.16934 -0.11189 0.027812
-0.049 0.10104 1.0274 7.1913e-39 440 330 0 0 0 0.97883 -0.17811 -0.1008 0.028686
0.049567 0.10585 1.0274 7.56e-39 208 332 0 0 0 0.90029 0.0094829 -0.43518 0.024014
-0.04896 0.10696 1.0266 7.56e-39 216 332 0 0 0 0.98624 -0.1626 -0.029941 0.049946
0.049567 0.10705 1.0274 8.7586e-39 362 332 0 0 0 0.89826 0.018276 -0.43909 0.022326
-0.050202 0.10825 1.0274 8.482e-39 369 332 0 0 0 0.99241 -0.12111 -0.021293 0.055246
-0.04896 0.10876 1.0266 7.4218e-39 408 332 0 0 0 0.99035 -0.13862 0.0010482 0.061411
0.049526 0.10816 1.0266 4.241e-39 437 332 0 0 0 0.90678 0.064386 -0.41667 0.020652
-0.049 0.11126 1.0274 6.1771e-39 226.5 333 0 0 0 0.99535 -0.096005 0.0079532 0.07316
0.049546 0.11121 1.027 8.1594e-39 340 333 0 0 0 0.89081 0.090696 -0.44524 0.020488
-0.049 0.11306 1.0274 9.1274e-39 423 333 0 0 0 -0.99461 0.080457 -0.06537 0.079232
0.049567 0.11306 1.0274 5.6239e-39 178 334 0 0 0 0.8959 0.15391 -0.41675 0.022715
0.049567 0.11486 1.0274 8.8046e-39 384 334 0 0 0 0.90056 0.20593 -0.38285 0.023339
0.049546 0.11722 1.027 6.9146e-39 223 335 0 0 0 0.89028 0.2559 -0.37672 0.022054
0.049526 0.11897 1.0266 8.3898e-39 407 335 0 0 0 0.87799 0.32058 -0.35547 0.019737
0.049546 0.12323 1.027 8.1593e-39 417 336 0 0 0 0.8539 0.38462 -0.35061 0.01961
0.041119 0.13098 1.0266 8.1132e-39 283 338 0 0 0 0.74985 0.51409 -0.41645 0.0079381
0.042939 0.13104 1.027 8.1132e-39 284.5 338 0 0 0 0.75405 0.51244 -0.41087 0.0087994
0.039951 0.13229 1.0274 9.4961e-39 388 338 0 0 0 0.73459 0.53659 -0.41526 0.0065385
0.038749 0.1347 1.0274 6.1771e-39 198 339 0 0 0 0.71214 0.56424 -0.41772 0.0051551
0.053307 0.089242 1.03 9.9571e-39 374 327 0 0 0 -0.84965 -0.17943 -0.49588 0.033766
0.054512 0.089242 1.03 1.0142e-38 375 327 0 0 0 -0.84421 -0.19149 -0.50064 0.0347
0.052704 0.091049 1.03 6.569e-39 201.5 328 0 0 0 -0.85374 -0.17244 -0.49132 0.031334
0.054512 0.091049 1.03 6.7303e-39 203 328 0 0 0 -0.84271 -0.17866 -0.50786 0.034382
0.05266 0.093382 1.0291 6.5689e-39 309.5 328.5 0 0 0 -0.85767 -0.16995 -0.48531 0.033261
0.054883 0.093207 1.0294 6.2386e-39 348.67 328.33 0 0 0 -0.82405 -0.17104 -0.54008 0.03115
0.056898 0.093421 1.0295 6.6381e-39 313 328.5 0 0 0 -0.78359 -0.18492 -0.59312 0.03199
0.05266 0.095188 1.0291 8.1593e-39 360.5 329 0 0 0 -0.85253 -0.18072 -0.49045 0.036628
0.055284 0.094813 1.0294 7.7444e-39 308.33 329 0 0 0 -0.81075 -0.18989 -0.55375 0.037099
0.056874 0.095188 1.0291 8.5742e-39 364 329 0 0 0 -0.76231 -0.19165 -0.61818 0.03438
0.048446 0.096392 1.0291 8.482e-39 440 329 0 0 0 -0.85473 -0.17785 -0.48765 0.035805
0.050897 0.097677 1.03 6.4537e-39 202 330 0 0 0 -0.85807 -0.17204 -0.48385 0.033952
0.052627 0.096933 1.0285 5.8544e-39 326.5 329.5 0 0 0 -0.82892 -0.18267 -0.52869 0.03588
0.054852 0.096766 1.0288 6.0542e-39 373.33 329.33 0 0 0 -0.78717 -0.19668 -0.58453 0.037352
0.05266 0.0988 1.0291 8.8969e-39 354.5 330 0 0 0 -0.92981 -0.15718 -0.3328 0.042145
0.055253 0.099173 1.0288 7.3449e-39 382.33 330 0 0 0 -0.88704 -0.17007 -0.42923 0.042238
0.052704 0.10009 1.03 4.3793e-39 431.5 330 0 0 0 -0.95658 -0.15213 -0.24861 0.042747
0.054914 0.10089 1.03 5.8391e-39 260.67 330.67 0 0 0 -0.9833 -0.12513 -0.13216 0.045323
0.050897 0.1037 1.03 8.482e-39 395 331 0 0 0 0.95901 0.025776 -0.28219 0.03846
0.052102 0.1037 1.03 9.0352e-39 396 331 0 0 0 0.95725 0.028601 -0.28785 0.038348
0.055315 0.1029 1.03 7.1298e-39 302 331 0 0 0 0.97153 0.040142 -0.23347 0.04172
0.050897 0.10491 1.03 7.0069e-39 466 331 0 0 0 0.93526 0.0080743 -0.35387 0.034766
0.052102 0.10491 1.03 7.0069e-39 467 331 0 0 0 0.93626 0.011532 -0.35112 0.034321
0.050897 0.10672 1.03 8.1132e-39 286 332 0 0 0 0.92152 0.0084556 -0.38824 0.029815
0.052102 0.10672 1.03 7.514e-39 287 332 0 0 0 0.90683 0.0047287 -0.42148 0.02747
-0.053081 0.10921 1.0288 6.3e-39 417.33 332 0 0 0 0.99559 -0.089242 -0.028919 0.052472
-0.051046 0.10915 1.0283 6.2386e-39 419 332 0 0 0 0.99454 -0.10276 -0.018244 0.053701
0.050897 0.10913 1.03 5.0246e-39 305 332.5 0 0 0 0.90321 0.025237 -0.42845 0.024868
0.052102 0.10913 1.03 5.1168e-39 306 332.5 0 0 0 0.909 0.036845 -0.41516 0.023336
0.054512 0.10973 1.03 6.0849e-39 175 333 0 0 0 0.90053 0.020868 -0.4343 0.025427
-0.053341 0.11093 1.03 5.7161e-39 176.5 333 0 0 0 0.99978 -0.016228 0.013221 0.051439
-0.050909 0.11089 1.0295 5.5778e-39 178.5 333 0 0 0 0.99962 -0.026625 -0.0077567 0.048911
0.050897 0.11093 1.03 6.6381e-39 266 333 0 0 0 0.89217 0.027835 -0.45084 0.021286
0.052102 0.11093 1.03 6.4537e-39 267 333 0 0 0 0.89696 0.034103 -0.4408 0.020889
-0.053285 0.11262 1.0289 7.7675e-39 344.5 333 0 0 0 0.99955 -0.022059 0.020335 0.069975
-0.050909 0.11269 1.0295 7.9519e-39 346.5 333 0 0 0 0.99924 -0.028655 0.026603 0.064828
0.050897 0.11274 1.03 7.3296e-39 297.5 333.5 0 0 0 0.88859 0.074074 -0.45269 0.020391
0.052102 0.11334 1.03 5.6239e-39 180 334 0 0 0 0.89478 0.088118 -0.43772 0.018903
0.050875 0.11511 1.0295 8.7586e-39 385 334 0 0 0 0.9021 0.19329 -0.38582 0.023525
0.052102 0.11515 1.03 8.8508e-39 386 334 0 0 0 0.89566 0.15791 -0.41576 0.021932
0.050854 0.11686 1.0291 5.6239e-39 176 335 0 0 0 0.89916 0.2423 -0.36442 0.023477
0.052058 0.11686 1.0291 5.5317e-39 177 335 0 0 0 0.9006 0.24161 -0.3613 0.022964
0.050833 0.11862 1.0287 8.1593e-39 340 335 0 0 0 0.89375 0.28599 -0.34558 0.022027
0.052058 0.11806 1.0291 7.1913e-39 273 335 0 0 0 0.89426 0.25491 -0.36786 0.022506
0.050812 0.12098 1.0283 6.9608e-39 374.5 335.5 0 0 0 0.87858 0.34265 -0.33271 0.020613
0.052058 0.12108 1.0291 6.9147e-39 375.5 335.5 0 0 0 0.88283 0.33106 -0.33319 0.021553
0.050812 0.12278 1.0283 8.3898e-39 381 336 0 0 0 0.8653 0.37802 -0.32917 0.020493
0.040809 0.13328 1.0288 7.9903e-39 430.67 338 0 0 0 0.73346 0.5494 -0.40023 0.0062288
0.042408 0.13306 1.0287 7.9288e-39 421.5 338 0 0 0 0.74648 0.53839 -0.39102 0.0080139
0.040051 0.13503 1.03 5.9005e-39 199 339 0 0 0 0.71938 0.57509 -0.38956 0.005805
0.037641 0.13744 1.03 8.7586e-39 370 339 0 0 0 0.70852 0.59504 -0.37937 0.0055642
0.036436 0.13865 1.03 7.1913e-39 429 339 0 0 0 0.70351 0.60274 -0.37653 0.0056261
0.012335 0.14949 1.03 7.1913e-39 180 341 0 0 0 0.23643 0.88945 -0.39112 0.019416
0.003293 0.15171 1.0287 7.053e-39 204.5 341 0 0 0 0.2297 0.86066 -0.45442 0.027041
0.0069036 0.15051 1.0287 6.7303e-39 191.5 341 0 0 0 0.24142 0.87811 -0.41308 0.019414
0.0093221 0.1507 1.03 6.4076e-39 193.5 341 0 0 0 0.2539 0.87041 -0.42181 0.027682
0.052994 0.085368 1.0317 7.683e-39 203.67 326 0 0 0 -0.84346 -0.20488 -0.49659 0.036274
0.054603 0.085166 1.0317 7.3296e-39 189.5 326 0 0 0 -0.84359 -0.20457 -0.4965 0.03723
0.05277 0.08694 1.0313 4.8403e-39 414.5 326 0 0 0 -0.8502 -0.18831 -0.49163 0.034298
0.054557 0.086904 1.0309 5.6239e-39 416 326 0 0 0 -0.85022 -0.18826 -0.49161 0.035186
0.057017 0.086977 1.0317 7.56e-39 418 326 0 0 0 -0.84799 -0.19224 -0.49393 0.036707
0.050982 0.088787 1.0317 7.6522e-39 283 327 0 0 0 -0.87618 -0.17619 -0.44864 0.034021
0.052547 0.088512 1.0309 7.4679e-39 254.67 327 0 0 0 -0.84805 -0.19476 -0.49282 0.033846
0.055184 0.08875 1.0313 8.6663e-39 286.5 327 0 0 0 -0.8462 -0.18457 -0.49989 0.035116
0.056993 0.08875 1.0313 8.0671e-39 288 327 0 0 0 -0.84412 -0.18915 -0.50168 0.035107
0.050982 0.091201 1.0317 6.8225e-39 200 328 0 0 0 -0.88665 -0.15037 -0.4373 0.030465
0.055786 0.091164 1.0313 6.592e-39 204 328 0 0 0 -0.85119 -0.17763 -0.49389 0.032861
0.056969 0.091126 1.0309 6.5459e-39 205 328 0 0 0 -0.84367 -0.17195 -0.50859 0.034496
0.048567 0.093012 1.0317 7.4678e-39 418 328 0 0 0 -0.88325 -0.15431 -0.44278 0.029943
0.050939 0.092935 1.0309 5.9927e-39 420 328 0 0 0 -0.88487 -0.14821 -0.44164 0.030376
0.048567 0.094822 1.0317 7.3757e-39 275.5 329 0 0 0 -0.89776 -0.15972 -0.41052 0.033119
0.050939 0.094744 1.0309 7.6983e-39 277.5 329 0 0 0 -0.89677 -0.15995 -0.41257 0.033829
-0.047998 0.097841 1.0317 6.6381e-39 464 329 0 0 0 0.97527 -0.14561 -0.16628 0.026615
0.049733 0.097759 1.0309 6.3615e-39 201 330 0 0 0 -0.87272 -0.16771 -0.4585 0.032957
0.050939 0.096553 1.0309 5.4395e-39 442 329 0 0 0 -0.87672 -0.17086 -0.44964 0.034103
0.049733 0.098965 1.0309 9.1274e-39 352 330 0 0 0 -0.92248 -0.15916 -0.35172 0.039395
0.050939 0.098965 1.0309 9.4961e-39 353 330 0 0 0 -0.90147 -0.16277 -0.40107 0.037292
-0.049164 0.10017 1.0309 8.2054e-39 362 330 0 0 0 0.97833 -0.14637 -0.14644 0.024848
0.050982 0.10086 1.0317 5.1629e-39 300.5 330.5 0 0 0 -0.9457 -0.15717 -0.28453 0.042859
0.052748 0.10138 1.0309 6.3154e-39 172.5 331 0 0 0 -0.96512 -0.13704 -0.22308 0.042534
0.050939 0.10258 1.0309 6.5459e-39 250 331 0 0 0 0.99542 0.075208 -0.058989 0.043625
0.052949 0.10298 1.0309 7.5293e-39 300 331 0 0 0 -0.99588 -0.073999 0.052328 0.042628
0.054557 0.10379 1.0309 9.5883e-39 398 331 0 0 0 0.96041 0.031034 -0.27686 0.040366
0.053351 0.105 1.0309 7.2835e-39 468 331 0 0 0 0.94363 0.015622 -0.33062 0.03556
0.054557 0.105 1.0309 7.7444e-39 469 331 0 0 0 0.943 0.02817 -0.33161 0.038801
0.053351 0.1068 1.0309 7.4679e-39 288 332 0 0 0 0.92614 0.011882 -0.37698 0.032398
0.054557 0.1068 1.0309 7.9288e-39 289 332 0 0 0 0.9163 0.0182 -0.40009 0.03104
0.053351 0.10921 1.0309 5.3473e-39 307 332.5 0 0 0 0.90109 0.022792 -0.43302 0.024872
0.054557 0.10861 1.0309 4.702e-39 441 332 0 0 0 0.9059 0.024208 -0.4228 0.025739
0.053351 0.11103 1.0309 6.6381e-39 268 333 0 0 0 0.90125 0.02176 -0.43276 0.024345
0.052949 0.11263 1.0309 7.9903e-39 338.67 333.33 0 0 0 0.89387 0.052973 -0.4452 0.01868
0.041291 0.13515 1.0309 6.2693e-39 200 339 0 0 0 0.71973 0.58433 -0.37489 0.0064324
0.038878 0.13635 1.0309 8.1132e-39 268 339 0 0 0 0.71405 0.59033 -0.37636 0.0053706
0.052858 0.08346 1.033 9.0352e-39 357.5 325 0 0 0 -0.85554 -0.23235 -0.46268 0.038529
0.054671 0.082856 1.033 8.3437e-39 269.5 325 0 0 0 -0.81662 -0.28019 -0.50461 0.038819
0.057112 0.083495 1.0334 8.2976e-39 361 325 0 0 0 -0.82117 -0.26403 -0.50593 0.040143
0.051067 0.085308 1.0334 7.514e-39 186.5 326 0 0 0 -0.90008 -0.17739 -0.39798 0.032675
0.052232 0.084634 1.0326 6.5459e-39 141 326 0 0 0 -0.86692 -0.20561 -0.45407 0.038315
0.055903 0.085308 1.0334 7.053e-39 190.5 326 0 0 0 -0.85622 -0.20464 -0.47435 0.038672
0.057065 0.085238 1.0326 7.1452e-39 191.5 326 0 0 0 -0.83868 -0.21731 -0.49939 0.038408
0.051024 0.08705 1.0326 6.0849e-39 413 326 0 0 0 -0.88968 -0.17108 -0.42332 0.033009
0.055856 0.08705 1.0326 6.8225e-39 417 326 0 0 0 -0.85138 -0.18366 -0.49135 0.03634
0.055856 0.088258 1.0326 7.6522e-39 198 327 0 0 0 -0.86545 -0.17857 -0.4681 0.034418
0.049243 0.091335 1.0332 7.0991e-39 198.5 328 0 0 0 -0.89197 -0.15471 -0.4248 0.031051
0.049816 0.09309 1.0326 6.8225e-39 419 328 0 0 0 -0.89651 -0.14361 -0.41909 0.028762
0.049837 0.094942 1.033 7.6522e-39 276.5 329 0 0 0 -0.89435 -0.14435 -0.42343 0.028971
0.049816 0.096714 1.0326 7.0991e-39 441 329 0 0 0 -0.90044 -0.15945 -0.4047 0.032768
0.040151 0.13658 1.0326 7.56e-39 269 339 0 0 0 0.71471 0.60387 -0.35289 0.0059485
0.037767 0.13911 1.0334 7.3757e-39 430 339 0 0 0 0.72701 0.60171 -0.33077 0.0060663
0.0027011 0.15349 1.0326 6.7303e-39 222 341 0 0 0 0.33444 0.78912 -0.51521 0.057809
0.0051216 0.15241 1.0334 7.0069e-39 206 341 0 0 0 0.32169 0.79361 -0.51643 0.059979
0.0063307 0.15241 1.0334 7.4678e-39 207 341 0 0 0 0.31811 0.79154 -0.5218 0.059784
0.053575 0.081213 1.0352 9.1274e-39 391 324 0 0 0 -0.88143 -0.25698 -0.39629 0.034473
0.05474 0.081145 1.0343 8.5742e-39 392 324 0 0 0 -0.81878 -0.30503 -0.48636 0.037938
0.05111 0.083565 1.0343 9.1274e-39 356 325 0 0 0 -0.89208 -0.21882 -0.39536 0.033424
0.052947 0.08239 1.0347 7.1452e-39 178.5 325 0 0 0 -0.88842 -0.23131 -0.3965 0.034339
0.055974 0.082994 1.0347 8.2054e-39 270.5 325 0 0 0 -0.86035 -0.25004 -0.44417 0.038682
0.05716 0.082355 1.0343 8.6664e-39 182 325 0 0 0 -0.81662 -0.28019 -0.50461 0.038819
0.049524 0.089262 1.0349 8.2669e-39 311.33 327 0 0 0 -0.90457 -0.16134 -0.39461 0.030955
0.047499 0.09268 1.0347 7.1913e-39 330 328 0 0 0 -0.90979 -0.1384 -0.39132 0.028619
-0.04937 0.09938 1.0352 7.3757e-39 212 330 0 0 0 0.95673 -0.16103 -0.24237 0.035052
0.00089053 0.15375 1.0343 6.9147e-39 220.5 341 0 0 0 0.32185 0.76088 -0.56345 0.069147
0.0075461 0.15254 1.0343 7.3757e-39 208 341 0 0 0 0.34557 0.77079 -0.53523 0.062604
0.0087635 0.15267 1.0352 6.8225e-39 209 341 0 0 0 0.34745 0.76331 -0.54464 0.065467
0.051281 0.081418 1.0378 9.5883e-39 389 324 0 0 0 -0.88671 -0.26412 -0.37945 0.025999
0.053059 0.080743 1.0369 8.5742e-39 302 324 0 0 0 -0.879 -0.27272 -0.39113 0.026977
0.050429 0.082967 1.0369 7.9288e-39 236 325 0 0 0 -0.898 -0.22243 -0.37963 0.02621
0.050025 0.084989 1.0369 7.1913e-39 139 326 0 0 0 -0.90468 -0.1973 -0.37767 0.025745
0.049983 0.086736 1.036 7.7444e-39 322 326 0 0 0 -0.91348 -0.16052 -0.37388 0.026464
0.048771 0.088554 1.036 7.0991e-39 192 327 0 0 0 -0.91634 -0.14874 -0.37176 0.027003
0.047639 0.091131 1.0378 7.3757e-39 151 328 0 0 0 -0.93122 -0.13404 -0.33892 0.024194
-0.04828 0.097202 1.0378 8.8508e-39 371 329 0 0 0 0.87464 -0.32647 -0.35836 0.040734
-0.049494 0.098416 1.0378 6.6381e-39 463 329 0 0 0 0.88901 -0.30157 -0.34455 0.040311
0.039074 0.13825 1.036 8.6664e-39 371 339 0 0 0 0.71656 0.61448 -0.33009 0.0081379
0.011214 0.15184 1.0378 7.0069e-39 195 341 0 0 0 0.43394 0.67178 -0.60035 0.072933
0.009983 0.1528 1.036 6.4537e-39 210 341 0 0 0 0.37979 0.73549 -0.56108 0.067332
-0.00092774 0.15548 1.0378 7.7444e-39 246 341 0 0 0 0.29153 0.61512 -0.73256 0.084391
0.00089339 0.15541 1.0373 7.9749e-39 247.5 341 0 0 0 0.30956 0.64697 -0.69685 0.08447
0.0033179 0.15468 1.0365 7.5601e-39 236 341 0 0 0 0.30174 0.69404 -0.65366 0.080433
0.0051431 0.15427 1.0378 7.2835e-39 224 341 0 0 0 0.32592 0.67444 -0.6625 0.081425
0.0069644 0.15427 1.0378 7.9288e-39 225.5 341 0 0 0 0.35497 0.65112 -0.67085 0.0835
0.0027148 0.1567 1.0378 7.2835e-39 271 341 0 0 0 0.28431 0.59676 -0.75036 0.08168
0.050152 0.081555 1.0395 9.0352e-39 388 324 0 0 0 -0.8992 -0.24814 -0.36038 0.022024
0.052584 0.080339 1.0395 7.7444e-39 213 324 0 0 0 -0.88423 -0.27202 -0.37966 0.024862
0.048935 0.087636 1.0395 7.56e-39 411 326 0 0 0 -0.9331 -0.13639 -0.33274 0.021643
-0.05201 0.090068 1.0395 7.0069e-39 200 327 0 0 0 0.78957 -0.43071 -0.43712 0.086305
-0.049578 0.094933 1.0395 5.4395e-39 430 328 0 0 0 0.78416 -0.454 -0.42306 0.05424
-0.049159 0.096527 1.0392 8.1747e-39 261.67 329 0 0 0 0.81952 -0.39619 -0.41403 0.045485
0.011233 0.15331 1.0395 6.3615e-39 211 341 0 0 0 0.44502 0.61238 -0.65342 0.080726
0.012449 0.1521 1.0395 7.1913e-39 196 341 0 0 0 0.45871 0.63581 -0.62074 0.069802
0.0039322 0.15561 1.0387 8.2976e-39 250 341 0 0 0 0.30857 0.58677 -0.74866 0.083384
0.0051474 0.15561 1.0387 8.021e-39 251 341 0 0 0 0.30857 0.58677 -0.74866 0.083384
0.0069734 0.15567 1.0391 7.56e-39 252.5 341 0 0 0 0.3732 0.57594 -0.72734 0.085642
0.0087967 0.15507 1.0391 7.6061e-39 240.5 341 0 0 0 0.40317 0.60142 -0.68975 0.085039
0.010008 0.1544 1.0387 7.56e-39 228 341 0 0 0 0.42082 0.6129 -0.66878 0.084304
-0.0027536 0.15696 1.0395 7.3296e-39 266.5 341 0 0 0 0.16872 0.51277 -0.84178 0.07297
-0.00092931 0.15696 1.0395 8.1132e-39 268 341 0 0 0 0.23397 0.50107 -0.83318 0.071108
0.00089488 0.15689 1.0391 7.3757e-39 269.5 341 0 0 0 0.24448 0.49243 -0.83531 0.070077
0.0039355 0.15696 1.0395 7.4678e-39 272 341 0 0 0 0.28947 0.50023 -0.81607 0.074688
0.006368 0.15696 1.0395 7.2835e-39 274 341 0 0 0 0.3551 0.52363 -0.77441 0.082514
0.002717 0.15804 1.0387 8.2054e-39 294 341 0 0 0 0.24703 0.50137 -0.82922 0.07233
0.050802 0.080406 1.0404 7.7444e-39 211.5 324 0 0 0 -0.89974 -0.25151 -0.35667 0.022636
0.049018 0.085347 1.0413 7.3757e-39 138 326 0 0 0 -0.92921 -0.16479 -0.33078 0.017809
0.048977 0.086492 1.0404 8.1132e-39 231 326 0 0 0 -0.92719 -0.16299 -0.33727 0.01953
-0.052098 0.089002 1.0413 8.2054e-39 419 326 0 0 0 0.71424 -0.42428 -0.55664 0.09157
-0.050858 0.09079 1.0409 8.2054e-39 290.5 327 0 0 0 0.77308 -0.41586 -0.47897 0.086077
-0.049661 0.091438 1.0413 9.8649e-39 381 327 0 0 0 0.78547 -0.39208 -0.47886 0.083774
0.047759 0.090144 1.0404 9.5883e-39 369 327 0 0 0 -0.93983 -0.1108 -0.32318 0.018551
-0.05088 0.093266 1.0413 6.592e-39 209 328 0 0 0 0.75606 -0.48865 -0.43543 0.072637
-0.049241 0.093443 1.041 6.9761e-39 225.67 328 0 0 0 0.76437 -0.47962 -0.43093 0.066416
-0.05088 0.095093 1.0413 5.8083e-39 429 328 0 0 0 0.77328 -0.44795 -0.44876 0.058078
-0.048402 0.095013 1.0404 5.4395e-39 431 328 0 0 0 0.77771 -0.43535 -0.45346 0.055943
-0.05088 0.096921 1.0413 8.0671e-39 287.5 329 0 0 0 0.78233 -0.4423 -0.43855 0.056546
-0.047225 0.098748 1.0413 6.6381e-39 465 329 0 0 0 0.81719 -0.37349 -0.43898 0.043634
0.01247 0.15357 1.0413 6.4537e-39 212 341 0 0 0 0.50119 0.48337 -0.71775 0.065439
0.010638 0.15533 1.0409 7.4679e-39 242 341 0 0 0 0.44242 0.52524 -0.72691 0.079476
-0.0045818 0.15709 1.0404 7.2835e-39 265 341 0 0 0 0.046917 0.47228 -0.8802 0.059133
0.0051561 0.15709 1.0404 7.0069e-39 273 341 0 0 0 0.34043 0.47782 -0.80981 0.075271
0.0075906 0.15709 1.0404 8.1132e-39 275 341 0 0 0 0.39503 0.47178 -0.78827 0.075543
0.0088078 0.15709 1.0404 8.2976e-39 276 341 0 0 0 0.39944 0.47481 -0.78422 0.075519
0.010033 0.15722 1.0413 8.021e-39 277 341 0 0 0 0.43635 0.44906 -0.77971 0.070254
-0.0027583 0.15844 1.0413 8.3437e-39 289.5 341 0 0 0 0.138 0.44923 -0.88269 0.062129
-0.00093048 0.15898 1.0409 7.7905e-39 326 341 0 0 0 0.20266 0.44441 -0.8726 0.060963
0.00089616 0.15898 1.0409 8.1362e-39 327.5 341 0 0 0 0.21416 0.44576 -0.86916 0.060451
0.0035342 0.15917 1.0407 8.7586e-39 354.67 341 0 0 0 0.2694 0.46144 -0.84528 0.063892
0.0051604 0.15905 1.0413 8.7586e-39 351 341 0 0 0 0.3325 0.44525 -0.83138 0.067569
0.006783 0.1588 1.041 7.9903e-39 347.33 341 0 0 0 0.38724 0.44208 -0.80908 0.070674
0.0088152 0.15844 1.0413 7.56e-39 339 341 0 0 0 0.41522 0.44004 -0.79622 0.070653
0.00028739 0.16088 1.0413 8.1132e-39 385 341 0 0 0 0.21737 0.42608 -0.87818 0.052422
0.0033319 0.16081 1.0409 8.8508e-39 387.5 341 0 0 0 0.25047 0.43158 -0.86661 0.056827
0.0051604 0.16088 1.0413 8.1132e-39 389 341 0 0 0 0.34561 0.42886 -0.83465 0.062894
0.0063787 0.16088 1.0413 7.7444e-39 390 341 0 0 0 0.37171 0.42388 -0.82593 0.063387
0.0027239 0.16271 1.0413 8.0671e-39 421 341 0 0 0 0.22538 0.42516 -0.87661 0.050035
0.0063787 0.16271 1.0413 7.2835e-39 424 341 0 0 0 0.3555 0.41936 -0.83532 0.058513
0.0063787 0.16453 1.0413 7.2835e-39 456 341 0 0 0 0.34153 0.4187 -0.84146 0.054566
0.050889 0.079323 1.0422 7.1913e-39 465.5 323 0 0 0 -0.90897 -0.22584 -0.35038 0.020543
0.052717 0.079323 1.0422 7.0069e-39 467 323 0 0 0 -0.90688 -0.23131 -0.35223 0.021637
0.049121 0.081254 1.0434 8.1593e-39 298.5 324 0 0 0 -0.92489 -0.16374 -0.34318 0.019142
0.049059 0.082981 1.0422 8.1132e-39 175 325 0 0 0 -0.91898 -0.20152 -0.33891 0.017402
0.049059 0.0842 1.0422 8.3898e-39 354 325 0 0 0 -0.92737 -0.17385 -0.33131 0.016701
-0.05223 0.088006 1.0439 6.9147e-39 241 326 0 0 0 0.68711 -0.38234 -0.61781 0.08847
-0.050966 0.089152 1.043 8.2976e-39 420 326 0 0 0 0.74735 -0.3743 -0.54897 0.086937
-0.049155 0.08919 1.0434 8.5281e-39 421.5 326 0 0 0 0.74129 -0.36792 -0.56136 0.079046
-0.047345 0.089228 1.0439 9.5883e-39 423 326 0 0 0 0.7506 -0.32645 -0.57448 0.077097
0.04788 0.089152 1.043 7.0991e-39 191 327 0 0 0 -0.93313 -0.13953 -0.33136 0.015339
-0.048931 0.090779 1.043 8.0211e-39 262.33 327 0 0 0 0.75931 -0.35594 -0.54474 0.079621
-0.047345 0.091059 1.0439 8.7124e-39 293.5 327 0 0 0 0.76819 -0.33329 -0.54663 0.074072
-0.048484 0.092735 1.0422 6.0849e-39 165 328 0 0 0 0.7912 -0.37741 -0.48121 0.078488
-0.047345 0.092892 1.0439 6.0849e-39 166 328 0 0 0 0.76994 -0.34784 -0.53498 0.074076
-0.046911 0.094467 1.0433 6.5766e-39 316.33 328 0 0 0 0.78177 -0.40189 -0.47679 0.068926
-0.047305 0.097084 1.043 8.6203e-39 290.5 329 0 0 0 0.78124 -0.42228 -0.45972 0.056746
0.013723 0.15274 1.0439 6.9147e-39 197 341 0 0 0 0.52848 0.454 -0.71735 0.052962
0.012491 0.15505 1.043 7.8366e-39 230 341 0 0 0 0.47234 0.44611 -0.76019 0.065497
0.011266 0.15681 1.0426 7.5601e-39 267 341 0 0 0 0.43699 0.44882 -0.77949 0.070784
0.012502 0.1564 1.0439 8.2054e-39 257 341 0 0 0 0.47492 0.42711 -0.76943 0.063268
-0.00704 0.15884 1.0439 7.7444e-39 286 341 0 0 0 -0.07161 0.42944 -0.90025 0.042209
-0.0052026 0.15929 1.0428 8.5742e-39 322.5 341 0 0 0 0.015231 0.42809 -0.90361 0.047748
-0.0027606 0.1598 1.0422 8.0671e-39 359.5 341 0 0 0 0.13072 0.44085 -0.88801 0.057972
0.0076034 0.1598 1.0422 7.8366e-39 368 341 0 0 0 0.41098 0.44053 -0.79814 0.06797
0.0088227 0.1598 1.0422 8.1132e-39 369 341 0 0 0 0.41804 0.43058 -0.7999 0.067339
0.010454 0.15907 1.0427 8.4205e-39 350.33 341 0 0 0 0.42317 0.43585 -0.79433 0.069046
-0.0045973 0.16129 1.0439 7.4678e-39 381 341 0 0 0 0.045135 0.41625 -0.90813 0.043724
-0.002763 0.16115 1.043 7.6983e-39 382.5 341 0 0 0 0.12489 0.4134 -0.90194 0.048039
-0.00093166 0.16102 1.0422 7.8366e-39 384 341 0 0 0 0.20223 0.42472 -0.88245 0.052669
0.0015069 0.16102 1.0422 8.6664e-39 386 341 0 0 0 0.21801 0.42857 -0.87681 0.052619
0.0076034 0.16102 1.0422 7.7444e-39 391 341 0 0 0 0.41344 0.42588 -0.80479 0.064988
0.0088227 0.16102 1.0422 8.021e-39 392 341 0 0 0 0.41792 0.42134 -0.80487 0.064929
0.010873 0.16088 1.0439 8.8815e-39 386 341 0 0 0 0.42336 0.42101 -0.8022 0.063326
-0.0027652 0.16312 1.0439 7.9288e-39 416.5 341 0 0 0 0.1195 0.40278 -0.90746 0.043245
-0.00093245 0.16298 1.043 7.7444e-39 418 341 0 0 0 0.19509 0.40478 -0.89336 0.045173
0.00089759 0.16287 1.0424 7.6983e-39 419.5 341 0 0 0 0.22394 0.41801 -0.88041 0.047638
0.0039455 0.16284 1.0422 7.8366e-39 422 341 0 0 0 0.31874 0.42122 -0.84911 0.056092
0.0051648 0.16284 1.0422 7.6061e-39 423 341 0 0 0 0.35118 0.42295 -0.83534 0.058294
0.0076034 0.16284 1.0422 7.4679e-39 425 341 0 0 0 0.40076 0.41816 -0.81519 0.059613
0.0088301 0.16298 1.043 7.6522e-39 426 341 0 0 0 0.41318 0.41907 -0.80849 0.058705
0.010059 0.16312 1.0439 7.6983e-39 427 341 0 0 0 0.41175 0.3953 -0.8211 0.056831
-0.00093245 0.16481 1.043 6.9147e-39 450 341 0 0 0 0.18812 0.40827 -0.89327 0.041655
0.00089791 0.16474 1.0426 7.2374e-39 451.5 341 0 0 0 0.21118 0.39922 -0.8922 0.041632
0.0033358 0.16528 1.0422 7.3987e-39 317.5 341.5 0 0 0 0.22722 0.40764 -0.88442 0.042066
0.0051648 0.16528 1.0422 7.1451e-39 319.5 341.5 0 0 0 0.33295 0.40527 -0.85141 0.049988
0.007197 0.16548 1.0422 6.9147e-39 276.67 341.67 0 0 0 0.3821 0.39862 -0.83373 0.051667
0.0088301 0.16481 1.043 7.0991e-39 458 341 0 0 0 0.40558 0.38423 -0.82938 0.053203
0.010059 0.16495 1.0439 6.6381e-39 471 341 0 0 0 0.40764 0.38715 -0.82701 0.051794
-0.00093323 0.16678 1.0439 6.1771e-39 169.5 342 0 0 0 0.16425 0.4028 -0.90043 0.036134
0.00089842 0.16671 1.0434 6.1771e-39 171 342 0 0 0 0.20211 0.4004 -0.89377 0.03629
0.0033386 0.16725 1.043 7.6061e-39 202.5 342 0 0 0 0.23184 0.39923 -0.88705 0.036509
0.0051692 0.16725 1.043 7.4678e-39 204 342 0 0 0 0.29842 0.3966 -0.86813 0.042007
0.0069997 0.16725 1.043 6.8225e-39 205.5 342 0 0 0 0.35758 0.39265 -0.84733 0.046557
0.0088338 0.16671 1.0434 6.9608e-39 197.5 342 0 0 0 0.40352 0.38117 -0.83179 0.047588
0.00089881 0.16923 1.0439 7.537e-39 228 342 0 0 0 0.19034 0.39206 -0.90004 0.033308
0.0033401 0.16915 1.0434 7.3065e-39 231.25 342 0 0 0 0.22381 0.40735 -0.88542 0.034922
0.0051714 0.16916 1.0434 7.099e-39 234 342 0 0 0 0.29259 0.40459 -0.86643 0.039494
0.007001 0.16912 1.0432 7.3987e-39 235.5 342 0 0 0 0.32167 0.40293 -0.85684 0.041352
0.0033415 0.17106 1.0439 8.1132e-39 262.5 342 0 0 0 0.22194 0.39578 -0.89112 0.033424
0.0051735 0.17106 1.0439 7.8366e-39 264 342 0 0 0 0.26763 0.38961 -0.88124 0.03548
0.0070055 0.17106 1.0439 7.3757e-39 265.5 342 0 0 0 0.30077 0.38551 -0.87231 0.037416
0.0033415 0.17228 1.0439 6.7764e-39 280.5 342 0 0 0 0.2149 0.39757 -0.89205 0.032394
0.0076162 0.17228 1.0439 7.6522e-39 284 342 0 0 0 0.30328 0.39014 -0.86938 0.037678
0.049204 0.078946 1.0452 6.592e-39 354.5 323 0 0 0 -0.92653 -0.068559 -0.36993 0.02016
-0.051095 0.088155 1.0457 7.56e-39 242 326 0 0 0 0.71099 -0.34548 -0.61248 0.078618
-0.049238 0.088118 1.0452 8.1132e-39 243.5 326 0 0 0 0.71458 -0.32916 -0.61728 0.075908
-0.046596 0.088538 1.0454 8.697e-39 305 326 0 0 0 0.73512 -0.29488 -0.61044 0.070052
0.048002 0.088155 1.0457 7.1913e-39 410 326 0 0 0 -0.91611 -0.18935 -0.3534 0.015507
-0.046181 0.091175 1.0452 8.9889e-39 294.5 327 0 0 0 0.7678 -0.30319 -0.56442 0.068826
-0.046162 0.09297 1.0448 6.1771e-39 167 328 0 0 0 0.77856 -0.32522 -0.53672 0.069588
-0.046162 0.095415 1.0448 6.5459e-39 459 328 0 0 0 0.77003 -0.3778 -0.51412 0.068184
-0.046162 0.097249 1.0448 8.9432e-39 291.5 329 0 0 0 0.76612 -0.40585 -0.49835 0.0704
-0.046201 0.099166 1.0457 6.9147e-39 466 329 0 0 0 0.77045 -0.41701 -0.48219 0.071312
-0.046201 0.10039 1.0457 8.021e-39 214 330 0 0 0 0.77591 -0.40382 -0.48466 0.06695
0.014957 0.15164 1.0448 6.1771e-39 183 341 0 0 0 0.55002 0.45555 -0.69997 0.048071
0.01679 0.15164 1.0448 6.4998e-39 186.5 341 0 0 0 0.59056 0.42476 -0.68616 0.039944
0.014957 0.15287 1.0448 6.4537e-39 198 341 0 0 0 0.54514 0.44483 -0.7106 0.049918
0.01679 0.15287 1.0448 6.2693e-39 199.5 341 0 0 0 0.58531 0.41816 -0.69467 0.041066
0.013735 0.1547 1.0448 7.4218e-39 222 341 0 0 0 0.51612 0.42184 -0.74543 0.057004
0.01497 0.15422 1.0457 7.2835e-39 214 341 0 0 0 0.54785 0.40555 -0.7317 0.049846
0.016805 0.15422 1.0457 7.3757e-39 215.5 341 0 0 0 0.59072 0.3736 -0.71517 0.039406
0.013335 0.15744 1.0454 7.0683e-39 272.33 341 0 0 0 0.48271 0.40616 -0.77591 0.057665
0.012512 0.15898 1.0448 8.2976e-39 342 341 0 0 0 0.4494 0.42067 -0.78808 0.063403
-0.0070489 0.16088 1.0452 8.5742e-39 366.5 341 0 0 0 -0.11865 0.39259 -0.91203 0.031465
-0.0058236 0.16142 1.0448 7.6522e-39 380 341 0 0 0 -0.032614 0.39634 -0.91753 0.038542
0.012523 0.16034 1.0457 7.7444e-39 372 341 0 0 0 0.43062 0.40044 -0.80884 0.060127
-0.0052148 0.16272 1.0452 7.6522e-39 403.5 341 0 0 0 -0.017712 0.39077 -0.92032 0.035741
0.01129 0.16326 1.0448 7.56e-39 428 341 0 0 0 0.41164 0.38206 -0.82739 0.055463
-0.0046051 0.16401 1.0457 7.9288e-39 426 341 0 0 0 0.026421 0.37747 -0.92564 0.035745
-0.0027676 0.16509 1.0448 7.7905e-39 448.5 341 0 0 0 0.11015 0.40001 -0.90987 0.037782
0.01129 0.16509 1.0448 6.5459e-39 472 341 0 0 0 0.41266 0.3769 -0.82925 0.049626
-0.0027688 0.16699 1.0453 6.4537e-39 168 342 0 0 0 0.12437 0.39397 -0.91067 0.03499
0.010685 0.16703 1.0455 6.7303e-39 199 342 0 0 0 0.41729 0.38797 -0.8218 0.046412
-0.0027699 0.1689 1.0457 7.3757e-39 215.5 342 0 0 0 0.1178 0.39155 -0.91258 0.032332
-0.00093402 0.16937 1.0448 7.3296e-39 226.5 342 0 0 0 0.16273 0.39585 -0.90378 0.03314
0.0088451 0.16937 1.0448 7.9288e-39 237 342 0 0 0 0.37434 0.38676 -0.84278 0.042301
-0.0021582 0.17012 1.0457 7.7444e-39 234 342 0 0 0 0.12113 0.39796 -0.90937 0.032167
-0.00093481 0.17135 1.0457 7.2835e-39 259 342 0 0 0 0.14698 0.39811 -0.90548 0.032107
0.00089953 0.1712 1.0448 7.1913e-39 260.5 342 0 0 0 0.18394 0.39634 -0.89949 0.03261
0.0088525 0.17135 1.0457 7.8366e-39 267 342 0 0 0 0.38729 0.38493 -0.83776 0.041091
-0.00093481 0.17318 1.0457 7.7905e-39 286 342 0 0 0 0.13599 0.40817 -0.90272 0.032461
0.00089959 0.17307 1.045 7.6522e-39 307 342 0 0 0 0.17843 0.40204 -0.89807 0.03329
0.0033443 0.17365 1.0448 7.5601e-39 337.5 342 0 0 0 0.20154 0.39409 -0.8967 0.032003
0.0051779 0.17304 1.0448 7.6522e-39 310.5 342 0 0 0 0.27327 0.39204 -0.87842 0.036522
0.0068078 0.17324 1.0448 8.2669e-39 321.33 342 0 0 0 0.30753 0.39105 -0.86747 0.038014
0.0088525 0.17257 1.0457 7.0069e-39 285 342 0 0 0 0.36501 0.38716 -0.84669 0.041113
0.001512 0.17502 1.0457 8.1132e-39 356 342 0 0 0 0.16922 0.40598 -0.89808 0.033372
0.0033472 0.17502 1.0457 8.3437e-39 357.5 342 0 0 0 0.20645 0.40555 -0.89045 0.035541
0.0051823 0.17502 1.0457 8.021e-39 359 342 0 0 0 0.2754 0.40008 -0.87412 0.038537
0.0076291 0.17502 1.0457 7.3757e-39 361 342 0 0 0 0.32701 0.40005 -0.85617 0.039581
0.048063 0.082755 1.047 8.2515e-39 280 324.5 0 0 0 -0.92182 -0.044112 -0.3851 0.019891
0.048063 0.085205 1.047 8.3898e-39 416 325 0 0 0 -0.91665 -0.08913 -0.38964 0.019802
-0.048731 0.087079 1.0475 7.0069e-39 151 326 0 0 0 0.7229 -0.28596 -0.629 0.069234
