# .PCD v.7 - Point Cloud Data file format
VERSION .7
FIELDS x y z rgb u v vx vy vz normal_x normal_y normal_z curvature
SIZE 4 4 4 4 4 4 4 4 4 4 4 4 4
TYPE F F F F F F F F F F F F F
COUNT 1 1 1 1 1 1 1 1 1 1 1 1 1
WIDTH 564
HEIGHT 1
VIEWPOINT 0 0 0 1 0 0 0
POINTS 564
DATA ascii
0.1168 0.034203 1.2679 9.957e-39 395.5 315 0 0 0 -0.13287 -0.71579 -0.68555 0.024333
0.11902 0.034203 1.2679 4.9786e-39 365 316 0 0 0 -0.10986 -0.75802 -0.64291 0.019648
0.12119 0.034926 1.2673 6.5459e-39 372.5 316.5 0 0 0 -0.10933 -0.76663 -0.63271 0.019237
0.12347 0.034203 1.2679 6.4537e-39 368 316 0 0 0 -0.065354 -0.82905 -0.55534 0.0094153
0.12705 0.035649 1.2666 1.0649e-38 382.5 317 0 0 0 -0.034852 -0.84538 -0.53303 0.008814
0.12928 0.035649 1.2666 8.1132e-39 384 317 0 0 0 0.01023 -0.8702 -0.49259 0.0084809
0.13076 0.035649 1.2666 7.0069e-39 385 317 0 0 0 0.047808 -0.87695 -0.4782 0.010326
0.13298 0.035649 1.2666 7.0069e-39 386.5 317 0 0 0 0.096647 -0.88438 -0.45665 0.012615
0.1352 0.035649 1.2666 7.56e-39 388 317 0 0 0 0.15436 -0.88261 -0.44405 0.017103
0.14113 0.035649 1.2666 8.2976e-39 392 317 0 0 0 0.2461 -0.85259 -0.461 0.021312
0.14261 0.035649 1.2666 8.3898e-39 393 317 0 0 0 0.27193 -0.84024 -0.4691 0.022075
0.14424 0.035686 1.2679 8.1132e-39 394 317 0 0 0 0.30957 -0.83425 -0.45627 0.023667
0.092322 0.037169 1.2679 6.8225e-39 414 317 0 0 0 -0.21851 -0.23579 -0.94692 0.025853
0.096773 0.037169 1.2679 9.5883e-39 356 318 0 0 0 -0.19436 -0.29173 -0.93654 0.027098
0.098998 0.037169 1.2679 9.6344e-39 357.5 318 0 0 0 -0.18872 -0.31569 -0.92991 0.028864
0.10112 0.037131 1.2666 8.943e-39 359 318 0 0 0 -0.18372 -0.34892 -0.91897 0.031121
0.1026 0.037131 1.2666 8.7586e-39 360 318 0 0 0 -0.18944 -0.38165 -0.90469 0.033851
0.10408 0.037131 1.2666 9.0352e-39 361 318 0 0 0 -0.192 -0.38211 -0.90395 0.034673
0.14558 0.037131 1.2666 6.1771e-39 389 318 0 0 0 0.34217 -0.80858 -0.47866 0.021925
0.083422 0.038653 1.2679 6.7303e-39 394 318 0 0 0 -0.30056 -0.11646 -0.94663 0.033873
0.084905 0.038653 1.2679 5.8083e-39 395 318 0 0 0 -0.28923 -0.12622 -0.9489 0.031362
0.087131 0.038653 1.2679 7.6061e-39 396.5 318 0 0 0 -0.26499 -0.14268 -0.95364 0.030274
0.089356 0.038653 1.2679 9.9571e-39 398 318 0 0 0 -0.2426 -0.15633 -0.95745 0.028153
0.090746 0.038613 1.2666 9.5883e-39 399 318 0 0 0 -0.23732 -0.17405 -0.95571 0.025305
0.092969 0.038613 1.2666 7.7444e-39 400.5 318 0 0 0 -0.22335 -0.19889 -0.95423 0.025317
0.095192 0.038613 1.2666 8.2976e-39 402 318 0 0 0 -0.21019 -0.22099 -0.95236 0.025584
0.096674 0.038613 1.2666 9.3118e-39 403 318 0 0 0 -0.20879 -0.22783 -0.95105 0.025401
0.099637 0.038613 1.2666 7.8366e-39 405 318 0 0 0 -0.19096 -0.27015 -0.94369 0.029701
0.14721 0.038653 1.2679 7.9288e-39 373 319 0 0 0 0.38034 -0.79137 -0.47861 0.021657
0.081938 0.04162 1.2679 6.9147e-39 215 320 0 0 0 -0.35065 -0.037649 -0.93575 0.033127
0.083379 0.040856 1.2673 7.0991e-39 296.5 319.5 0 0 0 -0.33072 -0.061513 -0.94172 0.032323
0.084818 0.040836 1.2666 6.4537e-39 297.5 319.5 0 0 0 -0.30697 -0.077808 -0.94853 0.028357
0.087063 0.040846 1.2669 7.8366e-39 367 319.5 0 0 0 -0.27501 -0.089294 -0.95729 0.026576
0.089264 0.040095 1.2666 5.9005e-39 381 319 0 0 0 -0.24968 -0.11987 -0.96088 0.027414
0.090746 0.040095 1.2666 5.163e-39 382 319 0 0 0 -0.24688 -0.12926 -0.96039 0.025414
0.09371 0.040095 1.2666 4.1488e-39 384 319 0 0 0 -0.22417 -0.15306 -0.96245 0.024331
0.14706 0.040836 1.2666 4.7942e-39 302 320 0 0 0 0.38563 -0.7757 -0.49957 0.019512
0.14862 0.040856 1.2673 4.9325e-39 303 320 0 0 0 0.42354 -0.76068 -0.49191 0.018681
0.081155 0.043081 1.2673 4.9786e-39 399.5 320 0 0 0 -0.38273 -0.0052581 -0.92385 0.032735
0.083336 0.043059 1.2666 5.4395e-39 401 320 0 0 0 -0.34036 -0.02132 -0.94005 0.030685
0.084818 0.043059 1.2666 6.2693e-39 402 320 0 0 0 -0.32805 -0.022847 -0.94438 0.027348
0.0863 0.043059 1.2666 6.7303e-39 403 320 0 0 0 -0.30763 -0.030207 -0.95103 0.026061
0.15002 0.043059 1.2666 7.3757e-39 233 321 0 0 0 0.48113 -0.71158 -0.51203 0.014228
0.081155 0.044564 1.2673 7.9288e-39 235.5 321 0 0 0 -0.38631 0.018199 -0.92219 0.030783
0.083336 0.044541 1.2666 7.3757e-39 237 321 0 0 0 -0.35867 0.0095447 -0.93342 0.029913
0.084818 0.044541 1.2666 7.1913e-39 239 321 0 0 0 -0.34074 0.00069009 -0.94016 0.028111
0.0863 0.044541 1.2666 7.4678e-39 262 321 0 0 0 -0.31994 -0.0086366 -0.9474 0.025185
0.078972 0.04607 1.2679 4.7942e-39 398 321 0 0 0 -0.4384 0.061512 -0.89667 0.030557
0.081176 0.0468 1.2676 5.4396e-39 305 321.5 0 0 0 -0.4121 0.066409 -0.90871 0.028956
0.083336 0.046764 1.2666 5.8544e-39 306.5 321.5 0 0 0 -0.38066 0.049911 -0.92337 0.028309
0.084818 0.046764 1.2666 6.1771e-39 307.5 321.5 0 0 0 -0.3565 0.038789 -0.93349 0.027234
0.086794 0.047011 1.2666 6.423e-39 277.33 321.67 0 0 0 -0.33022 0.023368 -0.94361 0.024971
0.15158 0.046788 1.2673 7.6522e-39 285 322 0 0 0 0.55784 -0.64477 -0.52257 0.013632
0.081197 0.049037 1.2679 8.943e-39 365.5 322 0 0 0 -0.42996 0.10043 -0.89724 0.027246
0.083422 0.049037 1.2679 9.4961e-39 367 322 0 0 0 -0.40887 0.089874 -0.90816 0.02757
0.084818 0.048987 1.2666 9.2196e-39 368 322 0 0 0 -0.37267 0.070707 -0.92527 0.025176
0.087041 0.048987 1.2666 9.0352e-39 369.5 322 0 0 0 -0.34294 0.05394 -0.93781 0.024548
0.089264 0.048987 1.2666 8.8508e-39 371 322 0 0 0 -0.32341 0.048939 -0.94499 0.022086
0.083422 0.05052 1.2679 7.3757e-39 419 322 0 0 0 -0.41632 0.12024 -0.90123 0.025129
0.084818 0.05121 1.2666 6.9608e-39 321 322.5 0 0 0 -0.39089 0.11375 -0.91338 0.023645
0.087041 0.05121 1.2666 6.7534e-39 322.5 322.5 0 0 0 -0.36789 0.096627 -0.92484 0.023061
0.089264 0.05121 1.2666 6.6381e-39 324 322.5 0 0 0 -0.33299 0.078342 -0.93967 0.021299
0.083422 0.052745 1.2679 7.9288e-39 294.5 323 0 0 0 -0.43096 0.15861 -0.88832 0.022054
0.084818 0.053432 1.2666 9.2196e-39 369 323 0 0 0 -0.40498 0.15426 -0.90122 0.020848
0.087086 0.053459 1.2673 8.8047e-39 370.5 323 0 0 0 -0.38641 0.14214 -0.91131 0.020725
0.089264 0.053432 1.2666 9.0352e-39 372 323 0 0 0 -0.35439 0.12658 -0.92649 0.019677
0.084905 0.054971 1.2679 7.0069e-39 424 323 0 0 0 -0.42084 0.19749 -0.88537 0.016298
0.087131 0.054971 1.2679 7.1452e-39 425.5 323 0 0 0 -0.40083 0.1725 -0.89977 0.01821
0.089264 0.054914 1.2666 6.8225e-39 427 323 0 0 0 -0.36329 0.15195 -0.9192 0.017112
0.090746 0.054914 1.2666 6.3615e-39 428 323 0 0 0 -0.34651 0.14326 -0.92704 0.016136
0.084905 0.056454 1.2679 6.6381e-39 221 324 0 0 0 -0.42896 0.21873 -0.87644 0.013811
0.087378 0.056948 1.2679 7.2835e-39 274.33 324 0 0 0 -0.40861 0.20867 -0.88853 0.01352
0.089264 0.057137 1.2666 7.7905e-39 301.5 324 0 0 0 -0.36931 0.20278 -0.90691 0.01215
0.090746 0.057137 1.2666 7.6983e-39 302.5 324 0 0 0 -0.3491 0.1941 -0.91676 0.010993
0.089356 0.059421 1.2679 6.4537e-39 435 324 0 0 0 -0.39013 0.23446 -0.89041 0.011303
0.090746 0.05936 1.2666 6.0849e-39 436 324 0 0 0 -0.36462 0.22203 -0.9043 0.010649
0.09371 0.05936 1.2666 6.5459e-39 166 325 0 0 0 -0.32808 0.20756 -0.92157 0.0086581
0.089356 0.060904 1.2679 7.2835e-39 219 325 0 0 0 -0.39937 0.24707 -0.88287 0.010927
0.090746 0.060842 1.2666 7.2835e-39 220 325 0 0 0 -0.37273 0.23487 -0.89772 0.010401
0.09371 0.060842 1.2666 6.5459e-39 222 325 0 0 0 -0.33544 0.22013 -0.91598 0.0084273
0.089356 0.062388 1.2679 8.3898e-39 372 325 0 0 0 -0.40618 0.25099 -0.87865 0.010503
0.090839 0.063129 1.2679 7.3296e-39 401 325 0 0 0 -0.39101 0.24467 -0.88727 0.011049
0.093216 0.063312 1.2666 7.0683e-39 412 325 0 0 0 -0.35069 0.23061 -0.90765 0.0091739
0.098155 0.063065 1.2666 8.0211e-39 406 325 0 0 0 -0.29645 0.21017 -0.93163 0.0058411
0.093017 0.065322 1.2673 6.6381e-39 213.5 326 0 0 0 -0.36221 0.23264 -0.9026 0.0093261
0.095192 0.065288 1.2666 6.5459e-39 215 326 0 0 0 -0.33579 0.22359 -0.91501 0.0080933
0.096674 0.065288 1.2666 6.4537e-39 216 326 0 0 0 -0.32276 0.219 -0.9208 0.007333
0.098896 0.065288 1.2666 6.7303e-39 217.5 326 0 0 0 -0.29435 0.21099 -0.93212 0.0057541
0.093064 0.066838 1.2679 8.2515e-39 362.5 326 0 0 0 -0.38083 0.23929 -0.89314 0.010065
0.095192 0.066769 1.2666 8.2976e-39 364 326 0 0 0 -0.34455 0.22455 -0.91152 0.0081836
0.096674 0.066769 1.2666 8.2976e-39 365 326 0 0 0 -0.32677 0.21908 -0.91936 0.0074434
0.098946 0.066804 1.2673 8.943e-39 366.5 326 0 0 0 -0.30042 0.21161 -0.93004 0.0061319
0.10112 0.066769 1.2666 9.5883e-39 368 326 0 0 0 -0.27135 0.20362 -0.94069 0.0040305
0.093064 0.068321 1.2679 7.0069e-39 417.5 326 0 0 0 -0.38733 0.24097 -0.8899 0.0097218
0.095192 0.068992 1.2666 6.592e-39 306.5 326.5 0 0 0 -0.35622 0.22799 -0.90616 0.0086402
0.096773 0.069063 1.2679 6.4998e-39 307.5 326.5 0 0 0 -0.33956 0.22538 -0.91318 0.0077482
0.098972 0.069045 1.2676 6.6381e-39 309 326.5 0 0 0 -0.3099 0.21566 -0.92598 0.0065908
0.10112 0.068992 1.2666 6.8225e-39 310.5 326.5 0 0 0 -0.2777 0.207 -0.9381 0.0044314
0.1026 0.068992 1.2666 6.8225e-39 311.5 326.5 0 0 0 -0.26812 0.20424 -0.94149 0.0036939
0.10457 0.069239 1.2666 7.0376e-39 275.33 326.67 0 0 0 -0.25424 0.19948 -0.94634 0.002942
0.095289 0.071288 1.2679 8.482e-39 261 327 0 0 0 -0.36811 0.23755 -0.89893 0.0084328
0.096773 0.071288 1.2679 8.482e-39 262 327 0 0 0 -0.35025 0.23334 -0.90713 0.0076337
0.098998 0.071288 1.2679 7.8827e-39 263.5 327 0 0 0 -0.32267 0.22573 -0.9192 0.0069661
0.10112 0.071215 1.2666 7.2835e-39 265 327 0 0 0 -0.28448 0.21414 -0.93446 0.0048087
0.1026 0.071215 1.2666 7.3757e-39 266 327 0 0 0 -0.2745 0.20774 -0.93888 0.0039394
0.10482 0.071215 1.2666 7.56e-39 267.5 327 0 0 0 -0.25926 0.20255 -0.94433 0.0033189
0.10853 0.071215 1.2666 8.6664e-39 352 327 0 0 0 -0.23841 0.193 -0.95179 0.0023631
0.095289 0.072772 1.2679 8.021e-39 399 327 0 0 0 -0.37862 0.24297 -0.89309 0.0077842
0.098998 0.072772 1.2679 7.053e-39 401.5 327 0 0 0 -0.32878 0.22911 -0.91619 0.0067271
0.10112 0.072697 1.2666 6.9147e-39 403 327 0 0 0 -0.29039 0.21918 -0.93147 0.004628
0.1026 0.072697 1.2666 6.9147e-39 404 327 0 0 0 -0.27921 0.21239 -0.93645 0.0040625
0.10482 0.072697 1.2666 7.1452e-39 405.5 327 0 0 0 -0.2638 0.20738 -0.94202 0.0034866
0.10705 0.072697 1.2666 7.0069e-39 407 327 0 0 0 -0.24931 0.19857 -0.94785 0.0028998
0.10853 0.072697 1.2666 6.7303e-39 408 327 0 0 0 -0.24218 0.19623 -0.95018 0.0025615
0.15166 0.072772 1.2679 6.7303e-39 153 328 0 0 0 0.51034 0.52522 -0.68095 0.023464
0.095289 0.074255 1.2679 6.5459e-39 172 328 0 0 0 -0.38246 0.24848 -0.88993 0.0074293
0.098998 0.074255 1.2679 6.4998e-39 174.5 328 0 0 0 -0.33313 0.23426 -0.91332 0.0066301
0.10117 0.074959 1.2673 7.053e-39 204 328 0 0 0 -0.30288 0.22732 -0.92552 0.0051797
0.1026 0.07492 1.2666 6.9608e-39 205 328 0 0 0 -0.28519 0.22017 -0.93284 0.0044448
0.10485 0.07494 1.2669 6.6842e-39 206.5 328 0 0 0 -0.27403 0.21322 -0.93779 0.0039827
0.10705 0.07492 1.2666 6.4998e-39 208 328 0 0 0 -0.25438 0.20491 -0.94515 0.003275
0.10853 0.07492 1.2666 6.5459e-39 209 328 0 0 0 -0.24773 0.19866 -0.94824 0.0029157
0.11001 0.075661 1.2666 7.4678e-39 238 328 0 0 0 -0.24073 0.1939 -0.95103 0.0024856
0.14862 0.074959 1.2673 7.8827e-39 281.5 328 0 0 0 0.40481 0.52425 -0.7492 0.035985
0.15002 0.074179 1.2666 7.3757e-39 209 328 0 0 0 0.44271 0.53002 -0.72325 0.032288
0.10122 0.077222 1.2679 8.021e-39 379 328 0 0 0 -0.31674 0.23639 -0.91858 0.0052396
0.10271 0.077222 1.2679 8.2976e-39 380 328 0 0 0 -0.30296 0.23103 -0.92457 0.0049511
0.10493 0.077222 1.2679 8.5742e-39 381.5 328 0 0 0 -0.28411 0.21995 -0.93322 0.0044267
0.10716 0.077222 1.2679 8.6664e-39 383 328 0 0 0 -0.26768 0.20863 -0.94065 0.0039254
0.10853 0.077143 1.2666 8.2976e-39 384 328 0 0 0 -0.25487 0.19987 -0.94609 0.0033124
0.11001 0.077143 1.2666 8.1132e-39 385 328 0 0 0 -0.24478 0.19554 -0.94966 0.0027621
0.10122 0.078705 1.2679 6.6381e-39 434 328 0 0 0 -0.32553 0.24169 -0.91412 0.0051377
0.10271 0.078705 1.2679 6.6381e-39 435 328 0 0 0 -0.3108 0.23487 -0.921 0.0049337
0.10493 0.078705 1.2679 6.6381e-39 147.5 329 0 0 0 -0.29239 0.2237 -0.92977 0.0045519
0.10716 0.078705 1.2679 6.1771e-39 149 329 0 0 0 -0.27484 0.21081 -0.9381 0.0042723
0.10853 0.078625 1.2666 6.6381e-39 150 329 0 0 0 -0.26093 0.20062 -0.94428 0.0036943
0.11075 0.078625 1.2666 6.7764e-39 151.5 329 0 0 0 -0.2462 0.19148 -0.95012 0.0029655
0.14721 0.078705 1.2679 5.9005e-39 176 329 0 0 0 0.39411 0.45462 -0.79875 0.044793
0.10122 0.080189 1.2679 6.6381e-39 203 329 0 0 0 -0.33324 0.24769 -0.90973 0.0052313
0.10271 0.080189 1.2679 6.4537e-39 204 329 0 0 0 -0.31762 0.24057 -0.9172 0.0049607
0.10493 0.080931 1.2679 7.2604e-39 238 329 0 0 0 -0.30369 0.23465 -0.92343 0.0050517
0.10716 0.080931 1.2679 7.8366e-39 277.5 329 0 0 0 -0.28789 0.22357 -0.9312 0.0050773
0.10853 0.080848 1.2666 7.7905e-39 278.5 329 0 0 0 -0.27128 0.20779 -0.9398 0.0044977
0.11075 0.080848 1.2666 7.7214e-39 280 329 0 0 0 -0.25326 0.19581 -0.94738 0.0037304
0.14566 0.08089 1.2673 8.0671e-39 304.5 329 0 0 0 0.36956 0.42154 -0.82809 0.046707
0.10493 0.083156 1.2679 7.0991e-39 405.5 329 0 0 0 -0.3181 0.24839 -0.91494 0.0060258
0.10716 0.083156 1.2679 7.0069e-39 407 329 0 0 0 -0.30407 0.23402 -0.92346 0.0058312
0.10853 0.08307 1.2666 6.9147e-39 408 329 0 0 0 -0.28697 0.21854 -0.93268 0.0055452
0.11075 0.08307 1.2666 6.5459e-39 409.5 329 0 0 0 -0.26594 0.20166 -0.94266 0.0046246
0.10419 0.084639 1.2679 6.7303e-39 169 330 0 0 0 -0.33256 0.26171 -0.90604 0.0059839
0.10716 0.084639 1.2679 6.7303e-39 171 330 0 0 0 -0.31352 0.24138 -0.91839 0.0062697
0.10864 0.084639 1.2679 6.6381e-39 172 330 0 0 0 -0.30229 0.23144 -0.92469 0.006302
0.11075 0.084552 1.2666 6.2693e-39 173.5 330 0 0 0 -0.27818 0.21271 -0.93668 0.0057376
0.11446 0.084552 1.2666 6.1771e-39 176 330 0 0 0 -0.24073 0.1891 -0.95199 0.0044826
0.14409 0.084552 1.2666 6.5459e-39 204 330 0 0 0 0.38157 0.35109 -0.85507 0.043938
0.10864 0.086865 1.2679 7.7905e-39 308 330 0 0 0 -0.31771 0.24924 -0.91484 0.0070272
0.11084 0.086842 1.2676 7.6753e-39 309.5 330 0 0 0 -0.29587 0.23022 -0.92707 0.0070838
0.11297 0.086775 1.2666 8.021e-39 311 330 0 0 0 -0.26949 0.21021 -0.93978 0.006427
0.11495 0.087022 1.2666 8.3283e-39 335.67 330 0 0 0 -0.25326 0.19984 -0.94653 0.0061305
0.14409 0.086775 1.2666 7.514e-39 336 330 0 0 0 0.41261 0.31807 -0.85357 0.040686
0.10864 0.089089 1.2679 5.8083e-39 143 331 0 0 0 -0.33092 0.26254 -0.9064 0.0078614
0.11086 0.089089 1.2679 6.1771e-39 144.5 331 0 0 0 -0.31455 0.24649 -0.91668 0.0080914
0.11297 0.088998 1.2666 6.4537e-39 146 331 0 0 0 -0.28792 0.22087 -0.93183 0.0076184
0.1152 0.088998 1.2666 6.1771e-39 147.5 331 0 0 0 -0.26184 0.20425 -0.94325 0.0072005
0.14113 0.088998 1.2666 6.0849e-39 165 331 0 0 0 0.36246 0.27641 -0.89007 0.041672
0.14424 0.089089 1.2679 6.1771e-39 167 331 0 0 0 0.48811 0.2955 -0.82123 0.037028
0.11086 0.090573 1.2679 7.053e-39 215.5 331 0 0 0 -0.32586 0.25103 -0.91148 0.0084618
0.11297 0.09048 1.2666 7.2835e-39 217 331 0 0 0 -0.29904 0.22871 -0.92643 0.008244
0.1152 0.091221 1.2666 8.0441e-39 287 331 0 0 0 -0.27995 0.21618 -0.93536 0.0082992
0.11742 0.091221 1.2666 7.9749e-39 288.5 331 0 0 0 -0.24629 0.19851 -0.94865 0.0070821
0.12038 0.091221 1.2666 7.6061e-39 290.5 331 0 0 0 -0.20759 0.18238 -0.96106 0.006468
0.14113 0.091221 1.2666 7.514e-39 305.5 331 0 0 0 0.38443 0.26092 -0.88551 0.040956
0.14261 0.091221 1.2666 7.4679e-39 306.5 331 0 0 0 0.43019 0.27176 -0.86086 0.038803
0.14424 0.090573 1.2679 7.6522e-39 238 331 0 0 0 0.50209 0.27818 -0.81886 0.036858
0.11012 0.092798 1.2679 7.9288e-39 384.5 331 0 0 0 -0.34667 0.26816 -0.89884 0.0087816
0.11309 0.092798 1.2679 7.7905e-39 386.5 331 0 0 0 -0.32409 0.24714 -0.91318 0.0091248
0.11457 0.09354 1.2679 6.5459e-39 420 331 0 0 0 -0.3118 0.23687 -0.92015 0.0095134
0.11674 0.093492 1.2673 6.7303e-39 421.5 331 0 0 0 -0.27885 0.21987 -0.93483 0.009005
0.1189 0.093444 1.2666 7.0069e-39 423 331 0 0 0 -0.24822 0.20101 -0.94762 0.0079395
0.12038 0.093444 1.2666 7.3757e-39 424 331 0 0 0 -0.22067 0.194 -0.95586 0.0079805
0.13965 0.093444 1.2666 5.7161e-39 141 332 0 0 0 0.35412 0.24096 -0.90363 0.040845
0.14128 0.09354 1.2679 5.7161e-39 142 332 0 0 0 0.42541 0.25377 -0.86869 0.038615
0.14261 0.093444 1.2666 5.7161e-39 143 332 0 0 0 0.4529 0.25323 -0.85484 0.037892
0.14424 0.092798 1.2679 6.638e-39 260.5 331.5 0 0 0 0.5188 0.26357 -0.81325 0.034691
0.11309 0.095023 1.2679 6.5459e-39 203 332 0 0 0 -0.33714 0.25874 -0.9052 0.0093161
0.11457 0.095023 1.2679 6.7303e-39 204 332 0 0 0 -0.32035 0.24283 -0.91565 0.010028
0.11674 0.094975 1.2673 6.8686e-39 205.5 332 0 0 0 -0.28591 0.22333 -0.93187 0.0092702
0.1189 0.094926 1.2666 7.56e-39 207 332 0 0 0 -0.25937 0.21107 -0.94243 0.0085992
0.12038 0.094926 1.2666 7.6522e-39 208 332 0 0 0 -0.22487 0.20058 -0.95352 0.009012
0.12335 0.094926 1.2666 7.0069e-39 210 332 0 0 0 -0.15546 0.19263 -0.96888 0.0092482
0.13891 0.094926 1.2666 7.4218e-39 220.5 332 0 0 0 0.3572 0.22618 -0.90623 0.038706
0.14128 0.095023 1.2679 7.0069e-39 222 332 0 0 0 0.44089 0.23368 -0.86661 0.037896
0.14261 0.094926 1.2666 6.9147e-39 223 332 0 0 0 0.46707 0.24195 -0.85047 0.036177
0.14424 0.095023 1.2679 7.0069e-39 224 332 0 0 0 0.53824 0.24171 -0.80739 0.032912
0.11309 0.097248 1.2679 6.7764e-39 342 332 0 0 0 -0.35578 0.27335 -0.8937 0.0095134
0.11457 0.097248 1.2679 6.8686e-39 343 332 0 0 0 -0.33756 0.2633 -0.90373 0.0096504
0.11677 0.097224 1.2676 7.3757e-39 361.25 332 0 0 0 -0.30701 0.24706 -0.91908 0.010179
0.1189 0.097149 1.2666 8.1132e-39 379.5 332 0 0 0 -0.27124 0.22669 -0.93543 0.0098966
0.12113 0.097149 1.2666 8.1363e-39 381 332 0 0 0 -0.22756 0.21483 -0.94977 0.0093879
0.12335 0.097149 1.2666 8.2054e-39 382.5 332 0 0 0 -0.15968 0.20521 -0.9656 0.009966
0.12483 0.097149 1.2666 8.021e-39 383.5 332 0 0 0 -0.12707 0.20541 -0.97039 0.011129
0.12928 0.09789 1.2666 6.5459e-39 420 332 0 0 0 -0.015281 0.20683 -0.97826 0.0152
0.13898 0.097199 1.2673 7.4679e-39 393 332 0 0 0 0.38566 0.2151 -0.89721 0.038253
0.14128 0.096507 1.2679 8.1132e-39 361 332 0 0 0 0.45361 0.22536 -0.86224 0.035906
0.14276 0.097248 1.2679 7.4218e-39 395.5 332 0 0 0 0.51371 0.23584 -0.82491 0.033893
0.14424 0.096507 1.2679 8.2976e-39 363 332 0 0 0 0.54385 0.23264 -0.80629 0.031154
0.11754 0.099473 1.2679 7.8366e-39 198 333 0 0 0 -0.31132 0.26581 -0.91237 0.010687
0.1189 0.099371 1.2666 7.7444e-39 199 333 0 0 0 -0.28949 0.24958 -0.92407 0.010391
0.12112 0.099371 1.2666 6.9608e-39 200.5 333 0 0 0 -0.23179 0.23593 -0.94372 0.010743
0.12335 0.099371 1.2666 6.3615e-39 202 333 0 0 0 -0.16261 0.22982 -0.95955 0.011736
0.12483 0.099371 1.2666 6.3615e-39 203 333 0 0 0 -0.12751 0.22126 -0.96684 0.012279
0.12928 0.099371 1.2666 6.7303e-39 206 333 0 0 0 -0.021687 0.21543 -0.97628 0.014488
0.13224 0.099371 1.2666 7.56e-39 208 333 0 0 0 0.088005 0.21027 -0.97367 0.024775
0.13898 0.099422 1.2673 6.9608e-39 212.5 333 0 0 0 0.39504 0.21304 -0.89362 0.035674
0.14276 0.099473 1.2679 7.56e-39 215 333 0 0 0 0.5166 0.22368 -0.82649 0.033311
0.11754 0.10096 1.2679 7.7444e-39 265 333 0 0 0 -0.31814 0.2761 -0.90695 0.011078
0.11902 0.10096 1.2679 7.4678e-39 266 333 0 0 0 -0.29449 0.26934 -0.91692 0.011432
0.12112 0.10085 1.2666 7.4679e-39 267.5 333 0 0 0 -0.24271 0.25427 -0.93618 0.011651
0.12335 0.10085 1.2666 7.56e-39 269 333 0 0 0 -0.17517 0.24409 -0.9538 0.013129
0.12483 0.10085 1.2666 7.6522e-39 270 333 0 0 0 -0.13712 0.23748 -0.96167 0.013133
0.12928 0.10085 1.2666 7.2835e-39 273 333 0 0 0 -0.029837 0.22649 -0.97356 0.014237
0.13224 0.10085 1.2666 7.1913e-39 275 333 0 0 0 0.074657 0.22308 -0.97194 0.02343
0.13898 0.10091 1.2673 8.482e-39 344.5 333 0 0 0 0.39542 0.204 -0.89556 0.03615
0.11902 0.10244 1.2679 7.2835e-39 399 333 0 0 0 -0.30366 0.29076 -0.90733 0.011792
0.12122 0.10316 1.2676 6.7303e-39 298 333.5 0 0 0 -0.26432 0.28781 -0.92049 0.01324
0.12335 0.10308 1.2666 7.0991e-39 299.5 333.5 0 0 0 -0.19078 0.27115 -0.94344 0.014562
0.12489 0.10313 1.2673 7.4218e-39 300.5 333.5 0 0 0 -0.15057 0.26749 -0.95172 0.015106
0.12779 0.10382 1.2666 7.3757e-39 200 334 0 0 0 -0.069531 0.25833 -0.96355 0.015856
0.12928 0.10308 1.2666 6.6381e-39 303.5 333.5 0 0 0 -0.040354 0.24747 -0.96805 0.014671
0.13076 0.10308 1.2666 6.4076e-39 304.5 333.5 0 0 0 0.012655 0.24729 -0.96886 0.020946
0.13273 0.10333 1.2666 6.423e-39 271.67 333.67 0 0 0 0.077953 0.23985 -0.96768 0.024372
0.1352 0.10382 1.2666 6.1771e-39 205 334 0 0 0 0.21342 0.22883 -0.94978 0.034644
0.1388 0.10293 1.2679 7.0069e-39 344 333.33 0 0 0 0.39239 0.21422 -0.8945 0.037053
0.12125 0.10541 1.2679 8.4359e-39 260.5 334 0 0 0 -0.27446 0.31238 -0.90945 0.013445
0.12335 0.1053 1.2666 8.7586e-39 262 334 0 0 0 -0.21152 0.2972 -0.93109 0.014509
0.12496 0.10541 1.2679 8.5742e-39 263 334 0 0 0 -0.15258 0.29494 -0.94325 0.016957
0.12779 0.1053 1.2666 7.8366e-39 265 334 0 0 0 -0.07643 0.27491 -0.95843 0.017096
0.12928 0.1053 1.2666 7.6522e-39 266 334 0 0 0 -0.051787 0.27121 -0.96113 0.016674
0.13076 0.1053 1.2666 7.56e-39 267 334 0 0 0 -0.014828 0.26778 -0.96337 0.018855
0.13298 0.1053 1.2666 7.6983e-39 268.5 334 0 0 0 0.066893 0.25569 -0.96444 0.023566
0.1352 0.1053 1.2666 8.021e-39 270 334 0 0 0 0.20136 0.24505 -0.94837 0.033842
0.13668 0.1053 1.2666 8.482e-39 271 334 0 0 0 0.27445 0.23676 -0.932 0.036179
0.13831 0.10541 1.2679 8.021e-39 272 334 0 0 0 0.35079 0.23655 -0.90609 0.039349
0.12125 0.10689 1.2679 7.8827e-39 392.5 334 0 0 0 -0.27888 0.3282 -0.9025 0.013863
0.12347 0.10689 1.2679 8.021e-39 394 334 0 0 0 -0.2256 0.31888 -0.92056 0.015383
0.12496 0.10689 1.2679 7.8366e-39 395 334 0 0 0 -0.16212 0.30815 -0.93742 0.016467
0.12705 0.10678 1.2666 7.4218e-39 396.5 334 0 0 0 -0.10152 0.29065 -0.95143 0.017918
0.12928 0.10678 1.2666 7.1913e-39 398 334 0 0 0 -0.053056 0.28117 -0.95819 0.017379
0.13076 0.10678 1.2666 7.0991e-39 399 334 0 0 0 -0.029524 0.27815 -0.96008 0.018472
0.13298 0.10678 1.2666 7.0991e-39 400.5 334 0 0 0 0.063107 0.26634 -0.96181 0.024565
0.1352 0.10678 1.2666 7.2835e-39 402 334 0 0 0 0.18523 0.25167 -0.94992 0.032086
0.13668 0.10678 1.2666 7.56e-39 403 334 0 0 0 0.26786 0.24399 -0.93205 0.034284
0.13831 0.10689 1.2679 7.4678e-39 404 334 0 0 0 0.34905 0.2454 -0.9044 0.040116
0.12347 0.10837 1.2679 6.9147e-39 160 335 0 0 0 -0.23485 0.3327 -0.91332 0.015675
0.12496 0.10912 1.2679 7.3296e-39 203 335 0 0 0 -0.18126 0.33162 -0.92584 0.018325
0.12708 0.10903 1.2669 7.514e-39 204.5 335 0 0 0 -0.11332 0.31481 -0.94237 0.020116
0.12941 0.10912 1.2679 7.6061e-39 206.5 335 0 0 0 -0.065313 0.30968 -0.9486 0.02017
0.13089 0.10912 1.2679 7.3757e-39 207.5 335 0 0 0 -0.029571 0.30348 -0.95238 0.021024
0.13312 0.10912 1.2679 7.1682e-39 215.5 335 0 0 0 0.054366 0.28701 -0.95638 0.028813
0.13534 0.10912 1.2679 6.8685e-39 223.5 335 0 0 0 0.18132 0.27424 -0.94442 0.036841
0.13676 0.10906 1.2673 6.8685e-39 224.5 335 0 0 0 0.26509 0.26389 -0.92741 0.039055
0.13831 0.10837 1.2679 6.7303e-39 197 335 0 0 0 0.33807 0.2502 -0.90725 0.040741
0.12718 0.11134 1.2679 7.9749e-39 374.5 335 0 0 0 -0.13275 0.33297 -0.93355 0.021517
0.12941 0.11134 1.2679 8.021e-39 376 335 0 0 0 -0.077255 0.32302 -0.94323 0.022283
0.098357 0.035723 1.2692 7.6522e-39 363 317 0 0 0 -0.17562 -0.34929 -0.92041 0.028233
0.10133 0.035723 1.2692 6.0849e-39 365 317 0 0 0 -0.16358 -0.40464 -0.89973 0.032719
0.1043 0.035723 1.2692 5.7161e-39 367 317 0 0 0 -0.16786 -0.46202 -0.87084 0.033314
0.10727 0.034238 1.2692 1.1156e-38 369 315 0 0 0 -0.16242 -0.57961 -0.79855 0.02728
0.10875 0.034238 1.2692 1.0326e-38 370 315 0 0 0 -0.17015 -0.58956 -0.7896 0.027457
0.11172 0.034238 1.2692 1.2723e-38 372 315 0 0 0 -0.15657 -0.63023 -0.76046 0.028655
0.12063 0.034238 1.2692 5.0708e-39 366 316 0 0 0 -0.079552 -0.80639 -0.586 0.011175
0.12509 0.034238 1.2692 6.6381e-39 369 316 0 0 0 -0.035505 -0.85638 -0.51513 0.0058726
0.12657 0.034238 1.2692 6.6381e-39 370 316 0 0 0 -0.022398 -0.86474 -0.50171 0.0054248
0.1288 0.034238 1.2692 7.9749e-39 371.5 316 0 0 0 0.014252 -0.8821 -0.47085 0.0060672
0.13994 0.034238 1.2692 1.0326e-38 379 316 0 0 0 0.22725 -0.87396 -0.4296 0.022871
0.087963 0.037208 1.2692 6.3615e-39 411 317 0 0 0 -0.24494 -0.19636 -0.94945 0.028283
0.089447 0.037208 1.2692 6.7303e-39 412 317 0 0 0 -0.23347 -0.20596 -0.9503 0.027843
0.090932 0.037208 1.2692 6.8225e-39 413 317 0 0 0 -0.22857 -0.22415 -0.94737 0.027027
0.093902 0.037208 1.2692 6.6381e-39 415 317 0 0 0 -0.21346 -0.24741 -0.9451 0.024381
0.095387 0.037208 1.2692 6.5459e-39 416 317 0 0 0 -0.1986 -0.26372 -0.94393 0.025727
0.14736 0.037208 1.2692 5.8083e-39 390 318 0 0 0 0.3775 -0.80021 -0.46599 0.02391
0.14885 0.038693 1.2692 7.7444e-39 374 319 0 0 0 0.40025 -0.78193 -0.47791 0.022349
0.15033 0.041663 1.2692 4.241e-39 397 320 0 0 0 0.46405 -0.7402 -0.48658 0.017586
0.15182 0.044632 1.2692 4.702e-39 397 321 0 0 0 0.51276 -0.70407 -0.49129 0.013588
0.079053 0.047602 1.2692 5.9005e-39 209 322 0 0 0 -0.45079 0.098172 -0.88721 0.029694
0.079053 0.049087 1.2692 8.8508e-39 364 322 0 0 0 -0.46373 0.13546 -0.87556 0.026267
0.080538 0.050572 1.2692 7.1913e-39 417 322 0 0 0 -0.45323 0.14626 -0.87931 0.024173
0.082023 0.050572 1.2692 7.2835e-39 418 322 0 0 0 -0.43915 0.13437 -0.88831 0.025931
0.080538 0.0528 1.2692 7.9288e-39 292.5 323 0 0 0 -0.45876 0.19299 -0.86735 0.018076
0.082023 0.0528 1.2692 8.1132e-39 293.5 323 0 0 0 -0.44851 0.17755 -0.87596 0.020214
0.083508 0.055027 1.2692 6.7303e-39 423 323 0 0 0 -0.44109 0.21233 -0.87198 0.015095
0.083508 0.056512 1.2692 6.9147e-39 220 324 0 0 0 -0.44565 0.22941 -0.86531 0.012305
0.084993 0.057997 1.2692 8.943e-39 376 324 0 0 0 -0.43664 0.24419 -0.86586 0.011023
0.086478 0.057997 1.2692 8.943e-39 377 324 0 0 0 -0.42633 0.23716 -0.87292 0.011485
0.084993 0.059482 1.2692 6.0849e-39 432 324 0 0 0 -0.43866 0.26351 -0.85915 0.0097599
0.087221 0.059482 1.2692 6.4998e-39 433.5 324 0 0 0 -0.428 0.25036 -0.86841 0.010644
0.084993 0.060967 1.2692 6.2693e-39 216 325 0 0 0 -0.44175 0.26722 -0.85642 0.0091154
0.087221 0.060967 1.2692 6.4998e-39 217.5 325 0 0 0 -0.43221 0.26213 -0.86283 0.0097648
0.087963 0.062452 1.2692 8.2976e-39 371 325 0 0 0 -0.42778 0.26056 -0.86552 0.0094541
0.089447 0.063937 1.2692 6.2693e-39 428 325 0 0 0 -0.42537 0.25797 -0.86748 0.0098635
0.089447 0.065422 1.2692 6.6381e-39 211 326 0 0 0 -0.43753 0.26208 -0.86016 0.0095009
0.090932 0.065422 1.2692 6.8225e-39 212 326 0 0 0 -0.41383 0.2501 -0.87532 0.010599
0.090932 0.066907 1.2692 8.1132e-39 361 326 0 0 0 -0.42124 0.25251 -0.87109 0.0099518
0.093159 0.069877 1.2692 6.4076e-39 192.5 327 0 0 0 -0.40517 0.2473 -0.88016 0.0093305
0.093159 0.071362 1.2692 7.9288e-39 259.5 327 0 0 0 -0.40673 0.25121 -0.87833 0.0083473
0.093902 0.072847 1.2692 8.482e-39 398 327 0 0 0 -0.39852 0.24933 -0.88262 0.0081176
0.096872 0.072847 1.2692 7.4678e-39 400 327 0 0 0 -0.35936 0.23739 -0.9025 0.0074377
0.095387 0.075816 1.2692 7.4678e-39 228 328 0 0 0 -0.38914 0.25553 -0.88503 0.0068857
0.096872 0.075073 1.2692 6.8686e-39 201 328 0 0 0 -0.36967 0.24796 -0.89546 0.007247
0.0991 0.075816 1.2692 7.053e-39 230.5 328 0 0 0 -0.34638 0.24163 -0.90644 0.0065807
0.15033 0.075816 1.2692 8.2054e-39 356 328 0 0 0 0.50264 0.48629 -0.71476 0.029697
0.095387 0.077301 1.2692 9.404e-39 375 328 0 0 0 -0.39163 0.25879 -0.88298 0.0068451
0.0991 0.077301 1.2692 8.6664e-39 377.5 328 0 0 0 -0.35252 0.24757 -0.90246 0.0064263
0.14885 0.077301 1.2692 7.1913e-39 411 328 0 0 0 0.45514 0.4574 -0.76396 0.038955
0.095387 0.078786 1.2692 6.6381e-39 430 328 0 0 0 -0.39536 0.26308 -0.88005 0.0063674
0.0991 0.078786 1.2692 6.4998e-39 432.5 328 0 0 0 -0.35428 0.25532 -0.89961 0.0059978
0.099347 0.080766 1.2692 7.3142e-39 223.33 329 0 0 0 -0.3547 0.26319 -0.89717 0.0055056
0.10133 0.081756 1.2692 7.9288e-39 268 329 0 0 0 -0.34484 0.26327 -0.90099 0.0054341
0.10281 0.081756 1.2692 7.8366e-39 269 329 0 0 0 -0.33008 0.25528 -0.90878 0.0055439
0.14736 0.080271 1.2692 7.6522e-39 234 329 0 0 0 0.43326 0.42213 -0.7963 0.04059
0.099842 0.083241 1.2692 7.1913e-39 402 329 0 0 0 -0.3576 0.27748 -0.8917 0.0054169
0.10133 0.083241 1.2692 7.3757e-39 403 329 0 0 0 -0.35036 0.27084 -0.8966 0.0056092
0.10281 0.083241 1.2692 7.0991e-39 404 329 0 0 0 -0.33682 0.26401 -0.9038 0.0056692
0.10133 0.084726 1.2692 5.9005e-39 167 330 0 0 0 -0.35614 0.28299 -0.89055 0.0058768
0.10281 0.084726 1.2692 6.2693e-39 168 330 0 0 0 -0.34424 0.27865 -0.89658 0.0061001
0.10578 0.084726 1.2692 6.9147e-39 170 330 0 0 0 -0.32717 0.25789 -0.90909 0.0066381
0.10479 0.086706 1.2692 7.7444e-39 282 330 0 0 0 -0.34636 0.27898 -0.89566 0.0066977
0.10727 0.086954 1.2692 7.5601e-39 307 330 0 0 0 -0.33459 0.26419 -0.90458 0.0071258
0.10875 0.090666 1.2692 7.8366e-39 214 331 0 0 0 -0.35057 0.27272 -0.89595 0.0079945
0.10875 0.092893 1.2692 7.9749e-39 383.5 331 0 0 0 -0.36657 0.2856 -0.88547 0.0080329
0.11172 0.092893 1.2692 7.9288e-39 385.5 331 0 0 0 -0.34142 0.26337 -0.90226 0.009005
0.11098 0.095121 1.2692 6.7303e-39 201.5 332 0 0 0 -0.36576 0.28102 -0.88727 0.0087104
0.11098 0.096606 1.2692 7.0991e-39 273.5 332 0 0 0 -0.37683 0.29136 -0.87927 0.0083371
0.11098 0.098091 1.2692 6.592e-39 407.5 332 0 0 0 -0.38379 0.30388 -0.87199 0.0084472
0.11321 0.099576 1.2692 6.6381e-39 195 333 0 0 0 -0.3771 0.2993 -0.87648 0.0095954
0.11469 0.099576 1.2692 6.8225e-39 196 333 0 0 0 -0.35896 0.2896 -0.88729 0.010432
0.11618 0.099576 1.2692 7.3757e-39 197 333 0 0 0 -0.33838 0.2824 -0.89763 0.010649
0.14142 0.098834 1.2692 7.2374e-39 321 332.5 0 0 0 0.50405 0.21819 -0.83566 0.034618
0.14439 0.098834 1.2692 6.9147e-39 323 332.5 0 0 0 0.57751 0.22261 -0.78545 0.028854
0.11321 0.10106 1.2692 8.1132e-39 262 333 0 0 0 -0.38472 0.31398 -0.86799 0.009105
0.11469 0.10106 1.2692 8.1132e-39 263 333 0 0 0 -0.37179 0.30509 -0.87675 0.010117
0.11618 0.10106 1.2692 8.1132e-39 264 333 0 0 0 -0.34808 0.2944 -0.89004 0.011166
0.14142 0.10106 1.2692 8.8508e-39 346 333 0 0 0 0.50777 0.21992 -0.83295 0.034509
0.14291 0.10106 1.2692 8.7586e-39 347 333 0 0 0 0.55334 0.22013 -0.80334 0.032325
0.14439 0.10106 1.2692 8.6664e-39 348 333 0 0 0 0.58499 0.22014 -0.78059 0.029255
0.11692 0.10255 1.2692 7.4679e-39 397.5 333 0 0 0 -0.3412 0.30638 -0.88866 0.011337
0.14142 0.10255 1.2692 7.6522e-39 414 333 0 0 0 0.50306 0.21575 -0.83689 0.035285
0.11766 0.10477 1.2692 7.4679e-39 213 334 0 0 0 -0.34149 0.32818 -0.88073 0.0111
0.11915 0.10477 1.2692 7.5601e-39 226.5 334 0 0 0 -0.31959 0.32414 -0.89039 0.012112
0.13994 0.10477 1.2692 7.3757e-39 240.5 334 0 0 0 0.45798 0.22902 -0.85895 0.038481
0.11915 0.107 1.2692 7.6522e-39 391 334 0 0 0 -0.33112 0.345 -0.87825 0.011523
0.12063 0.10923 1.2692 6.9608e-39 200 335 0 0 0 -0.31017 0.35656 -0.88129 0.012518
0.12286 0.10923 1.2692 6.9147e-39 201.5 335 0 0 0 -0.26497 0.34987 -0.89854 0.015188
0.13845 0.10997 1.2692 7.6522e-39 254 335 0 0 0 0.36771 0.26878 -0.89025 0.045844
0.1236 0.11146 1.2692 7.8366e-39 372 335 0 0 0 -0.25609 0.35949 -0.89732 0.015364
0.12509 0.11146 1.2692 7.9288e-39 373 335 0 0 0 -0.21001 0.35307 -0.91172 0.018701
0.13103 0.11146 1.2692 7.6522e-39 377 335 0 0 0 -0.048335 0.32074 -0.94593 0.023322
0.13251 0.11146 1.2692 7.3757e-39 378 335 0 0 0 0.005927 0.31089 -0.95043 0.028998
0.13474 0.11146 1.2692 7.2835e-39 379.5 335 0 0 0 0.14501 0.30072 -0.94262 0.04047
0.13697 0.11146 1.2692 7.6522e-39 381 335 0 0 0 0.2861 0.28678 -0.91428 0.046053
0.12509 0.11294 1.2692 7.0991e-39 434 335 0 0 0 -0.21313 0.36432 -0.90656 0.020102
0.12657 0.11294 1.2692 6.5459e-39 139 336 0 0 0 -0.17699 0.35713 -0.91713 0.021408
0.1288 0.11294 1.2692 6.3154e-39 140.5 336 0 0 0 -0.11563 0.33559 -0.93488 0.024217
0.13103 0.11294 1.2692 6.3615e-39 142 336 0 0 0 -0.063273 0.31991 -0.94533 0.025556
0.13251 0.11294 1.2692 6.2693e-39 143 336 0 0 0 -0.01216 0.31705 -0.94833 0.027831
0.134 0.11294 1.2692 6.2693e-39 144 336 0 0 0 0.057599 0.3081 -0.94961 0.036596
0.12657 0.11443 1.2692 7.56e-39 225 336 0 0 0 -0.18899 0.35854 -0.91418 0.020934
0.1288 0.11443 1.2692 7.1452e-39 226.5 336 0 0 0 -0.1281 0.34097 -0.9313 0.026214
0.134 0.11517 1.2692 7.7444e-39 288.5 336 0 0 0 0.020908 0.31498 -0.94887 0.032871
0.134 0.1174 1.2692 8.1132e-39 413 336 0 0 0 0.0088268 0.31709 -0.94836 0.035246
0.11344 0.03282 1.2719 1.4014e-38 365 314 0 0 0 -0.10676 -0.76612 -0.63377 0.014162
0.089632 0.035796 1.2719 8.482e-39 356 317 0 0 0 -0.2264 -0.2649 -0.93732 0.027034
0.09112 0.035796 1.2719 8.482e-39 358 317 0 0 0 -0.21504 -0.27596 -0.93681 0.027281
0.092512 0.035759 1.2705 7.6522e-39 359 317 0 0 0 -0.20897 -0.27765 -0.93768 0.0258
0.094791 0.035778 1.2712 7.2835e-39 360.5 317 0 0 0 -0.19174 -0.31556 -0.92933 0.025213
0.096972 0.035759 1.2705 7.56e-39 362 317 0 0 0 -0.17517 -0.35098 -0.91985 0.028648
0.099945 0.035759 1.2705 7.0069e-39 364 317 0 0 0 -0.16616 -0.39697 -0.90267 0.028473
0.106 0.034308 1.2719 1.1985e-38 368 315 0 0 0 -0.15138 -0.5654 -0.81081 0.027498
0.11035 0.034273 1.2705 1.0879e-38 371 315 0 0 0 -0.1584 -0.61685 -0.77098 0.027178
0.1313 0.034308 1.2719 1.0971e-38 373 316 0 0 0 0.067865 -0.90428 -0.42152 0.007272
0.13278 0.034308 1.2719 1.1801e-38 374 316 0 0 0 0.092865 -0.90653 -0.41179 0.0092183
0.13487 0.034273 1.2705 1.0694e-38 375.5 316 0 0 0 0.15032 -0.90131 -0.40625 0.016107
0.13711 0.034273 1.2705 1.0326e-38 377 316 0 0 0 0.18536 -0.89592 -0.40368 0.019589
0.13859 0.034273 1.2705 1.051e-38 378 316 0 0 0 0.20395 -0.88819 -0.41174 0.021833
0.14171 0.034308 1.2719 1.1985e-38 380 316 0 0 0 0.26945 -0.8608 -0.43176 0.028122
0.14305 0.034273 1.2705 6.3615e-39 413 316 0 0 0 0.28659 -0.84971 -0.44256 0.027774
0.14469 0.034308 1.2719 6.3615e-39 414 316 0 0 0 0.3145 -0.83761 -0.44666 0.03016
0.14684 0.035778 1.2712 6.8686e-39 395.5 317 0 0 0 0.36894 -0.80686 -0.46137 0.028467
0.086567 0.037246 1.2705 5.7161e-39 410 317 0 0 0 -0.25031 -0.17689 -0.95187 0.032031
0.149 0.037246 1.2705 5.9927e-39 391 318 0 0 0 0.41725 -0.7786 -0.46872 0.024375
0.15064 0.037284 1.2719 6.9147e-39 392 318 0 0 0 0.43246 -0.76464 -0.47781 0.028666
0.15049 0.038732 1.2705 7.1913e-39 375 319 0 0 0 0.44416 -0.76468 -0.4669 0.023927
0.15049 0.040219 1.2705 6.0849e-39 211 320 0 0 0 0.46572 -0.74531 -0.47709 0.020096
0.15213 0.041748 1.2719 4.7942e-39 398 320 0 0 0 0.51207 -0.70726 -0.48741 0.018753
0.15197 0.043192 1.2705 7.6522e-39 234 321 0 0 0 0.5117 -0.70805 -0.48665 0.015024
0.077648 0.049138 1.2705 9.1274e-39 363 322 0 0 0 -0.4788 0.15365 -0.86438 0.026168
0.076944 0.05065 1.2712 6.8686e-39 414.5 322 0 0 0 -0.48137 0.19853 -0.85374 0.020622
0.079134 0.050624 1.2705 6.9147e-39 416 322 0 0 0 -0.47027 0.16373 -0.8672 0.024556
0.076984 0.052908 1.2719 7.4448e-39 290 323 0 0 0 -0.47875 0.24387 -0.8434 0.014901
0.079134 0.052854 1.2705 7.4679e-39 291.5 323 0 0 0 -0.46951 0.21642 -0.85599 0.016485
0.079216 0.05514 1.2719 7.3757e-39 420 323 0 0 0 -0.47185 0.25192 -0.84492 0.012172
0.080621 0.055084 1.2705 6.8225e-39 421 323 0 0 0 -0.46247 0.23352 -0.85533 0.013147
0.082107 0.055084 1.2705 6.6381e-39 422 323 0 0 0 -0.45462 0.22202 -0.86257 0.014138
0.079216 0.056628 1.2719 6.4537e-39 217 324 0 0 0 -0.47004 0.27394 -0.83906 0.0094024
0.080704 0.056628 1.2719 6.4537e-39 218 324 0 0 0 -0.46269 0.26063 -0.84734 0.0098598
0.082192 0.056628 1.2719 6.9147e-39 219 324 0 0 0 -0.46088 0.24987 -0.85156 0.010911
0.080704 0.058116 1.2719 9.0352e-39 373 324 0 0 0 -0.46517 0.27497 -0.84143 0.0088197
0.083127 0.058572 1.271 7.7752e-39 393.33 324 0 0 0 -0.44969 0.26562 -0.85277 0.0092511
0.08368 0.061092 1.2719 6.2693e-39 215 325 0 0 0 -0.45509 0.27569 -0.84669 0.0081512
0.08508 0.062516 1.2705 9.0352e-39 369 325 0 0 0 -0.44723 0.27227 -0.85197 0.0082705
0.086567 0.062516 1.2705 8.482e-39 370 325 0 0 0 -0.44106 0.26859 -0.85634 0.0086399
0.085168 0.064813 1.2719 6.6842e-39 316.5 325.5 0 0 0 -0.45373 0.27343 -0.84815 0.0076314
0.086611 0.06478 1.2712 6.592e-39 317.5 325.5 0 0 0 -0.44827 0.27346 -0.85104 0.0078998
0.088053 0.064746 1.2705 6.4076e-39 318.5 325.5 0 0 0 -0.43929 0.26825 -0.85736 0.008377
0.086656 0.067045 1.2719 8.5742e-39 358 326 0 0 0 -0.45276 0.26862 -0.85021 0.007297
0.088841 0.067011 1.2712 8.021e-39 359.5 326 0 0 0 -0.44945 0.26224 -0.85395 0.0080775
0.086656 0.068533 1.2719 7.1913e-39 413 326 0 0 0 -0.45605 0.26086 -0.85087 0.0070446
0.089074 0.068981 1.271 6.6688e-39 339.67 326.33 0 0 0 -0.45255 0.2562 -0.85414 0.0077306
0.091026 0.069206 1.2705 6.592e-39 303.5 326.5 0 0 0 -0.43116 0.25245 -0.86624 0.0090184
0.086656 0.070021 1.2719 6.3615e-39 188 327 0 0 0 -0.46018 0.25485 -0.85046 0.0070251
0.088888 0.070765 1.2719 7.3296e-39 223 327 0 0 0 -0.45196 0.25239 -0.85559 0.0074753
0.09112 0.071509 1.2719 8.2054e-39 258 327 0 0 0 -0.43956 0.25201 -0.86214 0.0080033
0.089632 0.072997 1.2719 7.4678e-39 395 327 0 0 0 -0.44709 0.24772 -0.8595 0.0073422
0.09112 0.072997 1.2719 7.8366e-39 396 327 0 0 0 -0.43872 0.24964 -0.86325 0.0076928
0.092512 0.072921 1.2705 8.6664e-39 397 327 0 0 0 -0.42196 0.25144 -0.87105 0.0082199
0.089632 0.074485 1.2719 6.1771e-39 168 328 0 0 0 -0.44508 0.24749 -0.86061 0.0072563
0.09112 0.074485 1.2719 6.7303e-39 169 328 0 0 0 -0.43478 0.25158 -0.86468 0.007452
0.093255 0.075151 1.2705 7.2143e-39 198.5 328 0 0 0 -0.41454 0.25516 -0.87352 0.0071943
0.15197 0.074408 1.2705 7.0991e-39 210 328 0 0 0 0.6226 0.46523 -0.62923 0.012301
0.15213 0.075973 1.2719 8.2976e-39 357 328 0 0 0 0.63786 0.43352 -0.63655 0.013353
0.093304 0.077421 1.2712 9.1274e-39 373.5 328 0 0 0 -0.41816 0.26125 -0.86999 0.0066689
0.096972 0.077381 1.2705 9.1274e-39 376 328 0 0 0 -0.38293 0.25834 -0.88692 0.0066469
0.15049 0.077381 1.2705 7.2835e-39 412 328 0 0 0 0.52147 0.45176 -0.72387 0.029927
0.093304 0.078908 1.2712 6.8686e-39 428.5 328 0 0 0 -0.41475 0.26183 -0.87145 0.0064182
0.096972 0.078867 1.2705 6.7303e-39 431 328 0 0 0 -0.38485 0.26248 -0.88487 0.0064892
0.149 0.078867 1.2705 5.8083e-39 177 329 0 0 0 0.50095 0.42843 -0.75199 0.033698
0.15064 0.078949 1.2719 6.0849e-39 178 329 0 0 0 0.58372 0.41565 -0.6975 0.024201
0.094791 0.081139 1.2712 7.7214e-39 231 329 0 0 0 -0.40187 0.2762 -0.87305 0.0060618
0.097022 0.081139 1.2712 7.4679e-39 232.5 329 0 0 0 -0.38954 0.27565 -0.87879 0.0060389
0.098458 0.08184 1.2705 8.2976e-39 266 329 0 0 0 -0.38039 0.27593 -0.8827 0.0058508
0.14751 0.08184 1.2705 8.2054e-39 377 329 0 0 0 0.49737 0.38478 -0.77754 0.036463
0.14915 0.080437 1.2719 7.56e-39 235 329 0 0 0 0.55848 0.39824 -0.72767 0.027392
0.095485 0.083327 1.2705 7.4678e-39 399 329 0 0 0 -0.3953 0.2831 -0.87384 0.005927
0.097072 0.083413 1.2719 7.0069e-39 400 329 0 0 0 -0.38842 0.28786 -0.87537 0.0058543
0.098458 0.083327 1.2705 6.9147e-39 401 329 0 0 0 -0.3792 0.28327 -0.88089 0.0058486
0.14684 0.08337 1.2712 6.3154e-39 433.5 329 0 0 0 0.51553 0.35436 -0.78017 0.035391
0.095584 0.084901 1.2719 5.9927e-39 163 330 0 0 0 -0.39394 0.29269 -0.87129 0.0058984
0.097072 0.084901 1.2719 5.9927e-39 164 330 0 0 0 -0.38764 0.29442 -0.87353 0.0061013
0.099202 0.084813 1.2705 6.0388e-39 165.5 330 0 0 0 -0.37428 0.29294 -0.87983 0.0058856
0.14618 0.084901 1.2719 6.8225e-39 205 330 0 0 0 0.53304 0.33992 -0.7748 0.034286
0.095584 0.086389 1.2719 7.0991e-39 229 330 0 0 0 -0.39173 0.30311 -0.86872 0.0059625
0.099252 0.086344 1.2712 7.4679e-39 231.5 330 0 0 0 -0.37735 0.30583 -0.87412 0.0061158
0.10097 0.087321 1.271 8.0825e-39 326 330 0 0 0 -0.36832 0.30757 -0.87735 0.0060154
0.10292 0.087043 1.2705 8.1132e-39 304 330 0 0 0 -0.35775 0.29814 -0.88495 0.0061649
0.10589 0.087786 1.2705 7.7444e-39 376 330 0 0 0 -0.35076 0.28879 -0.89082 0.0073414
0.14618 0.086389 1.2719 7.3757e-39 271 330 0 0 0 0.54771 0.3162 -0.77462 0.031741
0.1008 0.089365 1.2719 6.8686e-39 431.5 330 0 0 0 -0.37619 0.32412 -0.868 0.005383
0.10302 0.089365 1.2719 6.3615e-39 433 330 0 0 0 -0.37108 0.31295 -0.87428 0.0060837
0.10514 0.089273 1.2705 6.4537e-39 434.5 330 0 0 0 -0.36379 0.29782 -0.88259 0.007163
0.10738 0.089273 1.2705 5.8083e-39 142 331 0 0 0 -0.35366 0.28312 -0.8915 0.0078108
0.10154 0.090853 1.2719 7.0069e-39 209 331 0 0 0 -0.37819 0.32314 -0.8675 0.0054064
0.10302 0.090853 1.2719 6.8225e-39 210 331 0 0 0 -0.37539 0.31538 -0.87156 0.0059231
0.10514 0.090759 1.2705 6.8225e-39 211.5 331 0 0 0 -0.37385 0.30307 -0.87657 0.006726
0.10738 0.090759 1.2705 7.4678e-39 213 331 0 0 0 -0.36481 0.28955 -0.88492 0.0078089
0.10523 0.093061 1.2716 7.9749e-39 381 331 0 0 0 -0.38335 0.31299 -0.86895 0.0060866
0.10744 0.093038 1.2712 8.1132e-39 382.5 331 0 0 0 -0.38223 0.30249 -0.87315 0.007043
0.106 0.095317 1.2719 7.9288e-39 198 332 0 0 0 -0.39289 0.31727 -0.86312 0.0057698
0.10749 0.095317 1.2719 7.3757e-39 199 332 0 0 0 -0.3939 0.3104 -0.86516 0.0064651
0.10886 0.095219 1.2705 7.0069e-39 200 332 0 0 0 -0.38601 0.29932 -0.87258 0.0074222
0.10886 0.096705 1.2705 7.56e-39 272 332 0 0 0 -0.39554 0.30541 -0.86618 0.0069131
0.10898 0.099037 1.2719 6.6381e-39 291.5 332.5 0 0 0 -0.40774 0.32676 -0.85263 0.0063139
0.11109 0.099678 1.2705 6.6842e-39 193.5 333 0 0 0 -0.39476 0.32181 -0.86058 0.0076347
0.11115 0.10121 1.2712 8.2976e-39 260.5 333 0 0 0 -0.40409 0.33006 -0.85309 0.0072337
0.11195 0.10276 1.2719 7.56e-39 394 333 0 0 0 -0.40661 0.34006 -0.84796 0.0070406
0.11332 0.10265 1.2705 7.3757e-39 395 333 0 0 0 -0.39488 0.33207 -0.85662 0.0085379
0.11481 0.10265 1.2705 7.4678e-39 396 333 0 0 0 -0.38101 0.32772 -0.86454 0.0095956
0.14305 0.10265 1.2705 7.6522e-39 415 333 0 0 0 0.58313 0.22552 -0.78045 0.030682
0.14454 0.10265 1.2705 7.4678e-39 416 333 0 0 0 0.6121 0.22324 -0.75862 0.028122
0.11195 0.10498 1.2719 7.0068e-39 208.5 334 0 0 0 -0.40992 0.354 -0.84063 0.0066619
0.11338 0.10493 1.2712 7.053e-39 210 334 0 0 0 -0.40233 0.348 -0.84677 0.0075384
0.11487 0.10493 1.2712 7.3757e-39 211 334 0 0 0 -0.39279 0.34585 -0.85212 0.0086109
0.1163 0.10488 1.2705 7.4679e-39 212 334 0 0 0 -0.37058 0.34236 -0.8634 0.0099846
0.14157 0.10488 1.2705 7.4678e-39 241.5 334 0 0 0 0.53909 0.23378 -0.80916 0.035247
0.14312 0.10493 1.2712 7.3757e-39 242.5 334 0 0 0 0.59756 0.23679 -0.76607 0.031223
0.14469 0.10424 1.2719 7.0069e-39 211 334 0 0 0 0.64364 0.23252 -0.72915 0.025453
0.11195 0.10722 1.2719 7.2835e-39 386 334 0 0 0 -0.41194 0.3614 -0.83648 0.006385
0.11344 0.10722 1.2719 7.2835e-39 387 334 0 0 0 -0.41083 0.36086 -0.83726 0.0066798
0.11493 0.10722 1.2719 7.3757e-39 388 334 0 0 0 -0.39586 0.35614 -0.84644 0.0078788
0.11704 0.10711 1.2705 7.6522e-39 389.5 334 0 0 0 -0.37067 0.35373 -0.85877 0.0094615
0.14083 0.10711 1.2705 7.0069e-39 405.5 334 0 0 0 0.50911 0.25231 -0.82289 0.040032
0.1432 0.10722 1.2719 6.9147e-39 407 334 0 0 0 0.60729 0.24471 -0.75586 0.030149
0.11344 0.10871 1.2719 6.3615e-39 153 335 0 0 0 -0.40931 0.36405 -0.83662 0.0067597
0.11493 0.10871 1.2719 6.8225e-39 154 335 0 0 0 -0.39883 0.3625 -0.84234 0.0074257
0.1171 0.10865 1.2712 7.1452e-39 155.5 335 0 0 0 -0.37448 0.36111 -0.85403 0.008885
0.11927 0.1086 1.2705 6.7303e-39 157 335 0 0 0 -0.33864 0.35844 -0.86997 0.010916
0.1409 0.10865 1.2712 7.3296e-39 198.5 335 0 0 0 0.51809 0.26177 -0.81429 0.041135
0.11737 0.11065 1.2714 7.5908e-39 279.67 335 0 0 0 -0.36859 0.36827 -0.85353 0.0085605
0.11927 0.11083 1.2705 7.3296e-39 301 335 0 0 0 -0.33828 0.36857 -0.86587 0.010535
0.12076 0.11157 1.2705 7.2835e-39 362 335 0 0 0 -0.32204 0.37016 -0.87136 0.010898
0.12224 0.11083 1.2705 7.1452e-39 303 335 0 0 0 -0.28915 0.3633 -0.88567 0.014081
0.13859 0.11157 1.2705 7.9288e-39 382 335 0 0 0 0.39496 0.2745 -0.87673 0.049207
0.14093 0.11091 1.2716 8.1362e-39 319.5 335 0 0 0 0.51163 0.25789 -0.81959 0.043827
0.11939 0.11317 1.2719 7.2835e-39 430 335 0 0 0 -0.34229 0.37158 -0.863 0.0098636
0.12088 0.11317 1.2719 7.7444e-39 431 335 0 0 0 -0.32955 0.36989 -0.86866 0.010355
0.12305 0.11311 1.2712 7.6061e-39 432.5 335 0 0 0 -0.28967 0.36887 -0.88319 0.013903
0.13562 0.11306 1.2705 6.7303e-39 145 336 0 0 0 0.17537 0.29755 -0.93846 0.050338
0.13711 0.11306 1.2705 7.1913e-39 146 336 0 0 0 0.29458 0.26972 -0.91677 0.052626
0.13874 0.11317 1.2719 7.2835e-39 147 336 0 0 0 0.41202 0.26187 -0.87273 0.056628
0.12373 0.11454 1.2705 6.4537e-39 223 336 0 0 0 -0.27801 0.37219 -0.88554 0.014663
0.12522 0.11454 1.2705 6.9147e-39 224 336 0 0 0 -0.22596 0.37104 -0.9007 0.020658
0.13116 0.11454 1.2705 6.5459e-39 228 336 0 0 0 -0.089962 0.32875 -0.94012 0.029317
0.13265 0.11454 1.2705 6.8225e-39 229 336 0 0 0 -0.015892 0.32797 -0.94455 0.037535
0.13562 0.11454 1.2705 8.1132e-39 231 336 0 0 0 0.15273 0.29894 -0.94197 0.05075
0.13711 0.11454 1.2705 7.7444e-39 232 336 0 0 0 0.24817 0.27785 -0.92802 0.053249
0.13874 0.11466 1.2719 7.1913e-39 233 336 0 0 0 0.39583 0.26104 -0.88044 0.059301
0.12386 0.11615 1.2719 8.2976e-39 340 336 0 0 0 -0.28684 0.36629 -0.88519 0.014397
0.12534 0.1169 1.2719 8.1132e-39 373 336 0 0 0 -0.24551 0.36211 -0.89922 0.020487
0.12676 0.11683 1.2712 7.8827e-39 374 336 0 0 0 -0.21572 0.36026 -0.90756 0.022232
0.129 0.11683 1.2712 7.6292e-39 375.5 336 0 0 0 -0.16051 0.34474 -0.92487 0.027481
0.13123 0.11683 1.2712 7.8366e-39 378 336 0 0 0 -0.080694 0.33736 -0.93791 0.037978
0.13272 0.11683 1.2712 8.0671e-39 379 336 0 0 0 -0.0214 0.33019 -0.94367 0.042069
0.13562 0.11677 1.2705 7.9288e-39 381 336 0 0 0 0.10456 0.30576 -0.94635 0.047387
0.13711 0.11677 1.2705 7.6522e-39 382 336 0 0 0 0.20209 0.28856 -0.93589 0.052573
0.13874 0.1169 1.2719 7.3757e-39 383 336 0 0 0 0.37097 0.27289 -0.88765 0.064373
0.12683 0.11912 1.2719 7.0991e-39 201 337 0 0 0 -0.22516 0.3554 -0.90719 0.023573
0.12907 0.11912 1.2719 6.7303e-39 202.5 337 0 0 0 -0.17696 0.34646 -0.92122 0.026188
0.1313 0.11912 1.2719 6.7303e-39 204 337 0 0 0 -0.095229 0.33858 -0.93611 0.04229
0.13278 0.11912 1.2719 6.8225e-39 205 337 0 0 0 -0.048874 0.3357 -0.9407 0.04715
0.13495 0.11906 1.2712 7.4679e-39 206.5 337 0 0 0 0.041048 0.32047 -0.94637 0.045808
0.13725 0.11912 1.2719 8.1132e-39 208 337 0 0 0 0.20333 0.30008 -0.93199 0.06183
0.13874 0.11912 1.2719 8.2054e-39 209 337 0 0 0 0.31994 0.28712 -0.90288 0.065915
0.1313 0.12061 1.2719 8.943e-39 262 337 0 0 0 -0.11166 0.3412 -0.93333 0.039114
0.13278 0.12061 1.2719 8.7586e-39 263 337 0 0 0 -0.058945 0.33055 -0.94195 0.047722
0.13467 0.12103 1.271 8.2669e-39 301.33 337 0 0 0 0.027319 0.32061 -0.94682 0.048079
0.13725 0.12061 1.2719 7.8366e-39 266 337 0 0 0 0.15387 0.31231 -0.93744 0.055088
0.13526 0.12309 1.2719 7.3757e-39 431.67 337 0 0 0 0.068036 0.3214 -0.9445 0.052462
0.13725 0.12285 1.2719 6.8685e-39 431 337 0 0 0 0.13179 0.31118 -0.94117 0.051509
0.13427 0.12508 1.2719 6.5459e-39 223 338 0 0 0 -0.043842 0.33352 -0.94172 0.043746
0.13427 0.12879 1.2719 7.8827e-39 269 338.5 0 0 0 -0.049076 0.33858 -0.93966 0.039396
0.11505 0.032854 1.2732 1.4936e-38 366 314 0 0 0 -0.083944 -0.80497 -0.58735 0.0093736
0.11654 0.032854 1.2732 1.4843e-38 367 314 0 0 0 -0.067582 -0.82432 -0.56207 0.0075588
0.11803 0.032854 1.2732 1.4198e-38 368 314 0 0 0 -0.054701 -0.83432 -0.54856 0.0070882
0.12324 0.032854 1.2732 1.051e-38 366.5 315 0 0 0 -0.025177 -0.86545 -0.50036 0.0041492
0.14931 0.035833 1.2732 8.5742e-39 397 317 0 0 0 0.41483 -0.77255 -0.48072 0.03213
0.15229 0.040302 1.2732 6.2693e-39 212 320 0 0 0 0.50732 -0.70212 -0.49965 0.020275
0.077063 0.055197 1.2732 7.3757e-39 418.5 323 0 0 0 -0.47463 0.27876 -0.83488 0.010188
0.079297 0.058176 1.2732 8.8508e-39 372 324 0 0 0 -0.4706 0.28088 -0.83644 0.0086555
0.080787 0.059666 1.2732 5.8083e-39 429 324 0 0 0 -0.46784 0.28136 -0.83783 0.0083168
0.082276 0.059666 1.2732 5.7161e-39 430 324 0 0 0 -0.46279 0.27919 -0.84136 0.0081749
0.082276 0.061155 1.2732 6.4537e-39 214 325 0 0 0 -0.46553 0.27812 -0.8402 0.0080418
0.083766 0.062645 1.2732 9.2196e-39 368 325 0 0 0 -0.46022 0.27579 -0.84388 0.0077193
0.085255 0.067114 1.2732 8.6664e-39 357 326 0 0 0 -0.45965 0.26946 -0.84623 0.0072262
0.086745 0.071582 1.2732 8.2054e-39 244 327 0 0 0 -0.46007 0.25052 -0.85181 0.0070359
0.088235 0.071582 1.2732 8.2054e-39 256 327 0 0 0 -0.45564 0.2492 -0.85457 0.0071174
0.088235 0.073072 1.2732 7.3757e-39 394 327 0 0 0 -0.45437 0.24528 -0.85638 0.0071358
0.088235 0.074561 1.2732 5.9005e-39 167 328 0 0 0 -0.45286 0.24543 -0.85713 0.0070631
0.088979 0.076796 1.2732 7.7675e-39 297 328 0 0 0 -0.44495 0.24524 -0.86132 0.0071292
0.091214 0.076796 1.2732 7.8827e-39 298.5 328 0 0 0 -0.4333 0.2535 -0.86486 0.0068009
0.089724 0.07903 1.2732 7.3757e-39 426 328 0 0 0 -0.43269 0.24938 -0.86637 0.0067197
0.091214 0.07903 1.2732 7.2835e-39 427 328 0 0 0 -0.42816 0.25838 -0.86598 0.006563
0.091214 0.08052 1.2732 6.3615e-39 196 329 0 0 0 -0.42139 0.26168 -0.86831 0.0063844
0.092703 0.08052 1.2732 7.0069e-39 197 329 0 0 0 -0.41415 0.2676 -0.86998 0.0060936
0.092703 0.082009 1.2732 8.6664e-39 262 329 0 0 0 -0.40994 0.2718 -0.87068 0.0059766
0.094193 0.083499 1.2732 7.9288e-39 398 329 0 0 0 -0.40497 0.28346 -0.86928 0.0058388
