# .PCD v.7 - Point Cloud Data file format
VERSION .7
FIELDS x y z rgb u v vx vy vz normal_x normal_y normal_z curvature
SIZE 4 4 4 4 4 4 4 4 4 4 4 4 4
TYPE F F F F F F F F F F F F F
COUNT 1 1 1 1 1 1 1 1 1 1 1 1 1
WIDTH 560
HEIGHT 1
VIEWPOINT 0 0 0 1 0 0 0
POINTS 560
DATA ascii
0.024865 0.12184 1.0008 6.7303e-39 263 346 0 0 0 0.44542 0.49691 -0.74477 0.0052029
0.026046 0.12131 1.0012 6.2232e-39 209 346 0 0 0 0.46215 0.49068 -0.73868 0.0059483
-0.026676 0.12311 1.0016 6.7303e-39 334 346 0 0 0 -0.46073 0.45958 -0.75928 0.00659
-0.024908 0.12306 1.0012 7.1913e-39 335.5 346 0 0 0 -0.44274 0.46972 -0.76377 0.0065864
-0.023141 0.12301 1.0008 7.1913e-39 337 346 0 0 0 -0.41437 0.48231 -0.7718 0.0062554
0.023118 0.12306 1.0012 5.4856e-39 322 346.5 0 0 0 0.42416 0.51813 -0.74272 0.0044935
0.024885 0.12311 1.0016 5.4395e-39 139 347 0 0 0 0.44488 0.5151 -0.73263 0.0048392
-0.024332 0.12486 1.0016 5.7161e-39 237.5 347 0 0 0 -0.42661 0.4822 -0.76517 0.007497
-0.023141 0.12476 1.0008 5.9927e-39 238.5 347 0 0 0 -0.40572 0.48838 -0.77257 0.0064783
-0.02158 0.12496 1.0008 6.1464e-39 254.33 347 0 0 0 -0.38082 0.5008 -0.77729 0.0064262
-0.019629 0.12535 1.0008 5.7161e-39 285 347 0 0 0 -0.35538 0.51643 -0.77911 0.0061277
0.017261 0.1254 1.0012 6.131e-39 367.5 347 0 0 0 0.35568 0.56004 -0.74823 0.0034413
0.01901 0.12535 1.0008 5.8083e-39 369 347 0 0 0 0.37226 0.55387 -0.74475 0.0034862
0.020767 0.12476 1.0008 6.3154e-39 308.5 347 0 0 0 0.39573 0.53938 -0.74328 0.0036308
0.022541 0.12428 1.0016 6.3615e-39 248 347 0 0 0 0.4179 0.53332 -0.73548 0.0039802
-0.02316 0.12662 1.0016 6.0849e-39 146 348 0 0 0 -0.39756 0.49909 -0.76997 0.0076575
-0.021402 0.12662 1.0016 5.7622e-39 147.5 348 0 0 0 -0.37019 0.51233 -0.77491 0.0071268
-0.018859 0.12698 1.0013 5.8698e-39 187.67 348 0 0 0 -0.33452 0.52885 -0.78001 0.0066102
-0.016715 0.12779 1.0016 6.4076e-39 265.5 348 0 0 0 -0.2897 0.55275 -0.78137 0.0063161
-0.014945 0.12769 1.0008 5.9927e-39 267 348 0 0 0 -0.25845 0.56989 -0.78002 0.005654
0.013156 0.12769 1.0008 6.7303e-39 335 348 0 0 0 0.29728 0.59214 -0.749 0.0036604
0.015504 0.12716 1.0012 6.6842e-39 270 348 0 0 0 0.3293 0.58198 -0.74355 0.0034821
0.016682 0.12662 1.0016 6.5459e-39 202 348 0 0 0 0.34497 0.57404 -0.74261 0.0034857
0.019026 0.12662 1.0016 7.1913e-39 204 348 0 0 0 0.37167 0.56618 -0.73573 0.0033269
-0.016129 0.12897 1.0016 6.3615e-39 502 348 0 0 0 -0.27074 0.56123 -0.78213 0.006503
-0.014957 0.12897 1.0016 6.3615e-39 503 348 0 0 0 -0.25 0.57183 -0.78135 0.0065512
-0.013188 0.12886 1.0008 6.0849e-39 504.5 348 0 0 0 -0.22534 0.58744 -0.77726 0.0057534
-0.011433 0.12886 1.0008 5.9005e-39 506 348 0 0 0 -0.19711 0.60169 -0.77402 0.0059011
0.0096432 0.12886 1.0008 5.9927e-39 151 349 0 0 0 0.23475 0.61288 -0.7545 0.0050347
0.011404 0.12891 1.0012 6.1771e-39 152.5 349 0 0 0 0.26882 0.60811 -0.74696 0.0044232
0.013166 0.12897 1.0016 6.3615e-39 165 349 0 0 0 0.29749 0.60103 -0.7418 0.0036928
0.014338 0.12897 1.0016 6.4537e-39 166 349 0 0 0 0.31047 0.59913 -0.73801 0.0036153
-0.013199 0.13014 1.0016 7.0991e-39 234.5 349 0 0 0 -0.21375 0.59313 -0.77621 0.0066248
-0.011049 0.13088 1.0013 6.6074e-39 319.67 349 0 0 0 -0.18149 0.60849 -0.77253 0.0062344
-0.0090908 0.1312 1.0008 5.9005e-39 363 349 0 0 0 -0.14265 0.62279 -0.76927 0.0068635
-0.0079199 0.1312 1.0008 6.1771e-39 364 349 0 0 0 -0.1204 0.63046 -0.76683 0.0075659
0.0037888 0.1312 1.0008 5.9005e-39 376 349 0 0 0 0.1194 0.64375 -0.75586 0.0075816
0.0049637 0.13131 1.0016 5.9005e-39 399 349 0 0 0 0.14545 0.64569 -0.74962 0.0068726
0.0067161 0.1312 1.0008 6.1771e-39 400.5 349 0 0 0 0.17608 0.63866 -0.74908 0.0063372
0.0088675 0.13049 1.0013 6.6688e-39 305.67 349 0 0 0 0.21684 0.63197 -0.74404 0.0055892
0.010823 0.13014 1.0016 6.5459e-39 259 349 0 0 0 0.25335 0.62124 -0.74154 0.0046505
-0.01027 0.13248 1.0016 5.9005e-39 194 350 0 0 0 -0.1543 0.62293 -0.76691 0.0069131
-0.0090982 0.13248 1.0016 6.6381e-39 195 350 0 0 0 -0.1389 0.63011 -0.76398 0.0072227
-0.0071433 0.13283 1.0013 5.962e-39 222.33 350 0 0 0 -0.10004 0.64132 -0.76073 0.0075635
-0.0049948 0.13301 1.0012 5.8544e-39 237 350 0 0 0 -0.06094 0.64899 -0.75835 0.0085849
-0.002652 0.13301 1.0012 6.2463e-39 239.5 350 0 0 0 -0.013833 0.65624 -0.75442 0.009161
-0.00089502 0.13301 1.0012 5.8083e-39 241 350 0 0 0 0.024048 0.65707 -0.75344 0.0093597
0.00066698 0.13283 1.0013 5.7776e-39 229.33 350 0 0 0 0.064946 0.65808 -0.75014 0.0086148
0.00301 0.13283 1.0013 6.2386e-39 231.33 350 0 0 0 0.1032 0.65674 -0.74703 0.0081796
0.0061356 0.13248 1.0016 7.2835e-39 208 350 0 0 0 0.16101 0.65042 -0.74231 0.0066596
0.037805 0.097407 1.0024 6.7303e-39 216 337 0 0 0 0.70237 0.11621 -0.70226 0.018971
0.03901 0.097486 1.0032 6.3615e-39 217 337 0 0 0 0.7219 0.11254 -0.68279 0.02024
-0.041977 0.099246 1.0032 5.9928e-39 352.5 337 0 0 0 -0.71946 0.25712 -0.64519 0.014412
0.037235 0.099206 1.0028 6.7764e-39 297.5 337.5 0 0 0 0.69634 0.14308 -0.70331 0.018539
0.03901 0.099246 1.0032 6.9607e-39 299 337.5 0 0 0 0.71907 0.13001 -0.68267 0.019304
0.040216 0.099327 1.004 6.7764e-39 300 337.5 0 0 0 0.7362 0.13306 -0.66355 0.021193
-0.041977 0.10101 1.0032 7.2835e-39 231 338 0 0 0 -0.71348 0.25965 -0.65079 0.013364
0.037235 0.10097 1.0028 6.9147e-39 353.5 338 0 0 0 0.69511 0.16195 -0.70043 0.017757
0.03901 0.10101 1.0032 6.8225e-39 355 338 0 0 0 0.71439 0.16291 -0.68052 0.018449
0.040216 0.10109 1.004 6.7303e-39 356 338 0 0 0 0.73145 0.15392 -0.66429 0.020419
-0.042011 0.10344 1.004 7.0069e-39 206 339 0 0 0 -0.70744 0.27 -0.65317 0.011895
-0.041373 0.10272 1.0028 6.7303e-39 297 338.5 0 0 0 -0.70372 0.27828 -0.65371 0.01213
0.037264 0.10281 1.0036 6.4998e-39 206.5 339 0 0 0 0.69557 0.19101 -0.6926 0.017396
0.039026 0.10281 1.0036 6.3615e-39 208 339 0 0 0 0.71109 0.186 -0.67805 0.017776
0.040216 0.10226 1.004 5.4395e-39 163 339 0 0 0 0.72534 0.17516 -0.66573 0.01891
-0.040821 0.10516 1.0036 6.592e-39 207 339.5 0 0 0 -0.69432 0.29306 -0.6573 0.010786
-0.039012 0.10562 1.0024 6.3154e-39 142.5 340 0 0 0 -0.68384 0.30173 -0.66432 0.01076
-0.037252 0.10562 1.0024 6.7303e-39 144 340 0 0 0 -0.67968 0.30414 -0.66749 0.010267
0.03546 0.10503 1.0024 6.592e-39 302.5 339.5 0 0 0 0.65488 0.24644 -0.71442 0.013231
0.036677 0.10516 1.0036 6.6381e-39 303.5 339.5 0 0 0 0.6792 0.23848 -0.69413 0.015871
0.039042 0.1052 1.004 6.9147e-39 307.5 339.5 0 0 0 0.70961 0.22434 -0.66792 0.017416
-0.039027 0.10684 1.0028 7.1913e-39 230.5 340 0 0 0 -0.67982 0.30873 -0.66522 0.0092263
-0.037252 0.10679 1.0024 7.4678e-39 232 340 0 0 0 -0.66749 0.32021 -0.67225 0.0089519
0.03546 0.10737 1.0024 6.4537e-39 211 340.5 0 0 0 0.6476 0.27483 -0.71069 0.012427
0.036662 0.10688 1.0032 7.56e-39 276 340 0 0 0 0.66812 0.27156 -0.69273 0.013769
0.039042 0.10696 1.004 7.0069e-39 278 340 0 0 0 0.70713 0.24527 -0.66318 0.017163
-0.039051 0.10866 1.0034 6.4998e-39 269.5 340.5 0 0 0 -0.67548 0.31718 -0.66568 0.0087106
-0.036881 0.1088 1.0029 7.0684e-39 244.67 340.67 0 0 0 -0.65384 0.34001 -0.67593 0.0082486
0.03546 0.10913 1.0024 6.7303e-39 261 341 0 0 0 0.63705 0.30712 -0.707 0.010762
0.037264 0.10868 1.0036 6.4076e-39 208 341 0 0 0 0.67137 0.29052 -0.68181 0.013637
0.039042 0.10872 1.004 6.4537e-39 209.5 341 0 0 0 0.69591 0.28239 -0.66028 0.014903
-0.039067 0.11105 1.0038 6.0619e-39 225 341.5 0 0 0 -0.66649 0.33669 -0.66515 0.0079189
-0.036704 0.11101 1.0034 6.4998e-39 249.75 341.5 0 0 0 -0.64383 0.35614 -0.67723 0.0072073
-0.034907 0.11148 1.0024 6.3615e-39 166 342 0 0 0 -0.60908 0.38045 -0.6959 0.0063104
0.035069 0.11109 1.0024 6.7918e-39 211.67 342 0 0 0 0.62645 0.33754 -0.70259 0.01034
0.037264 0.11103 1.0036 6.8455e-39 196 342 0 0 0 0.65815 0.33153 -0.67597 0.01182
0.039042 0.11107 1.004 6.8685e-39 197.5 342 0 0 0 0.68113 0.32231 -0.65741 0.012793
-0.038487 0.11284 1.004 6.8225e-39 265 342 0 0 0 -0.65167 0.35439 -0.67062 0.0074542
-0.036725 0.11284 1.004 6.9608e-39 266.5 342 0 0 0 -0.63794 0.37229 -0.67412 0.0069303
-0.034921 0.11329 1.0028 6.8685e-39 203 342.5 0 0 0 -0.605 0.39059 -0.69384 0.0060862
-0.033734 0.11383 1.0024 6.4537e-39 139 343 0 0 0 -0.58492 0.40224 -0.70433 0.0059525
0.034881 0.11326 1.0026 6.4768e-39 305.5 342.5 0 0 0 0.61253 0.37167 -0.69761 0.0098077
0.036662 0.11274 1.0032 6.2693e-39 392 342 0 0 0 0.63934 0.35851 -0.68023 0.010547
-0.036138 0.11401 1.004 5.9005e-39 488 342 0 0 0 -0.61965 0.38634 -0.68321 0.0058784
-0.034935 0.11509 1.0032 7.1913e-39 241 343 0 0 0 -0.60097 0.39856 -0.69281 0.0058539
-0.033734 0.115 1.0024 7.0991e-39 242 343 0 0 0 -0.58016 0.40769 -0.70513 0.0057188
0.031942 0.115 1.0024 6.5459e-39 351 343 0 0 0 0.57519 0.40439 -0.71107 0.0087726
0.033114 0.115 1.0024 6.7303e-39 352 343 0 0 0 0.58767 0.399 -0.70387 0.0088975
0.034902 0.11509 1.0032 7.4218e-39 353.5 343 0 0 0 0.61129 0.39615 -0.68512 0.0094065
0.036692 0.1146 1.004 7.2835e-39 288.5 343 0 0 0 0.64183 0.38326 -0.6642 0.010382
-0.034963 0.11636 1.004 6.1771e-39 389 343 0 0 0 -0.59652 0.40552 -0.69262 0.0051949
-0.033352 0.11698 1.0027 6.6688e-39 280.33 343.67 0 0 0 -0.56729 0.41606 -0.71068 0.0048951
0.031356 0.11676 1.0024 6.4537e-39 238.5 344 0 0 0 0.55569 0.42515 -0.71447 0.0085299
0.033114 0.11675 1.0024 6.5459e-39 240 344 0 0 0 0.58054 0.41519 -0.70043 0.008867
0.034924 0.11692 1.0038 6.4306e-39 241.5 344 0 0 0 0.60929 0.41159 -0.67776 0.009555
-0.032988 0.11904 1.0035 6.7303e-39 311.67 344.33 0 0 0 -0.54964 0.42257 -0.72064 0.0050942
-0.031388 0.1191 1.0024 6.8225e-39 290 344.5 0 0 0 -0.52981 0.43154 -0.73012 0.0046543
0.029596 0.1191 1.0024 6.3154e-39 228 345 0 0 0 0.52611 0.45508 -0.71841 0.0080612
0.031375 0.11918 1.003 5.8313e-39 229.5 345 0 0 0 0.54757 0.45253 -0.70384 0.0084772
0.033154 0.11925 1.0036 5.9927e-39 231 345 0 0 0 0.57563 0.44307 -0.68727 0.009339
0.034343 0.11871 1.004 6.1771e-39 187 345 0 0 0 0.59635 0.43248 -0.67626 0.0096031
-0.032614 0.12106 1.004 7.3757e-39 341 345 0 0 0 -0.5356 0.42554 -0.72942 0.0058224
-0.030814 0.12091 1.0028 6.4998e-39 350.5 345 0 0 0 -0.51762 0.43263 -0.73818 0.0057902
-0.029043 0.12086 1.0024 6.3615e-39 352 345 0 0 0 -0.49875 0.43994 -0.74679 0.0058592
0.02725 0.12086 1.0024 6.2693e-39 165 346 0 0 0 0.48266 0.48511 -0.72918 0.0065776
0.029021 0.12091 1.0028 6.2232e-39 181.5 346 0 0 0 0.50919 0.47913 -0.71496 0.0074949
0.031406 0.12106 1.004 5.9005e-39 183.5 346 0 0 0 0.54696 0.47185 -0.69152 0.0087614
-0.030648 0.12259 1.0037 6.761e-39 231.67 346 0 0 0 -0.5149 0.43737 -0.73728 0.0065943
-0.029066 0.12272 1.0032 6.592e-39 247 346 0 0 0 -0.49679 0.44368 -0.74588 0.006766
-0.02787 0.12262 1.0024 6.5459e-39 272 346 0 0 0 -0.48004 0.45003 -0.75302 0.0066531
0.026882 0.12292 1.0032 5.7161e-39 182 346.67 0 0 0 0.46917 0.50916 -0.72156 0.0057414
0.028458 0.12277 1.0036 5.7162e-39 204 346.5 0 0 0 0.49444 0.5013 -0.71009 0.0068985
-0.02909 0.12458 1.004 5.6239e-39 190 347 0 0 0 -0.48675 0.45169 -0.74769 0.0079248
-0.027301 0.12504 1.003 5.7852e-39 235 347 0 0 0 -0.46007 0.46492 -0.75643 0.0077957
-0.025524 0.12496 1.0024 5.6239e-39 236.5 347 0 0 0 -0.44019 0.47532 -0.76177 0.0079604
0.021387 0.12555 1.0024 6.4537e-39 371 347 0 0 0 0.40097 0.55044 -0.73228 0.0035399
0.023367 0.1253 1.0035 6.3922e-39 331.33 347 0 0 0 0.42698 0.54655 -0.7204 0.0038507
0.024925 0.12448 1.0032 7.0991e-39 250 347 0 0 0 0.44558 0.53173 -0.72022 0.0044735
0.02612 0.12458 1.004 7.0991e-39 251 347 0 0 0 0.4593 0.53073 -0.7123 0.0047948
-0.026719 0.12683 1.0032 5.4395e-39 143 348 0 0 0 -0.44173 0.47608 -0.76041 0.0086288
-0.024949 0.12678 1.0028 5.8083e-39 144.5 348 0 0 0 -0.42842 0.48411 -0.76295 0.0084942
-0.022592 0.1279 1.0024 6.2693e-39 260.5 348 0 0 0 -0.38604 0.51033 -0.76846 0.0084801
-0.020833 0.1279 1.0024 6.0849e-39 262 348 0 0 0 -0.35698 0.52196 -0.77467 0.0077582
-0.019661 0.1279 1.0024 6.1771e-39 263 348 0 0 0 -0.33994 0.52825 -0.77807 0.0073213
0.017282 0.12731 1.0024 6.6842e-39 276.5 348 0 0 0 0.35264 0.57859 -0.73545 0.0033581
0.019041 0.1279 1.0024 6.2693e-39 352 348 0 0 0 0.36926 0.57535 -0.72981 0.003145
0.020809 0.12678 1.0028 7.0069e-39 205.5 348 0 0 0 0.39473 0.56268 -0.72635 0.0034998
0.022596 0.12693 1.004 6.9147e-39 211 348 0 0 0 0.41486 0.56017 -0.71701 0.0037245
-0.026741 0.12811 1.004 7.1913e-39 251 348 0 0 0 -0.43618 0.4836 -0.75887 0.0097307
-0.024776 0.12846 1.0037 6.423e-39 303.33 348 0 0 0 -0.41409 0.49564 -0.76346 0.0096823
-0.022611 0.12918 1.0032 6.2232e-39 400.5 348 0 0 0 -0.38037 0.51531 -0.76797 0.0093836
-0.02085 0.12918 1.0032 6.1771e-39 402 348 0 0 0 -0.35258 0.52174 -0.77683 0.0083908
-0.019082 0.12912 1.0028 6.131e-39 451.5 348 0 0 0 -0.32163 0.53906 -0.77844 0.0077475
-0.017315 0.12907 1.0024 6.2693e-39 501 348 0 0 0 -0.28952 0.55203 -0.78195 0.0069834
0.015535 0.12918 1.0032 6.0849e-39 167 349 0 0 0 0.32819 0.60094 -0.72881 0.0033797
0.017496 0.12882 1.0035 5.9312e-39 230 348.67 0 0 0 0.3503 0.59246 -0.72545 0.0033353
0.019057 0.12918 1.0032 5.7161e-39 172 349 0 0 0 0.36719 0.58623 -0.72216 0.0032294
0.020627 0.12843 1.0035 6.3308e-39 293.33 348.33 0 0 0 0.38554 0.57742 -0.71968 0.0033223
-0.022629 0.13046 1.004 6.8225e-39 221.5 349 0 0 0 -0.37735 0.51702 -0.76831 0.010036
-0.020867 0.13046 1.004 7.1913e-39 228 349 0 0 0 -0.34466 0.53156 -0.77372 0.0096466
-0.019101 0.13102 1.0038 7.3757e-39 292 349 0 0 0 -0.30996 0.5434 -0.78015 0.0084085
-0.016739 0.13091 1.003 6.9838e-39 294 349 0 0 0 -0.26484 0.56489 -0.78151 0.0074705
-0.014975 0.13088 1.0028 6.6381e-39 295.5 349 0 0 0 -0.23803 0.57958 -0.77938 0.0075967
-0.01321 0.13142 1.0024 6.6381e-39 359.5 349 0 0 0 -0.20068 0.59266 -0.78005 0.0071314
0.0096589 0.13142 1.0024 5.9005e-39 403 349 0 0 0 0.22831 0.63962 -0.734 0.0053993
0.010832 0.13142 1.0024 6.0849e-39 404 349 0 0 0 0.25068 0.63363 -0.7319 0.0048499
0.012601 0.13093 1.0032 6.1541e-39 381 349 0 0 0 0.28405 0.6251 -0.72703 0.0040773
0.014757 0.13078 1.0035 6.0849e-39 342.67 349 0 0 0 0.31476 0.61537 -0.72266 0.0036861
0.016723 0.13046 1.004 6.3615e-39 264 349 0 0 0 0.33193 0.60843 -0.72086 0.0034651
0.019072 0.13046 1.004 6.3615e-39 266 349 0 0 0 0.36203 0.59573 -0.71697 0.0034173
-0.016755 0.13281 1.004 5.9927e-39 188.5 350 0 0 0 -0.25353 0.56838 -0.78273 0.0084648
-0.014994 0.13281 1.004 5.6239e-39 190 350 0 0 0 -0.23112 0.58 -0.78114 0.0085306
-0.013224 0.13331 1.0034 5.6008e-39 230 350 0 0 0 -0.19189 0.59672 -0.77917 0.0081633
-0.011066 0.13344 1.0029 5.8698e-39 244.67 350 0 0 0 -0.16322 0.61082 -0.77477 0.0075751
-0.0091129 0.13387 1.0032 5.6239e-39 272 350 0 0 0 -0.12653 0.62921 -0.76687 0.0071902
-0.0079392 0.13387 1.0032 5.4395e-39 273 350 0 0 0 -0.10967 0.63945 -0.76097 0.0073373
0.0014494 0.13376 1.0024 5.8083e-39 282 350 0 0 0 0.076663 0.66995 -0.73843 0.0084757
0.003795 0.13376 1.0024 6.1771e-39 284 350 0 0 0 0.12149 0.66632 -0.73571 0.0077181
0.0049698 0.13323 1.0028 6.4076e-39 246 350 0 0 0 0.1466 0.66348 -0.73369 0.0068856
0.0069224 0.13337 1.0024 6.3922e-39 261.33 350 0 0 0 0.17877 0.65649 -0.73284 0.0061845
0.0090781 0.13326 1.003 6.3615e-39 255 350 0 0 0 0.21857 0.65197 -0.72606 0.0056997
0.010844 0.13334 1.0036 6.4998e-39 259.5 350 0 0 0 0.2473 0.64665 -0.72159 0.0049498
0.012024 0.13281 1.004 7.9288e-39 230 350 0 0 0 0.26735 0.63957 -0.72074 0.0043086
-0.010287 0.13504 1.0032 5.9927e-39 512 350 0 0 0 -0.13685 0.62249 -0.77057 0.0075563
-0.0091203 0.13515 1.004 5.9005e-39 513 350 0 0 0 -0.12039 0.63068 -0.76665 0.0075227
-0.0073528 0.13504 1.0032 5.9005e-39 329 350.5 0 0 0 -0.09507 0.64177 -0.76098 0.0077034
-0.0050049 0.13504 1.0032 5.9466e-39 145.5 351 0 0 0 -0.057913 0.66168 -0.74754 0.0081859
-0.0026561 0.13499 1.0028 6.0849e-39 147.5 351 0 0 0 -0.0075198 0.66994 -0.74238 0.0092341
-0.00089612 0.13494 1.0024 5.7161e-39 149 351 0 0 0 0.031494 0.6755 -0.73669 0.0092643
0.00086363 0.13499 1.0028 5.9466e-39 150.5 351 0 0 0 0.066356 0.67684 -0.73313 0.0087421
0.0032101 0.13499 1.0028 6.3154e-39 152.5 351 0 0 0 0.11181 0.67727 -0.72719 0.0076941
0.0049758 0.13515 1.004 5.9927e-39 154 351 0 0 0 0.1462 0.67661 -0.72168 0.0068661
0.0067354 0.1351 1.0036 5.7161e-39 162 351 0 0 0 0.17701 0.67055 -0.72044 0.0061303
0.0096746 0.13515 1.004 6.1771e-39 171 351 0 0 0 0.22431 0.66074 -0.71631 0.005574
-0.006771 0.13633 1.004 7.56e-39 232 351 0 0 0 -0.074963 0.65165 -0.7548 0.0075331
-0.0032469 0.13633 1.004 7.6522e-39 236 351 0 0 0 -0.022574 0.67371 -0.73865 0.0089986
-0.00089757 0.13633 1.004 7.4678e-39 238 351 0 0 0 0.035378 0.68578 -0.72695 0.0089857
0.00027711 0.13633 1.004 7.3757e-39 239 351 0 0 0 0.056477 0.69138 -0.72028 0.0087275
0.0026265 0.13633 1.004 7.1913e-39 241 351 0 0 0 0.099683 0.68612 -0.72063 0.0078536
0.040282 0.095371 1.0057 5.6239e-39 168 336 0 0 0 0.76729 0.059713 -0.63852 0.024838
0.040854 0.097096 1.0053 6.4076e-39 286 336.5 0 0 0 0.76671 0.090691 -0.63555 0.024403
0.041425 0.099408 1.0049 6.592e-39 301 337.5 0 0 0 0.75787 0.13163 -0.63899 0.023586
0.042635 0.0989 1.0057 6.0849e-39 387 337 0 0 0 0.77662 0.11634 -0.61913 0.024303
0.041425 0.10117 1.0049 6.4537e-39 357 338 0 0 0 0.75521 0.14845 -0.63846 0.022409
0.042635 0.10067 1.0057 6.592e-39 287.5 338 0 0 0 0.77637 0.147 -0.6129 0.023462
0.041055 0.10319 1.0054 6.6381e-39 225 339 0 0 0 0.74855 0.18709 -0.63613 0.019783
-0.042063 0.10533 1.0053 6.8224e-39 206 339.5 0 0 0 -0.70505 0.27986 -0.65161 0.0112
0.037898 0.10529 1.0049 6.5459e-39 305.5 339.5 0 0 0 0.70979 0.24002 -0.66226 0.01727
0.040652 0.10512 1.0052 6.6995e-39 340.33 339.33 0 0 0 0.7336 0.22599 -0.64091 0.018288
-0.04087 0.10705 1.0049 6.6381e-39 229 340 0 0 0 -0.69207 0.29931 -0.65685 0.010005
0.037898 0.10705 1.0049 7.3757e-39 277 340 0 0 0 0.70472 0.26386 -0.6586 0.016599
0.040282 0.10714 1.0057 6.6381e-39 279 340 0 0 0 0.73025 0.25748 -0.6328 0.017319
-0.040903 0.1089 1.0057 6.2232e-39 268 340.5 0 0 0 -0.68848 0.31125 -0.65508 0.0099462
0.040266 0.10886 1.0053 6.5458e-39 210.5 341 0 0 0 0.72267 0.27723 -0.63316 0.016755
-0.040903 0.11067 1.0057 6.1771e-39 286 341 0 0 0 -0.68028 0.32084 -0.65901 0.0091078
0.040282 0.11067 1.0057 5.7161e-39 146 342 0 0 0 0.71223 0.30887 -0.63034 0.015099
-0.039694 0.11293 1.0049 7.1913e-39 264 342 0 0 0 -0.65994 0.34939 -0.66514 0.0073442
0.037898 0.11293 1.0049 6.5459e-39 393 342 0 0 0 0.66795 0.35771 -0.65259 0.01173
0.039073 0.11293 1.0049 6.5459e-39 394 342 0 0 0 0.67997 0.35091 -0.64382 0.01221
-0.039122 0.11473 1.0053 6.4306e-39 361.5 342.5 0 0 0 -0.64867 0.36706 -0.6667 0.0068944
-0.036951 0.11489 1.0049 7.0068e-39 322 342.67 0 0 0 -0.62791 0.38388 -0.67703 0.0058007
0.037929 0.11479 1.0057 7.1452e-39 289.5 343 0 0 0 0.66205 0.38242 -0.64455 0.01085
0.039105 0.11479 1.0057 7.2374e-39 290.5 343 0 0 0 0.67077 0.37731 -0.63852 0.011136
-0.03677 0.1165 1.0053 6.2693e-39 385.5 343 0 0 0 -0.61553 0.39279 -0.68325 0.0054371
-0.034992 0.11763 1.0049 7.0991e-39 224 344 0 0 0 -0.59414 0.40703 -0.69377 0.0050487
0.036722 0.11704 1.0049 6.5459e-39 243 344 0 0 0 0.63395 0.41123 -0.65498 0.0099544
-0.03502 0.1189 1.0057 7.0069e-39 356 344 0 0 0 -0.59362 0.40419 -0.69588 0.0051286
-0.033816 0.11998 1.0049 7.1913e-39 214 345 0 0 0 -0.56762 0.41613 -0.71038 0.0054355
0.034959 0.1194 1.0049 6.4537e-39 232.5 345 0 0 0 0.60705 0.43888 -0.66248 0.0099947
0.036752 0.1189 1.0057 5.9005e-39 189 345 0 0 0 0.63723 0.4266 -0.64183 0.010105
-0.033816 0.12116 1.0049 7.2835e-39 340 345 0 0 0 -0.56183 0.41859 -0.71353 0.0059216
0.033195 0.12116 1.0049 5.6239e-39 185 346 0 0 0 0.57389 0.46519 -0.67398 0.0094586
-0.032654 0.12297 1.0053 6.1771e-39 244 346 0 0 0 -0.53637 0.42882 -0.72692 0.0067215
-0.031465 0.12351 1.0049 5.9005e-39 287 346 0 0 0 -0.52074 0.43615 -0.7339 0.0071129
0.02968 0.12297 1.0053 5.7622e-39 205 346.5 0 0 0 0.52017 0.49665 -0.6948 0.0077149
0.030869 0.12243 1.0057 6.0849e-39 268 346 0 0 0 0.54424 0.48574 -0.684 0.0084574
0.032046 0.12243 1.0057 6.0849e-39 269 346 0 0 0 0.55908 0.48295 -0.67393 0.0088041
-0.03069 0.12511 1.0052 6.1156e-39 217.67 347 0 0 0 -0.50823 0.44389 -0.73801 0.0077319
-0.029114 0.12586 1.0049 6.4537e-39 277 347 0 0 0 -0.4793 0.45861 -0.7483 0.0084604
0.024966 0.12586 1.0049 5.7161e-39 376 347 0 0 0 0.44756 0.54508 -0.70893 0.0043284
0.026751 0.12538 1.0057 6.5459e-39 322.5 347 0 0 0 0.46396 0.53861 -0.70331 0.0048866
0.028493 0.12468 1.0049 6.6381e-39 253 347 0 0 0 0.48803 0.52284 -0.69891 0.0062009
-0.030314 0.12714 1.0057 5.2552e-39 140 348 0 0 0 -0.49161 0.45343 -0.74345 0.0085507
-0.029137 0.12714 1.0057 5.163e-39 141 348 0 0 0 -0.47369 0.46266 -0.74938 0.0090251
-0.027938 0.12704 1.0049 5.163e-39 142 348 0 0 0 -0.45759 0.46974 -0.75495 0.00898
0.02379 0.12704 1.0049 6.8225e-39 221 348 0 0 0 0.42563 0.56039 -0.71049 0.0038594
0.024986 0.12714 1.0057 6.9147e-39 222 348 0 0 0 0.44586 0.55534 -0.702 0.0042672
-0.027362 0.12885 1.0053 6.4537e-39 323.5 348 0 0 0 -0.4407 0.47894 -0.75921 0.010001
-0.025587 0.12939 1.0049 5.8083e-39 398 348 0 0 0 -0.41477 0.49404 -0.76413 0.010626
0.021439 0.12939 1.0049 5.5317e-39 181 349 0 0 0 0.3931 0.58266 -0.71132 0.0035768
0.022623 0.12885 1.0053 6.3615e-39 268.5 348.5 0 0 0 0.40885 0.57822 -0.70605 0.0037459
-0.024817 0.13103 1.0054 6.761e-39 251 349 0 0 0 -0.39929 0.50585 -0.76465 0.011444
-0.022657 0.1318 1.0053 6.3615e-39 351.5 349 0 0 0 -0.36918 0.52022 -0.77012 0.011496
-0.020884 0.13174 1.0049 6.6381e-39 353 349 0 0 0 -0.34026 0.52929 -0.77722 0.010347
0.015561 0.13174 1.0049 5.8083e-39 504 349 0 0 0 0.31941 0.62125 -0.71556 0.0038176
0.017331 0.1312 1.0053 6.0849e-39 385 349 0 0 0 0.34102 0.61121 -0.71423 0.0037466
0.019103 0.13185 1.0057 5.7161e-39 507 349 0 0 0 0.36151 0.60608 -0.70851 0.0041105
0.020271 0.1312 1.0053 5.9466e-39 387.5 349 0 0 0 0.37388 0.59851 -0.70852 0.0036217
-0.022666 0.13302 1.0057 5.9927e-39 183.5 350 0 0 0 -0.3578 0.52262 -0.77385 0.012382
-0.020884 0.13291 1.0049 5.8083e-39 185 350 0 0 0 -0.33257 0.53303 -0.778 0.01098
-0.019121 0.13291 1.0049 5.9005e-39 186.5 350 0 0 0 -0.29224 0.54745 -0.78415 0.0097154
0.013209 0.13291 1.0049 7.7444e-39 231 350 0 0 0 0.28844 0.63621 -0.71557 0.0042611
0.014979 0.13296 1.0053 7.3296e-39 232.5 350 0 0 0 0.31048 0.62967 -0.71212 0.003974
-0.019136 0.1342 1.0057 6.3154e-39 263.5 350 0 0 0 -0.2875 0.54963 -0.78438 0.010814
-0.016776 0.13473 1.0053 6.0157e-39 386 350 0 0 0 -0.24574 0.56964 -0.7843 0.0095179
-0.015012 0.13473 1.0053 5.7161e-39 387.5 350 0 0 0 -0.21686 0.58064 -0.78475 0.0089669
-0.013242 0.13526 1.0049 5.9927e-39 509.5 350 0 0 0 -0.17589 0.59808 -0.78189 0.0081585
-0.011479 0.13526 1.0049 5.9927e-39 511 350 0 0 0 -0.15662 0.61069 -0.77622 0.0081397
0.0085068 0.13526 1.0049 5.9927e-39 170 351 0 0 0 0.20103 0.67073 -0.71393 0.0060769
0.010858 0.13526 1.0049 5.9005e-39 172 351 0 0 0 0.24216 0.65641 -0.71448 0.0050288
0.012433 0.13455 1.0054 5.9312e-39 280.67 350.33 0 0 0 0.26948 0.64835 -0.71206 0.0045392
0.014397 0.1342 1.0057 6.4537e-39 351 350 0 0 0 0.29604 0.63854 -0.71037 0.0042721
-0.017371 0.13655 1.0057 5.9005e-39 206 351 0 0 0 -0.24105 0.56593 -0.78842 0.010161
-0.013247 0.13649 1.0053 6.7303e-39 216 351 0 0 0 -0.17216 0.5954 -0.78477 0.0081329
-0.010698 0.13687 1.0052 6.8225e-39 245 351 0 0 0 -0.13118 0.61939 -0.77405 0.0077772
-0.0091315 0.13708 1.0053 6.8224e-39 257.5 351 0 0 0 -0.10928 0.62994 -0.76892 0.0074051
-0.0073643 0.13703 1.0049 6.9608e-39 259 351 0 0 0 -0.077744 0.65085 -0.75522 0.0076053
-0.0050151 0.13708 1.0053 6.5228e-39 261.25 351 0 0 0 -0.046656 0.67059 -0.74036 0.0078264
-0.0024664 0.13726 1.0052 6.4229e-39 287 351 0 0 0 0.0025823 0.68891 -0.72485 0.0086811
-0.0008983 0.13762 1.0049 6.3615e-39 335 351 0 0 0 0.037441 0.6964 -0.71667 0.0086942
0.0010615 0.13726 1.0052 6.6074e-39 305 351 0 0 0 0.077217 0.69698 -0.71292 0.0079665
0.0034134 0.13726 1.0052 6.761e-39 307 351 0 0 0 0.11584 0.69562 -0.70901 0.0071552
0.0049839 0.13655 1.0057 7.6522e-39 243 351 0 0 0 0.14448 0.68834 -0.71086 0.0068089
0.0067461 0.13708 1.0053 7.099e-39 298.5 351 0 0 0 0.17578 0.68129 -0.71059 0.0061844
0.009102 0.13655 1.0057 6.9608e-39 246.5 351 0 0 0 0.2111 0.67359 -0.70832 0.0058818
0.010867 0.13655 1.0057 6.5459e-39 248 351 0 0 0 0.24009 0.66338 -0.70872 0.0052343
-0.006782 0.1389 1.0057 6.3615e-39 517 351 0 0 0 -0.060703 0.65884 -0.74983 0.0074689
-0.0032522 0.1389 1.0057 5.7161e-39 145 352 0 0 0 -0.0052452 0.69485 -0.71914 0.007694
0.00027756 0.1389 1.0057 6.4537e-39 148 352 0 0 0 0.060616 0.70813 -0.70348 0.0079274
0.041509 0.094898 1.0069 6.5459e-39 217 335.5 0 0 0 0.79105 0.06105 -0.6087 0.027815
0.042687 0.097254 1.0069 6.3154e-39 287.5 336.5 0 0 0 0.7934 0.093258 -0.60151 0.027193
0.043883 0.099062 1.0073 6.0849e-39 388 337 0 0 0 0.80387 0.1218 -0.5822 0.026425
0.045062 0.099062 1.0073 5.9005e-39 389 337 0 0 0 0.8141 0.11871 -0.56846 0.026834
-0.04331 0.10079 1.0069 5.9928e-39 349 337.5 0 0 0 -0.74024 0.21638 -0.63657 0.019205
0.043847 0.10075 1.0065 6.5459e-39 288.5 338 0 0 0 0.79446 0.1456 -0.5896 0.025168
0.045043 0.10079 1.0069 6.4076e-39 289.5 338 0 0 0 0.80445 0.14236 -0.57671 0.025658
-0.043292 0.1031 1.0065 6.3154e-39 295.5 338.5 0 0 0 -0.72629 0.24535 -0.6421 0.015287
0.042687 0.10315 1.0069 6.638e-39 211 339 0 0 0 0.78068 0.17961 -0.59857 0.022447
-0.043292 0.10487 1.0065 7.3757e-39 271 339 0 0 0 -0.7123 0.26472 -0.65004 0.011876
0.042705 0.10495 1.0073 6.4537e-39 405 339 0 0 0 0.77856 0.21 -0.59139 0.021682
-0.042911 0.10686 1.0068 6.3922e-39 312 339.67 0 0 0 -0.70624 0.27958 -0.65043 0.010772
0.041509 0.10668 1.0069 7.0991e-39 248 340 0 0 0 0.75451 0.24248 -0.60985 0.019068
-0.042518 0.10882 1.0068 6.761e-39 289.33 340.33 0 0 0 -0.69396 0.30182 -0.6537 0.0097398
0.041526 0.10849 1.0073 5.6239e-39 154 341 0 0 0 0.75146 0.27018 -0.60193 0.017398
-0.042149 0.11085 1.0073 6.2693e-39 285 341 0 0 0 -0.69006 0.31237 -0.65287 0.0098304
-0.040937 0.11193 1.0065 5.3473e-39 161 342 0 0 0 -0.67985 0.32703 -0.6564 0.0090161
0.040315 0.11193 1.0065 7.3757e-39 251 342 0 0 0 0.70699 0.33074 -0.62512 0.01349
-0.040937 0.11311 1.0065 7.3757e-39 263 342 0 0 0 -0.67468 0.33778 -0.65628 0.0081443
0.040348 0.1132 1.0073 6.5459e-39 395 342 0 0 0 0.70449 0.34379 -0.62089 0.013325
-0.04097 0.11438 1.0073 5.5317e-39 484 342 0 0 0 -0.67401 0.34467 -0.65339 0.0083848
-0.038995 0.1171 1.007 6.0849e-39 329.33 343.33 0 0 0 -0.64045 0.37844 -0.66829 0.0061113
-0.036815 0.11782 1.0065 6.9147e-39 222.5 344 0 0 0 -0.61646 0.39148 -0.68317 0.0055215
0.03796 0.11723 1.0065 6.4998e-39 244 344 0 0 0 0.653 0.41296 -0.63487 0.01033
0.039153 0.11728 1.0069 6.4998e-39 266.5 344 0 0 0 0.66765 0.40756 -0.62301 0.010407
-0.036845 0.1191 1.0073 7.4218e-39 354.5 344 0 0 0 -0.60979 0.39682 -0.68607 0.0055802
0.03799 0.1191 1.0073 5.8083e-39 190 345 0 0 0 0.65284 0.4339 -0.62091 0.010232
-0.035063 0.12082 1.0069 6.9147e-39 276 345 0 0 0 -0.58868 0.40414 -0.70009 0.0057746
0.03503 0.12082 1.0069 6.1771e-39 232 345.5 0 0 0 0.61557 0.45805 -0.6413 0.010189
0.036812 0.12028 1.0073 6.2693e-39 279 345 0 0 0 0.63954 0.4446 -0.62715 0.0099471
-0.033871 0.12312 1.0065 6.0849e-39 243 346 0 0 0 -0.55639 0.41981 -0.71707 0.0067102
0.030894 0.12371 1.0065 5.8083e-39 144 347 0 0 0 0.53647 0.50069 -0.67935 0.008623
0.03266 0.12312 1.0065 6.0388e-39 207.5 346.5 0 0 0 0.57069 0.48603 -0.66188 0.0092906
-0.03272 0.12499 1.0073 6.2693e-39 187 347 0 0 0 -0.53441 0.43139 -0.72685 0.007426
0.029717 0.12489 1.0065 6.8225e-39 259 347 0 0 0 0.50747 0.51931 -0.6876 0.0069987
-0.031516 0.12606 1.0065 5.8083e-39 275 347 0 0 0 -0.50928 0.4433 -0.73765 0.0080289
0.026795 0.12676 1.0073 6.7303e-39 308.5 347.5 0 0 0 0.46356 0.55131 -0.69367 0.005008
0.028562 0.12617 1.0073 5.8083e-39 399 347 0 0 0 0.48937 0.53595 -0.68795 0.0062339
-0.030339 0.12842 1.0065 6.8225e-39 244 348 0 0 0 -0.48536 0.45797 -0.74477 0.0092678
-0.029161 0.12842 1.0065 7.0069e-39 246 348 0 0 0 -0.46745 0.46232 -0.75349 0.0094107
-0.027984 0.1296 1.0065 5.8083e-39 396 348 0 0 0 -0.44317 0.47741 -0.75873 0.010519
0.023839 0.12906 1.0069 6.2232e-39 269.5 348.5 0 0 0 0.42294 0.57879 -0.69723 0.0038889
0.025006 0.12842 1.0065 6.2693e-39 357 348 0 0 0 0.43733 0.56951 -0.69599 0.0042237
-0.026806 0.13078 1.0065 6.8225e-39 206 349 0 0 0 -0.41914 0.49004 -0.76431 0.011193
-0.025628 0.13195 1.0065 6.2693e-39 334 349 0 0 0 -0.39941 0.50298 -0.76648 0.012199
0.017941 0.13195 1.0065 5.5317e-39 506 349 0 0 0 0.34634 0.61613 -0.70742 0.0042083
0.021474 0.13078 1.0065 5.9005e-39 268 349 0 0 0 0.39398 0.59403 -0.70136 0.0041587
0.02267 0.13088 1.0073 6.2693e-39 269 349 0 0 0 0.40686 0.59059 -0.6969 0.0042733
-0.026828 0.13206 1.0073 5.7161e-39 290 349 0 0 0 -0.41462 0.49468 -0.76379 0.012441
-0.02505 0.13318 1.0069 5.7161e-39 181.5 350 0 0 0 -0.38451 0.50798 -0.77078 0.012621
0.01736 0.13318 1.0069 7.1452e-39 234.5 350 0 0 0 0.33684 0.62144 -0.70736 0.0042268
0.019119 0.13313 1.0065 7.4678e-39 236 350 0 0 0 0.35649 0.61413 -0.7041 0.004331
0.020313 0.13324 1.0073 7.4678e-39 237 350 0 0 0 0.36915 0.61221 -0.69924 0.004557
-0.022703 0.13501 1.0073 6.2232e-39 356.25 350 0 0 0 -0.35397 0.52337 -0.77511 0.01432
-0.020918 0.1349 1.0065 6.2232e-39 382.5 350 0 0 0 -0.31687 0.53572 -0.78268 0.012616
-0.019152 0.13549 1.0065 5.5778e-39 504.5 350 0 0 0 -0.28003 0.55516 -0.78319 0.012182
0.013231 0.13549 1.0065 5.5317e-39 174 351 0 0 0 0.27805 0.64892 -0.70823 0.004547
0.01501 0.13501 1.0073 5.9927e-39 264 350.5 0 0 0 0.3051 0.6384 -0.70665 0.0045209
0.016777 0.13442 1.0073 6.6381e-39 353 350 0 0 0 0.32582 0.62849 -0.70628 0.0045297
-0.020935 0.13677 1.0073 5.9005e-39 203 351 0 0 0 -0.30015 0.54024 -0.78616 0.013683
-0.019168 0.13677 1.0073 5.7622e-39 204.5 351 0 0 0 -0.26957 0.55943 -0.78382 0.012794
-0.01661 0.13752 1.007 5.9005e-39 254.67 351 0 0 0 -0.22529 0.57319 -0.78784 0.010211
-0.015037 0.1373 1.0069 6.131e-39 244 351 0 0 0 -0.20487 0.58163 -0.78723 0.0095821
-0.013264 0.13784 1.0065 5.5317e-39 281.5 351 0 0 0 -0.16278 0.59556 -0.78665 0.0082015
-0.011498 0.13784 1.0065 6.0849e-39 283 351 0 0 0 -0.13973 0.60944 -0.78043 0.007794
-0.0079651 0.13784 1.0065 5.9005e-39 286 351 0 0 0 -0.085281 0.64514 -0.75929 0.0073342
0.004988 0.13784 1.0065 6.4537e-39 351 351 0 0 0 0.14295 0.6915 -0.70809 0.0064519
0.0091095 0.13784 1.0065 6.7303e-39 354.5 351 0 0 0 0.209 0.67861 -0.70413 0.0058212
0.010876 0.13784 1.0065 5.9005e-39 358 351 0 0 0 0.23545 0.66707 -0.70681 0.0054425
0.012652 0.13677 1.0073 6.9608e-39 249.5 351 0 0 0 0.26852 0.65393 -0.7073 0.0049119
-0.013275 0.13913 1.0073 6.0388e-39 511.5 351 0 0 0 -0.15587 0.59769 -0.78643 0.0080724
-0.010914 0.13907 1.0069 6.2693e-39 513.5 351 0 0 0 -0.12009 0.61605 -0.7785 0.0075082
-0.0091426 0.13902 1.0065 6.3615e-39 515 351 0 0 0 -0.094719 0.63789 -0.76428 0.0074304
-0.0079716 0.13913 1.0073 6.3615e-39 516 351 0 0 0 -0.073296 0.64891 -0.75733 0.0072317
-0.005023 0.13907 1.0069 6.131e-39 331 351.5 0 0 0 -0.031252 0.67662 -0.73567 0.0078385
-0.0020773 0.13902 1.0065 6.0849e-39 146 352 0 0 0 0.021684 0.70482 -0.70905 0.0076733
-0.00089977 0.13902 1.0065 6.5459e-39 147 352 0 0 0 0.042949 0.7089 -0.704 0.0080865
0.0014565 0.13913 1.0073 5.9927e-39 149 352 0 0 0 0.084825 0.70944 -0.69964 0.0072324
0.0032232 0.13907 1.0069 5.9927e-39 150.5 352 0 0 0 0.11019 0.70766 -0.69791 0.006816
0.0049921 0.13913 1.0073 6.3615e-39 152 352 0 0 0 0.14227 0.69772 -0.7021 0.0060931
0.0067599 0.13913 1.0073 6.1771e-39 153.5 352 0 0 0 0.17298 0.69286 -0.70002 0.0059516
0.0097061 0.13913 1.0073 5.8083e-39 167 352 0 0 0 0.21506 0.67932 -0.70162 0.0057783
-0.0067931 0.14031 1.0073 6.2693e-39 202 352 0 0 0 -0.056545 0.66204 -0.74734 0.0069506
-0.0032575 0.14031 1.0073 5.6239e-39 205 352 0 0 0 0.0021017 0.70015 -0.71399 0.00764
0.00027801 0.14031 1.0073 6.0849e-39 208 352 0 0 0 0.06476 0.71989 -0.69106 0.0073447
0.042739 0.095604 1.0081 5.9927e-39 170 336 0 0 0 0.82067 0.052095 -0.56903 0.031226
0.043937 0.097413 1.0085 6.131e-39 288.5 336.5 0 0 0 0.83537 0.084291 -0.54319 0.029518
0.045098 0.097963 1.0081 5.8083e-39 222 337 0 0 0 0.83512 0.085693 -0.54335 0.028225
-0.043362 0.099143 1.0081 6.7303e-39 235 337 0 0 0 -0.75687 0.18265 -0.62752 0.023901
0.046278 0.10091 1.0081 6.1771e-39 290.5 338 0 0 0 0.83473 0.12971 -0.53517 0.026363
0.043955 0.10276 1.009 5.5317e-39 166 339 0 0 0 0.81435 0.17692 -0.55275 0.022813
0.045135 0.10276 1.009 5.3473e-39 167 339 0 0 0 0.83343 0.16404 -0.52772 0.023206
0.042739 0.10681 1.0081 7.053e-39 249 340 0 0 0 0.77839 0.23498 -0.58215 0.020005
-0.043362 0.10976 1.0081 6.0849e-39 184 341 0 0 0 -0.69924 0.30054 -0.64864 0.010822
0.04156 0.10976 1.0081 7.2835e-39 269 341 0 0 0 0.75077 0.28393 -0.59643 0.016877
0.042774 0.10867 1.009 5.8083e-39 155 341 0 0 0 0.77068 0.26426 -0.57985 0.017837
-0.043362 0.11094 1.0081 6.5459e-39 284 341 0 0 0 -0.69378 0.30796 -0.65102 0.010397
0.041628 0.11112 1.0098 5.6239e-39 147 342 0 0 0 0.75784 0.29812 -0.58035 0.016691
-0.042808 0.1128 1.009 6.085e-39 210.5 342 0 0 0 -0.69083 0.31906 -0.64881 0.010357
-0.042634 0.11502 1.0095 6.4537e-39 374.33 342.33 0 0 0 -0.6832 0.34355 -0.64437 0.0086259
-0.041003 0.11566 1.0081 7.1913e-39 236 343 0 0 0 -0.66819 0.35721 -0.65263 0.0076661
0.040413 0.11457 1.009 7.2835e-39 225 343 0 0 0 0.70574 0.36639 -0.60637 0.012189
-0.041037 0.11693 1.009 5.9927e-39 369 343 0 0 0 -0.66574 0.36413 -0.65131 0.0073904
-0.041071 0.11821 1.0098 6.9147e-39 219 344 0 0 0 -0.65964 0.3697 -0.65437 0.006535
-0.03925 0.11865 1.0085 7.0069e-39 286.5 344 0 0 0 -0.64337 0.38002 -0.66458 0.0058611
0.039201 0.11919 1.0081 5.8083e-39 191 345 0 0 0 0.66307 0.43047 -0.6124 0.010302
-0.036906 0.12106 1.0089 6.9608e-39 272.5 345 0 0 0 -0.60832 0.39719 -0.68716 0.005748
0.035663 0.12155 1.0081 6.1771e-39 187 346 0 0 0 0.62977 0.46006 -0.62588 0.009704
0.038053 0.12047 1.009 6.0849e-39 280 345 0 0 0 0.65527 0.44936 -0.6072 0.0099788
-0.035106 0.12273 1.0081 6.3615e-39 200 346 0 0 0 -0.57922 0.41068 -0.70417 0.0062804
0.033304 0.12391 1.0081 5.9927e-39 146 347 0 0 0 0.58813 0.4898 -0.64359 0.0098754
0.034539 0.12293 1.0098 6.3615e-39 271 346 0 0 0 0.6205 0.48078 -0.61954 0.0099918
-0.035163 0.12411 1.0098 5.8083e-39 284 346 0 0 0 -0.57598 0.41519 -0.70418 0.006823
-0.033927 0.12509 1.0081 5.9005e-39 186 347 0 0 0 -0.55218 0.42503 -0.71725 0.0071338
0.030945 0.12509 1.0081 6.7303e-39 260 347 0 0 0 0.54221 0.51403 -0.66467 0.008819
0.03215 0.12519 1.009 6.5459e-39 261 347 0 0 0 0.56996 0.50724 -0.64642 0.0095737
-0.033159 0.12673 1.0087 5.839e-39 228.33 347.33 0 0 0 -0.53433 0.43766 -0.72315 0.0078393
-0.031568 0.12745 1.0081 5.3473e-39 139 348 0 0 0 -0.50654 0.44722 -0.73716 0.0086331
0.027406 0.12745 1.0081 7.6522e-39 227 348 0 0 0 0.47118 0.55405 -0.6863 0.0056726
0.029199 0.12696 1.009 6.7764e-39 314.5 347.5 0 0 0 0.50458 0.54355 -0.67078 0.0071506
-0.032801 0.12884 1.0098 6.3615e-39 242 348 0 0 0 -0.52622 0.45 -0.72152 0.0088915
-0.031619 0.12884 1.0098 6.3615e-39 243 348 0 0 0 -0.51058 0.45256 -0.73109 0.009116
-0.029209 0.12981 1.0081 6.1771e-39 394 348 0 0 0 -0.46262 0.47219 -0.75035 0.010847
0.025047 0.12981 1.0081 5.7161e-39 184 349 0 0 0 0.43607 0.5779 -0.68983 0.0043987
0.02685 0.12878 1.0094 6.4537e-39 358.5 348 0 0 0 0.46119 0.57006 -0.67996 0.0052684
-0.030438 0.1312 1.0098 6.2693e-39 203 349 0 0 0 -0.4776 0.47646 -0.73816 0.011705
-0.028631 0.13104 1.0085 6.5459e-39 204.5 349 0 0 0 -0.44557 0.48267 -0.75399 0.011654
0.023887 0.1311 1.009 6.4537e-39 270 349 0 0 0 0.42202 0.59168 -0.68689 0.0045923
0.02627 0.13002 1.0098 5.7161e-39 185 349 0 0 0 0.45333 0.57789 -0.67862 0.0051005
-0.02866 0.13295 1.0096 5.8544e-39 230 349.5 0 0 0 -0.44087 0.49077 -0.75152 0.013371
-0.02685 0.13335 1.0081 5.5317e-39 173 350 0 0 0 -0.40972 0.4985 -0.76396 0.01343
0.021518 0.13282 1.0085 6.7764e-39 373.5 349.5 0 0 0 0.39246 0.6073 -0.69077 0.0050984
0.022716 0.13293 1.0094 6.7303e-39 374.5 349.5 0 0 0 0.40968 0.60239 -0.68504 0.0050051
-0.028075 0.13475 1.0098 6.1771e-39 256 350 0 0 0 -0.42216 0.49684 -0.75824 0.014865
-0.026872 0.13523 1.009 6.2232e-39 328 350 0 0 0 -0.40172 0.50357 -0.76488 0.015771
-0.025086 0.13515 1.0083 6.3154e-39 329.5 350 0 0 0 -0.37829 0.51309 -0.77048 0.015094
0.015611 0.13571 1.0081 5.7161e-39 178 351 0 0 0 0.3075 0.63679 -0.70706 0.0045513
0.017587 0.13539 1.0087 5.962e-39 237.67 350.67 0 0 0 0.33449 0.62875 -0.70199 0.0046956
0.019158 0.13517 1.0085 6.3615e-39 268 350.5 0 0 0 0.35569 0.62107 -0.6984 0.0050196
0.020346 0.13523 1.0089 6.2693e-39 269 350.5 0 0 0 0.36829 0.61692 -0.69554 0.0051858
-0.026894 0.13711 1.0098 5.9927e-39 198 351 0 0 0 -0.39329 0.51457 -0.76194 0.018041
-0.025112 0.13705 1.0094 6.3154e-39 199.5 351 0 0 0 -0.37669 0.51621 -0.76917 0.016839
-0.02273 0.13694 1.0085 6.4537e-39 201.5 351 0 0 0 -0.34453 0.53047 -0.77453 0.016524
0.015034 0.137 1.0089 7.0069e-39 251.5 351 0 0 0 0.30142 0.64196 -0.705 0.004899
0.017409 0.13711 1.0098 6.2693e-39 253.5 351 0 0 0 0.3301 0.63278 -0.70045 0.0053582
-0.030438 0.13829 1.0098 6.1771e-39 266 351 0 0 0 -0.44171 0.50808 -0.73942 0.018563
-0.029256 0.13888 1.0098 5.8083e-39 321.5 351 0 0 0 -0.43336 0.51098 -0.74236 0.018821
-0.026894 0.13888 1.0098 5.6239e-39 334.5 351 0 0 0 -0.38943 0.52012 -0.76014 0.019241
-0.025121 0.13829 1.0098 5.7161e-39 270.5 351 0 0 0 -0.37474 0.5197 -0.76778 0.018116
-0.022758 0.13829 1.0098 5.5778e-39 272.5 351 0 0 0 -0.33474 0.54267 -0.77036 0.019349
-0.020978 0.13882 1.0094 5.8083e-39 389.5 351 0 0 0 -0.29535 0.55091 -0.78056 0.017052
-0.019191 0.13871 1.0085 5.8083e-39 391 351 0 0 0 -0.2629 0.56131 -0.78474 0.013585
-0.016824 0.13924 1.0081 5.9005e-39 508.5 351 0 0 0 -0.22049 0.57346 -0.789 0.010975
-0.015055 0.13924 1.0081 6.0849e-39 510 351 0 0 0 -0.19058 0.5825 -0.79017 0.0097179
0.0085346 0.13924 1.0081 6.0849e-39 155 352 0 0 0 0.1989 0.68682 -0.69908 0.0059193
0.010894 0.13924 1.0081 5.6239e-39 168 352 0 0 0 0.22965 0.67507 -0.7011 0.0055904
0.012476 0.13857 1.009 6.2386e-39 296 351.33 0 0 0 0.26021 0.66364 -0.70134 0.0052081
0.014456 0.13829 1.0098 6.3615e-39 361 351 0 0 0 0.28802 0.65118 -0.70214 0.0054809
-0.026894 0.14065 1.0098 5.8083e-39 185 352 0 0 0 -0.38926 0.52671 -0.75568 0.021445
-0.019214 0.14065 1.0098 5.6239e-39 191.5 352 0 0 0 -0.24972 0.56391 -0.78718 0.014098
-0.016851 0.14065 1.0098 6.2232e-39 193.5 352 0 0 0 -0.21383 0.57466 -0.78996 0.011561
-0.01508 0.14065 1.0098 6.5459e-39 195 352 0 0 0 -0.17956 0.588 -0.78868 0.0099872
-0.013296 0.14054 1.009 6.131e-39 196.5 352 0 0 0 -0.14539 0.60398 -0.78362 0.0081223
-0.010931 0.14048 1.0085 5.9005e-39 198.5 352 0 0 0 -0.10665 0.6283 -0.77063 0.0076684
-0.0091576 0.14042 1.0081 6.5459e-39 200 352 0 0 0 -0.086149 0.64239 -0.76152 0.0070664
-0.0079911 0.14065 1.0098 6.6381e-39 201 352 0 0 0 -0.0652 0.65696 -0.7511 0.0070196
-0.0050353 0.1406 1.0094 5.8083e-39 203.5 352 0 0 0 -0.019356 0.68687 -0.72652 0.007284
-0.0020824 0.14054 1.009 5.8083e-39 206 352 0 0 0 0.030571 0.71619 -0.69723 0.0070674
-0.00090124 0.14042 1.0081 5.9005e-39 207 352 0 0 0 0.047464 0.72277 -0.68946 0.0069618
0.0014589 0.14054 1.009 6.4537e-39 211 352 0 0 0 0.085046 0.72348 -0.68509 0.0063731
0.0032296 0.14054 1.009 7.1452e-39 214.5 352 0 0 0 0.11252 0.71633 -0.68863 0.0062166
0.0050002 0.14054 1.009 6.8225e-39 221 352 0 0 0 0.14183 0.70789 -0.69194 0.005632
0.0067734 0.1406 1.0094 6.9147e-39 222.5 352 0 0 0 0.17297 0.70107 -0.6918 0.0057161
0.0097299 0.14065 1.0098 7.6522e-39 230 352 0 0 0 0.21795 0.68721 -0.693 0.0056767
-0.054155 0.095917 1.0114 7.1913e-39 275 335 0 0 0 -0.88477 0.07105 -0.46058 0.069751
0.042844 0.094657 1.0106 6.9147e-39 266 335 0 0 0 0.86193 0.018442 -0.50669 0.030497
0.044063 0.095917 1.0114 5.8083e-39 171 336 0 0 0 0.87102 0.046883 -0.489 0.028435
-0.054155 0.097101 1.0114 7.8366e-39 208 336 0 0 0 -0.87354 0.076034 -0.48079 0.062288
0.045209 0.097021 1.0106 6.3615e-39 357 336 0 0 0 0.8687 0.06217 -0.49142 0.02759
0.046429 0.099467 1.0114 5.7161e-39 390 337 0 0 0 0.87556 0.097346 -0.47319 0.026214
0.046391 0.10293 1.0106 6.2693e-39 185 339 0 0 0 0.85618 0.14704 -0.49531 0.023294
-0.045871 0.10538 1.0114 7.0069e-39 270 339 0 0 0 -0.76286 0.217 -0.60906 0.025096
0.044646 0.10477 1.0112 6.3615e-39 364.5 339 0 0 0 0.8403 0.18094 -0.51104 0.020715
-0.045871 0.10657 1.0114 5.5317e-39 480 339 0 0 0 -0.74331 0.24244 -0.62347 0.019208
0.044646 0.10714 1.0112 7.3757e-39 250.5 340 0 0 0 0.82411 0.22033 -0.52183 0.018839
0.044063 0.10893 1.0114 5.8083e-39 156 341 0 0 0 0.8064 0.24492 -0.53827 0.018869
-0.04467 0.11067 1.011 6.4537e-39 233 341 0 0 0 -0.71595 0.28817 -0.63591 0.014695
0.042879 0.11012 1.0114 6.9147e-39 270 341 0 0 0 0.79292 0.27408 -0.54421 0.01803
-0.043469 0.11594 1.0106 7.7444e-39 234 343 0 0 0 -0.68432 0.34702 -0.64131 0.0088294
0.04048 0.11594 1.0106 7.0069e-39 358 343 0 0 0 0.70486 0.39045 -0.59222 0.010972
-0.042895 0.11717 1.011 6.0388e-39 367.5 343 0 0 0 -0.67957 0.35778 -0.64045 0.0081809
-0.041138 0.11958 1.0114 6.3615e-39 351 344 0 0 0 -0.66112 0.37546 -0.64958 0.0065196
-0.039922 0.11949 1.0106 6.6381e-39 352 344 0 0 0 -0.65026 0.37874 -0.65857 0.0058803
-0.038739 0.12067 1.0106 7.0991e-39 203 345 0 0 0 -0.63558 0.3882 -0.66734 0.0054777
0.036932 0.12185 1.0106 6.3615e-39 188 346 0 0 0 0.6497 0.4653 -0.60116 0.0097605
0.038737 0.12136 1.0114 5.9927e-39 235 345.5 0 0 0 0.6702 0.45742 -0.58446 0.0096964
-0.036996 0.12313 1.0114 6.1771e-39 198.5 346 0 0 0 -0.60945 0.40367 -0.68236 0.0057541
0.035779 0.12313 1.0114 6.7303e-39 272 346 0 0 0 0.63856 0.48156 -0.60029 0.0093088
-0.035221 0.1255 1.0114 5.6239e-39 185 347 0 0 0 -0.57742 0.42337 -0.6981 0.0067404
0.033385 0.1254 1.0106 6.2693e-39 262 347 0 0 0 0.60225 0.50718 -0.61649 0.010193
0.034596 0.12432 1.0114 5.9927e-39 147 347 0 0 0 0.62644 0.49547 -0.60174 0.0094292
-0.03401 0.12776 1.0106 5.163e-39 510 347 0 0 0 -0.54937 0.43947 -0.71067 0.0077305
0.029838 0.12776 1.0106 7.4678e-39 229 348 0 0 0 0.52334 0.54661 -0.65371 0.0083286
0.031046 0.12668 1.0114 6.0849e-39 402 347 0 0 0 0.56381 0.5333 -0.63065 0.0099932
0.032229 0.12668 1.0114 5.8083e-39 403 347 0 0 0 0.58399 0.52532 -0.61887 0.010506
0.028656 0.12895 1.0106 6.6381e-39 360 348 0 0 0 0.48866 0.56403 -0.66564 0.0064972
-0.032854 0.13023 1.0114 5.7161e-39 376 348 0 0 0 -0.52779 0.45676 -0.71611 0.0093312
-0.031671 0.13023 1.0114 6.1771e-39 393 348 0 0 0 -0.51259 0.4608 -0.72451 0.010063
0.025109 0.13131 1.0106 6.3615e-39 271 349 0 0 0 0.43913 0.59094 -0.67673 0.0051326
0.027094 0.13099 1.0111 5.7776e-39 243.67 349 0 0 0 0.46163 0.58448 -0.66729 0.0059094
0.028679 0.13023 1.0114 6.1771e-39 187 349 0 0 0 0.48673 0.57247 -0.65982 0.0065951
-0.030463 0.13308 1.0106 6.131e-39 228.5 349.5 0 0 0 -0.46751 0.48776 -0.73725 0.013851
0.023936 0.13313 1.011 6.5459e-39 375.5 349.5 0 0 0 0.42515 0.60377 -0.67433 0.0054002
-0.030463 0.13486 1.0106 6.4537e-39 254 350 0 0 0 -0.46147 0.49547 -0.73591 0.015312
-0.02928 0.13486 1.0106 6.0849e-39 255 350 0 0 0 -0.44657 0.49464 -0.7456 0.015194
0.021562 0.13486 1.0106 6.1771e-39 357 350 0 0 0 0.3987 0.61337 -0.68177 0.0060342
0.022763 0.13497 1.0114 5.9927e-39 358 350 0 0 0 0.41063 0.61159 -0.67627 0.0059438
-0.030463 0.13663 1.0106 6.4537e-39 283.5 350.5 0 0 0 -0.45765 0.50044 -0.73493 0.016928
-0.028689 0.13663 1.0106 6.2002e-39 285.5 350.5 0 0 0 -0.43318 0.50152 -0.74889 0.016677
0.019197 0.13722 1.0106 5.9005e-39 255 351 0 0 0 0.35482 0.62538 -0.69499 0.0055919
0.020979 0.13668 1.011 6.0849e-39 219.5 351 0 0 0 0.3857 0.61919 -0.68399 0.0064387
-0.028098 0.13899 1.0106 5.6239e-39 322.5 351 0 0 0 -0.41703 0.51284 -0.75039 0.019004
-0.025142 0.13959 1.0106 6.2232e-39 401.5 351 0 0 0 -0.3699 0.52328 -0.76769 0.019431
-0.022777 0.13959 1.0106 6.0388e-39 503.5 351 0 0 0 -0.33134 0.54849 -0.76771 0.02075
0.013285 0.13959 1.0106 6.2693e-39 170 352 0 0 0 0.2678 0.66346 -0.69865 0.0057552
0.015663 0.13852 1.0114 6.0849e-39 362 351 0 0 0 0.30618 0.64513 -0.70004 0.0054689
0.016846 0.13852 1.0114 5.9927e-39 363 351 0 0 0 0.32396 0.63856 -0.69807 0.0060597
0.018621 0.13852 1.0114 6.3154e-39 364.5 351 0 0 0 0.34732 0.63177 -0.69299 0.0060907
-0.026916 0.14195 1.0106 6.8225e-39 247 352 0 0 0 -0.39209 0.52774 -0.75349 0.023902
-0.025142 0.14077 1.0106 5.4395e-39 186.5 352 0 0 0 -0.37457 0.52592 -0.76361 0.021441
-0.022777 0.14077 1.0106 5.5778e-39 188.5 352 0 0 0 -0.33114 0.55195 -0.76531 0.02273
-0.021004 0.14077 1.0106 5.6239e-39 190 352 0 0 0 -0.27487 0.55672 -0.78391 0.016659
-0.012727 0.14195 1.0106 6.4537e-39 260 352 0 0 0 -0.12405 0.61607 -0.77786 0.0083048
-0.0032682 0.14195 1.0106 6.0849e-39 263 352 0 0 0 0.021931 0.72067 -0.69293 0.0065321
-0.00090345 0.14195 1.0106 5.7161e-39 265 352 0 0 0 0.054115 0.73448 -0.67646 0.0060238
0.0085555 0.14077 1.0106 7.0991e-39 229 352 0 0 0 0.19818 0.69649 -0.68965 0.0056654
0.01092 0.14077 1.0106 7.8366e-39 231 352 0 0 0 0.23173 0.68425 -0.69145 0.0059069
-0.025162 0.14266 1.0114 6.108e-39 269.5 352 0 0 0 -0.37082 0.53208 -0.76118 0.023115
-0.022796 0.14266 1.0114 6.4767e-39 294 352 0 0 0 -0.31618 0.55853 -0.76686 0.023928
-0.021021 0.14207 1.0114 5.9927e-39 253 352 0 0 0 -0.27529 0.55723 -0.7834 0.018561
-0.019246 0.14207 1.0114 5.8544e-39 254.5 352 0 0 0 -0.24135 0.56813 -0.78675 0.015547
-0.016879 0.14207 1.0114 6.0849e-39 256.5 352 0 0 0 -0.20592 0.58107 -0.78737 0.012754
-0.015104 0.14207 1.0114 6.7303e-39 258 352 0 0 0 -0.17087 0.59646 -0.78424 0.010589
-0.013921 0.14207 1.0114 6.6381e-39 259 352 0 0 0 -0.14901 0.60384 -0.78306 0.0094647
-0.0020875 0.14207 1.0114 5.8083e-39 264 352 0 0 0 0.039173 0.73513 -0.67679 0.0060475
0.0050125 0.14207 1.0114 5.7161e-39 269 352 0 0 0 0.1435 0.72114 -0.67776 0.0053837
-0.022796 0.14443 1.0114 5.9005e-39 508.5 352 0 0 0 -0.28786 0.55365 -0.78141 0.021562
-0.053102 0.093781 1.0139 6.4537e-39 235 334 0 0 0 -0.92026 0.034714 -0.38977 0.077803
-0.054199 0.094812 1.0123 5.9927e-39 159 335 0 0 0 -0.90273 0.052672 -0.42696 0.076176
0.044171 0.094967 1.0139 6.8225e-39 267 335 0 0 0 0.90005 0.0058897 -0.43575 0.02896
-0.053102 0.09734 1.0139 7.8366e-39 209 336 0 0 0 -0.89665 0.067272 -0.43761 0.065753
-0.051302 0.0973 1.0135 7.3757e-39 210.5 336 0 0 0 -0.87651 0.0582 -0.47786 0.059072
0.045358 0.096154 1.0139 5.6239e-39 172 336 0 0 0 0.89976 0.034947 -0.43499 0.02908
0.046544 0.09734 1.0139 6.4537e-39 358 336 0 0 0 0.90387 0.057805 -0.42389 0.027656
-0.054243 0.099038 1.0131 6.0849e-39 303 336.5 0 0 0 -0.8762 0.093277 -0.47283 0.062021
-0.053102 0.098526 1.0139 5.7161e-39 380 336 0 0 0 -0.88329 0.08221 -0.46155 0.062517
-0.051097 0.098867 1.0134 6.3e-39 331 336.33 0 0 0 -0.86166 0.090452 -0.49936 0.053067
-0.049543 0.099712 1.0139 7.1913e-39 231 337 0 0 0 -0.84536 0.11633 -0.52137 0.046863
0.046467 0.098365 1.0123 5.9005e-39 223 337 0 0 0 0.8811 0.081776 -0.46581 0.026304
-0.050688 0.10082 1.0131 6.4537e-39 400 337 0 0 0 -0.84283 0.12407 -0.52368 0.045309
-0.049502 0.10082 1.0131 6.1771e-39 401 337 0 0 0 -0.83803 0.12781 -0.53044 0.043219
-0.045927 0.10137 1.0127 6.592e-39 317 337.5 0 0 0 -0.80106 0.15222 -0.5789 0.036453
0.047691 0.10141 1.0131 5.9466e-39 291.5 338 0 0 0 0.88365 0.12215 -0.45193 0.02337
-0.050729 0.10208 1.0139 6.7303e-39 225 338 0 0 0 -0.84294 0.13174 -0.52163 0.04402
-0.049543 0.10268 1.0139 6.5459e-39 304 338 0 0 0 -0.837 0.1517 -0.52575 0.041122
-0.045909 0.1031 1.0123 5.8083e-39 385 338 0 0 0 -0.78758 0.18424 -0.58803 0.033289
-0.04717 0.10564 1.0139 7.0991e-39 269 339 0 0 0 -0.79171 0.2054 -0.57533 0.032395
-0.045909 0.10429 1.0123 6.6381e-39 204 339 0 0 0 -0.78193 0.20248 -0.58957 0.030951
0.046525 0.105 1.0135 5.9928e-39 366 339 0 0 0 0.87057 0.15953 -0.46547 0.020283
-0.04717 0.10683 1.0139 5.7161e-39 479 339 0 0 0 -0.78738 0.21546 -0.57759 0.031807
-0.045909 0.10784 1.0123 7.6522e-39 226 340 0 0 0 -0.74405 0.25429 -0.61784 0.019538
0.046506 0.10674 1.0131 7.1913e-39 220 340 0 0 0 0.85892 0.19039 -0.4754 0.019648
-0.04717 0.10802 1.0139 7.2835e-39 225 340 0 0 0 -0.77385 0.23198 -0.58936 0.029817
-0.045946 0.10911 1.0131 6.9147e-39 340 340 0 0 0 -0.74331 0.2587 -0.6169 0.019912
0.045283 0.10902 1.0123 5.3473e-39 157 341 0 0 0 0.82544 0.23416 -0.51364 0.017578
0.046544 0.10802 1.0139 6.8225e-39 284 340 0 0 0 0.85551 0.20778 -0.47428 0.018004
-0.045965 0.11094 1.0135 6.4998e-39 223.5 341 0 0 0 -0.7343 0.27709 -0.61969 0.019051
0.04295 0.11148 1.0131 5.5317e-39 148 342 0 0 0 0.79615 0.28735 -0.53252 0.017469
0.044746 0.11034 1.0135 7.2374e-39 271.5 341 0 0 0 0.8237 0.25533 -0.50629 0.017204
-0.045354 0.11326 1.0131 5.8083e-39 208.5 342 0 0 0 -0.71046 0.31099 -0.63129 0.012998
0.041765 0.11327 1.0131 6.6842e-39 324 342 0 0 0 0.76411 0.32796 -0.5555 0.01544
