# .PCD v.7 - Point Cloud Data file format
VERSION .7
FIELDS x y z rgb u v vx vy vz normal_x normal_y normal_z curvature
SIZE 4 4 4 4 4 4 4 4 4 4 4 4 4
TYPE F F F F F F F F F F F F F
COUNT 1 1 1 1 1 1 1 1 1 1 1 1 1
WIDTH 555
HEIGHT 1
VIEWPOINT 0 0 0 1 0 0 0
POINTS 555
DATA ascii
-0.0078373 0.12752 0.99035 5.163e-39 280 343 0 0 0 -0.20356 0.57641 -0.7914 0.0072997
0.013019 0.12752 0.99035 7.6522e-39 338 343 0 0 0 0.18393 0.57058 -0.80038 0.0055243
0.015336 0.12752 0.99035 8.2054e-39 340 343 0 0 0 0.22526 0.56093 -0.79663 0.0061856
0.017272 0.12717 0.99062 7.4064e-39 301.33 343 0 0 0 0.25956 0.54764 -0.79544 0.0064623
0.019209 0.12681 0.99088 6.8532e-39 262.67 343 0 0 0 0.30387 0.5345 -0.78865 0.0071325
0.020583 0.12714 0.99194 7.2835e-39 284 343 0 0 0 0.33355 0.53575 -0.77571 0.0068461
-0.013073 0.12888 0.99194 7.9749e-39 378.5 343 0 0 0 -0.26556 0.55493 -0.78837 0.0063123
-0.010747 0.12883 0.99155 7.7444e-39 380.5 343 0 0 0 -0.23703 0.57184 -0.78537 0.0065663
-0.0090032 0.12878 0.99115 7.6522e-39 382 343 0 0 0 -0.21808 0.57954 -0.78522 0.0067362
-0.0070688 0.12913 0.99088 7.0376e-39 407 343 0 0 0 -0.18865 0.58989 -0.78513 0.0070954
-0.0049426 0.12931 0.99075 6.9377e-39 420.5 343 0 0 0 -0.14992 0.60184 -0.78442 0.0070258
-0.0026254 0.12994 0.99115 6.3154e-39 458 343 0 0 0 -0.10418 0.6132 -0.78303 0.0062961
-0.00088534 0.12984 0.99035 6.5459e-39 460 343 0 0 0 -0.074626 0.61117 -0.78798 0.0058785
0.00065999 0.12952 0.99088 6.5766e-39 437.67 343 0 0 0 -0.047124 0.61385 -0.78801 0.0052831
0.0033641 0.12949 0.99062 7.0683e-39 440 343 0 0 0 -0.0025316 0.61234 -0.79059 0.0048759
0.00491 0.12931 0.99075 7.3296e-39 429.5 343 0 0 0 0.023455 0.60988 -0.79215 0.0048151
0.0066486 0.12931 0.99075 7.0529e-39 431 343 0 0 0 0.055619 0.60723 -0.79258 0.0048469
0.0087725 0.1291 0.99062 6.8225e-39 421.33 343 0 0 0 0.095982 0.6002 -0.79407 0.0052359
0.01128 0.12868 0.99035 7.1452e-39 399.5 343 0 0 0 0.15128 0.5879 -0.79466 0.0055059
0.013029 0.12878 0.99115 7.1913e-39 401 343 0 0 0 0.17562 0.58557 -0.79137 0.0056672
0.014768 0.12878 0.99115 6.4076e-39 402.5 343 0 0 0 0.20665 0.57637 -0.79063 0.0061525
0.016521 0.12888 0.99194 5.7161e-39 404 343 0 0 0 0.23809 0.57313 -0.78411 0.0066527
-0.010171 0.13004 0.99194 5.3473e-39 451 343 0 0 0 -0.22233 0.58389 -0.78079 0.0065008
-0.0090105 0.13004 0.99194 5.6239e-39 452 343 0 0 0 -0.2113 0.59175 -0.77794 0.0066605
-0.0072696 0.13063 0.99194 5.624e-39 337 343.5 0 0 0 -0.18235 0.6041 -0.77577 0.0066434
-0.0049486 0.13121 0.99194 5.5778e-39 222.5 344 0 0 0 -0.14177 0.61709 -0.77402 0.0064163
-0.0026276 0.13121 0.99194 6.4537e-39 224.5 344 0 0 0 -0.10403 0.62247 -0.7757 0.0057332
-0.00088605 0.1311 0.99115 6.5459e-39 226 344 0 0 0 -0.071078 0.62186 -0.7799 0.0051995
0.00085404 0.13121 0.99194 6.3154e-39 227.5 344 0 0 0 -0.045235 0.62726 -0.7775 0.0046879
0.0031741 0.13115 0.99155 6.4076e-39 229.5 344 0 0 0 -0.010173 0.62444 -0.781 0.0044563
0.0049159 0.13121 0.99194 6.8225e-39 231 344 0 0 0 0.022724 0.62498 -0.78031 0.0047453
0.0066566 0.13121 0.99194 7.1913e-39 232.5 344 0 0 0 0.054192 0.62138 -0.78164 0.0051008
0.009558 0.13004 0.99194 5.9005e-39 470 343 0 0 0 0.10912 0.6089 -0.78571 0.0055185
0.011299 0.13004 0.99194 5.7622e-39 471.5 343 0 0 0 0.14607 0.60047 -0.78619 0.0056434
0.0142 0.13004 0.99194 5.8083e-39 474 343 0 0 0 0.19551 0.5886 -0.78443 0.0065547
-0.0427 0.099951 0.99274 5.163e-39 467 334 0 0 0 -0.39975 0.58404 -0.70647 0.030108
-0.04041 0.098869 0.99354 7.4678e-39 390 334 0 0 0 -0.42351 0.57654 -0.69874 0.027628
-0.039216 0.099951 0.99274 5.7161e-39 470 334 0 0 0 -0.45104 0.54974 -0.7031 0.025983
-0.036893 0.099951 0.99274 5.0708e-39 472 334 0 0 0 -0.46439 0.53097 -0.70881 0.024539
-0.038666 0.10061 0.99354 6.4536e-39 407 334.5 0 0 0 -0.45784 0.53017 -0.71366 0.025974
-0.036922 0.10119 0.99354 8.6664e-39 345 335 0 0 0 -0.46978 0.51123 -0.71969 0.023903
-0.03515 0.10111 0.99274 8.8508e-39 346.5 335 0 0 0 -0.47293 0.51034 -0.71826 0.022521
-0.033408 0.10111 0.99274 8.021e-39 348 335 0 0 0 -0.4811 0.49913 -0.7207 0.021495
0.047932 0.10119 0.99354 6.7303e-39 414 335 0 0 0 0.54762 0.37527 -0.74786 0.049864
-0.033435 0.10236 0.99354 5.5317e-39 428 335 0 0 0 -0.4868 0.47704 -0.73175 0.02026
-0.031085 0.10285 0.99274 6.638e-39 327.5 335.5 0 0 0 -0.48448 0.47059 -0.73745 0.018268
0.045571 0.10344 0.99274 6.7303e-39 349 336 0 0 0 0.49941 0.38458 -0.77633 0.034738
-0.031085 0.10518 0.99274 5.8544e-39 406 336 0 0 0 -0.48682 0.45084 -0.74817 0.016359
0.039764 0.10576 0.99274 4.6098e-39 481 336 0 0 0 0.46876 0.4011 -0.78701 0.020384
0.043265 0.10522 0.99314 5.163e-39 294 336.5 0 0 0 0.48661 0.39279 -0.78034 0.028779
0.044445 0.10468 0.99354 5.2552e-39 421 336 0 0 0 0.53197 0.37893 -0.75725 0.03812
-0.031085 0.10692 0.99274 7.0069e-39 218 337 0 0 0 -0.48952 0.437 -0.75459 0.015764
-0.029924 0.10692 0.99274 7.0069e-39 219 337 0 0 0 -0.49115 0.41471 -0.76602 0.013476
0.039764 0.10692 0.99274 5.4395e-39 276 337 0 0 0 0.46617 0.3967 -0.79076 0.019349
0.042087 0.10692 0.99274 5.4395e-39 278 337 0 0 0 0.47375 0.39553 -0.78684 0.023066
-0.03111 0.10875 0.99354 6.6842e-39 387 337 0 0 0 -0.50346 0.39015 -0.77091 0.011603
-0.029349 0.10868 0.99294 5.8544e-39 388.5 337 0 0 0 -0.49755 0.39117 -0.77423 0.010733
0.039199 0.1087 0.99314 6.0388e-39 288.5 337.5 0 0 0 0.47054 0.39708 -0.78798 0.019642
0.040925 0.10866 0.99274 5.9466e-39 291 337.5 0 0 0 0.47092 0.39676 -0.78792 0.021434
0.042103 0.1087 0.99314 5.9928e-39 308.5 337.5 0 0 0 0.48044 0.39389 -0.7836 0.023923
-0.03111 0.11049 0.99354 7.0991e-39 229 338 0 0 0 -0.50192 0.37983 -0.77705 0.0097385
-0.029166 0.11085 0.99327 7.3142e-39 279.33 338 0 0 0 -0.49906 0.37383 -0.78179 0.0077085
0.036867 0.11101 0.99294 5.7392e-39 392 338 0 0 0 0.4587 0.40226 -0.79233 0.014382
0.038633 0.11049 0.99354 6.3615e-39 352 338 0 0 0 0.46899 0.40327 -0.78577 0.017748
-0.028786 0.1134 0.99354 5.9005e-39 363.5 338.5 0 0 0 -0.49969 0.35885 -0.78838 0.0050319
-0.027601 0.11389 0.99274 5.8083e-39 263 339 0 0 0 -0.49847 0.35359 -0.79152 0.0042144
0.035132 0.11335 0.99314 6.6842e-39 304.5 339 0 0 0 0.45935 0.40694 -0.78955 0.012852
0.036309 0.11282 0.99354 7.1913e-39 238 339 0 0 0 0.4633 0.40918 -0.78608 0.014065
-0.027601 0.11505 0.99274 7.0991e-39 397 339 0 0 0 -0.49838 0.3492 -0.79353 0.0041374
0.033956 0.11505 0.99274 5.7161e-39 457 339 0 0 0 0.44691 0.40998 -0.7951 0.010862
-0.027612 0.11684 0.99314 6.7303e-39 226 340 0 0 0 -0.49662 0.35264 -0.79311 0.0043591
0.03339 0.11684 0.99314 6.6841e-39 320.5 340 0 0 0 0.44502 0.42479 -0.78836 0.010402
-0.026841 0.11898 0.99327 5.4088e-39 329.33 340.33 0 0 0 -0.48121 0.36241 -0.79818 0.0049762
-0.024898 0.11934 0.99301 5.163e-39 264.33 340.67 0 0 0 -0.46777 0.3772 -0.79932 0.0051034
0.031065 0.11916 0.99314 5.9927e-39 361.5 340.5 0 0 0 0.42615 0.44793 -0.78597 0.0087584
0.049095 0.11979 0.99354 7.8366e-39 283 341 0 0 0 0.5129 0.42092 -0.74817 0.044321
-0.024136 0.12095 0.99354 8.1132e-39 335 341 0 0 0 -0.45165 0.38684 -0.80397 0.0057453
-0.022955 0.12086 0.99274 8.2976e-39 336 341 0 0 0 -0.44295 0.4018 -0.80147 0.005543
0.029311 0.12086 0.99274 7.4678e-39 381 341 0 0 0 0.42224 0.46251 -0.77962 0.0072271
-0.024136 0.12212 0.99354 5.8083e-39 408 341 0 0 0 -0.44183 0.39356 -0.80616 0.0060823
-0.022974 0.1227 0.99354 5.8544e-39 287 341.5 0 0 0 -0.42677 0.40856 -0.80681 0.0061275
-0.021412 0.12283 0.99301 5.839e-39 247.67 341.67 0 0 0 -0.4115 0.4232 -0.8072 0.0062392
0.026988 0.12318 0.99274 6.2693e-39 252 342 0 0 0 0.41898 0.483 -0.76887 0.0044466
0.028149 0.12318 0.99274 5.8083e-39 253 342 0 0 0 0.42086 0.48025 -0.76957 0.0046388
-0.020649 0.12444 0.99354 8.1132e-39 290 342 0 0 0 -0.39446 0.44101 -0.80617 0.0070899
-0.018701 0.12476 0.99301 7.8366e-39 328.33 342 0 0 0 -0.36669 0.46758 -0.80431 0.00643
-0.017148 0.1255 0.99274 6.5459e-39 403 342 0 0 0 -0.33674 0.49274 -0.80238 0.0061523
0.023503 0.1255 0.99274 4.9786e-39 443 342 0 0 0 0.38202 0.51214 -0.76927 0.0055989
0.025256 0.12555 0.99314 5.0247e-39 444.5 342 0 0 0 0.40008 0.50904 -0.76211 0.004706
0.026988 0.12434 0.99274 6.8225e-39 372 342 0 0 0 0.41839 0.491 -0.76411 0.00428
0.028172 0.12444 0.99354 6.7303e-39 373 342 0 0 0 0.41954 0.49198 -0.76285 0.0043201
-0.017162 0.12677 0.99354 4.7942e-39 481 342 0 0 0 -0.3242 0.5022 -0.80168 0.0066508
-0.015992 0.1273 0.99314 5.3473e-39 372.5 342.5 0 0 0 -0.30632 0.52139 -0.79644 0.006279
0.02118 0.12783 0.99274 7.4678e-39 345 343 0 0 0 0.33744 0.54159 -0.76995 0.0067546
0.022741 0.12712 0.99327 7.0684e-39 265.67 343 0 0 0 0.36955 0.52926 -0.76375 0.005884
0.024685 0.12677 0.99354 6.4537e-39 227 343 0 0 0 0.39294 0.51715 -0.76037 0.0048223
-0.014825 0.12899 0.99274 7.7444e-39 377 343 0 0 0 -0.28237 0.54092 -0.79226 0.0063508
0.017696 0.12899 0.99274 5.9927e-39 405 343 0 0 0 0.26037 0.56731 -0.78126 0.0068705
0.018857 0.12899 0.99274 6.1771e-39 406 343 0 0 0 0.28932 0.56083 -0.77574 0.0075033
0.020616 0.12909 0.99354 5.7622e-39 407.5 343 0 0 0 0.32361 0.55474 -0.76651 0.0071189
-0.014837 0.13025 0.99354 5.0708e-39 444 343 0 0 0 -0.27065 0.5533 -0.78779 0.0065835
-0.013083 0.13015 0.99274 5.3012e-39 445.5 343 0 0 0 -0.25508 0.56684 -0.78334 0.0064729
-0.010959 0.131 0.99327 5.163e-39 295 343.67 0 0 0 -0.22641 0.58956 -0.77534 0.006389
-0.009025 0.13142 0.99354 5.0708e-39 219 344 0 0 0 -0.20454 0.60461 -0.76981 0.0062386
-0.0078562 0.13131 0.99274 5.0708e-39 220 344 0 0 0 -0.18305 0.60856 -0.77211 0.0064264
0.0089849 0.13131 0.99274 7.1913e-39 234.5 344 0 0 0 0.09382 0.61926 -0.77956 0.0054168
0.011308 0.13131 0.99274 7.3757e-39 247.5 344 0 0 0 0.14045 0.61065 -0.77935 0.0057813
0.013055 0.13079 0.99314 6.6841e-39 361 343.5 0 0 0 0.17356 0.60156 -0.77974 0.0063353
0.014986 0.13092 0.99274 7.2834e-39 325.33 343.67 0 0 0 0.20383 0.59378 -0.77838 0.0065909
0.016931 0.13061 0.99327 6.5766e-39 401.67 343.33 0 0 0 0.23799 0.58525 -0.77514 0.0070871
0.018873 0.13025 0.99354 6.0849e-39 478 343 0 0 0 0.28363 0.57178 -0.76982 0.0076775
-0.0066948 0.13247 0.99274 7.8366e-39 345 344 0 0 0 -0.1658 0.62029 -0.76665 0.0060989
-0.0049566 0.13258 0.99354 7.1913e-39 346.5 344 0 0 0 -0.13704 0.62934 -0.76495 0.0056529
-0.0026296 0.13247 0.99274 6.6381e-39 348.5 344 0 0 0 -0.10223 0.63217 -0.76805 0.005267
-0.00088747 0.13247 0.99274 6.0849e-39 350 344 0 0 0 -0.070569 0.63472 -0.76951 0.0047661
0.00085485 0.13252 0.99314 5.9466e-39 351.5 344 0 0 0 -0.042082 0.63878 -0.76824 0.0043152
0.0029858 0.13293 0.99327 6.3e-39 374.33 344 0 0 0 -0.01206 0.64114 -0.76733 0.004028
0.0049218 0.1331 0.99314 5.7622e-39 388 344 0 0 0 0.016521 0.64053 -0.76775 0.0044918
0.0068576 0.13289 0.99301 5.7776e-39 378.67 344 0 0 0 0.052442 0.63583 -0.77004 0.0052047
0.0089883 0.13252 0.99314 6.2232e-39 358.5 344 0 0 0 0.0897 0.62908 -0.77214 0.0055993
0.011317 0.13258 0.99354 6.2693e-39 360.5 344 0 0 0 0.13575 0.62289 -0.77044 0.0060611
0.013061 0.13258 0.99354 6.0849e-39 362 344 0 0 0 0.16078 0.61733 -0.7701 0.0062422
0.014804 0.13258 0.99354 6.3615e-39 363.5 344 0 0 0 0.19496 0.60769 -0.76987 0.0068607
-0.042803 0.10136 0.99514 8.1132e-39 281 335 0 0 0 -0.41245 0.55235 -0.72443 0.030053
-0.041065 0.1008 0.99534 7.076e-39 375.5 334.5 0 0 0 -0.43826 0.5389 -0.71938 0.028669
-0.038146 0.10136 0.99514 7.9288e-39 344 335 0 0 0 -0.46921 0.51267 -0.71903 0.026075
-0.038744 0.10256 0.99554 6.1771e-39 423.5 335 0 0 0 -0.47025 0.50911 -0.72088 0.026162
-0.036982 0.10252 0.99514 5.8083e-39 425 335 0 0 0 -0.47917 0.49096 -0.72756 0.023512
-0.035229 0.10309 0.99494 6.2002e-39 324 335.5 0 0 0 -0.4858 0.47684 -0.73255 0.020836
-0.032704 0.10327 0.99487 6.6381e-39 292 335.67 0 0 0 -0.48937 0.47044 -0.73431 0.019114
-0.03525 0.10489 0.99554 5.9005e-39 362.5 336 0 0 0 -0.49295 0.46163 -0.7375 0.020267
-0.032907 0.10485 0.99514 6.2693e-39 371.5 336 0 0 0 -0.49405 0.45387 -0.74156 0.018545
0.045063 0.10535 0.99434 5.2551e-39 295.5 336.5 0 0 0 0.54044 0.37158 -0.75488 0.039593
-0.034653 0.10659 0.99514 6.3154e-39 325.5 336.5 0 0 0 -0.49928 0.44162 -0.74544 0.019098
-0.032907 0.10659 0.99514 6.5459e-39 327 336.5 0 0 0 -0.49577 0.43967 -0.74893 0.017868
0.043318 0.10709 0.99434 5.7161e-39 279 337 0 0 0 0.52315 0.38163 -0.76202 0.03448
0.045117 0.10664 0.99554 5.5779e-39 225 337 0 0 0 0.56518 0.3679 -0.73839 0.041725
-0.032351 0.10843 0.99594 8.3898e-39 347 337 0 0 0 -0.50855 0.38747 -0.76892 0.012948
0.039828 0.10942 0.99434 4.702e-39 173 338 0 0 0 0.48706 0.39667 -0.7781 0.02238
0.043371 0.10897 0.99554 5.7622e-39 309.5 337.5 0 0 0 0.5407 0.38798 -0.7464 0.035234
-0.031136 0.11175 0.99434 7.0069e-39 375 338 0 0 0 -0.50384 0.37046 -0.78032 0.0081584
-0.029972 0.11175 0.99434 7.2835e-39 376 338 0 0 0 -0.5019 0.36542 -0.78394 0.0066635
0.039472 0.11145 0.99514 5.9005e-39 408 338 0 0 0 0.49106 0.40412 -0.77172 0.021219
0.041008 0.11121 0.99474 6.4998e-39 395.5 338 0 0 0 0.51011 0.39826 -0.76235 0.026567
0.042188 0.11125 0.99514 6.2232e-39 398.5 338 0 0 0 0.51056 0.39923 -0.76154 0.028476
-0.031161 0.113 0.99514 6.1771e-39 463 338 0 0 0 -0.50783 0.35801 -0.78354 0.0059797
-0.029972 0.11291 0.99434 6.3615e-39 464 338 0 0 0 -0.50289 0.36015 -0.78574 0.0059121
0.037501 0.11291 0.99434 7.3757e-39 239 339 0 0 0 0.4632 0.41215 -0.78459 0.014622
0.038696 0.113 0.99514 7.2835e-39 240 339 0 0 0 0.48127 0.41196 -0.77373 0.018125
-0.031161 0.11475 0.99514 6.6381e-39 327 339 0 0 0 -0.50628 0.35131 -0.78757 0.005061
-0.029584 0.11485 0.99434 7.0068e-39 350.67 339 0 0 0 -0.5036 0.35145 -0.78922 0.0047474
0.035174 0.11524 0.99434 5.6239e-39 458 339 0 0 0 0.46283 0.41288 -0.78442 0.012814
0.036745 0.11452 0.99487 6.1156e-39 402 339 0 0 0 0.46395 0.41461 -0.78285 0.013771
0.038727 0.11426 0.99594 6.9147e-39 375 339 0 0 0 0.49159 0.41289 -0.76672 0.019153
-0.031186 0.11659 0.99594 5.5317e-39 162 340 0 0 0 -0.50937 0.34 -0.79053 0.0042854
-0.029212 0.11685 0.99487 6.2693e-39 204.33 340 0 0 0 -0.50257 0.3494 -0.79079 0.0043161
0.034621 0.11707 0.99514 7.0069e-39 321.5 340 0 0 0 0.46075 0.42772 -0.77767 0.012474
-0.028855 0.11892 0.99594 6.2693e-39 407 340 0 0 0 -0.4943 0.351 -0.79528 0.0049595
-0.027668 0.11999 0.99514 5.3473e-39 170 341 0 0 0 -0.4903 0.35784 -0.79471 0.005262
0.031684 0.11989 0.99434 5.6239e-39 259 341 0 0 0 0.43089 0.45602 -0.7787 0.0089786
0.032848 0.11873 0.99434 5.8083e-39 466 340 0 0 0 0.44197 0.445 -0.77887 0.010202
0.049174 0.11882 0.99514 5.3473e-39 162 341 0 0 0 0.56749 0.41455 -0.71141 0.049459
-0.027097 0.1212 0.99554 8.0671e-39 290.5 341 0 0 0 -0.47789 0.36744 -0.79787 0.0059902
-0.025319 0.12105 0.99434 8.2054e-39 292 341 0 0 0 -0.45948 0.37977 -0.80291 0.0057505
0.031128 0.12115 0.99514 7.4218e-39 382.5 341 0 0 0 0.42576 0.47212 -0.7719 0.0086384
0.032901 0.12008 0.99594 5.3473e-39 260 341 0 0 0 0.44052 0.46243 -0.76948 0.010158
-0.026525 0.123 0.99594 5.9005e-39 284 341.5 0 0 0 -0.45696 0.38486 -0.80192 0.0064765
-0.024952 0.12309 0.99514 5.5932e-39 244.67 341.67 0 0 0 -0.44438 0.39477 -0.80417 0.0064363
0.029381 0.1229 0.99514 5.9005e-39 356.5 341.5 0 0 0 0.42755 0.48312 -0.76406 0.0047604
-0.024767 0.12469 0.99554 7.9749e-39 286.5 342 0 0 0 -0.42812 0.41477 -0.80291 0.0074449
-0.022992 0.12454 0.99434 8.482e-39 288 342 0 0 0 -0.41175 0.42644 -0.80537 0.0073681
-0.021458 0.12542 0.99514 7.5908e-39 362.67 342 0 0 0 -0.38834 0.44963 -0.80438 0.0078262
-0.019502 0.12571 0.99434 7.2835e-39 401 342 0 0 0 -0.36517 0.47192 -0.80246 0.0074172
0.027031 0.12571 0.99434 5.7161e-39 446 342 0 0 0 0.41416 0.50409 -0.75787 0.0040148
0.028194 0.12571 0.99434 5.9927e-39 447 342 0 0 0 0.41793 0.5027 -0.75672 0.0040923
-0.018944 0.12702 0.99554 5.3934e-39 479.5 342 0 0 0 -0.34213 0.49272 -0.80011 0.007993
0.025868 0.12687 0.99434 6.0849e-39 228 343 0 0 0 0.40274 0.51658 -0.75561 0.0043913
0.027053 0.12697 0.99514 6.4537e-39 229 343 0 0 0 0.40998 0.51477 -0.75295 0.004146
0.02824 0.12707 0.99594 6.6381e-39 230 343 0 0 0 0.41736 0.51407 -0.74936 0.0040549
-0.016594 0.12861 0.99434 6.9147e-39 319 343 0 0 0 -0.30343 0.52245 -0.79686 0.0068303
0.023172 0.12891 0.99514 6.0542e-39 388.67 343 0 0 0 0.37092 0.54263 -0.75364 0.0057462
0.025316 0.12819 0.99554 6.592e-39 348.5 343 0 0 0 0.39491 0.52803 -0.75181 0.0045987
-0.016025 0.13046 0.99514 4.9786e-39 443 343 0 0 0 -0.28076 0.54824 -0.78778 0.0070857
-0.014861 0.13163 0.99514 5.3473e-39 214 344 0 0 0 -0.25667 0.57344 -0.778 0.0068388
-0.013104 0.13152 0.99434 5.5778e-39 215.5 344 0 0 0 -0.24209 0.5836 -0.77511 0.0066062
0.017724 0.13152 0.99434 7.3757e-39 253 344 0 0 0 0.25424 0.58832 -0.76762 0.0078277
0.018903 0.13163 0.99514 6.9147e-39 254 344 0 0 0 0.2793 0.58656 -0.76023 0.0080787
0.020654 0.13107 0.99534 5.8544e-39 367.5 343.5 0 0 0 0.32216 0.57165 -0.7546 0.0076619
-0.013125 0.1329 0.99594 8.3898e-39 339.5 344 0 0 0 -0.23385 0.59466 -0.76922 0.0067678
-0.010786 0.13279 0.99514 8.4359e-39 341.5 344 0 0 0 -0.21122 0.60723 -0.76594 0.0062859
-0.0090395 0.13279 0.99514 7.8366e-39 343 344 0 0 0 -0.19345 0.62079 -0.75973 0.0060173
-0.0072872 0.13327 0.99434 6.592e-39 376 344 0 0 0 -0.16726 0.62957 -0.75873 0.0056705
-0.0049628 0.1339 0.99474 5.5778e-39 409.5 344 0 0 0 -0.13136 0.6429 -0.7546 0.0051207
-0.0026347 0.1339 0.99474 5.5778e-39 411.5 344 0 0 0 -0.10111 0.64778 -0.75509 0.0047143
-0.0008889 0.13385 0.99434 5.3473e-39 413 344 0 0 0 -0.070219 0.64834 -0.7581 0.0043446
0.00085623 0.1339 0.99474 5.5778e-39 414.5 344 0 0 0 -0.042782 0.65368 -0.75556 0.0039214
0.0037644 0.13385 0.99434 4.9786e-39 420 344 0 0 0 -0.0016551 0.6528 -0.75753 0.003998
0.0060911 0.13385 0.99434 4.8864e-39 422 344 0 0 0 0.034819 0.6494 -0.75965 0.004839
0.0089995 0.13385 0.99434 5.6239e-39 424.5 344 0 0 0 0.088204 0.64106 -0.76241 0.0055676
0.011326 0.13385 0.99434 5.4395e-39 426.5 344 0 0 0 0.13002 0.63443 -0.76196 0.0062011
0.013071 0.13385 0.99434 4.7942e-39 428 344 0 0 0 0.15814 0.62593 -0.76368 0.0061243
0.014828 0.13396 0.99514 4.6098e-39 429.5 344 0 0 0 0.18791 0.6234 -0.75899 0.006918
0.016963 0.13318 0.99514 6.2079e-39 387.33 344 0 0 0 0.22926 0.60897 -0.75934 0.007549
0.018918 0.1329 0.99594 6.4537e-39 367 344 0 0 0 0.27335 0.60091 -0.75112 0.008279
-0.0067164 0.13523 0.99594 4.9786e-39 483 344 0 0 0 -0.15297 0.65146 -0.7431 0.0049047
-0.00089034 0.13523 0.99594 4.4254e-39 149 345 0 0 0 -0.065517 0.6636 -0.74521 0.0037686
0.0026053 0.13523 0.99594 4.9786e-39 152 345 0 0 0 -0.023037 0.66528 -0.74623 0.003672
0.0049317 0.13512 0.99514 5.3473e-39 154 345 0 0 0 0.016174 0.65892 -0.75204 0.0042808
0.0066806 0.13518 0.99554 5.3012e-39 155.5 345 0 0 0 0.045654 0.65944 -0.75037 0.0050261
0.0090101 0.13518 0.99554 5.2091e-39 157.5 345 0 0 0 0.08166 0.65467 -0.75149 0.005583
0.01134 0.13518 0.99554 5.2091e-39 159.5 345 0 0 0 0.12534 0.64706 -0.75207 0.0062174
0.013092 0.13523 0.99594 5.0708e-39 161 345 0 0 0 0.15701 0.64243 -0.75008 0.0066877
0.01484 0.13523 0.99594 5.1169e-39 162.5 345 0 0 0 0.18136 0.63465 -0.75122 0.0071621
-0.042907 0.10336 0.99755 5.624e-39 317.5 335.5 0 0 0 -0.44178 0.5215 -0.72998 0.031676
-0.040573 0.10277 0.99755 5.4395e-39 422 335 0 0 0 -0.45429 0.51551 -0.72655 0.029103
-0.038806 0.1039 0.99715 6.2232e-39 218.5 336 0 0 0 -0.48339 0.48552 -0.72842 0.025851
-0.037042 0.10385 0.99675 6.4537e-39 220 336 0 0 0 -0.47996 0.48412 -0.73162 0.022851
-0.042907 0.1051 0.99755 6.1771e-39 356 336 0 0 0 -0.45762 0.50655 -0.73074 0.031028
-0.038806 0.10506 0.99715 6.6842e-39 359.5 336 0 0 0 -0.48492 0.47984 -0.73117 0.025689
-0.037072 0.1051 0.99755 6.0849e-39 361 336 0 0 0 -0.49199 0.46836 -0.73388 0.023479
-0.042907 0.10627 0.99755 5.3473e-39 429 336 0 0 0 -0.46708 0.49627 -0.73181 0.030065
-0.039006 0.10663 0.99728 5.5625e-39 358.67 336.33 0 0 0 -0.49627 0.46301 -0.73439 0.025022
-0.037072 0.10686 0.99755 5.4856e-39 323.5 336.5 0 0 0 -0.50046 0.45075 -0.73916 0.02207
-0.035876 0.10677 0.99675 5.9005e-39 324.5 336.5 0 0 0 -0.50379 0.4457 -0.73996 0.020766
-0.035117 0.10897 0.99728 7.4371e-39 370.67 337 0 0 0 -0.51516 0.39528 -0.7605 0.015377
-0.033163 0.10932 0.99702 6.6995e-39 398.33 337 0 0 0 -0.51414 0.37795 -0.76994 0.011741
0.044589 0.10852 0.99675 6.3615e-39 409 337 0 0 0 0.56959 0.37577 -0.73101 0.040849
-0.032403 0.11094 0.99755 7.2835e-39 228 338 0 0 0 -0.51161 0.36616 -0.77729 0.009102
-0.032403 0.11269 0.99755 6.1771e-39 418 338 0 0 0 -0.51307 0.3556 -0.78122 0.0065428
0.039924 0.11318 0.99675 7.0991e-39 241 339 0 0 0 0.52344 0.40928 -0.74733 0.025458
0.04109 0.11318 0.99675 6.8225e-39 242 339 0 0 0 0.52856 0.40637 -0.74531 0.027339
0.042291 0.11327 0.99755 7.0991e-39 243 339 0 0 0 0.53304 0.40872 -0.74082 0.028796
0.037592 0.11551 0.99675 5.6239e-39 460 339 0 0 0 0.48252 0.42542 -0.76563 0.017203
0.039357 0.11498 0.99715 6.4076e-39 418.5 339 0 0 0 0.50861 0.41536 -0.75418 0.022549
0.041124 0.11444 0.99755 7.3757e-39 377 339 0 0 0 0.53141 0.41089 -0.74079 0.026596
-0.031211 0.11785 0.99675 7.7444e-39 285 340 0 0 0 -0.50883 0.34492 -0.78875 0.0046039
0.03526 0.11785 0.99675 8.2976e-39 387 340 0 0 0 0.46491 0.44239 -0.76691 0.013382
0.037024 0.11673 0.99715 5.67e-39 258.5 340 0 0 0 0.4774 0.43203 -0.76514 0.016295
0.038789 0.11678 0.99755 5.3473e-39 260 340 0 0 0 0.49981 0.42979 -0.75198 0.020596
0.049293 0.11794 0.99755 7.4678e-39 399 340 0 0 0 0.61692 0.40203 -0.6766 0.055493
-0.030641 0.11906 0.99715 6.9608e-39 405.5 340 0 0 0 -0.50166 0.3451 -0.79325 0.0049283
0.034093 0.11901 0.99675 5.4395e-39 472 340 0 0 0 0.45885 0.45006 -0.7661 0.012422
-0.030069 0.12086 0.99755 6.8685e-39 228 341 0 0 0 -0.49632 0.35218 -0.79349 0.0056366
-0.02889 0.12081 0.99715 6.7764e-39 229 341 0 0 0 -0.49152 0.358 -0.79388 0.0058216
0.032954 0.12144 0.99755 7.4678e-39 384 341 0 0 0 0.44412 0.47478 -0.75983 0.010566
-0.027712 0.1231 0.99675 5.9928e-39 283 341.5 0 0 0 -0.4726 0.37845 -0.79588 0.0066575
0.030992 0.12293 0.99702 5.8698e-39 392 341.33 0 0 0 0.4256 0.48866 -0.76163 0.0086429
-0.027141 0.12489 0.99715 7.7905e-39 284.5 342 0 0 0 -0.44812 0.40117 -0.79891 0.0075201
0.029429 0.12484 0.99675 7.0069e-39 374 342 0 0 0 0.42319 0.4997 -0.75578 0.0046307
-0.026568 0.12611 0.99755 8.2054e-39 395 342 0 0 0 -0.43833 0.41902 -0.79516 0.0089305
-0.024807 0.12606 0.99715 7.3296e-39 396.5 342 0 0 0 -0.41958 0.42908 -0.7999 0.0088559
-0.023057 0.12664 0.99715 6.2693e-39 437 342 0 0 0 -0.39635 0.45275 -0.7987 0.008992
-0.021308 0.12723 0.99715 6.131e-39 477.5 342 0 0 0 -0.36981 0.47554 -0.79819 0.0090503
0.029453 0.12611 0.99755 5.9005e-39 448 342 0 0 0 0.42361 0.51184 -0.74738 0.0046679
-0.020732 0.12845 0.99755 5.7161e-39 261 343 0 0 0 -0.35438 0.49098 -0.79584 0.0093196
0.025357 0.12956 0.99715 5.2091e-39 411.5 343 0 0 0 0.39068 0.5441 -0.74251 0.00492
0.027097 0.12834 0.99675 5.9927e-39 350 343 0 0 0 0.40574 0.52984 -0.74475 0.0044295
0.028286 0.12845 0.99755 5.7161e-39 351 343 0 0 0 0.41739 0.52659 -0.7406 0.0043625
-0.016051 0.13184 0.99675 4.7942e-39 213 344 0 0 0 -0.26854 0.5692 -0.77711 0.0076037
0.022833 0.13113 0.99728 5.3474e-39 406.67 343.33 0 0 0 0.3565 0.56787 -0.74191 0.0067017
-0.014897 0.13311 0.99755 7.6522e-39 338 344 0 0 0 -0.24729 0.59005 -0.76856 0.0072127
0.020691 0.13306 0.99715 6.131e-39 368.5 344 0 0 0 0.31276 0.59456 -0.74073 0.0082496
-0.013147 0.13428 0.99755 5.9927e-39 402.5 344 0 0 0 -0.22183 0.61267 -0.75857 0.0065884
-0.010803 0.13417 0.99675 5.67e-39 404.5 344 0 0 0 -0.19961 0.62506 -0.75462 0.00605
-0.0090541 0.13417 0.99675 6.0849e-39 406 344 0 0 0 -0.18023 0.63443 -0.75167 0.0056023
-0.0078879 0.13417 0.99675 5.8083e-39 407 344 0 0 0 -0.16815 0.64062 -0.74922 0.0053428
-0.0049748 0.1354 0.99715 4.5176e-39 484.5 344 0 0 0 -0.13052 0.66223 -0.73785 0.004451
-0.0026412 0.1354 0.99715 4.5637e-39 486.5 344 0 0 0 -0.099473 0.66558 -0.73966 0.0040412
0.00085815 0.13534 0.99675 4.702e-39 150.5 345 0 0 0 -0.037206 0.66882 -0.74249 0.0035337
0.0037735 0.13534 0.99675 5.0708e-39 153 345 0 0 0 0.0017367 0.6685 -0.74371 0.0041474
0.017191 0.13481 0.99715 4.9785e-39 298 344.5 0 0 0 0.2322 0.62535 -0.745 0.0082001
0.018949 0.13428 0.99755 4.702e-39 433 344 0 0 0 0.27387 0.61358 -0.74062 0.0089607
0.0049397 0.13651 0.99675 5.9005e-39 265 345 0 0 0 0.016093 0.67316 -0.73932 0.004138
0.0066914 0.13656 0.99715 5.3934e-39 266.5 345 0 0 0 0.043856 0.67559 -0.73597 0.0049882
0.0090285 0.13662 0.99755 5.3934e-39 272.5 345 0 0 0 0.078004 0.6728 -0.7357 0.0058377
0.011554 0.13697 0.99728 6.3307e-39 310.33 345 0 0 0 0.12299 0.66499 -0.73666 0.0064732
0.013103 0.13651 0.99675 5.3473e-39 280 345 0 0 0 0.15177 0.65434 -0.74081 0.0066737
0.014864 0.13662 0.99755 5.4856e-39 281.5 345 0 0 0 0.17557 0.65321 -0.73654 0.0076177
0.016615 0.13662 0.99755 5.9927e-39 283 345 0 0 0 0.21469 0.64375 -0.7345 0.008506
-0.041774 0.10285 0.99836 5.2552e-39 421 335 0 0 0 -0.44061 0.52132 -0.73081 0.030762
-0.041215 0.10467 0.99897 6.131e-39 287 336 0 0 0 -0.46535 0.49897 -0.73108 0.029568
-0.042976 0.10761 0.99917 4.702e-39 175 337 0 0 0 -0.47852 0.48781 -0.73011 0.030508
-0.041232 0.10705 0.99937 5.4165e-39 311.75 336.5 0 0 0 -0.48752 0.48056 -0.72897 0.02899
-0.03827 0.10753 0.99836 5.0708e-39 212 337 0 0 0 -0.50294 0.45007 -0.73789 0.024879
0.045829 0.10753 0.99836 6.9147e-39 281 337 0 0 0 0.63449 0.34444 -0.69194 0.052179
-0.040671 0.10887 0.99998 8.2054e-39 340 337 0 0 0 -0.5087 0.41611 -0.75371 0.022931
-0.038854 0.10869 0.99836 8.2976e-39 341.5 337 0 0 0 -0.51036 0.42807 -0.74585 0.022769
-0.037117 0.10932 0.99876 6.592e-39 382 337 0 0 0 -0.52501 0.38005 -0.76153 0.015198
-0.035934 0.10986 0.99836 5.4395e-39 422 337 0 0 0 -0.52477 0.37331 -0.76502 0.013785
0.0453 0.10941 0.99958 5.5779e-39 311 337.5 0 0 0 0.65339 0.35435 -0.66896 0.051131
-0.038722 0.11043 0.99998 5.8391e-39 354 337.33 0 0 0 -0.53096 0.36678 -0.76391 0.014752
-0.037162 0.11121 0.99998 7.4678e-39 224 338 0 0 0 -0.52965 0.36098 -0.76757 0.012657
-0.035365 0.11107 0.99876 7.8366e-39 225.5 338 0 0 0 -0.52435 0.36217 -0.77064 0.01083
-0.033597 0.11103 0.99836 7.4678e-39 227 338 0 0 0 -0.51707 0.36231 -0.77548 0.010072
0.043493 0.11103 0.99836 6.7303e-39 356 338 0 0 0 0.56853 0.38897 -0.7249 0.038167
-0.037162 0.11297 0.99998 6.3615e-39 412.5 338 0 0 0 -0.53268 0.3436 -0.77343 0.0083084
-0.035386 0.1129 0.99937 6.0849e-39 414 338 0 0 0 -0.52792 0.34607 -0.77558 0.007448
-0.033597 0.11278 0.99836 5.9005e-39 416 338 0 0 0 -0.51863 0.34991 -0.78012 0.0069031
0.043545 0.11292 0.99958 6.2693e-39 343.5 338.5 0 0 0 0.59344 0.39784 -0.69968 0.039995
-0.035193 0.11505 0.99944 6.3308e-39 301.33 339 0 0 0 -0.5238 0.34053 -0.78081 0.0058452
-0.033013 0.11512 0.99836 6.5228e-39 325.5 339 0 0 0 -0.51367 0.3468 -0.78477 0.0053362
0.039989 0.1157 0.99836 5.7161e-39 462 339 0 0 0 0.52978 0.41949 -0.73713 0.026062
0.041157 0.1157 0.99836 6.1771e-39 463 339 0 0 0 0.53476 0.42021 -0.73311 0.027594
0.042738 0.11498 0.9989 7.0991e-39 407 339 0 0 0 0.5491 0.41865 -0.72334 0.031589
-0.034822 0.11706 0.99998 4.5176e-39 481 339 0 0 0 -0.52341 0.33302 -0.78431 0.0049133
-0.033027 0.11692 0.99876 4.7942e-39 482.5 339 0 0 0 -0.51472 0.33693 -0.78837 0.0046542
0.040606 0.11696 0.99917 5.5778e-39 261.5 340 0 0 0 0.53286 0.43069 -0.7284 0.02703
0.042359 0.11696 0.99917 5.6239e-39 263 340 0 0 0 0.55002 0.42594 -0.71837 0.031801
0.049413 0.11706 0.99998 5.8083e-39 277 340 0 0 0 0.65726 0.39333 -0.64288 0.060965
-0.034822 0.11823 0.99998 6.9147e-39 282 340 0 0 0 -0.52235 0.3319 -0.78549 0.0048997
-0.033041 0.11872 0.99917 7.3987e-39 343.5 340 0 0 0 -0.5141 0.33406 -0.79 0.0047723
0.035317 0.11921 0.99836 5.3473e-39 473 340 0 0 0 0.4664 0.45422 -0.75905 0.01396
0.037084 0.11867 0.99876 6.5459e-39 431.5 340 0 0 0 0.486 0.44956 -0.74946 0.018264
0.038868 0.11876 0.99958 6.4537e-39 433 340 0 0 0 0.52072 0.44811 -0.72667 0.024554
0.04063 0.11879 0.99978 6.4767e-39 434.5 340 0 0 0 0.5357 0.44355 -0.71854 0.028807
0.042393 0.11882 0.99998 6.4997e-39 436 340 0 0 0 0.54181 0.44259 -0.71454 0.031183
0.045903 0.11882 0.99998 6.0849e-39 439 340 0 0 0 0.58294 0.43505 -0.68623 0.043149
-0.032482 0.12115 0.99998 6.8224e-39 226 341 0 0 0 -0.50705 0.34585 -0.78948 0.0060844
-0.031274 0.121 0.99876 6.9146e-39 227 341 0 0 0 -0.50126 0.3522 -0.79037 0.0059998
0.034566 0.12086 0.99917 6.3922e-39 302.67 341 0 0 0 0.46463 0.47212 -0.74915 0.01331
0.037129 0.12057 0.99998 5.8083e-39 263.5 341 0 0 0 0.48833 0.46487 -0.73853 0.018696
0.041223 0.12057 0.99998 5.9927e-39 276 341 0 0 0 0.53033 0.45611 -0.71464 0.028287
0.042393 0.12057 0.99998 5.9005e-39 277 341 0 0 0 0.54246 0.45369 -0.70704 0.03077
0.045903 0.12115 0.99998 6.6381e-39 337.5 341 0 0 0 0.57284 0.445 -0.68835 0.043104
-0.030491 0.12313 0.99863 5.9927e-39 429.33 341 0 0 0 -0.4923 0.36822 -0.78871 0.006757
-0.028925 0.12329 0.99836 5.5318e-39 444 341 0 0 0 -0.48588 0.37466 -0.78965 0.0070029
0.031812 0.12388 0.99836 6.0849e-39 256 342 0 0 0 0.43014 0.50073 -0.75117 0.0090073
0.033007 0.12339 0.99917 6.1771e-39 359.5 341.5 0 0 0 0.43875 0.49621 -0.74918 0.010095
-0.032482 0.12525 0.99998 5.0708e-39 280 342 0 0 0 -0.49809 0.37527 -0.78172 0.0079439
-0.030906 0.12479 0.99944 5.3166e-39 348.33 341.67 0 0 0 -0.49149 0.37636 -0.78536 0.007519
-0.028925 0.12505 0.99836 7.3757e-39 283 342 0 0 0 -0.47224 0.3909 -0.79006 0.008134
0.031241 0.1251 0.99876 7.4679e-39 375.5 342 0 0 0 0.42335 0.51366 -0.74628 0.0085912
0.033034 0.12525 0.99998 7.8366e-39 377 342 0 0 0 0.43651 0.51553 -0.73735 0.010216
-0.032482 0.12642 0.99998 7.2835e-39 390 342 0 0 0 -0.49544 0.38079 -0.78073 0.0088152
-0.03013 0.12696 0.99958 7.0068e-39 429.5 342 0 0 0 -0.47417 0.40133 -0.78364 0.00964
-0.02896 0.12696 0.99958 6.9146e-39 432 342 0 0 0 -0.46254 0.40644 -0.78795 0.0095962
-0.027375 0.12702 0.99863 6.6381e-39 446.33 342 0 0 0 -0.43872 0.42069 -0.79407 0.0094459
-0.024848 0.12743 0.99876 5.7161e-39 474.5 342 0 0 0 -0.40434 0.4505 -0.79596 0.009706
0.029476 0.12738 0.99836 7.0069e-39 231 343 0 0 0 0.42012 0.52329 -0.74139 0.0047502
0.031076 0.12678 0.99971 6.1464e-39 377.67 342.33 0 0 0 0.43676 0.5202 -0.73392 0.0054354
-0.027015 0.12911 0.99971 6.423e-39 293.67 343 0 0 0 -0.41734 0.44563 -0.79198 0.011055
-0.024862 0.12926 0.99937 6.6151e-39 314.5 343 0 0 0 -0.38929 0.46954 -0.79246 0.010816
-0.023095 0.12918 0.99876 6.5458e-39 316 343 0 0 0 -0.3715 0.48414 -0.79221 0.010303
-0.021534 0.12936 0.99863 7.0683e-39 336.33 343 0 0 0 -0.35293 0.50115 -0.79012 0.010348
0.02714 0.12972 0.99836 5.163e-39 413 343 0 0 0 0.40849 0.54012 -0.7358 0.0045565
0.028916 0.12923 0.99917 5.67e-39 383 343 0 0 0 0.42049 0.5363 -0.73183 0.0047528
-0.024292 0.1311 0.99998 4.8864e-39 436 343 0 0 0 -0.36458 0.49966 -0.78576 0.011272
-0.023123 0.1311 0.99998 5.3473e-39 437 343 0 0 0 -0.34763 0.51167 -0.78572 0.010651
-0.021342 0.13094 0.99876 5.3473e-39 438.5 343 0 0 0 -0.33752 0.51743 -0.78635 0.010159
0.025399 0.13094 0.99876 4.5637e-39 484.5 343 0 0 0 0.39295 0.55895 -0.73019 0.0052945
0.027184 0.1311 0.99998 4.702e-39 487 343 0 0 0 0.40521 0.5579 -0.72426 0.0050477
-0.021368 0.13227 0.99998 5.1629e-39 207 344 0 0 0 -0.32481 0.53362 -0.78087 0.010361
-0.01902 0.1328 0.99958 5.9005e-39 273.5 344 0 0 0 -0.2911 0.56289 -0.77358 0.0090941
-0.016668 0.13328 0.99876 7.6061e-39 336.5 344 0 0 0 -0.26787 0.57862 -0.77035 0.008053
0.023272 0.13298 0.99944 6.6688e-39 333 344 0 0 0 0.3599 0.5875 -0.72479 0.0073896
0.024844 0.13285 0.99998 6.4997e-39 315.5 344 0 0 0 0.38401 0.57745 -0.72048 0.0063125
0.026014 0.13285 0.99998 6.7764e-39 316.5 344 0 0 0 0.39474 0.56964 -0.7209 0.0056394
-0.016681 0.13455 0.99958 7.2374e-39 399.5 344 0 0 0 -0.25654 0.59729 -0.75989 0.0077152
-0.014921 0.13509 0.99917 6.4998e-39 438.5 344 0 0 0 -0.23322 0.61429 -0.75383 0.0071377
-0.013168 0.13567 0.99917 6.0388e-39 477.5 344 0 0 0 -0.21172 0.63048 -0.74677 0.0062542
-0.010821 0.13556 0.99836 5.5317e-39 479.5 344 0 0 0 -0.19219 0.64281 -0.74152 0.0057694
-0.0090687 0.13556 0.99836 5.163e-39 481 344 0 0 0 -0.17301 0.65332 -0.73705 0.0051776
-0.0079007 0.13556 0.99836 5.2552e-39 482 344 0 0 0 -0.16041 0.65855 -0.73524 0.0048561
0.017796 0.13556 0.99836 5.3473e-39 194 345 0 0 0 0.24503 0.63505 -0.73258 0.0090753
0.018964 0.13556 0.99836 5.8083e-39 195 345 0 0 0 0.27137 0.62573 -0.73132 0.0093271
0.020724 0.13503 0.99876 5.0016e-39 315.5 344.5 0 0 0 0.30594 0.61477 -0.72695 0.0092938
0.022505 0.13461 0.99998 4.7942e-39 436 344 0 0 0 0.33688 0.61034 -0.71694 0.0088611
-0.010838 0.13695 0.99998 7.9749e-39 251.5 345 0 0 0 -0.18732 0.65614 -0.73102 0.0054358
-0.0090834 0.13695 0.99998 7.6522e-39 253 345 0 0 0 -0.16689 0.66701 -0.72612 0.0049442
-0.0073231 0.13684 0.99917 7.053e-39 254.5 345 0 0 0 -0.15187 0.6698 -0.72685 0.0045977
-0.0049829 0.13679 0.99876 6.4998e-39 256.5 345 0 0 0 -0.1253 0.67801 -0.7243 0.0039961
-0.0026454 0.13679 0.99876 6.1771e-39 258.5 345 0 0 0 -0.094279 0.68359 -0.72375 0.0033416
-0.00089249 0.13673 0.99836 5.9005e-39 260 345 0 0 0 -0.065229 0.68446 -0.72613 0.0031171
0.00085957 0.13673 0.99836 5.8083e-39 261.5 345 0 0 0 -0.039129 0.68192 -0.73038 0.0032403
0.0031956 0.13673 0.99836 6.0849e-39 263.5 345 0 0 0 -0.011175 0.68449 -0.72893 0.0034879
0.0049477 0.13789 0.99836 6.2693e-39 368 345 0 0 0 0.01532 0.68979 -0.72385 0.0040372
0.0096198 0.13789 0.99836 7.8366e-39 372 345 0 0 0 0.084247 0.68604 -0.72267 0.006345
0.010788 0.13789 0.99836 7.7444e-39 373 345 0 0 0 0.10813 0.68177 -0.72353 0.006867
0.013124 0.13789 0.99836 7.9288e-39 375 345 0 0 0 0.14797 0.67207 -0.72555 0.0071965
0.014876 0.13789 0.99836 7.3757e-39 376.5 345 0 0 0 0.17856 0.66334 -0.7267 0.008144
0.017219 0.13736 0.99876 6.9608e-39 331 345 0 0 0 0.22377 0.65159 -0.72481 0.0090806
0.018979 0.13684 0.99917 7.2835e-39 285 345 0 0 0 0.26326 0.64106 -0.72093 0.0099779
0.021335 0.13695 0.99998 7.7444e-39 287 345 0 0 0 0.30976 0.6292 -0.71285 0.0096563
-0.0067436 0.13812 0.99998 5.9927e-39 358 345 0 0 0 -0.13736 0.68663 -0.71392 0.0040761
-0.0044037 0.13812 0.99998 6.4537e-39 360 345 0 0 0 -0.11389 0.6951 -0.70983 0.0035434
-0.0032338 0.13812 0.99998 6.1771e-39 361 345 0 0 0 -0.097946 0.69675 -0.71059 0.0030063
-0.00089322 0.13801 0.99917 6.0849e-39 363 345 0 0 0 -0.068399 0.69353 -0.71717 0.0029175
0.00086094 0.13812 0.99998 6.9147e-39 364.5 345 0 0 0 -0.038717 0.70031 -0.71279 0.0032855
0.0032008 0.13812 0.99998 6.6842e-39 366.5 345 0 0 0 -0.0081185 0.70492 -0.70924 0.0038313
0.0049557 0.13929 0.99998 5.4395e-39 424 345 0 0 0 0.015166 0.70742 -0.70663 0.0045245
0.0067078 0.13865 0.99958 6.2002e-39 397.5 345 0 0 0 0.036362 0.70422 -0.70905 0.0050186
0.0088532 0.13886 0.99971 5.9312e-39 408.67 345 0 0 0 0.066898 0.70275 -0.70828 0.0063045
0.011386 0.13923 0.99958 4.8864e-39 429.5 345 0 0 0 0.11114 0.69513 -0.71024 0.0073307
0.013145 0.13929 0.99998 4.8864e-39 431 345 0 0 0 0.14233 0.6891 -0.71055 0.0080268
0.0149 0.13929 0.99998 4.5637e-39 432.5 345 0 0 0 0.17701 0.68074 -0.71081 0.0087391
0.01724 0.13871 0.99998 6.131e-39 406.5 345 0 0 0 0.21939 0.66777 -0.71131 0.0096692
-0.043046 0.10896 1.0008 7.2835e-39 338 337 0 0 0 -0.49808 0.4368 -0.74908 0.025601
-0.041909 0.10905 1.0016 7.56e-39 339 337 0 0 0 -0.51944 0.39372 -0.7584 0.020206
-0.040737 0.11081 1.0016 6.3154e-39 319.5 337.5 0 0 0 -0.53122 0.37419 -0.76013 0.017728
-0.039534 0.1113 1.0008 7.2835e-39 222 338 0 0 0 -0.53036 0.36633 -0.76454 0.015413
0.045562 0.11094 1.0011 6.1156e-39 309.33 338 0 0 0 0.67424 0.36208 -0.64366 0.05252
-0.038956 0.11308 1.001 6.0618e-39 411 338 0 0 0 -0.53792 0.34252 -0.77027 0.009715
0.045383 0.11312 1.0014 6.4076e-39 345 338.5 0 0 0 0.66262 0.37922 -0.64586 0.052795
-0.038964 0.11485 1.0012 5.3012e-39 253.5 339 0 0 0 -0.53983 0.33018 -0.77432 0.007092
-0.036802 0.11559 1.0008 6.761e-39 344.67 339 0 0 0 -0.53268 0.33374 -0.77773 0.0057289
0.043599 0.11598 1.0008 6.0849e-39 465 339 0 0 0 0.59439 0.41787 -0.68709 0.040719
0.045364 0.11542 1.001 6.5919e-39 423.5 339 0 0 0 0.64446 0.39983 -0.65177 0.051814
0.047149 0.1149 1.0016 7.7444e-39 382 339 0 0 0 0.69838 0.37669 -0.60858 0.06058
0.050665 0.1149 1.0016 7.56e-39 385 339 0 0 0 0.76196 0.33724 -0.55289 0.070257
-0.038394 0.11667 1.0016 6.6842e-39 433 339 0 0 0 -0.5373 0.32408 -0.77864 0.0059739
-0.036622 0.1172 1.0012 4.8403e-39 479.5 339 0 0 0 -0.53053 0.32769 -0.78177 0.00518
0.043599 0.11715 1.0008 5.4395e-39 264 340 0 0 0 0.59319 0.42546 -0.68345 0.040773
0.045355 0.11715 1.0008 5.6239e-39 266 340 0 0 0 0.61037 0.42136 -0.67075 0.04754
0.04713 0.11661 1.0012 5.624e-39 370.5 339.5 0 0 0 0.66671 0.39533 -0.63183 0.058861
-0.036636 0.11842 1.0016 5.7622e-39 280.5 340 0 0 0 -0.52713 0.32786 -0.78399 0.0052319
-0.03485 0.1195 1.0008 6.8225e-39 402 340 0 0 0 -0.52419 0.33152 -0.78442 0.0051249
0.043599 0.11891 1.0008 6.4998e-39 437 340 0 0 0 0.57221 0.44128 -0.69126 0.038001
0.044769 0.11891 1.0008 6.3154e-39 438 340 0 0 0 0.59165 0.43532 -0.67857 0.043453
0.047111 0.11891 1.0008 5.9466e-39 440 340 0 0 0 0.62455 0.42693 -0.65396 0.053981
0.048282 0.1195 1.0008 5.3473e-39 161 341 0 0 0 0.62587 0.42381 -0.65473 0.054726
-0.034878 0.12076 1.0016 5.5317e-39 164 341 0 0 0 -0.52189 0.33601 -0.78405 0.0058508
-0.033693 0.12131 1.0012 6.7764e-39 225 341 0 0 0 -0.51486 0.34461 -0.78496 0.0063928
0.035402 0.12184 1.0008 8.021e-39 386 341 0 0 0 0.46929 0.48207 -0.73985 0.014554
0.037159 0.12184 1.0008 7.9749e-39 387.5 341 0 0 0 0.48989 0.47752 -0.72937 0.018463
0.038931 0.12131 1.0012 6.4536e-39 327 341 0 0 0 0.52433 0.46575 -0.71285 0.02464
0.040487 0.12148 1.0011 6.7303e-39 349.33 341 0 0 0 0.53005 0.46322 -0.71026 0.026908
0.04322 0.12148 1.0011 7.0376e-39 354.33 341 0 0 0 0.55968 0.457 -0.69131 0.035269
0.044806 0.12076 1.0016 5.163e-39 279 341 0 0 0 0.59565 0.44632 -0.66784 0.042968
0.047111 0.12125 1.0008 6.4997e-39 338.5 341 0 0 0 0.59685 0.43955 -0.67124 0.050934
0.048282 0.12125 1.0008 6.8686e-39 339.5 341 0 0 0 0.61814 0.43402 -0.65539 0.057038
-0.033107 0.12306 1.0012 7.3757e-39 400.5 341 0 0 0 -0.50745 0.35719 -0.78416 0.0070207
0.034832 0.12306 1.0012 6.4537e-39 463.5 341 0 0 0 0.46441 0.49634 -0.73346 0.013618
0.037189 0.12311 1.0016 6.0849e-39 465.5 341 0 0 0 0.48532 0.48916 -0.7247 0.018308
0.040704 0.12311 1.0016 5.6239e-39 472.5 341 0 0 0 0.53369 0.47578 -0.69914 0.026984
0.042428 0.12301 1.0008 5.4395e-39 474 341 0 0 0 0.53934 0.4714 -0.69777 0.029516
0.04594 0.12301 1.0008 6.0849e-39 477 341 0 0 0 0.56396 0.46312 -0.68372 0.041989
0.047149 0.12311 1.0016 5.9927e-39 478 341 0 0 0 0.58444 0.45481 -0.67199 0.05037
0.048321 0.12311 1.0016 5.6239e-39 479 341 0 0 0 0.6112 0.45195 -0.64975 0.057395
-0.033107 0.12423 1.0012 4.8403e-39 480.5 341 0 0 0 -0.5065 0.36691 -0.78028 0.0075713
0.034845 0.12428 1.0016 5.7161e-39 258.5 342 0 0 0 0.46078 0.5035 -0.73087 0.013546
0.037775 0.12428 1.0016 5.7161e-39 261 342 0 0 0 0.47938 0.49379 -0.72551 0.017686
0.04129 0.12428 1.0016 5.9005e-39 264 342 0 0 0 0.52881 0.48316 -0.69779 0.027027
0.042462 0.12428 1.0016 5.5317e-39 265 342 0 0 0 0.54053 0.47917 -0.69154 0.031314
0.045959 0.12482 1.0012 6.6381e-39 333 342 0 0 0 0.55286 0.4774 -0.68296 0.040311
-0.033298 0.12733 1.0011 6.8225e-39 439.33 342 0 0 0 -0.49415 0.38244 -0.78074 0.0099028
-0.031337 0.1271 1.0008 6.8224e-39 428.5 342 0 0 0 -0.48434 0.39403 -0.78113 0.0097506
0.03189 0.12769 1.0008 7.3757e-39 233 343 0 0 0 0.43915 0.52421 -0.72962 0.0057145
0.033074 0.12716 1.0012 6.592e-39 343 342.5 0 0 0 0.43113 0.52817 -0.73154 0.010394
-0.033107 0.12891 1.0012 7.6522e-39 250.5 343 0 0 0 -0.4787 0.39826 -0.78246 0.01124
-0.030765 0.12891 1.0012 6.8225e-39 252.5 343 0 0 0 -0.46358 0.41384 -0.78347 0.011055
-0.028996 0.12886 1.0008 6.2693e-39 254 343 0 0 0 -0.44418 0.42981 -0.78611 0.011351
0.031318 0.12891 1.0012 6.6381e-39 353.5 343 0 0 0 0.43176 0.53494 -0.72624 0.005555
-0.032535 0.13014 1.0016 6.9147e-39 365 343 0 0 0 -0.46381 0.40889 -0.78593 0.012232
-0.030191 0.13072 1.0016 5.5317e-39 399 343 0 0 0 -0.43817 0.43943 -0.78416 0.012313
-0.029019 0.13072 1.0016 5.5779e-39 400 343 0 0 0 -0.41953 0.44788 -0.78955 0.011891
-0.027442 0.13085 1.0011 5.3474e-39 412 343 0 0 0 -0.40186 0.46434 -0.78924 0.011971
-0.025483 0.1312 1.0008 4.7942e-39 435 343 0 0 0 -0.3694 0.49304 -0.78769 0.011749
0.029166 0.13085 1.0011 5.4703e-39 240.33 343.67 0 0 0 0.41925 0.55184 -0.7209 0.0051315
0.030744 0.13014 1.0016 5.7161e-39 416 343 0 0 0 0.42664 0.54079 -0.72493 0.0056274
-0.030191 0.13248 1.0016 5.7161e-39 195 344 0 0 0 -0.40902 0.45599 -0.79043 0.012387
-0.027059 0.13283 1.0013 5.9313e-39 228 344 0 0 0 -0.37266 0.48733 -0.78971 0.012942
-0.024913 0.13304 1.0014 6.8225e-39 244.5 344 0 0 0 -0.34837 0.51626 -0.78238 0.012553
-0.023141 0.13296 1.0008 6.6842e-39 246 344 0 0 0 -0.33655 0.53072 -0.77786 0.011293
-0.021385 0.13355 1.0008 7.5601e-39 291.5 344 0 0 0 -0.30997 0.55229 -0.77388 0.010572
-0.019629 0.13355 1.0008 6.8225e-39 293 344 0 0 0 -0.28965 0.57054 -0.76849 0.0096496
0.027217 0.13301 1.0012 6.9607e-39 317.5 344 0 0 0 0.40497 0.57162 -0.71362 0.0054855
0.0284 0.13248 1.0016 5.9005e-39 262 344 0 0 0 0.4145 0.5616 -0.7161 0.0052907
-0.026676 0.13483 1.0016 7.4678e-39 391 344 0 0 0 -0.33961 0.50955 -0.79058 0.013506
-0.024332 0.13483 1.0016 8.021e-39 393 344 0 0 0 -0.32562 0.53469 -0.77979 0.01223
-0.02316 0.13483 1.0016 7.8366e-39 394 344 0 0 0 -0.31431 0.55015 -0.77365 0.011569
-0.021402 0.13483 1.0016 7.2374e-39 395.5 344 0 0 0 -0.29415 0.5698 -0.76733 0.010345
-0.019051 0.13477 1.0012 6.9147e-39 397.5 344 0 0 0 -0.27674 0.58196 -0.76468 0.0092886
-0.016702 0.13589 1.0008 5.9927e-39 473.5 344 0 0 0 -0.24509 0.61285 -0.75123 0.0074005
0.023109 0.13531 1.0008 5.0708e-39 317.5 344.5 0 0 0 0.3495 0.61172 -0.70968 0.0083336
0.024865 0.13472 1.0008 5.3473e-39 438 344 0 0 0 0.3782 0.59294 -0.71091 0.0071983
0.026035 0.13472 1.0008 4.9786e-39 443 344 0 0 0 0.39343 0.58587 -0.7085 0.0067977
-0.020816 0.136 1.0016 6.2693e-39 470 344 0 0 0 -0.28642 0.57754 -0.76446 0.010213
-0.019059 0.136 1.0016 5.9927e-39 471.5 344 0 0 0 -0.26645 0.59417 -0.75893 0.0086776
-0.016715 0.13717 1.0016 7.053e-39 233.5 345 0 0 0 -0.24022 0.61928 -0.74752 0.0076127
-0.014945 0.13706 1.0008 6.8225e-39 235 345 0 0 0 -0.22305 0.63263 -0.74164 0.0068564
-0.013188 0.13706 1.0008 7.6522e-39 249.5 345 0 0 0 -0.20587 0.64555 -0.73545 0.006156
0.020181 0.13706 1.0008 7.2835e-39 286 345 0 0 0 0.28713 0.64297 -0.71003 0.01029
0.023127 0.13658 1.0016 6.5459e-39 243.5 345 0 0 0 0.34562 0.62398 -0.70086 0.0093448
0.024885 0.13658 1.0016 6.2693e-39 245 345 0 0 0 0.37575 0.60767 -0.69967 0.0080478
0.026057 0.136 1.0016 4.6098e-39 201 345 0 0 0 0.38901 0.594 -0.70416 0.0075943
-0.012614 0.13834 1.0016 6.6381e-39 353 345 0 0 0 -0.18874 0.66164 -0.72568 0.0057105
-0.010856 0.13834 1.0016 6.7303e-39 354.5 345 0 0 0 -0.17785 0.67004 -0.7207 0.0053142
-0.0090982 0.13834 1.0016 6.2693e-39 356 345 0 0 0 -0.16259 0.67888 -0.71602 0.0048684
-0.0073372 0.13887 1.0012 5.9466e-39 383.5 345 0 0 0 -0.13952 0.69464 -0.7057 0.0043381
-0.0051906 0.13908 1.0013 6.0234e-39 394 345 0 0 0 -0.11996 0.70509 -0.6989 0.0036202
-0.0024572 0.13908 1.0013 5.5625e-39 396.33 345 0 0 0 -0.087597 0.70983 -0.6989 0.0029046
-0.00089466 0.1394 1.0008 5.5317e-39 415 345 0 0 0 -0.065135 0.71259 -0.69855 0.0032188
0.00086177 0.13946 1.0012 4.9786e-39 420.5 345 0 0 0 -0.038494 0.71568 -0.69737 0.0033492
0.0032034 0.1394 1.0008 4.9786e-39 422.5 345 0 0 0 -0.010342 0.71159 -0.70252 0.0038083
0.017839 0.1394 1.0008 4.8864e-39 435 345 0 0 0 0.22786 0.66973 -0.70678 0.01022
0.019018 0.13887 1.0012 6.3615e-39 408 345 0 0 0 0.26014 0.66212 -0.70279 0.010789
0.020775 0.13828 1.0012 7.6522e-39 381.5 345 0 0 0 0.29564 0.64342 -0.70612 0.010423
-0.00089539 0.14069 1.0016 5.7161e-39 480 345 0 0 0 -0.067208 0.72255 -0.68805 0.0030646
0.0037919 0.14069 1.0016 4.702e-39 484 345 0 0 0 -0.0045599 0.72272 -0.69112 0.0040368
0.0049597 0.14057 1.0008 4.5176e-39 485 345 0 0 0 0.012885 0.71645 -0.69752 0.0045411
0.0067215 0.14069 1.0016 4.702e-39 486.5 345 0 0 0 0.035751 0.72042 -0.69261 0.0054834
0.0090651 0.14069 1.0016 4.8864e-39 318 345.5 0 0 0 0.066996 0.71665 -0.69421 0.0067866
0.011598 0.141 1.0011 5.2244e-39 176.33 346 0 0 0 0.10569 0.71255 -0.69362 0.0078894
0.013161 0.14121 1.0012 5.6239e-39 191 346 0 0 0 0.13389 0.70822 -0.69318 0.008904
0.014913 0.14057 1.0008 4.8403e-39 152.5 346 0 0 0 0.16627 0.69329 -0.70121 0.0091485
0.016682 0.14069 1.0016 5.163e-39 154 346 0 0 0 0.19342 0.69217 -0.69533 0.010128
0.047188 0.10737 1.0024 6.4537e-39 226.5 337 0 0 0 0.80849 0.25329 -0.53121 0.056116
0.047226 0.10922 1.0032 6.0849e-39 411 337 0 0 0 0.80648 0.27967 -0.52093 0.05397
-0.042771 0.11121 1.0035 6.6074e-39 285 337.67 0 0 0 -0.52711 0.36962 -0.76521 0.015188
-0.041977 0.1104 1.0032 5.0708e-39 417 337 0 0 0 -0.52484 0.38188 -0.76073 0.018631
0.047264 0.11107 1.004 6.3615e-39 286.5 338 0 0 0 0.80976 0.29116 -0.50942 0.061043
-0.04077 0.11324 1.0024 6.4537e-39 409.5 338 0 0 0 -0.54214 0.33803 -0.7693 0.0093502
0.047207 0.11329 1.0028 6.4998e-39 346.5 338.5 0 0 0 0.7276 0.35781 -0.58529 0.062423
-0.040804 0.11509 1.0032 5.4395e-39 252 339 0 0 0 -0.54231 0.3212 -0.77636 0.007333
-0.040837 0.11694 1.004 6.5459e-39 431 339 0 0 0 -0.54529 0.31102 -0.77842 0.0059558
-0.039598 0.11675 1.0024 6.8225e-39 432 339 0 0 0 -0.5397 0.32231 -0.77772 0.0063605
0.048791 0.11666 1.0032 5.3474e-39 408.33 339.33 0 0 0 0.72946 0.37419 -0.5726 0.070593
-0.039027 0.11857 1.0028 5.4856e-39 278.5 340 0 0 0 -0.54234 0.31816 -0.77758 0.0051712
-0.036665 0.11969 1.0024 7.2835e-39 400.5 340 0 0 0 -0.5285 0.32633 -0.78371 0.0053793
0.04836 0.11852 1.0024 7.1913e-39 398 340 0 0 0 0.6965 0.40265 -0.59394 0.064618
-0.036109 0.12096 1.0032 5.2552e-39 163 341 0 0 0 -0.52516 0.33189 -0.78362 0.0059448
-0.034921 0.12267 1.0028 7.4679e-39 341.5 341 0 0 0 -0.52092 0.34368 -0.78136 0.0067864
0.038978 0.12321 1.0024 5.7161e-39 471 341 0 0 0 0.50801 0.48409 -0.71245 0.022567
0.043669 0.12321 1.0024 5.5317e-39 475 341 0 0 0 0.56883 0.47009 -0.67486 0.037521
0.044842 0.12262 1.0024 7.0068e-39 435 341 0 0 0 0.58562 0.46417 -0.66453 0.042214
0.034874 0.12555 1.0024 7.7905e-39 378.5 342 0 0 0 0.45027 0.51255 -0.73113 0.012914
0.037024 0.12516 1.0024 6.8225e-39 340.33 342 0 0 0 0.46324 0.50516 -0.72816 0.016038
0.038994 0.12502 1.0028 6.6842e-39 322 342 0 0 0 0.50058 0.49405 -0.71087 0.023027
0.040542 0.12516 1.0024 7.0683e-39 343.33 342 0 0 0 0.51204 0.49073 -0.70498 0.025521
0.043314 0.12526 1.0032 7.2527e-39 346 342 0 0 0 0.54471 0.4829 -0.68564 0.034209
0.044897 0.12512 1.0036 6.8685e-39 332 342 0 0 0 0.56413 0.47971 -0.67204 0.042427
0.047188 0.12438 1.0024 5.0708e-39 279 342 0 0 0 0.57508 0.47306 -0.66745 0.046875
0.034902 0.12683 1.0032 6.4537e-39 453.5 342 0 0 0 0.44361 0.52343 -0.72748 0.012926
0.037249 0.12683 1.0032 6.2693e-39 455.5 342 0 0 0 0.45975 0.51187 -0.72569 0.016838
0.039042 0.12693 1.004 5.9005e-39 457 342 0 0 0 0.47053 0.50888 -0.72086 0.021057
0.040771 0.12683 1.0032 6.1771e-39 459.5 342 0 0 0 0.49234 0.50037 -0.7122 0.025342
0.042531 0.12683 1.0032 6.0849e-39 461 342 0 0 0 0.51162 0.49534 -0.70206 0.030109
0.033114 0.12907 1.0024 6.6381e-39 355 343 0 0 0 0.43931 0.52905 -0.72602 0.0064507
0.034725 0.12846 1.0037 6.5459e-39 276.67 343 0 0 0 0.43582 0.52903 -0.72814 0.010622
0.037272 0.12867 1.0038 6.5229e-39 299.5 343 0 0 0 0.44396 0.52421 -0.72671 0.016021
0.040803 0.12811 1.004 7.2835e-39 247.5 343 0 0 0 0.46687 0.50939 -0.72288 0.022881
-0.033161 0.13089 1.0028 5.6239e-39 396.5 343 0 0 0 -0.45105 0.41443 -0.79045 0.013237
-0.031401 0.13088 1.0028 5.5778e-39 398 343 0 0 0 -0.43932 0.42951 -0.789 0.012839
0.03156 0.13106 1.0027 5.2245e-39 243.67 343.67 0 0 0 0.42863 0.54754 -0.71866 0.0061932
0.033154 0.13099 1.0036 5.0247e-39 289 343.5 0 0 0 0.43154 0.54025 -0.72243 0.0069127
-0.032587 0.13329 1.0032 5.67e-39 223.5 344 0 0 0 -0.40295 0.42545 -0.81032 0.013592
-0.031023 0.13348 1.0032 6.3e-39 253.67 344 0 0 0 -0.39606 0.44419 -0.80364 0.013749
-0.029043 0.13318 1.0024 6.3615e-39 240.5 344 0 0 0 -0.38937 0.46689 -0.79398 0.013392
-0.02787 0.13376 1.0024 7.4678e-39 286 344 0 0 0 -0.36213 0.48622 -0.79527 0.013877
0.029205 0.13337 1.0024 7.2527e-39 338 344 0 0 0 0.41748 0.56637 -0.71059 0.0055835
0.031194 0.13313 1.0035 6.3e-39 302 344 0 0 0 0.421 0.55878 -0.71451 0.0063601
-0.032587 0.13504 1.0032 7.7444e-39 386 344 0 0 0 -0.3775 0.43122 -0.81948 0.014093
-0.030827 0.13504 1.0032 8.0671e-39 387.5 344 0 0 0 -0.37142 0.44932 -0.8125 0.013609
-0.029066 0.13504 1.0032 7.56e-39 389 344 0 0 0 -0.36078 0.47348 -0.80353 0.014298
-0.02787 0.13494 1.0024 7.3757e-39 390 344 0 0 0 -0.35538 0.49034 -0.79579 0.014074
