# .PCD v.7 - Point Cloud Data file format
VERSION .7
FIELDS x y z rgb u v vx vy vz normal_x normal_y normal_z curvature
SIZE 4 4 4 4 4 4 4 4 4 4 4 4 4
TYPE F F F F F F F F F F F F F
COUNT 1 1 1 1 1 1 1 1 1 1 1 1 1
WIDTH 556
HEIGHT 1
VIEWPOINT 0 0 0 1 0 0 0
POINTS 556
DATA ascii
0.013781 0.17792 1.0484 6.9147e-39 338 350 0 0 0 0.61208 0.16974 -0.77237 0.055244
0.017461 0.17914 1.0484 5.3473e-39 364 350 0 0 0 0.72821 0.12247 -0.67432 0.041545
0.015014 0.18106 1.0489 7.0069e-39 393 350 0 0 0 0.6255 0.15507 -0.76466 0.050126
-0.0070759 0.18912 1.0493 5.6239e-39 219 351 0 0 0 -0.253 0.39471 -0.88329 0.027329
-0.0083035 0.19034 1.0493 7.4678e-39 241 351 0 0 0 -0.28971 0.39579 -0.87145 0.026989
-0.0052326 0.19026 1.0489 8.3437e-39 243.5 351 0 0 0 -0.18262 0.40174 -0.89736 0.029977
-0.0033903 0.19141 1.0484 4.9786e-39 268 351 0 0 0 -0.096358 0.40958 -0.90717 0.032209
0.015008 0.19141 1.0484 6.7303e-39 287 351 0 0 0 0.47425 0.26447 -0.83972 0.048034
0.016234 0.19141 1.0484 6.1771e-39 288 351 0 0 0 0.49196 0.26219 -0.8302 0.048053
-0.0033931 0.1928 1.0493 6.6381e-39 337 351 0 0 0 -0.098793 0.42203 -0.90118 0.034145
0.0076486 0.19386 1.0484 5.3473e-39 369 351 0 0 0 0.12391 0.3622 -0.92383 0.045288
0.010715 0.19325 1.0484 6.3154e-39 360 351 0 0 0 0.21568 0.33018 -0.91894 0.051483
0.013168 0.19264 1.0484 5.3012e-39 350.5 351 0 0 0 0.3525 0.30313 -0.88536 0.04934
0.015021 0.1928 1.0493 5.163e-39 352 351 0 0 0 0.44617 0.29664 -0.84435 0.045579
0.0076486 0.19509 1.0484 7.2835e-39 391 351 0 0 0 0.092387 0.38045 -0.92018 0.039282
0.0088751 0.19509 1.0484 7.2835e-39 392 351 0 0 0 0.10447 0.37673 -0.92041 0.039829
0.010724 0.19464 1.0493 7.2374e-39 382.5 351 0 0 0 0.19333 0.34809 -0.91731 0.048343
0.012565 0.19403 1.0493 7.0069e-39 373 351 0 0 0 0.3127 0.33289 -0.88961 0.043262
-0.0033931 0.1971 1.0493 5.9466e-39 416.5 351 0 0 0 -0.12641 0.43309 -0.89244 0.038381
0.0076518 0.19701 1.0489 6.7303e-39 426 351 0 0 0 0.053378 0.39856 -0.91559 0.035061
0.0088751 0.19692 1.0484 6.638e-39 427 351 0 0 0 0.089094 0.38687 -0.91782 0.037583
-0.0033903 0.19938 1.0484 6.4997e-39 301 351.5 0 0 0 -0.13593 0.4337 -0.89075 0.0398
0.0076551 0.19894 1.0493 5.5317e-39 487 351 0 0 0 0.028005 0.41268 -0.91045 0.034856
0.0088751 0.19938 1.0484 5.5317e-39 341 351.5 0 0 0 0.061402 0.41037 -0.90985 0.034273
-0.002777 0.20122 1.0484 5.3934e-39 207.5 352 0 0 0 -0.12165 0.43479 -0.89228 0.042152
-0.00093719 0.20122 1.0484 5.5317e-39 210 352 0 0 0 -0.07607 0.43568 -0.89688 0.042736
0.006422 0.20122 1.0484 6.4537e-39 216 352 0 0 0 0.010646 0.42111 -0.90695 0.034239
0.0088826 0.20139 1.0493 5.7161e-39 218 352 0 0 0 0.051274 0.42962 -0.90155 0.033858
-0.0027779 0.20254 1.0489 5.67e-39 228.5 352 0 0 0 -0.13396 0.43344 -0.89117 0.042893
-0.00093799 0.20262 1.0493 5.9927e-39 230 352 0 0 0 -0.084362 0.4301 -0.89883 0.043627
0.00090262 0.20306 1.0484 7.053e-39 240.5 352 0 0 0 -0.078313 0.42628 -0.9012 0.043578
0.0033556 0.20367 1.0484 7.7905e-39 251.5 352 0 0 0 -0.058834 0.41855 -0.90629 0.040726
0.0051955 0.20367 1.0484 7.2835e-39 253 352 0 0 0 -0.03552 0.42236 -0.90573 0.039845
0.0064275 0.20262 1.0493 7.56e-39 236 352 0 0 0 -0.0024746 0.42927 -0.90317 0.036339
0.03841 0.079998 1.051 6.2693e-39 219 323 0 0 0 -0.71054 0.13828 -0.68993 0.022368
0.040904 0.081297 1.0519 5.4395e-39 174 324 0 0 0 -0.7309 0.14895 -0.66604 0.024515
0.042714 0.081227 1.051 5.4395e-39 175.5 324 0 0 0 -0.76135 0.16228 -0.6277 0.025392
0.042135 0.082527 1.0519 7.9288e-39 434 324 0 0 0 -0.7414 0.15251 -0.6535 0.026789
0.04452 0.083616 1.0501 5.8083e-39 218 325 0 0 0 -0.78996 0.15202 -0.59402 0.02625
0.04452 0.084844 1.0501 5.2552e-39 159 326 0 0 0 -0.79189 0.14559 -0.59305 0.026199
-0.050126 0.087376 1.051 5.9005e-39 408 326 0 0 0 0.61403 -0.56062 -0.55558 0.070914
-0.048897 0.087376 1.051 5.9005e-39 409 326 0 0 0 0.61643 -0.53887 -0.57414 0.071264
-0.040323 0.08745 1.0519 7.56e-39 416 326 0 0 0 0.57487 -0.45511 -0.68 0.076339
0.044539 0.086725 1.0505 5.3473e-39 273 326.5 0 0 0 -0.78614 0.10838 -0.60847 0.028252
-0.039059 0.08922 1.051 5.9466e-39 321.5 327 0 0 0 0.60558 -0.41375 -0.67976 0.07373
0.044558 0.08922 1.051 7.0529e-39 311.5 327.5 0 0 0 -0.77856 0.071983 -0.62343 0.03078
-0.037862 0.091142 1.0519 5.8083e-39 231 328 0 0 0 0.59884 -0.39208 -0.69833 0.072011
0.045173 0.091064 1.051 5.5778e-39 441.5 328 0 0 0 -0.79584 0.040979 -0.60411 0.031202
-0.037419 0.093114 1.051 5.6546e-39 322.67 329 0 0 0 0.61981 -0.38958 -0.68122 0.069012
0.045173 0.09291 1.051 5.7853e-39 198.5 329.5 0 0 0 -0.79449 0.010958 -0.60718 0.031929
-0.037408 0.095137 1.0507 6.0542e-39 271 330 0 0 0 0.6441 -0.38518 -0.66088 0.066111
0.045788 0.094754 1.051 5.9005e-39 402 330 0 0 0 -0.79602 -0.010694 -0.60518 0.03287
-0.03702 0.09683 1.0513 6.423e-39 287.33 330.67 0 0 0 0.67247 -0.34116 -0.6568 0.062162
0.045827 0.096065 1.0519 5.4395e-39 190 331 0 0 0 -0.78142 -0.034949 -0.62303 0.032168
-0.03743 0.098881 1.0513 6.8225e-39 456.33 331.33 0 0 0 0.70386 -0.29253 -0.6473 0.054089
-0.037862 0.10099 1.0519 5.2552e-39 178 333 0 0 0 0.71214 -0.2946 -0.63723 0.048673
-0.03723 0.10279 1.0515 6.5459e-39 299 333.5 0 0 0 0.73545 -0.19089 -0.65013 0.031061
0.018751 0.16252 1.0519 5.7161e-39 221 349 0 0 0 0.88619 0.17185 -0.43027 0.021494
0.013202 0.16976 1.051 5.67e-39 413.5 349 0 0 0 0.74722 0.17216 -0.6419 0.0521
0.015046 0.16853 1.051 6.8225e-39 389 349 0 0 0 0.81982 0.15339 -0.55169 0.038418
0.012587 0.17099 1.051 6.7303e-39 441 349 0 0 0 0.69445 0.16582 -0.70017 0.05876
0.012581 0.17277 1.0505 5.9466e-39 342 349.5 0 0 0 0.66203 0.15951 -0.7323 0.059298
0.013805 0.17699 1.0501 4.9786e-39 268 350 0 0 0 0.64687 0.14592 -0.74851 0.052028
0.01752 0.17729 1.0519 5.5317e-39 271 350 0 0 0 0.79204 0.099535 -0.6023 0.03722
0.015052 0.17906 1.0515 6.0388e-39 350.5 350 0 0 0 0.69628 0.12469 -0.70686 0.044346
0.016676 0.17868 1.0504 6.3922e-39 348 350 0 0 0 0.73217 0.12113 -0.67026 0.041399
-0.0089365 0.19137 1.0515 7.0529e-39 252 351 0 0 0 -0.34682 0.39998 -0.84837 0.026516
-0.007094 0.19083 1.0519 7.9288e-39 242 351 0 0 0 -0.26999 0.40776 -0.87226 0.029193
-0.0052415 0.19181 1.0505 5.3012e-39 266.5 351 0 0 0 -0.19134 0.41561 -0.88919 0.031388
-0.0083176 0.19313 1.051 6.2693e-39 291 351 0 0 0 -0.3 0.41693 -0.858 0.029624
-0.0052459 0.19321 1.0515 6.592e-39 335.5 351 0 0 0 -0.19051 0.42537 -0.88474 0.034957
0.016262 0.19296 1.0501 5.4395e-39 353 351 0 0 0 0.50044 0.29294 -0.81471 0.043377
-0.0083247 0.19513 1.0519 6.3154e-39 367 351 0 0 0 -0.31666 0.40683 -0.85686 0.029938
-0.0046286 0.19498 1.051 6.6842e-39 370 351 0 0 0 -0.17059 0.42656 -0.88823 0.037275
-0.003396 0.1948 1.0501 6.638e-39 371 351 0 0 0 -0.10437 0.42573 -0.89881 0.036934
0.011347 0.19542 1.0501 7.7444e-39 394 351 0 0 0 0.20053 0.35616 -0.91265 0.04565
0.013403 0.19512 1.0507 7.3756e-39 388.33 351 0 0 0 0.32054 0.35123 -0.87971 0.04092
0.015046 0.19497 1.051 7.1913e-39 386 351 0 0 0 0.39443 0.34128 -0.8532 0.037502
-0.0046267 0.19735 1.0505 6.4076e-39 415.5 351 0 0 0 -0.16249 0.43437 -0.88596 0.038374
0.010743 0.19681 1.051 5.1169e-39 416.5 351 0 0 0 0.14306 0.38741 -0.91074 0.036843
0.012597 0.19698 1.0519 5.0708e-39 419 351 0 0 0 0.22689 0.38978 -0.89252 0.035089
-0.0054487 0.19887 1.051 7.4064e-39 443.33 351 0 0 0 -0.19032 0.43579 -0.8797 0.03953
0.010136 0.19883 1.0519 6.4537e-39 465 351 0 0 0 0.092479 0.41573 -0.90478 0.032279
-0.0083247 0.2013 1.0519 5.4395e-39 174 352 0 0 0 -0.31681 0.41639 -0.8522 0.032587
-0.0052415 0.20103 1.0505 5.4396e-39 176.5 352 0 0 0 -0.1985 0.42955 -0.88096 0.038919
0.0076648 0.20103 1.0505 5.8083e-39 205 352 0 0 0 0.014679 0.42152 -0.9067 0.033953
0.010136 0.20068 1.0519 5.9927e-39 195 352 0 0 0 0.090008 0.43004 -0.89831 0.031499
-0.005244 0.20297 1.051 5.8544e-39 226.5 352 0 0 0 -0.20912 0.42434 -0.88103 0.039113
0.0076746 0.20314 1.0519 7.8366e-39 237 352 0 0 0 0.013873 0.43349 -0.90105 0.036496
0.0088978 0.20296 1.051 7.6522e-39 238 352 0 0 0 0.044433 0.43102 -0.90125 0.033406
-0.0046286 0.20419 1.051 8.2976e-39 245 352 0 0 0 -0.18657 0.42184 -0.88727 0.041549
-0.002989 0.2046 1.051 7.4678e-39 252.67 352 0 0 0 -0.14701 0.42193 -0.89463 0.043405
-0.00093959 0.20419 1.051 7.56e-39 248 352 0 0 0 -0.10043 0.42151 -0.90125 0.045093
0.00069955 0.20496 1.0507 6.1156e-39 262 352 0 0 0 -0.096376 0.41533 -0.90455 0.045221
0.0033614 0.20525 1.0501 5.5778e-39 270.5 352 0 0 0 -0.074111 0.41292 -0.90775 0.043901
0.0052043 0.20525 1.0501 5.2552e-39 272 352 0 0 0 -0.049501 0.41521 -0.90838 0.041041
0.0064384 0.20419 1.051 7.0991e-39 254 352 0 0 0 -0.019952 0.42378 -0.90555 0.039825
-0.0034018 0.20683 1.0519 6.0849e-39 285 352 0 0 0 -0.17948 0.41563 -0.89165 0.044875
0.0015197 0.20665 1.051 5.6239e-39 289 352 0 0 0 -0.097036 0.41483 -0.90471 0.045731
0.0033643 0.20727 1.051 5.8544e-39 320 352 0 0 0 -0.066899 0.42096 -0.90461 0.047519
0.0052087 0.20665 1.051 7.0069e-39 334 352 0 0 0 -0.025208 0.42767 -0.90358 0.042737
0.001521 0.20806 1.0519 6.6381e-39 348 352 0 0 0 -0.079188 0.42397 -0.90221 0.04914
0.0033672 0.20929 1.0519 6.0388e-39 365.5 352 0 0 0 -0.053112 0.43139 -0.9006 0.051304
0.0052132 0.20806 1.0519 5.2552e-39 351 352 0 0 0 -0.020882 0.43271 -0.90129 0.046127
0.038508 0.081435 1.0537 4.8864e-39 172 324 0 0 0 -0.67018 0.10879 -0.73419 0.01823
0.040974 0.083284 1.0537 6.638e-39 324 324.5 0 0 0 -0.7001 0.10289 -0.70659 0.022728
0.042992 0.083419 1.0528 6.3615e-39 289.33 324.67 0 0 0 -0.7418 0.13945 -0.65596 0.027195
0.040974 0.085134 1.0537 6.5459e-39 496 325 0 0 0 -0.69613 0.085816 -0.71277 0.023172
0.042805 0.085097 1.0533 7.8366e-39 497.5 325 0 0 0 -0.73147 0.10766 -0.67332 0.027215
-0.047789 0.086367 1.0537 4.702e-39 170 326 0 0 0 0.59226 -0.53302 -0.60425 0.073619
-0.041625 0.086367 1.0537 5.9005e-39 175 326 0 0 0 0.54577 -0.47698 -0.68893 0.077171
0.040974 0.086983 1.0537 5.1168e-39 270 326.5 0 0 0 -0.69604 0.07039 -0.71455 0.024221
0.042814 0.086965 1.0535 5.0478e-39 271.5 326.5 0 0 0 -0.71627 0.086886 -0.6924 0.026717
0.040974 0.088832 1.0537 7.7444e-39 413 327 0 0 0 -0.6967 0.055679 -0.7152 0.024715
0.042823 0.088832 1.0537 7.3296e-39 414.5 327 0 0 0 -0.71312 0.065907 -0.69794 0.027063
-0.03731 0.090682 1.0537 6.4076e-39 336 327.5 0 0 0 0.57485 -0.36885 -0.73041 0.072323
0.040974 0.090682 1.0537 5.8083e-39 321 328 0 0 0 -0.69145 0.038278 -0.72141 0.023983
0.043028 0.090476 1.0537 6.0849e-39 283.67 328 0 0 0 -0.71681 0.050464 -0.69544 0.02759
-0.036662 0.092452 1.0528 5.5317e-39 164 329 0 0 0 0.59788 -0.3652 -0.71356 0.07001
0.040974 0.093148 1.0537 5.6239e-39 195 329.5 0 0 0 -0.69086 0.027487 -0.72247 0.024448
0.042823 0.093148 1.0537 5.693e-39 196.5 329.5 0 0 0 -0.70589 0.021574 -0.70799 0.027108
-0.035461 0.094996 1.0537 5.0708e-39 194 330 0 0 0 0.60251 -0.31326 -0.73407 0.065567
0.044634 0.094915 1.0528 5.4395e-39 401 330 0 0 0 -0.74743 -0.0045296 -0.66433 0.031238
-0.035461 0.096846 1.0537 7.0529e-39 324 330.5 0 0 0 0.63733 -0.2892 -0.71427 0.061571
0.04507 0.097023 1.0534 6.6074e-39 348.67 331 0 0 0 -0.73803 -0.027016 -0.67423 0.031224
-0.036662 0.099842 1.0528 4.702e-39 379 332 0 0 0 0.68967 -0.25512 -0.67769 0.051626
0.045259 0.099248 1.053 7.5831e-39 362.5 332 0 0 0 -0.74151 -0.056467 -0.66856 0.033106
-0.036662 0.10107 1.0528 4.9786e-39 179 333 0 0 0 0.71026 -0.22488 -0.66706 0.044525
0.045866 0.10107 1.0528 5.3473e-39 363 333 0 0 0 -0.76574 -0.10916 -0.63382 0.035787
-0.036662 0.10231 1.0528 7.2835e-39 411 333 0 0 0 0.72353 -0.17071 -0.66885 0.036021
0.018783 0.1591 1.0537 7.8366e-39 453 348 0 0 0 0.858 0.25914 -0.44349 0.013655
0.018775 0.16089 1.0533 5.3934e-39 170 349 0 0 0 0.87219 0.21962 -0.43709 0.016551
0.018767 0.16389 1.0528 8.482e-39 245 349 0 0 0 0.88896 0.16719 -0.42639 0.021618
0.018783 0.16527 1.0537 5.7161e-39 270 349 0 0 0 0.89488 0.14737 -0.42127 0.026101
0.016304 0.16882 1.0528 6.9147e-39 390 349 0 0 0 0.85949 0.1284 -0.49476 0.033554
0.013852 0.17143 1.0537 7.3757e-39 442 349 0 0 0 0.80126 0.11241 -0.58766 0.04207
0.015085 0.1702 1.0537 5.163e-39 415 349 0 0 0 0.83826 0.11884 -0.53216 0.038181
0.01384 0.17621 1.0528 8.5742e-39 245 350 0 0 0 0.70282 0.11453 -0.70209 0.046537
0.015072 0.17744 1.0528 5.163e-39 269 350 0 0 0 0.7396 0.11167 -0.66372 0.041119
0.016927 0.1769 1.0533 6.5458e-39 259 350 0 0 0 0.79304 0.089802 -0.60251 0.038277
-0.0095676 0.19292 1.0533 6.1311e-39 276.5 351 0 0 0 -0.40893 0.38218 -0.82868 0.025319
-0.0071 0.19284 1.0528 6.3154e-39 299.5 351 0 0 0 -0.28056 0.4101 -0.86781 0.03105
-0.0071061 0.19485 1.0537 5.163e-39 357 351 0 0 0 -0.28662 0.4195 -0.86132 0.034557
-0.0058682 0.19531 1.0528 6.4076e-39 369 351 0 0 0 -0.19986 0.42854 -0.88114 0.038317
-0.0083318 0.19715 1.0528 7.3757e-39 400 351 0 0 0 -0.31099 0.41394 -0.85553 0.033543
-0.0071061 0.1967 1.0537 7.56e-39 390 351 0 0 0 -0.26359 0.42387 -0.86652 0.036777
-0.0058682 0.19715 1.0528 7.2835e-39 402 351 0 0 0 -0.20546 0.43314 -0.8776 0.040031
0.013852 0.19732 1.0537 4.8864e-39 420 351 0 0 0 0.28868 0.39944 -0.87012 0.030556
-0.0083318 0.199 1.0528 6.6842e-39 437 351 0 0 0 -0.32897 0.41101 -0.85021 0.031972
-0.0071061 0.19917 1.0537 7.0991e-39 438 351 0 0 0 -0.25639 0.42096 -0.87009 0.037257
0.011381 0.19908 1.0533 6.592e-39 466 351 0 0 0 0.13738 0.42561 -0.89442 0.03133
0.012619 0.19855 1.0537 7.9288e-39 443 351 0 0 0 0.21256 0.42112 -0.88175 0.029908
-0.0071061 0.20102 1.0537 5.9005e-39 146 352 0 0 0 -0.26331 0.42336 -0.86685 0.037339
0.011386 0.20102 1.0537 5.9005e-39 196 352 0 0 0 0.14027 0.44691 -0.88351 0.030299
-0.0083318 0.20331 1.0528 6.3615e-39 224 352 0 0 0 -0.32283 0.40975 -0.85317 0.031859
-0.0071061 0.20287 1.0537 5.8544e-39 214.5 352 0 0 0 -0.29487 0.42224 -0.85719 0.038679
0.010149 0.20278 1.0533 6.638e-39 229 352 0 0 0 0.090579 0.44072 -0.89306 0.032329
-0.0052524 0.20516 1.0528 7.8366e-39 254 352 0 0 0 -0.21869 0.41649 -0.88244 0.041023
-0.002173 0.20577 1.0528 5.7161e-39 266 352 0 0 0 -0.13593 0.41387 -0.90013 0.046611
-0.00094119 0.20577 1.0528 5.2552e-39 267 352 0 0 0 -0.10887 0.41339 -0.90402 0.04758
0.0070686 0.20525 1.0533 6.1772e-39 264 352 0 0 0 -0.017556 0.42859 -0.90333 0.042601
0.0089129 0.20454 1.0528 7.3757e-39 256 352 0 0 0 0.047939 0.43144 -0.90087 0.035308
-0.0046404 0.20718 1.0537 5.3473e-39 284 352 0 0 0 -0.22331 0.42318 -0.87809 0.050446
-0.0021748 0.20718 1.0537 6.2693e-39 286 352 0 0 0 -0.13566 0.41021 -0.90184 0.048932
-0.00094199 0.20718 1.0537 6.3615e-39 287 352 0 0 0 -0.10727 0.41175 -0.90496 0.050822
0.00029057 0.20701 1.0528 6.0849e-39 288 352 0 0 0 -0.10253 0.41221 -0.9053 0.048823
0.0064549 0.20718 1.0537 6.9147e-39 335 352 0 0 0 -0.013966 0.43273 -0.90141 0.045565
-0.0046404 0.20842 1.0537 7.4678e-39 343 352 0 0 0 -0.24066 0.42098 -0.87456 0.049559
-0.0029947 0.20871 1.0531 7.1605e-39 349.67 352 0 0 0 -0.18792 0.41748 -0.88904 0.046447
0.00070123 0.20912 1.0531 6.0235e-39 358 352 0 0 0 -0.073709 0.42711 -0.90119 0.053076
0.0052176 0.20947 1.0528 6.1771e-39 367 352 0 0 0 -0.016015 0.44261 -0.89657 0.048826
-0.0034076 0.21088 1.0537 7.0069e-39 375 352 0 0 0 -0.22708 0.43887 -0.86939 0.053416
0.0015223 0.2107 1.0528 7.2835e-39 379 352 0 0 0 -0.066273 0.43567 -0.89766 0.055575
0.00337 0.2107 1.0528 7.3757e-39 380.5 352 0 0 0 -0.030284 0.43786 -0.89853 0.053729
0.0052221 0.21088 1.0537 7.2835e-39 382 352 0 0 0 -0.002374 0.44584 -0.89511 0.052893
0.0015236 0.21211 1.0537 7.9288e-39 394 352 0 0 0 -0.059525 0.44243 -0.89483 0.056358
0.0033729 0.21211 1.0537 7.7905e-39 395.5 352 0 0 0 -0.014731 0.44206 -0.89686 0.056675
-0.044166 0.07787 1.0555 5.9005e-39 207 321 0 0 0 0.25327 -0.74983 -0.61123 0.070278
-0.042931 0.07787 1.0555 5.7161e-39 208 321 0 0 0 0.26596 -0.73392 -0.625 0.069705
-0.047871 0.079105 1.0555 5.8083e-39 490 321 0 0 0 0.25945 -0.77998 -0.56949 0.070492
0.034839 0.079037 1.0546 7.1913e-39 422 322 0 0 0 -0.6424 0.091963 -0.76083 0.013451
0.037307 0.080271 1.0546 5.8083e-39 218 323 0 0 0 -0.65831 0.09663 -0.74652 0.016116
0.039775 0.081505 1.0546 5.2552e-39 173 324 0 0 0 -0.67208 0.11634 -0.73128 0.017937
0.039191 0.08281 1.0555 7.0991e-39 431.5 324 0 0 0 -0.6582 0.098858 -0.74632 0.017697
0.038574 0.084044 1.0555 6.4537e-39 213 325 0 0 0 -0.65597 0.08133 -0.7504 0.017612
-0.049106 0.086514 1.0555 4.6098e-39 169 326 0 0 0 0.54167 -0.56283 -0.62435 0.075378
-0.046596 0.08644 1.0546 4.7942e-39 171 326 0 0 0 0.57335 -0.52265 -0.63096 0.075864
-0.044765 0.086477 1.0551 5.3934e-39 172.5 326 0 0 0 0.52799 -0.51282 -0.67693 0.077637
-0.042931 0.086514 1.0555 5.9005e-39 174 326 0 0 0 0.52239 -0.483 -0.70273 0.077106
-0.040461 0.086514 1.0555 5.6239e-39 176 326 0 0 0 0.51359 -0.43776 -0.73797 0.077042
-0.039193 0.087674 1.0546 7.8366e-39 417 326 0 0 0 0.54491 -0.39158 -0.74144 0.076277
-0.037373 0.087749 1.0555 8.021e-39 418.5 326 0 0 0 0.53201 -0.35958 -0.7666 0.072669
0.039809 0.087749 1.0555 5.0708e-39 177 327 0 0 0 -0.67318 0.044493 -0.73813 0.019829
-0.037342 0.088908 1.0546 5.9927e-39 205.5 327 0 0 0 0.54254 -0.36343 -0.75734 0.072551
0.039191 0.088984 1.0555 7.8827e-39 411.5 327 0 0 0 -0.66914 0.032848 -0.74241 0.018637
-0.036725 0.090142 1.0546 5.9005e-39 441 327 0 0 0 0.55049 -0.3412 -0.76193 0.069739
-0.035521 0.091454 1.0555 6.4537e-39 233 328 0 0 0 0.55867 -0.31539 -0.76709 0.068446
0.039191 0.090837 1.0555 6.3845e-39 319.5 328 0 0 0 -0.6602 0.026508 -0.75062 0.018127
0.042243 0.091376 1.0546 6.0849e-39 439 328 0 0 0 -0.68821 0.040209 -0.7244 0.024163
-0.035491 0.093227 1.0546 5.4395e-39 284.5 329 0 0 0 0.57682 -0.31241 -0.75477 0.068095
0.039191 0.093306 1.0555 5.9466e-39 187 329.5 0 0 0 -0.65621 0.024729 -0.75417 0.018047
0.041009 0.095077 1.0546 5.9927e-39 398 330 0 0 0 -0.65863 0.021115 -0.75217 0.020845
0.04286 0.095077 1.0546 5.3473e-39 399.5 330 0 0 0 -0.67795 0.024907 -0.73468 0.024521
-0.034287 0.097012 1.0555 7.1451e-39 325 330.5 0 0 0 0.62995 -0.2162 -0.74594 0.060936
0.041044 0.097012 1.0555 6.4998e-39 304.5 331 0 0 0 -0.65341 0.016521 -0.75683 0.020246
0.042887 0.096991 1.0553 6.8455e-39 307 331 0 0 0 -0.65762 0.020996 -0.75305 0.023106
-0.034889 0.098821 1.0551 9.1274e-39 504 331 0 0 0 0.65951 -0.18741 -0.72796 0.056158
0.041009 0.098779 1.0546 5.9927e-39 217 332 0 0 0 -0.65072 0.0032491 -0.75931 0.02176
0.042897 0.098864 1.0555 6.2693e-39 218.5 332 0 0 0 -0.65342 0.0018872 -0.75699 0.024185
-0.035521 0.10071 1.0555 5.2551e-39 281 332.5 0 0 0 0.69507 -0.15151 -0.7028 0.049091
0.041044 0.10071 1.0555 5.9005e-39 430 332.5 0 0 0 -0.63222 -0.0022519 -0.77479 0.020295
0.042691 0.10051 1.0555 7.0069e-39 455 332.33 0 0 0 -0.63374 -0.0050743 -0.77353 0.023032
0.04471 0.10125 1.0546 5.2552e-39 362 333 0 0 0 -0.67924 -0.040213 -0.73281 0.031156
-0.035521 0.10257 1.0555 7.2835e-39 412 333 0 0 0 0.71612 -0.089164 -0.69226 0.035827
0.018815 0.16802 1.0555 5.6239e-39 365 349 0 0 0 0.90153 0.13448 -0.41129 0.028399
0.015097 0.17158 1.0546 7.7444e-39 443 349 0 0 0 0.83487 0.094595 -0.54226 0.039332
0.016345 0.17049 1.0555 4.9786e-39 416 349 0 0 0 0.88153 0.10733 -0.45977 0.034746
0.013864 0.17281 1.0546 5.7161e-39 488 349 0 0 0 0.80519 0.093604 -0.58558 0.040808
0.013864 0.17467 1.0546 5.7622e-39 210.5 350 0 0 0 0.78309 0.095427 -0.61454 0.041031
0.016345 0.17543 1.0555 6.2693e-39 225 350 0 0 0 0.82807 0.065808 -0.55675 0.037531
0.015097 0.17651 1.0546 8.2976e-39 246 350 0 0 0 0.77933 0.085625 -0.62074 0.039665
0.016331 0.17651 1.0546 7.8366e-39 247 350 0 0 0 0.79885 0.073082 -0.59707 0.039002
-0.010823 0.19148 1.0555 7.7444e-39 239 351 0 0 0 -0.51609 0.35493 -0.77954 0.022845
-0.0095799 0.19502 1.0546 5.9005e-39 355 351 0 0 0 -0.42468 0.39004 -0.81702 0.026326
-0.0095881 0.19704 1.0555 7.1913e-39 388 351 0 0 0 -0.41652 0.3953 -0.81869 0.02627
0.015097 0.19749 1.0546 5.0708e-39 421 351 0 0 0 0.3681 0.41039 -0.83432 0.021152
0.013253 0.19942 1.0551 6.592e-39 467.5 351 0 0 0 0.24014 0.43673 -0.86695 0.025057
0.01511 0.19889 1.0555 8.021e-39 445 351 0 0 0 0.35597 0.44013 -0.82436 0.016874
0.012641 0.20136 1.0555 5.5317e-39 197 352 0 0 0 0.21526 0.45532 -0.86391 0.025675
0.011401 0.20312 1.0551 6.4537e-39 230 352 0 0 0 0.15451 0.45079 -0.87915 0.029297
-0.0083531 0.20507 1.0555 7.7444e-39 242 352 0 0 0 -0.34789 0.41512 -0.84062 0.039889
-0.0071121 0.20489 1.0546 8.2976e-39 243 352 0 0 0 -0.29687 0.4172 -0.85896 0.04219
0.010784 0.20498 1.0551 8.1593e-39 257.5 352 0 0 0 0.13349 0.44058 -0.88773 0.030827
-0.0071182 0.2063 1.0555 7.7444e-39 262 352 0 0 0 -0.30326 0.41886 -0.85592 0.044416
-0.0058808 0.20684 1.0551 6.1311e-39 273 352 0 0 0 -0.26638 0.41862 -0.86822 0.04705
0.0076943 0.20674 1.0546 5.9006e-39 305 352 0 0 0 0.016178 0.43499 -0.90029 0.043079
0.0089319 0.20684 1.0551 5.9467e-39 306 352 0 0 0 0.060679 0.43737 -0.89723 0.039553
0.010166 0.20684 1.0551 5.9005e-39 307 352 0 0 0 0.12735 0.44504 -0.88641 0.034677
-0.0046444 0.20983 1.0546 5.4395e-39 359 352 0 0 0 -0.25939 0.42881 -0.86535 0.049592
-0.0021767 0.20983 1.0546 5.6239e-39 361 352 0 0 0 -0.1748 0.43106 -0.88523 0.055511
-0.0009428 0.20921 1.0546 6.6381e-39 354 352 0 0 0 -0.11145 0.42568 -0.89799 0.053976
0.0068739 0.20906 1.0549 5.5625e-39 357.67 352 0 0 0 0.0098251 0.4443 -0.89582 0.048903
-0.0046484 0.21124 1.0555 7.1913e-39 374 352 0 0 0 -0.24121 0.43571 -0.86716 0.054093
-0.0021785 0.21124 1.0555 7.0069e-39 376 352 0 0 0 -0.16981 0.44237 -0.88061 0.05946
-0.0009436 0.21124 1.0555 7.0069e-39 377 352 0 0 0 -0.14892 0.44323 -0.88395 0.060277
0.00029107 0.21106 1.0546 7.1913e-39 378 352 0 0 0 -0.097087 0.43162 -0.89682 0.05654
0.0070806 0.21054 1.0551 6.6381e-39 376 352 0 0 0 0.034563 0.44815 -0.89329 0.0497
-0.0034105 0.21229 1.0546 7.4678e-39 390 352 0 0 0 -0.20105 0.44754 -0.87137 0.058039
0.00090811 0.21301 1.0551 6.6381e-39 401 352 0 0 0 -0.086068 0.44646 -0.89066 0.058274
0.0033758 0.21353 1.0546 5.4395e-39 410.5 352 0 0 0 -0.014644 0.44618 -0.89482 0.060046
0.0052287 0.213 1.0551 6.5459e-39 404.5 352 0 0 0 0.021656 0.45137 -0.89207 0.057252
0.0064659 0.21248 1.0555 7.0991e-39 398 352 0 0 0 0.041656 0.45153 -0.89128 0.054019
0.0015262 0.21495 1.0555 5.9005e-39 426 352 0 0 0 -0.064491 0.45816 -0.88653 0.059462
0.0033786 0.21495 1.0555 6.1771e-39 427.5 352 0 0 0 -0.01808 0.45933 -0.88808 0.059483
-0.049148 0.077936 1.0564 5.8083e-39 182 321 0 0 0 0.21361 -0.80641 -0.55143 0.073865
-0.036788 0.077936 1.0564 6.0849e-39 211 321 0 0 0 0.28205 -0.58915 -0.7572 0.063777
-0.050427 0.07924 1.0573 5.5317e-39 488 321 0 0 0 0.21582 -0.81204 -0.54223 0.078449
-0.04919 0.07924 1.0573 5.9005e-39 489 321 0 0 0 0.24319 -0.79308 -0.55846 0.073557
-0.046676 0.079172 1.0564 5.6239e-39 491 321 0 0 0 0.28745 -0.75102 -0.59443 0.074295
-0.044822 0.079172 1.0564 5.8544e-39 492.5 321 0 0 0 0.28798 -0.72838 -0.62172 0.072001
-0.043004 0.07924 1.0573 7.4678e-39 494 321 0 0 0 0.29421 -0.68424 -0.66728 0.07404
-0.041767 0.078003 1.0573 5.7161e-39 209 321 0 0 0 0.24849 -0.68768 -0.68216 0.070833
-0.036819 0.07924 1.0573 4.9786e-39 168 322 0 0 0 0.31638 -0.54121 -0.7791 0.067543
0.033692 0.078003 1.0573 5.9927e-39 466 321 0 0 0 -0.60615 0.1034 -0.7886 0.013676
-0.047953 0.080477 1.0573 7.8366e-39 425 322 0 0 0 0.29324 -0.75039 -0.59239 0.075755
0.034929 0.080477 1.0573 6.7303e-39 212 323 0 0 0 -0.62378 0.081826 -0.7773 0.01191
0.036753 0.081026 1.0564 5.5317e-39 192 323.5 0 0 0 -0.64294 0.085838 -0.76109 0.013421
0.037371 0.08288 1.0564 7.0069e-39 430 324 0 0 0 -0.64498 0.080905 -0.75991 0.014677
-0.047953 0.085425 1.0573 5.9005e-39 227 325 0 0 0 0.48118 -0.60343 -0.63588 0.078374
-0.041732 0.085352 1.0564 6.0849e-39 232 325 0 0 0 0.4876 -0.48062 -0.72887 0.080612
-0.035582 0.085425 1.0573 7.7444e-39 357 325 0 0 0 0.45933 -0.33973 -0.82073 0.071121
-0.033108 0.084807 1.0573 6.4076e-39 425 324.5 0 0 0 0.45011 -0.31713 -0.83476 0.065079
0.037403 0.084807 1.0573 6.131e-39 352.5 325 0 0 0 -0.63746 0.063139 -0.7679 0.013869
0.039431 0.08494 1.0564 5.7776e-39 401 325 0 0 0 -0.65052 0.072885 -0.75598 0.017227
-0.050384 0.086588 1.0564 4.702e-39 168 326 0 0 0 0.50147 -0.60498 -0.61849 0.074778
-0.038674 0.086662 1.0573 4.9325e-39 177.5 326 0 0 0 0.5043 -0.38444 -0.77323 0.075386
-0.036819 0.086662 1.0573 4.8864e-39 179 326 0 0 0 0.49527 -0.34379 -0.79782 0.072836
-0.035567 0.087243 1.0568 6.6842e-39 300 326 0 0 0 0.50147 -0.31479 -0.80587 0.070817
-0.033108 0.08728 1.0573 6.5458e-39 302 326 0 0 0 0.47678 -0.27119 -0.83614 0.064868
0.036969 0.087437 1.0567 6.0542e-39 236 326.67 0 0 0 -0.63903 0.042643 -0.768 0.014219
0.039019 0.087 1.0564 5.501e-39 299 326.33 0 0 0 -0.64227 0.056191 -0.76441 0.016432
-0.034948 0.089098 1.0568 6.131e-39 207.5 327 0 0 0 0.52052 -0.30136 -0.7989 0.069058
-0.03308 0.08906 1.0564 5.9927e-39 209 327 0 0 0 0.50759 -0.27957 -0.81498 0.066336
0.036768 0.089098 1.0568 7.0069e-39 409.5 327 0 0 0 -0.63838 0.03879 -0.76874 0.013846
-0.034747 0.09076 1.057 5.5317e-39 373 327.33 0 0 0 0.53272 -0.28946 -0.79525 0.067536
-0.03308 0.090914 1.0564 5.4395e-39 339.5 327.5 0 0 0 0.53795 -0.25991 -0.80191 0.065475
0.036768 0.090953 1.0568 6.9608e-39 317.5 328 0 0 0 -0.63959 0.025831 -0.76828 0.013512
-0.034316 0.092768 1.0564 4.9786e-39 166 329 0 0 0 0.56165 -0.26058 -0.78527 0.06685
-0.03308 0.092768 1.0564 4.702e-39 167 329 0 0 0 0.56531 -0.23768 -0.78989 0.062619
0.036768 0.092808 1.0568 5.8544e-39 225.5 329 0 0 0 -0.64324 0.017739 -0.76546 0.013754
-0.034316 0.094622 1.0564 5.67e-39 300 329.5 0 0 0 0.59188 -0.25153 -0.76578 0.064955
-0.03308 0.094622 1.0564 6.3154e-39 301 329.5 0 0 0 0.59158 -0.19737 -0.78171 0.061878
0.036969 0.094443 1.0567 5.501e-39 218.33 330 0 0 0 -0.64382 0.019083 -0.76494 0.014432
0.039225 0.09524 1.0564 5.5779e-39 388 330 0 0 0 -0.64295 0.018451 -0.76568 0.016639
-0.03308 0.097094 1.0564 7.0068e-39 326 330.5 0 0 0 0.6359 -0.16094 -0.7548 0.056581
0.037371 0.097094 1.0564 6.3154e-39 301.5 331 0 0 0 -0.63394 0.012799 -0.77328 0.014077
0.039225 0.097094 1.0564 6.6842e-39 303 331 0 0 0 -0.63206 0.016599 -0.77474 0.016325
-0.03308 0.098948 1.0564 9.0352e-39 506 331 0 0 0 0.66558 -0.10099 -0.73947 0.04695
0.036768 0.09899 1.0568 6.6842e-39 213.5 332 0 0 0 -0.62045 0.0084603 -0.7842 0.013297
0.039225 0.098948 1.0564 6.131e-39 215.5 332 0 0 0 -0.62607 0.0090223 -0.77972 0.015757
-0.034316 0.1008 1.0564 5.4395e-39 288.5 332.5 0 0 0 0.68095 -0.10408 -0.7249 0.043672
-0.033108 0.10089 1.0573 5.624e-39 289.5 332.5 0 0 0 0.67621 -0.040562 -0.7356 0.041909
0.036969 0.10062 1.0567 5.839e-39 450.33 332.33 0 0 0 -0.61644 0.0033325 -0.7874 0.01398
0.039225 0.1008 1.0564 5.5778e-39 428.5 332.5 0 0 0 -0.61566 0.0022422 -0.78801 0.016598
0.043551 0.10142 1.0564 5.2552e-39 361 333 0 0 0 -0.62946 -0.01386 -0.77691 0.024945
-0.034728 0.10348 1.0564 6.2693e-39 264 333.67 0 0 0 0.7109 -0.040448 -0.70213 0.032131
-0.03308 0.10328 1.0564 6.8685e-39 302.5 333.5 0 0 0 0.69261 0.049644 -0.71961 0.02661
-0.031252 0.10398 1.0573 5.9005e-39 192.5 334 0 0 0 0.67152 0.10625 -0.73333 0.02379
-0.029397 0.10398 1.0573 5.8083e-39 194 334 0 0 0 0.65029 0.14127 -0.74644 0.020145
0.037371 0.10266 1.0564 5.7161e-39 164 334 0 0 0 -0.60978 0.0074437 -0.79253 0.015386
0.038607 0.10266 1.0564 5.2552e-39 165 334 0 0 0 -0.60746 0.0050545 -0.79433 0.017047
-0.034934 0.10513 1.0564 6.2693e-39 397.5 334 0 0 0 0.72159 0.046959 -0.69073 0.01917
-0.03308 0.10513 1.0564 6.8225e-39 399 334 0 0 0 0.7046 0.087363 -0.70421 0.019135
-0.031252 0.10522 1.0573 7.1452e-39 400.5 334 0 0 0 0.66965 0.13937 -0.72948 0.020316
-0.029397 0.10522 1.0573 7.4678e-39 402 334 0 0 0 0.64882 0.1656 -0.7427 0.018474
-0.034345 0.10646 1.0573 6.1771e-39 192 335 0 0 0 0.71446 0.087789 -0.69415 0.017239
-0.03308 0.10636 1.0564 6.0849e-39 193 335 0 0 0 0.70526 0.10618 -0.70095 0.016858
0.017595 0.1694 1.0564 6.9147e-39 391 349 0 0 0 0.90695 0.11194 -0.4061 0.030958
0.018831 0.1694 1.0564 7.2835e-39 392 349 0 0 0 0.90985 0.11863 -0.39761 0.032387
0.016984 0.17132 1.0568 6.0849e-39 430.5 349 0 0 0 0.90859 0.095521 -0.40662 0.032871
0.018847 0.17078 1.0573 4.3332e-39 418 349 0 0 0 0.91731 0.10411 -0.38433 0.035087
0.015123 0.17311 1.0564 5.5317e-39 489 349 0 0 0 0.85352 0.073751 -0.51582 0.03882
0.016984 0.17318 1.0568 5.5317e-39 490.5 349 0 0 0 0.88154 0.062191 -0.46799 0.038494
0.018847 0.17202 1.0573 7.6522e-39 446 349 0 0 0 0.91548 0.0737 -0.39555 0.037464
0.015123 0.17496 1.0564 5.9927e-39 211.5 350 0 0 0 0.83375 0.051876 -0.54971 0.039196
0.016359 0.17434 1.0564 6.3615e-39 200 350 0 0 0 0.85412 0.046364 -0.518 0.038117
-0.010832 0.19288 1.0564 7.56e-39 262 351 0 0 0 -0.57039 0.33936 -0.74799 0.016382
-0.010837 0.19482 1.0568 5.4857e-39 321.5 351 0 0 0 -0.59408 0.34205 -0.72806 0.014202
0.016373 0.198 1.0573 5.2552e-39 422 351 0 0 0 0.46799 0.43381 -0.76993 0.014514
-0.0095963 0.19906 1.0564 5.2552e-39 424 351 0 0 0 -0.45676 0.39455 -0.79731 0.027644
-0.0095963 0.20091 1.0564 6.4537e-39 296 351.5 0 0 0 -0.44989 0.39681 -0.80009 0.02729
0.013893 0.201 1.0568 5.3934e-39 345 351.5 0 0 0 0.32284 0.45761 -0.82847 0.017908
0.01513 0.201 1.0568 5.4395e-39 170 352 0 0 0 0.39208 0.46209 -0.79545 0.013703
-0.0095963 0.20277 1.0564 5.7161e-39 202 352 0 0 0 -0.43234 0.39903 -0.80861 0.030833
0.012662 0.20294 1.0573 5.6239e-39 221 352 0 0 0 0.24987 0.455 -0.85471 0.023478
-0.0095963 0.20401 1.0564 5.7161e-39 223 352 0 0 0 -0.43709 0.40024 -0.80546 0.030757
-0.0083674 0.20666 1.0573 7.8366e-39 261 352 0 0 0 -0.35566 0.41043 -0.83967 0.043486
-0.0071243 0.20771 1.0564 4.5176e-39 282 352 0 0 0 -0.30117 0.41822 -0.85697 0.046957
0.01142 0.20719 1.0568 5.9466e-39 309 352 0 0 0 0.16906 0.44678 -0.87852 0.033217
-0.0071304 0.20913 1.0573 7.56e-39 341 352 0 0 0 -0.2999 0.41931 -0.85688 0.04956
-0.0058883 0.20895 1.0564 7.2835e-39 342 352 0 0 0 -0.27379 0.42302 -0.86377 0.050556
0.0089434 0.20895 1.0564 5.8083e-39 354 352 0 0 0 0.073828 0.44759 -0.89119 0.04481
0.010179 0.20895 1.0564 5.9005e-39 355 352 0 0 0 0.14163 0.4512 -0.88111 0.03857
-0.0058934 0.21037 1.0573 5.163e-39 358 352 0 0 0 -0.26717 0.4243 -0.86521 0.052277
0.0077074 0.21142 1.0564 6.3615e-39 384 352 0 0 0 0.058051 0.45408 -0.88907 0.052163
0.0089472 0.2109 1.0568 6.592e-39 377.5 352 0 0 0 0.088316 0.45659 -0.88528 0.048886
0.010184 0.2109 1.0568 6.9147e-39 378.5 352 0 0 0 0.14751 0.45875 -0.87624 0.043483
-0.0046523 0.21266 1.0564 7.2835e-39 389 352 0 0 0 -0.22732 0.46513 -0.85556 0.058831
-0.0027984 0.21328 1.0564 6.3154e-39 398 352 0 0 0 -0.18605 0.458 -0.86927 0.061317
-0.00094441 0.21266 1.0564 7.2835e-39 392 352 0 0 0 -0.13978 0.44603 -0.88403 0.06357
0.00029157 0.21389 1.0564 5.6239e-39 408 352 0 0 0 -0.11609 0.45283 -0.88401 0.065928
0.0070927 0.21337 1.0568 6.4998e-39 406 352 0 0 0 0.059519 0.45408 -0.88897 0.05879
-0.0027993 0.21461 1.0568 5.5778e-39 414 352 0 0 0 -0.1988 0.47259 -0.85857 0.062311
-0.00094522 0.2147 1.0573 5.5778e-39 415.5 352 0 0 0 -0.16101 0.47007 -0.86782 0.0643
0.00029157 0.21513 1.0564 5.5317e-39 425 352 0 0 0 -0.10011 0.45857 -0.883 0.058934
0.0052355 0.21513 1.0564 6.0849e-39 429 352 0 0 0 0.035032 0.4569 -0.88883 0.05938
0.006477 0.21531 1.0573 6.1771e-39 430 352 0 0 0 0.062752 0.43777 -0.89689 0.061872
-0.0034193 0.21655 1.0573 7.3757e-39 439 352 0 0 0 -0.20583 0.50017 -0.84111 0.064192
0.00091001 0.21712 1.0571 6.592e-39 465 352 0 0 0 -0.083238 0.47406 -0.87655 0.059758
0.0033821 0.21703 1.0566 6.615e-39 467 352 0 0 0 -0.021057 0.46513 -0.88499 0.059635
0.00524 0.21717 1.0573 6.4998e-39 468.5 352 0 0 0 0.013107 0.46061 -0.88751 0.062608
0.00091036 0.21903 1.0573 5.5317e-39 151.5 353 0 0 0 -0.081383 0.48252 -0.87209 0.058973
0.0027659 0.21903 1.0573 5.7161e-39 153 353 0 0 0 -0.057645 0.47374 -0.87877 0.060826
0.0046214 0.21903 1.0573 5.5779e-39 171.5 353 0 0 0 -0.031485 0.46899 -0.88264 0.060686
0.0015289 0.22088 1.0573 5.7161e-39 207 353 0 0 0 -0.0907 0.48646 -0.86898 0.062486
0.0027659 0.22088 1.0573 5.7622e-39 208 353 0 0 0 -0.074993 0.46765 -0.88073 0.0618
0.0040029 0.22088 1.0573 5.9005e-39 209 353 0 0 0 -0.048422 0.46353 -0.88476 0.063655
0.0027659 0.22274 1.0573 5.7161e-39 221 353 0 0 0 -0.059273 0.47335 -0.87888 0.06533
0.0040029 0.22274 1.0573 5.7161e-39 222 353 0 0 0 -0.032408 0.47329 -0.88031 0.063641
0.0064826 0.074356 1.0582 6.0849e-39 463 319 0 0 0 -0.084787 0.4348 -0.89653 0.029959
-0.04122 0.079376 1.0592 5.8544e-39 164.5 322 0 0 0 0.2766 -0.60994 -0.7426 0.071951
-0.038122 0.078137 1.0592 5.9005e-39 210 321 0 0 0 0.25977 -0.53205 -0.80588 0.060206
-0.035643 0.079376 1.0592 4.8864e-39 169 322 0 0 0 0.30729 -0.44984 -0.83858 0.057787
-0.033165 0.079376 1.0592 4.5176e-39 171 322 0 0 0 0.32877 -0.37239 -0.86789 0.053526
0.031271 0.078137 1.0592 6.2693e-39 465 321 0 0 0 -0.56375 0.11996 -0.81719 0.01866
0.033115 0.079342 1.0587 7.6522e-39 420.5 322 0 0 0 -0.58707 0.11119 -0.80186 0.016266
-0.050491 0.0812 1.0587 6.2693e-39 324 322.5 0 0 0 0.24071 -0.79575 -0.55573 0.078832
-0.049253 0.0812 1.0587 6.3615e-39 325 322.5 0 0 0 0.26524 -0.77562 -0.57277 0.074234
-0.047375 0.081165 1.0582 6.6842e-39 326.5 322.5 0 0 0 0.31006 -0.73804 -0.5993 0.076623
-0.044899 0.080546 1.0582 7.4218e-39 427.5 322 0 0 0 0.31 -0.69277 -0.65113 0.076386
-0.043041 0.080546 1.0582 7.0069e-39 429 322 0 0 0 0.3098 -0.66277 -0.68173 0.074407
-0.036867 0.0812 1.0587 6.8224e-39 421.5 322.5 0 0 0 0.35857 -0.45554 -0.81481 0.070718
-0.035643 0.081854 1.0592 6.3615e-39 411 323 0 0 0 0.36583 -0.3871 -0.84636 0.066112
-0.033151 0.081199 1.0587 6.4998e-39 426.5 322.5 0 0 0 0.36771 -0.34748 -0.86258 0.057119
0.03375 0.080615 1.0592 6.3615e-39 211 323 0 0 0 -0.59252 0.085149 -0.80105 0.012641
0.034959 0.081784 1.0582 4.8864e-39 169 324 0 0 0 -0.61804 0.071773 -0.78286 0.011311
0.036197 0.081784 1.0582 4.702e-39 170 324 0 0 0 -0.62681 0.075265 -0.77553 0.012334
-0.050513 0.083094 1.0592 5.2552e-39 181 324 0 0 0 0.28823 -0.76956 -0.56983 0.07892
-0.049274 0.083094 1.0592 5.7161e-39 182 324 0 0 0 0.3133 -0.746 -0.58764 0.07721
-0.047994 0.083022 1.0582 5.7161e-39 183 324 0 0 0 0.34199 -0.70824 -0.61761 0.076136
-0.036882 0.083094 1.0592 5.6239e-39 195 324 0 0 0 0.39083 -0.39707 -0.83042 0.070823
-0.035613 0.083022 1.0582 5.8083e-39 196 324 0 0 0 0.40679 -0.39154 -0.82536 0.070396
-0.033137 0.083022 1.0582 5.8083e-39 198 324 0 0 0 0.40343 -0.3361 -0.85105 0.062538
-0.029447 0.083094 1.0592 5.4395e-39 201 324 0 0 0 0.41202 -0.21913 -0.88443 0.046288
0.034959 0.083022 1.0582 7.2835e-39 428 324 0 0 0 -0.61686 0.067001 -0.78422 0.011429
0.036197 0.083022 1.0582 7.0991e-39 429 324 0 0 0 -0.62799 0.074426 -0.77466 0.012635
-0.050491 0.084916 1.0587 6.0388e-39 333.5 324.5 0 0 0 0.34851 -0.73524 -0.58135 0.075825
-0.049253 0.084916 1.0587 5.9927e-39 334.5 324.5 0 0 0 0.3938 -0.67246 -0.62667 0.07691
-0.047182 0.084698 1.0585 5.7161e-39 372.33 324.33 0 0 0 0.41235 -0.63564 -0.65263 0.079288
-0.044899 0.085499 1.0582 5.7622e-39 229.5 325 0 0 0 0.47436 -0.54149 -0.6941 0.083075
-0.043078 0.085572 1.0592 5.9927e-39 231 325 0 0 0 0.47324 -0.48211 -0.7373 0.084385
-0.041001 0.084722 1.0589 5.7161e-39 377.33 324.33 0 0 0 0.43998 -0.452 -0.77596 0.083079
-0.038524 0.085135 1.0589 6.5459e-39 351.33 324.67 0 0 0 0.445 -0.38574 -0.8082 0.07583
-0.036867 0.084916 1.0587 6.7764e-39 411 324.5 0 0 0 0.43388 -0.35127 -0.82967 0.070909
-0.034807 0.084722 1.0589 6.4537e-39 445.67 324.33 0 0 0 0.42706 -0.31991 -0.84574 0.065011
-0.031299 0.084934 1.0589 5.3704e-39 428 324.5 0 0 0 0.4323 -0.24938 -0.86656 0.054467
-0.028815 0.084916 1.0587 5.7622e-39 430.5 324.5 0 0 0 0.44985 -0.18791 -0.87311 0.044493
-0.026969 0.085572 1.0592 5.9005e-39 396 325 0 0 0 0.46439 -0.128 -0.87633 0.033491
-0.02573 0.085572 1.0592 6.1771e-39 397 325 0 0 0 0.4593 -0.11011 -0.88143 0.031052
0.03375 0.084953 1.0592 5.7161e-39 349.5 325 0 0 0 -0.59621 0.050484 -0.80124 0.0098121
0.034959 0.08488 1.0582 5.8083e-39 350.5 325 0 0 0 -0.61587 0.056456 -0.78582 0.011697
0.036197 0.08488 1.0582 5.9927e-39 351.5 325 0 0 0 -0.62444 0.063832 -0.77846 0.012678
-0.034375 0.087356 1.0582 6.7764e-39 301 326 0 0 0 0.47318 -0.27435 -0.83716 0.065276
-0.031292 0.086774 1.0587 5.6239e-39 183.5 326 0 0 0 0.45984 -0.22501 -0.85902 0.055798
-0.029017 0.087174 1.0585 6.5459e-39 265.33 326 0 0 0 0.48428 -0.16448 -0.85931 0.046534
-0.026969 0.086811 1.0592 5.9927e-39 187 326 0 0 0 0.47935 -0.12065 -0.86929 0.034536
0.033327 0.087199 1.0589 7.1912e-39 294.33 326.33 0 0 0 -0.59575 0.042789 -0.80203 0.0095952
0.034959 0.087356 1.0582 6.9147e-39 265 326.5 0 0 0 -0.60892 0.038566 -0.79229 0.010768
0.036197 0.086737 1.0582 7.6522e-39 358 326 0 0 0 -0.62686 0.050012 -0.77753 0.01246
-0.031299 0.088651 1.0589 6.8686e-39 317 326.5 0 0 0 0.48443 -0.18858 -0.85426 0.054535
-0.028613 0.088851 1.0589 6.9147e-39 283.67 326.67 0 0 0 0.5068 -0.12235 -0.85334 0.044899
0.031271 0.08867 1.0592 5.3012e-39 287.5 327 0 0 0 -0.57096 0.042735 -0.81987 0.0082102
0.032914 0.088851 1.0589 5.7776e-39 328 327 0 0 0 -0.59526 0.038213 -0.80262 0.0091998
0.034959 0.089213 1.0582 6.2693e-39 408 327 0 0 0 -0.61095 0.034447 -0.79092 0.010439
-0.031292 0.091109 1.0587 6.592e-39 398.5 327.5 0 0 0 0.50997 -0.1602 -0.84514 0.053425
-0.028815 0.091109 1.0587 6.9377e-39 400.5 327.5 0 0 0 0.53323 -0.10242 -0.83975 0.045176
0.031271 0.091148 1.0592 6.4998e-39 313 328 0 0 0 -0.57651 0.040702 -0.81608 0.0078031
0.033115 0.091109 1.0587 6.8225e-39 314.5 328 0 0 0 -0.59973 0.031738 -0.79957 0.0090889
0.034959 0.09107 1.0582 6.7764e-39 316 328 0 0 0 -0.61071 0.032742 -0.79118 0.010434
-0.031279 0.092927 1.0582 4.9786e-39 168.5 329 0 0 0 0.55193 -0.14729 -0.82078 0.0565
-0.028815 0.092967 1.0587 5.3473e-39 170.5 329 0 0 0 0.55283 -0.06649 -0.83064 0.044214
0.031271 0.093007 1.0592 6.0849e-39 221 329 0 0 0 -0.57576 0.033198 -0.81695 0.0067378
0.033115 0.092967 1.0587 5.67e-39 222.5 329 0 0 0 -0.59886 0.031969 -0.80022 0.0089047
0.034959 0.092927 1.0582 5.6239e-39 224 329 0 0 0 -0.60703 0.027878 -0.79419 0.0099192
-0.031286 0.094804 1.0584 6.8686e-39 302.5 329.5 0 0 0 0.57158 -0.10142 -0.81425 0.053898
-0.029422 0.094784 1.0582 6.7764e-39 304 329.5 0 0 0 0.57581 -0.056454 -0.81563 0.046185
0.031271 0.094866 1.0592 5.3934e-39 430 329.5 0 0 0 -0.57695 0.030861 -0.81619 0.0064932
0.033115 0.094825 1.0587 6.4768e-39 431.5 329.5 0 0 0 -0.59562 0.025705 -0.80286 0.0079617
0.034959 0.094784 1.0582 4.9786e-39 253 330 0 0 0 -0.61026 0.025889 -0.79178 0.0095321
0.036197 0.095403 1.0582 4.9786e-39 365 330 0 0 0 -0.62074 0.022633 -0.78369 0.011123
-0.031279 0.09726 1.0582 6.592e-39 327.5 330.5 0 0 0 0.61595 -0.067056 -0.78492 0.049193
-0.029422 0.09726 1.0582 6.1771e-39 329 330.5 0 0 0 0.60646 -0.0061887 -0.79509 0.04156
0.031271 0.097344 1.0592 6.4076e-39 296.5 331 0 0 0 -0.57187 0.017531 -0.82016 0.0063751
0.033115 0.097302 1.0587 6.1541e-39 298 331 0 0 0 -0.592 0.022863 -0.80562 0.0074775
0.034959 0.09726 1.0582 6.2232e-39 299.5 331 0 0 0 -0.60297 0.020315 -0.7975 0.008761
0.036197 0.09726 1.0582 6.1772e-39 300.5 331 0 0 0 -0.60933 0.019567 -0.79267 0.01015
-0.031279 0.099118 1.0582 5.2091e-39 141.5 332 0 0 0 0.64366 -0.013497 -0.76519 0.041832
-0.029422 0.099118 1.0582 5.0708e-39 143 332 0 0 0 0.62857 0.037742 -0.77684 0.036725
0.031271 0.099203 1.0592 6.4537e-39 209 332 0 0 0 -0.56584 0.0050944 -0.8245 0.0066224
0.033115 0.09916 1.0587 6.2232e-39 210.5 332 0 0 0 -0.58587 0.0065044 -0.81038 0.0072429
0.034959 0.099118 1.0582 6.1771e-39 212 332 0 0 0 -0.59735 0.015843 -0.80182 0.0082181
-0.031306 0.10106 1.0592 5.67e-39 291 332.5 0 0 0 0.64615 0.056913 -0.76109 0.034515
-0.029447 0.10106 1.0592 5.9927e-39 294 332.5 0 0 0 0.63296 0.1044 -0.76712 0.026948
0.031271 0.10106 1.0592 6.9147e-39 400 332.5 0 0 0 -0.56338 -0.0070004 -0.82617 0.0076837
0.033109 0.101 1.0584 6.8224e-39 412.5 332.5 0 0 0 -0.58188 -0.0013246 -0.81328 0.0079274
0.034959 0.10097 1.0582 6.8686e-39 425 332.5 0 0 0 -0.58675 0.0079943 -0.80973 0.0090844
0.036197 0.10159 1.0582 7.0991e-39 355 333 0 0 0 -0.58705 0.018183 -0.80934 0.0099443
-0.031279 0.10283 1.0582 8.021e-39 415.5 333 0 0 0 0.66114 0.1059 -0.74275 0.024814
-0.029447 0.10292 1.0592 7.9288e-39 417 333 0 0 0 0.63784 0.13559 -0.75814 0.022447
0.031271 0.10292 1.0592 5.7161e-39 146 334 0 0 0 -0.56062 -0.0042358 -0.82806 0.0088442
0.033115 0.10288 1.0587 5.6239e-39 147.5 334 0 0 0 -0.57441 0.0027877 -0.81857 0.0088608
0.034959 0.10283 1.0582 5.9005e-39 162 334 0 0 0 -0.57855 0.018224 -0.81544 0.0095436
0.036197 0.10283 1.0582 5.7161e-39 163 334 0 0 0 -0.58061 0.019405 -0.81395 0.010128
0.031271 0.1054 1.0592 6.4537e-39 503 334 0 0 0 -0.55486 -0.005227 -0.83193 0.010963
0.03313 0.10478 1.0592 8.0902e-39 428.5 334 0 0 0 -0.56066 0.0023068 -0.82805 0.010225
0.017625 0.17217 1.0582 7.7444e-39 445 349 0 0 0 0.91533 0.08311 -0.39404 0.037049
-0.010851 0.19693 1.0582 7.0069e-39 376 351 0 0 0 -0.6201 0.34485 -0.70467 0.016368
-0.01086 0.19895 1.0592 6.1772e-39 410.5 351 0 0 0 -0.58296 0.36559 -0.72561 0.020643
0.016387 0.1994 1.0582 7.7444e-39 446 351 0 0 0 0.47644 0.45491 -0.75237 0.011213
-0.01086 0.20081 1.0592 7.6522e-39 447 351 0 0 0 -0.56821 0.36509 -0.73746 0.021301
0.016387 0.20126 1.0582 5.6701e-39 171 352 0 0 0 0.45388 0.4612 -0.76242 0.013021
0.013911 0.20312 1.0582 5.6239e-39 222 352 0 0 0 0.35376 0.45592 -0.8167 0.017438
-0.0096127 0.20559 1.0582 7.4678e-39 241 352 0 0 0 -0.44448 0.39289 -0.80503 0.034742
0.011445 0.20949 1.0592 5.5317e-39 356 352 0 0 0 0.17552 0.44735 -0.87697 0.041011
-0.0071426 0.21073 1.0592 5.3473e-39 357 352 0 0 0 -0.29675 0.42559 -0.85488 0.052415
-0.0058984 0.21178 1.0582 7.2835e-39 373 352 0 0 0 -0.27287 0.4397 -0.85569 0.054629
-0.0059035 0.21321 1.0592 7.1913e-39 388 352 0 0 0 -0.25491 0.47181 -0.84405 0.06038
0.0089587 0.21302 1.0582 7.3757e-39 400 352 0 0 0 0.10302 0.44721 -0.88847 0.054297
0.010197 0.21302 1.0582 7.1913e-39 401 352 0 0 0 0.14155 0.45155 -0.88095 0.049577
-0.0046623 0.21497 1.0587 5.3473e-39 412.5 352 0 0 0 -0.22808 0.48313 -0.84532 0.062545
-0.0021841 0.2155 1.0582 5.5317e-39 423 352 0 0 0 -0.18835 0.48535 -0.85379 0.064057
0.0077206 0.21488 1.0582 6.0388e-39 422.5 352 0 0 0 0.074818 0.43967 -0.89504 0.061875
0.0089664 0.21444 1.0592 5.2552e-39 415 352 0 0 0 0.10667 0.43739 -0.89293 0.057689
0.010206 0.21444 1.0592 5.0708e-39 418 352 0 0 0 0.14783 0.44089 -0.8853 0.052213
-0.0046643 0.21692 1.0592 7.8366e-39 437 352 0 0 0 -0.20478 0.48741 -0.84882 0.067133
-0.0025968 0.21756 1.0582 6.3e-39 469.67 352 0 0 0 -0.19019 0.49369 -0.84859 0.066484
-0.00094603 0.21735 1.0582 6.638e-39 463.5 352 0 0 0 -0.15671 0.48715 -0.85914 0.068163
0.0068975 0.21721 1.0585 6.8225e-39 345.33 352.33 0 0 0 0.028209 0.44264 -0.89626 0.063993
-0.0046643 0.21816 1.0592 7.4678e-39 456 352 0 0 0 -0.20056 0.48984 -0.84843 0.069661
-0.0028032 0.21921 1.0582 5.5317e-39 148.5 353 0 0 0 -0.16784 0.49409 -0.85306 0.069478
-0.00094603 0.21921 1.0582 5.4395e-39 150 353 0 0 0 -0.16255 0.49816 -0.85171 0.070713
0.0073142 0.21899 1.0592 5.0093e-39 174.33 353 0 0 0 0.059958 0.42735 -0.9021 0.061733
-0.0028036 0.22112 1.0584 5.5778e-39 204 353 0 0 0 -0.15328 0.49399 -0.85585 0.074141
-0.00094603 0.22045 1.0582 5.5317e-39 199 353 0 0 0 -0.1019 0.47344 -0.87491 0.060273
0.00029207 0.22107 1.0582 5.6239e-39 206 353 0 0 0 -0.090785 0.46613 -0.88005 0.063641
0.0052445 0.22107 1.0582 5.7162e-39 210 353 0 0 0 -0.01735 0.44941 -0.89316 0.065525
0.0071063 0.22121 1.0589 5.4626e-39 211.5 353 0 0 0 0.053922 0.44158 -0.8956 0.055584
0.0052445 0.22293 1.0582 5.7161e-39 223 353 0 0 0 0.00096992 0.4676 -0.88394 0.058343
0.007105 0.22302 1.0587 6.2693e-39 224.5 353 0 0 0 0.026433 0.46529 -0.88476 0.059552
0.0089664 0.22312 1.0592 6.1771e-39 226 353 0 0 0 0.054622 0.46794 -0.88207 0.061247
0.0044304 0.075375 1.061 6.3308e-39 354.67 319.33 0 0 0 -0.11718 0.34323 -0.93191 0.025057
0.0064937 0.075724 1.0601 4.8864e-39 179 320 0 0 0 -0.1072 0.3651 -0.92478 0.024696
0.023898 0.075854 1.0619 7.2835e-39 428 320 0 0 0 -0.38886 0.2863 -0.87568 0.046841
0.0065048 0.077096 1.0619 6.0849e-39 466 320 0 0 0 -0.11833 0.30605 -0.94463 0.02115
0.027601 0.07703 1.061 5.163e-39 181 321 0 0 0 -0.50447 0.13541 -0.85274 0.025624
-0.038774 0.079444 1.0601 5.163e-39 166.5 322 0 0 0 0.27928 -0.51279 -0.81182 0.062013
-0.034493 0.079581 1.0619 4.702e-39 170 322 0 0 0 0.29789 -0.34067 -0.89174 0.043023
-0.028878 0.079513 1.061 5.1169e-39 174.5 322 0 0 0 0.38053 -0.21346 -0.8998 0.034256
-0.027016 0.079513 1.061 4.7942e-39 176 322 0 0 0 0.39626 -0.17685 -0.90095 0.028708
-0.025164 0.079547 1.0615 4.6098e-39 177.5 322 0 0 0 0.42011 -0.15365 -0.89437 0.023385
-0.023292 0.079513 1.061 4.5176e-39 179 322 0 0 0 0.42869 -0.11666 -0.89589 0.018795
0.027625 0.078339 1.0619 7.6522e-39 435 321 0 0 0 -0.49706 0.12021 -0.85935 0.023637
0.028842 0.078271 1.061 7.7444e-39 436 321 0 0 0 -0.52284 0.13209 -0.84213 0.022036
0.030506 0.079121 1.0613 7.3142e-39 433.67 321.67 0 0 0 -0.53743 0.11377 -0.8356 0.019913
-0.046836 0.081925 1.0601 5.9927e-39 228 323 0 0 0 0.28267 -0.68873 -0.66765 0.078739
-0.044976 0.081925 1.0601 5.9466e-39 229.5 323 0 0 0 0.30108 -0.66289 -0.68552 0.078567
-0.043152 0.081995 1.061 5.6239e-39 231 323 0 0 0 0.31941 -0.58997 -0.74156 0.078358
-0.041281 0.081357 1.0608 6.2693e-39 331.5 322.5 0 0 0 0.31093 -0.55731 -0.76989 0.076207
-0.038808 0.081375 1.061 6.3845e-39 414.5 322.5 0 0 0 0.31464 -0.4656 -0.82717 0.066588
-0.035068 0.08134 1.0605 7.0991e-39 423.5 322.5 0 0 0 0.35356 -0.35864 -0.86393 0.05751
-0.032008 0.080823 1.0619 6.9147e-39 441 322 0 0 0 0.34609 -0.25523 -0.90282 0.042033
-0.03136 0.081995 1.061 6.3615e-39 414.5 323 0 0 0 0.36977 -0.23909 -0.89783 0.046481
-0.028877 0.081374 1.061 6.8916e-39 440.5 322.5 0 0 0 0.4019 -0.20369 -0.89274 0.036424
-0.027016 0.081374 1.061 7.0991e-39 442 322.5 0 0 0 0.41219 -0.16048 -0.89685 0.031724
-0.025159 0.081392 1.0612 6.8455e-39 454 322.5 0 0 0 0.42645 -0.13243 -0.89477 0.025114
-0.023302 0.081409 1.0615 6.7302e-39 455.5 322.5 0 0 0 0.43935 -0.09669 -0.8931 0.020544
0.031325 0.081374 1.061 5.5778e-39 187.5 323.5 0 0 0 -0.54816 0.086894 -0.83185 0.016067
0.032952 0.081511 1.0601 5.2859e-39 181.67 323.67 0 0 0 -0.57036 0.087935 -0.81668 0.015115
-0.046836 0.083165 1.0601 5.3473e-39 184 324 0 0 0 0.33736 -0.67846 -0.6526 0.080786
-0.044995 0.0832 1.0605 5.6239e-39 185.5 324 0 0 0 0.34063 -0.62672 -0.70086 0.080536
-0.043152 0.083236 1.061 5.7161e-39 187 324 0 0 0 0.35188 -0.54705 -0.75955 0.080062
-0.041255 0.083165 1.0601 5.4395e-39 188.5 324 0 0 0 0.37995 -0.48385 -0.78837 0.081805
-0.038791 0.0832 1.0605 5.7622e-39 193.5 324 0 0 0 0.38364 -0.41271 -0.82613 0.073345
-0.034434 0.083165 1.0601 6.0849e-39 197 324 0 0 0 0.38925 -0.32125 -0.8633 0.058717
-0.031333 0.083165 1.0601 5.4856e-39 199.5 324 0 0 0 0.39444 -0.26236 -0.88067 0.052026
-0.028233 0.083165 1.0601 5.0708e-39 202 324 0 0 0 0.4199 -0.1666 -0.89215 0.036644
-0.026992 0.083165 1.0601 5.0708e-39 203 324 0 0 0 0.43303 -0.15044 -0.88874 0.033682
-0.025143 0.0832 1.0605 5.8083e-39 204.5 324 0 0 0 0.43695 -0.11027 -0.8927 0.027072
-0.022477 0.08287 1.0616 6.4844e-39 278.33 323.67 0 0 0 0.45125 -0.054884 -0.89071 0.017802
0.030515 0.08287 1.0616 7.1605e-39 338 324 0 0 0 -0.54199 0.079971 -0.83657 0.015172
0.033158 0.083165 1.0601 7.6983e-39 426.5 324 0 0 0 -0.57588 0.065682 -0.81489 0.011298
-0.044976 0.084405 1.0601 5.67e-39 446.5 324 0 0 0 0.40199 -0.57071 -0.71603 0.083764
-0.043115 0.084405 1.0601 5.8083e-39 448 324 0 0 0 0.39712 -0.5147 -0.75985 0.082883
-0.039395 0.084405 1.0601 5.5317e-39 451 324 0 0 0 0.41823 -0.4106 -0.81024 0.076442
-0.026992 0.084405 1.0601 7.3757e-39 496 324 0 0 0 0.44625 -0.14011 -0.88387 0.033799
-0.024925 0.084818 1.0601 6.2386e-39 354.67 324.67 0 0 0 0.46585 -0.088603 -0.88042 0.02519
-0.022661 0.085062 1.0605 5.7852e-39 285 325 0 0 0 0.46534 -0.037605 -0.88433 0.018413
-0.020827 0.085172 1.0619 6.2232e-39 286.5 325 0 0 0 0.46068 -0.013391 -0.88747 0.015144
0.028867 0.085172 1.0619 5.7161e-39 327.5 325 0 0 0 -0.51763 0.074173 -0.85239 0.015334
0.030697 0.08508 1.0608 5.6469e-39 338 325 0 0 0 -0.54911 0.069662 -0.83284 0.013012
0.032538 0.085025 1.0601 5.67e-39 348.5 325 0 0 0 -0.57365 0.053692 -0.81734 0.010046
-0.025132 0.086886 1.0601 5.5317e-39 188.5 326 0 0 0 0.4736 -0.073996 -0.87762 0.027019
-0.022661 0.086923 1.0605 5.67e-39 191.5 326 0 0 0 0.4775 -0.023228 -0.87833 0.018593
-0.020827 0.087035 1.0619 5.5317e-39 194 326 0 0 0 0.46592 0.0019933 -0.88482 0.015097
0.028867 0.087035 1.0619 6.1771e-39 234 326 0 0 0 -0.52721 0.063682 -0.84735 0.012695
0.030691 0.086923 1.0605 7.1913e-39 294.5 326 0 0 0 -0.55396 0.060557 -0.83034 0.01119
