# .PCD v.7 - Point Cloud Data file format
VERSION .7
FIELDS x y z rgb u v vx vy vz normal_x normal_y normal_z curvature
SIZE 4 4 4 4 4 4 4 4 4 4 4 4 4
TYPE F F F F F F F F F F F F F
COUNT 1 1 1 1 1 1 1 1 1 1 1 1 1
WIDTH 557
HEIGHT 1
VIEWPOINT 0 0 0 1 0 0 0
POINTS 557
DATA ascii
-0.0083531 0.19519 1.0555 7.56e-39 278 345 0 0 0 -0.1344 0.41737 -0.89874 0.019393
-0.0058833 0.19519 1.0555 6.7303e-39 280 345 0 0 0 -0.076614 0.41605 -0.90611 0.021082
-0.002796 0.19519 1.0555 6.9147e-39 282.5 345 0 0 0 0.00062932 0.40372 -0.91488 0.025775
-0.0009436 0.19519 1.0555 6.3615e-39 284 345 0 0 0 0.025108 0.39719 -0.91739 0.028502
0.0076943 0.19502 1.0546 6.0849e-39 291 345 0 0 0 0.17602 0.36503 -0.9142 0.043274
0.0089358 0.19519 1.0555 6.3615e-39 292 345 0 0 0 0.21081 0.36076 -0.90852 0.041121
0.00090811 0.19695 1.0551 7.0991e-39 356.5 345 0 0 0 0.030616 0.38647 -0.92179 0.029632
0.0035825 0.19713 1.0549 6.9761e-39 362 345 0 0 0 0.060238 0.37485 -0.92513 0.033636
0.0052287 0.19695 1.0551 7.3757e-39 360 345 0 0 0 0.083248 0.37277 -0.92418 0.036809
0.0068757 0.19678 1.0552 7.1605e-39 358 345 0 0 0 0.10827 0.3619 -0.92591 0.040593
0.0015262 0.19889 1.0555 7.6522e-39 387 345 0 0 0 0.01736 0.37638 -0.9263 0.027476
0.0033774 0.19881 1.0551 6.9608e-39 388.5 345 0 0 0 0.036654 0.37591 -0.92593 0.030411
0.005231 0.19889 1.0555 7.0991e-39 391 345 0 0 0 0.058671 0.36737 -0.92822 0.033274
0.0064659 0.19889 1.0555 8.1132e-39 393 345 0 0 0 0.08145 0.35777 -0.93025 0.035236
0.0027612 0.20013 1.0555 8.1132e-39 411 345 0 0 0 0.024542 0.38305 -0.9234 0.028487
-0.039276 0.074879 1.0568 6.6842e-39 294.5 322 0 0 0 0.63722 -0.33807 -0.69258 0.046907
-0.041114 0.077318 1.0564 6.5459e-39 273.5 323 0 0 0 0.65681 -0.34674 -0.66961 0.045365
-0.039293 0.076766 1.0573 6.0849e-39 187 323 0 0 0 0.65104 -0.3192 -0.68866 0.041077
-0.051002 0.079172 1.0564 6.1771e-39 147.5 324 0 0 0 0.55019 -0.45274 -0.70165 0.075649
-0.041132 0.079206 1.0568 6.0388e-39 155.5 324 0 0 0 0.68152 -0.30124 -0.66693 0.040641
-0.039293 0.078003 1.0573 6.8225e-39 363 323 0 0 0 0.66635 -0.30134 -0.68203 0.03925
0.044787 0.079172 1.0564 6.2693e-39 239 324 0 0 0 -0.79665 0.1614 -0.5825 0.033158
-0.051035 0.081078 1.0571 6.2693e-39 328 324 0 0 0 0.59938 -0.41188 -0.68637 0.066425
-0.049148 0.081026 1.0564 6.7303e-39 329.5 324 0 0 0 0.63236 -0.3843 -0.67263 0.06211
-0.046676 0.081644 1.0564 7.7444e-39 418 324 0 0 0 0.69067 -0.32299 -0.64703 0.049124
-0.045041 0.081255 1.0567 7.0991e-39 363 324 0 0 0 0.6844 -0.31381 -0.65811 0.044833
-0.042986 0.081061 1.0568 6.5459e-39 336.5 324 0 0 0 0.70093 -0.29077 -0.65126 0.040489
-0.04114 0.081078 1.0571 6.4306e-39 338 324 0 0 0 0.69738 -0.27965 -0.65989 0.035938
0.044806 0.081061 1.0568 7.0068e-39 309.5 324.5 0 0 0 -0.78874 0.11788 -0.60332 0.031017
-0.051045 0.082951 1.0573 6.9608e-39 223.5 325 0 0 0 0.63942 -0.36092 -0.67888 0.060879
-0.049148 0.08288 1.0564 6.5459e-39 225 325 0 0 0 0.67426 -0.32807 -0.66162 0.057567
-0.046676 0.08288 1.0564 6.1771e-39 227 325 0 0 0 0.70711 -0.29352 -0.6433 0.048512
-0.04544 0.08288 1.0564 5.9927e-39 228 325 0 0 0 0.71126 -0.28566 -0.64227 0.04501
-0.043004 0.082951 1.0573 6.0849e-39 230 325 0 0 0 0.71408 -0.25546 -0.65178 0.037629
-0.041132 0.082915 1.0568 6.3615e-39 231.5 325 0 0 0 0.71261 -0.24773 -0.65637 0.034622
0.044825 0.082951 1.0573 6.2693e-39 386 325 0 0 0 -0.78166 0.091001 -0.61704 0.029525
-0.050406 0.08477 1.0568 7.2835e-39 298.5 325.5 0 0 0 0.68629 -0.31647 -0.65487 0.056626
-0.049148 0.084116 1.0564 7.2835e-39 397 325 0 0 0 0.69213 -0.30971 -0.65195 0.054252
-0.04544 0.084116 1.0564 6.3615e-39 400 325 0 0 0 0.72266 -0.27261 -0.63518 0.043903
-0.042968 0.084116 1.0564 6.5459e-39 402 325 0 0 0 0.72994 -0.25084 -0.63582 0.037759
-0.041732 0.084116 1.0564 6.3615e-39 403 325 0 0 0 0.72662 -0.242 -0.64301 0.034803
-0.039293 0.085425 1.0573 7.2835e-39 210 326 0 0 0 0.71631 -0.22434 -0.66073 0.029501
0.044825 0.084807 1.0573 6.1771e-39 276 326 0 0 0 -0.78479 0.078901 -0.61472 0.030401
-0.05162 0.086588 1.0564 6.6381e-39 376 326 0 0 0 0.70916 -0.30676 -0.63481 0.060187
-0.038658 0.087243 1.0568 6.4537e-39 289.5 326.5 0 0 0 0.72263 -0.21791 -0.65599 0.027888
0.044825 0.08728 1.0573 7.2374e-39 211 327 0 0 0 -0.78055 0.049742 -0.62311 0.031683
-0.038056 0.089137 1.0573 6.9147e-39 368 327 0 0 0 0.72185 -0.21544 -0.65766 0.026762
0.044825 0.089137 1.0573 1.1709e-38 435 327 0 0 0 -0.78249 0.027088 -0.62207 0.031439
-0.03804 0.090953 1.0568 7.6522e-39 215 328 0 0 0 0.72895 -0.21963 -0.64838 0.027113
-0.036803 0.090953 1.0568 7.2835e-39 217 328 0 0 0 0.72225 -0.21392 -0.65771 0.026455
0.044787 0.090914 1.0564 6.3154e-39 329.5 328 0 0 0 -0.79341 0.0052283 -0.60866 0.032447
-0.036788 0.092768 1.0564 4.9786e-39 142 329 0 0 0 0.73074 -0.21385 -0.6483 0.026719
0.044825 0.092848 1.0573 7.3757e-39 224 329 0 0 0 -0.7707 -0.015818 -0.63701 0.029461
-0.036788 0.094622 1.0564 6.3154e-39 334 329 0 0 0 0.73678 -0.21087 -0.64241 0.026524
0.044825 0.094085 1.0573 6.1771e-39 393 329 0 0 0 -0.75803 -0.028392 -0.6516 0.02671
0.046023 0.09524 1.0564 7.3757e-39 205 330 0 0 0 -0.78096 -0.047372 -0.62279 0.0322
-0.038024 0.097094 1.0564 7.1913e-39 314 330 0 0 0 0.74809 -0.24294 -0.61752 0.025868
-0.036803 0.097136 1.0568 6.9607e-39 315 330 0 0 0 0.74623 -0.2128 -0.63076 0.022632
-0.038024 0.098948 1.0564 6.0849e-39 202 331 0 0 0 0.75845 -0.23913 -0.60627 0.024416
-0.036788 0.098948 1.0564 6.3615e-39 203 331 0 0 0 0.75433 -0.22159 -0.61797 0.023115
-0.038436 0.10101 1.0564 7.9903e-39 410.33 331 0 0 0 0.77366 -0.22357 -0.59285 0.021221
-0.036788 0.1008 1.0564 7.8827e-39 398.5 331 0 0 0 0.76909 -0.19799 -0.60771 0.018031
-0.040496 0.10266 1.0564 7.7444e-39 229 332 0 0 0 0.78212 -0.23232 -0.57819 0.024241
-0.038848 0.10307 1.0564 7.9595e-39 281.67 332 0 0 0 0.79388 -0.15347 -0.58839 0.012987
-0.036788 0.10266 1.0564 7.7444e-39 232 332 0 0 0 0.79206 -0.14273 -0.59353 0.010247
0.013887 0.17805 1.0564 7.2835e-39 361 344 0 0 0 0.51006 0.43227 -0.74363 0.047293
0.013893 0.18493 1.0568 7.7444e-39 499 344 0 0 0 0.47371 0.3707 -0.79886 0.047701
-0.010842 0.19119 1.0573 5.6239e-39 198 345 0 0 0 -0.22548 0.43442 -0.87203 0.014369
-0.0095963 0.19165 1.0564 5.2552e-39 210 345 0 0 0 -0.17531 0.43979 -0.88082 0.016117
0.013893 0.19111 1.0568 6.3154e-39 218 345 0 0 0 0.45039 0.33819 -0.82631 0.041603
-0.0095963 0.19288 1.0564 7.3757e-39 232 345 0 0 0 -0.16968 0.43461 -0.88449 0.017196
-0.0071243 0.19288 1.0564 7.8366e-39 234 345 0 0 0 -0.09202 0.43019 -0.89804 0.020918
0.010179 0.19288 1.0564 8.3898e-39 250 345 0 0 0 0.2827 0.35474 -0.8912 0.046932
0.013275 0.19297 1.0568 8.1593e-39 252.5 345 0 0 0 0.41676 0.33304 -0.84581 0.04106
-0.0096045 0.19428 1.0573 6.6381e-39 256 345 0 0 0 -0.17758 0.41781 -0.89101 0.016775
-0.0071274 0.19482 1.0568 7.2374e-39 268.5 345 0 0 0 -0.10446 0.41769 -0.90256 0.020323
-0.0046523 0.19535 1.0564 6.8225e-39 281 345 0 0 0 -0.055214 0.41165 -0.90967 0.022154
0.010802 0.19482 1.0568 6.8686e-39 283 345 0 0 0 0.30726 0.33513 -0.89066 0.044199
0.012651 0.19474 1.0564 7.6983e-39 304.5 345 0 0 0 0.3688 0.32802 -0.86971 0.042477
-0.0083639 0.1973 1.0568 7.9749e-39 349 345 0 0 0 -0.1487 0.39716 -0.90562 0.019475
-0.0052736 0.19734 1.0571 7.8136e-39 351.5 345 0 0 0 -0.067183 0.39652 -0.91556 0.022258
-0.0027991 0.19725 1.0566 7.3296e-39 353.5 345 0 0 0 -0.026777 0.39911 -0.91651 0.023633
-0.00094481 0.1973 1.0568 7.7444e-39 355 345 0 0 0 0.006352 0.39296 -0.91953 0.026978
0.00029157 0.19783 1.0564 7.7444e-39 366 345 0 0 0 0.01962 0.3869 -0.92191 0.028051
0.0077074 0.19783 1.0564 7.7444e-39 372 345 0 0 0 0.12966 0.34933 -0.92798 0.038938
0.0089434 0.19721 1.0564 7.4679e-39 363 345 0 0 0 0.17177 0.34738 -0.92186 0.037363
0.010802 0.1973 1.0568 7.8366e-39 364.5 345 0 0 0 0.25938 0.32565 -0.90922 0.037151
0.012662 0.19738 1.0573 7.1452e-39 366 345 0 0 0 0.32811 0.31921 -0.88907 0.034905
-0.0083674 0.19923 1.0573 7.6522e-39 379 345 0 0 0 -0.14433 0.37559 -0.91548 0.018643
-0.0052748 0.19923 1.0573 7.6061e-39 381.5 345 0 0 0 -0.064353 0.38113 -0.92228 0.022034
-0.0028008 0.19923 1.0573 7.1913e-39 383.5 345 0 0 0 -0.028361 0.38381 -0.92298 0.024109
-0.00094522 0.19923 1.0573 8.1132e-39 385 345 0 0 0 -0.010223 0.38027 -0.92482 0.024821
0.00029157 0.19906 1.0564 8.2054e-39 386 345 0 0 0 0.0053659 0.38166 -0.92429 0.025932
0.007714 0.19923 1.0573 7.6522e-39 394 345 0 0 0 0.097143 0.3511 -0.93129 0.033141
0.0089434 0.19906 1.0564 7.0069e-39 395 345 0 0 0 0.14399 0.34453 -0.92767 0.032848
0.010801 0.19914 1.0568 6.9608e-39 397 345 0 0 0 0.22826 0.33598 -0.91379 0.032581
-0.0083674 0.20109 1.0573 7.053e-39 412 345 0 0 0 -0.15156 0.36613 -0.91814 0.016972
-0.005481 0.20088 1.0573 7.5293e-39 411 345 0 0 0 -0.074625 0.3756 -0.92377 0.021765
-0.0028008 0.20109 1.0573 8.0441e-39 416.5 345 0 0 0 -0.036686 0.37448 -0.92651 0.023509
-0.00094522 0.20047 1.0573 7.4678e-39 408 345 0 0 0 -0.020209 0.3786 -0.92534 0.02313
0.00091001 0.20105 1.0571 7.6522e-39 419.5 345 0 0 0 0.00080569 0.37159 -0.92839 0.025474
0.0035875 0.20112 1.0564 7.6522e-39 425 345 0 0 0 0.026843 0.36242 -0.93163 0.027624
0.0052355 0.20091 1.0564 7.1913e-39 423 345 0 0 0 0.027988 0.36312 -0.93132 0.027427
0.0068857 0.20077 1.0567 7.3449e-39 421 345 0 0 0 0.070993 0.3548 -0.93224 0.030675
0.0089511 0.20047 1.0573 7.56e-39 416 345 0 0 0 0.1401 0.34873 -0.92669 0.029588
0.011425 0.20109 1.0573 7.6522e-39 428 345 0 0 0 0.21014 0.34732 -0.9139 0.027025
-0.0083603 0.20277 1.0564 7.6522e-39 442 345 0 0 0 -0.14934 0.35617 -0.92241 0.015849
-0.0052723 0.20285 1.0568 7.1913e-39 444.5 345 0 0 0 -0.074431 0.36009 -0.92995 0.019448
-0.0034193 0.20294 1.0573 7.7444e-39 446 345 0 0 0 -0.046219 0.36058 -0.93158 0.02271
0.0027635 0.20277 1.0564 7.2835e-39 451 345 0 0 0 0.0078601 0.35966 -0.93305 0.02539
0.0046214 0.20294 1.0573 8.1593e-39 452.5 345 0 0 0 0.023924 0.35216 -0.93563 0.025751
0.006477 0.20294 1.0573 8.021e-39 454 345 0 0 0 0.052487 0.34926 -0.93555 0.02673
-0.0083603 0.20401 1.0564 5.9005e-39 461 345 0 0 0 -0.14646 0.35373 -0.92381 0.015966
-0.0058934 0.20418 1.0573 4.9786e-39 463 345 0 0 0 -0.077499 0.35105 -0.93314 0.019463
-0.0034193 0.2048 1.0573 6.1311e-39 493 345 0 0 0 -0.039044 0.35378 -0.93451 0.023405
0.0027659 0.20418 1.0573 6.4537e-39 470 345 0 0 0 -0.0041659 0.36053 -0.93274 0.02614
0.0046214 0.2048 1.0573 6.8685e-39 499.5 345 0 0 0 0.019604 0.35593 -0.93431 0.026573
0.006477 0.20418 1.0573 3.5956e-39 511 345 0 0 0 0.056137 0.34962 -0.93521 0.025524
0.0046214 0.20728 1.0573 5.5547e-39 147 346 0 0 0 0.027671 0.35658 -0.93386 0.028048
0.0040029 0.20913 1.0573 5.3473e-39 170 346 0 0 0 0.042827 0.35364 -0.9344 0.02958
-0.038089 0.074975 1.0582 6.7764e-39 295.5 322 0 0 0 0.6408 -0.28651 -0.71224 0.040016
-0.036851 0.074975 1.0582 7.1452e-39 296.5 322 0 0 0 0.64186 -0.28026 -0.71378 0.036782
0.034989 0.074419 1.0592 6.4537e-39 381 322 0 0 0 -0.61594 0.18417 -0.76596 0.021796
-0.038089 0.076832 1.0582 6.2693e-39 188 323 0 0 0 0.65879 -0.29604 -0.69163 0.038738
-0.036851 0.076832 1.0582 6.2693e-39 189 323 0 0 0 0.6534 -0.27994 -0.70335 0.035475
0.038706 0.076898 1.0592 8.5742e-39 263 323 0 0 0 -0.67316 0.15656 -0.72273 0.023354
0.042387 0.076832 1.0582 8.1132e-39 265 323 0 0 0 -0.73072 0.15998 -0.66367 0.027548
0.044864 0.076832 1.0582 8.1132e-39 266 323 0 0 0 -0.75709 0.14729 -0.63649 0.029746
-0.038513 0.078918 1.0585 5.9312e-39 226.33 323.67 0 0 0 0.67119 -0.27792 -0.68722 0.034786
-0.036867 0.078723 1.0587 5.9466e-39 262 323.5 0 0 0 0.66565 -0.25347 -0.7019 0.032731
0.042825 0.07894 1.0589 5.839e-39 206.33 324 0 0 0 -0.73264 0.12584 -0.66889 0.025041
0.044864 0.07807 1.0582 6.5459e-39 146 324 0 0 0 -0.75352 0.13953 -0.64244 0.028542
-0.038937 0.081005 1.0589 6.6996e-39 312 324 0 0 0 0.6893 -0.2542 -0.67841 0.032688
0.043044 0.081234 1.0592 6.8917e-39 308 324.5 0 0 0 -0.72626 0.11232 -0.67818 0.023925
-0.039361 0.083094 1.0592 6.4537e-39 233 325 0 0 0 0.70114 -0.22645 -0.67611 0.029681
0.043663 0.083094 1.0592 6.3615e-39 385 325 0 0 0 -0.73568 0.094876 -0.67065 0.025052
-0.038524 0.084722 1.0589 6.8532e-39 340.67 325.33 0 0 0 0.70184 -0.21306 -0.67972 0.027828
-0.036882 0.085572 1.0592 7.7444e-39 212 326 0 0 0 0.69925 -0.20239 -0.68563 0.026338
0.043025 0.084916 1.0587 6.4767e-39 274.5 326 0 0 0 -0.73059 0.083332 -0.67771 0.024264
-0.038089 0.086737 1.0582 6.5459e-39 387 326 0 0 0 0.71025 -0.21024 -0.67182 0.027053
-0.036851 0.087356 1.0582 6.131e-39 291 326.5 0 0 0 0.70555 -0.20345 -0.67883 0.025924
-0.035643 0.086811 1.0592 6.5459e-39 389 326 0 0 0 0.69157 -0.19379 -0.69583 0.024943
0.041185 0.086811 1.0592 5.9005e-39 156 327 0 0 0 -0.71557 0.063724 -0.69563 0.021282
0.043225 0.087174 1.0585 6.7917e-39 192.33 327 0 0 0 -0.7468 0.044334 -0.66357 0.025485
-0.036851 0.089213 1.0582 6.7303e-39 369 327 0 0 0 0.71141 -0.20799 -0.6713 0.025434
-0.035643 0.08805 1.0592 6.0849e-39 195 327 0 0 0 0.69555 -0.19576 -0.69129 0.024865
0.041185 0.08867 1.0592 7.6522e-39 346 327 0 0 0 -0.71175 0.028326 -0.70186 0.019097
0.042812 0.088825 1.0585 1.0541e-38 376 327 0 0 0 -0.73825 0.029585 -0.67388 0.023646
-0.035643 0.091768 1.0592 7.9288e-39 271 328 0 0 0 0.71051 -0.19165 -0.67709 0.023448
0.041185 0.091148 1.0592 6.9608e-39 326.5 328 0 0 0 -0.70516 0.020565 -0.70875 0.017441
0.043015 0.09109 1.0584 6.4998e-39 328 328 0 0 0 -0.73967 0.011441 -0.67287 0.023825
-0.035613 0.092927 1.0582 5.0708e-39 143 329 0 0 0 0.72027 -0.19367 -0.66611 0.024089
0.043025 0.092967 1.0587 7.4218e-39 222.5 329 0 0 0 -0.72738 -0.006432 -0.68621 0.020375
-0.035613 0.094784 1.0582 6.1771e-39 335 329 0 0 0 0.73016 -0.18707 -0.65717 0.02343
0.043044 0.094246 1.0592 6.4537e-39 391.5 329 0 0 0 -0.71862 -0.012183 -0.69529 0.017665
0.044864 0.095403 1.0582 7.1913e-39 204 330 0 0 0 -0.74156 -0.027425 -0.67032 0.023124
-0.035643 0.097344 1.0592 6.7764e-39 316 330 0 0 0 0.73048 -0.18498 -0.6574 0.021966
0.044902 0.096724 1.0592 6.3615e-39 371 330 0 0 0 -0.73004 -0.023782 -0.68299 0.019976
0.046102 0.09726 1.0582 6.131e-39 269 330.5 0 0 0 -0.73697 -0.010954 -0.67584 0.023342
-0.035643 0.099203 1.0592 6.7303e-39 204 331 0 0 0 0.74642 -0.16704 -0.64417 0.016916
0.046141 0.099203 1.0592 7.56e-39 262 331 0 0 0 -0.68406 0.0045095 -0.72941 0.01548
-0.035643 0.10106 1.0592 8.0671e-39 399.5 331 0 0 0 0.77053 -0.1341 -0.62313 0.011885
-0.035643 0.10292 1.0592 7.7444e-39 233 332 0 0 0 0.77812 -0.10778 -0.61879 0.010661
0.015149 0.17588 1.0582 7.0991e-39 282 344 0 0 0 0.68663 0.35816 -0.63266 0.033413
0.013911 0.17959 1.0582 6.7303e-39 383 344 0 0 0 0.57 0.38229 -0.7273 0.043065
0.017633 0.17905 1.0587 7.9288e-39 375 344 0 0 0 0.76115 0.29724 -0.57646 0.026451
0.013911 0.18083 1.0582 7.7444e-39 407 344 0 0 0 0.54528 0.39499 -0.73936 0.046182
0.017625 0.18083 1.0582 7.3757e-39 410 344 0 0 0 0.74541 0.29472 -0.59792 0.02647
0.013911 0.18269 1.0582 7.2835e-39 440 344 0 0 0 0.52612 0.36844 -0.76645 0.044719
0.016401 0.18347 1.0592 7.6522e-39 452 344 0 0 0 0.64361 0.31422 -0.69787 0.035561
0.015162 0.18532 1.0592 7.514e-39 500 344 0 0 0 0.56455 0.32242 -0.75982 0.039231
0.015149 0.18702 1.0582 6.3615e-39 145 345 0 0 0 0.52907 0.33266 -0.78065 0.042245
0.015149 0.18826 1.0582 5.4395e-39 164 345 0 0 0 0.52628 0.32767 -0.78464 0.040941
-0.012089 0.19136 1.0582 5.3473e-39 197 345 0 0 0 -0.26092 0.41523 -0.8715 0.013637
-0.012089 0.19321 1.0582 6.8225e-39 230 345 0 0 0 -0.26238 0.40916 -0.87392 0.013715
-0.010851 0.19321 1.0582 7.0069e-39 231 345 0 0 0 -0.23083 0.41551 -0.87981 0.014366
-0.012094 0.19515 1.0587 7.4679e-39 264.5 345 0 0 0 -0.2634 0.38895 -0.8828 0.01473
-0.010855 0.19515 1.0587 7.2374e-39 265.5 345 0 0 0 -0.23067 0.39511 -0.8892 0.015472
-0.0096127 0.19569 1.0582 7.7444e-39 277 345 0 0 0 -0.18631 0.40244 -0.89629 0.017352
-0.009621 0.1971 1.0592 8.3898e-39 338 345 0 0 0 -0.18826 0.38182 -0.90486 0.017499
-0.0071365 0.19693 1.0582 8.7586e-39 340 345 0 0 0 -0.10316 0.38822 -0.91577 0.021507
-0.0071426 0.19895 1.0592 8.021e-39 370 345 0 0 0 -0.11257 0.37272 -0.92109 0.019386
0.012673 0.1994 1.0582 7.0991e-39 399 345 0 0 0 0.29158 0.32378 -0.90008 0.030165
-0.0071426 0.20081 1.0592 6.9147e-39 403 345 0 0 0 -0.11875 0.36373 -0.92391 0.018513
-0.0046603 0.20188 1.0582 8.482e-39 425 345 0 0 0 -0.061327 0.37387 -0.92545 0.021246
-0.00094603 0.20188 1.0582 7.56e-39 428 345 0 0 0 -0.013139 0.36654 -0.93031 0.025002
0.0077206 0.20188 1.0582 7.4678e-39 435 345 0 0 0 0.072174 0.35414 -0.9324 0.026415
0.0089587 0.20188 1.0582 7.7444e-39 436 345 0 0 0 0.13336 0.34229 -0.93008 0.02657
0.010197 0.20126 1.0582 7.6061e-39 427 345 0 0 0 0.17454 0.345 -0.92223 0.027502
0.012684 0.20081 1.0592 6.9147e-39 419 345 0 0 0 0.25298 0.34071 -0.90549 0.025912
-0.0071426 0.20267 1.0592 7.4218e-39 433 345 0 0 0 -0.11893 0.35799 -0.92612 0.017281
-0.0021841 0.20312 1.0582 8.1132e-39 447 345 0 0 0 -0.021164 0.35753 -0.93366 0.02526
-0.00094603 0.20312 1.0582 7.9288e-39 448 345 0 0 0 -0.015009 0.35483 -0.93481 0.025031
0.00091113 0.20312 1.0582 7.4679e-39 449.5 345 0 0 0 -0.0042275 0.36416 -0.93133 0.025894
0.0077273 0.20329 1.0592 7.1913e-39 455 345 0 0 0 0.078592 0.34229 -0.9363 0.025978
0.0089587 0.20312 1.0582 7.0069e-39 456 345 0 0 0 0.1176 0.34807 -0.93006 0.024102
0.010821 0.2032 1.0587 7.1913e-39 457.5 345 0 0 0 0.15533 0.3513 -0.92329 0.022893
-0.0071426 0.20453 1.0592 5.3473e-39 462 345 0 0 0 -0.11432 0.34053 -0.93326 0.016465
-0.005073 0.20518 1.0582 6.3615e-39 501 345 0 0 0 -0.058726 0.33948 -0.93878 0.020409
-0.0021841 0.20497 1.0582 6.9146e-39 494 345 0 0 0 -0.02118 0.35133 -0.93601 0.025214
-0.00094644 0.20506 1.0587 7.5601e-39 495 345 0 0 0 -0.010597 0.35507 -0.93478 0.026859
0.00091152 0.20506 1.0587 7.4679e-39 496.5 345 0 0 0 -0.0049477 0.35193 -0.93601 0.026734
0.0027683 0.20559 1.0582 8.1132e-39 526 345 0 0 0 0.0057268 0.35001 -0.93673 0.026954
0.0064826 0.20559 1.0582 8.2054e-39 529 345 0 0 0 0.052262 0.35307 -0.93414 0.026731
0.0089664 0.20453 1.0592 3.78e-39 513 345 0 0 0 0.1171 0.3511 -0.92899 0.023586
-0.0052839 0.20701 1.0592 7.7444e-39 535.5 345 0 0 0 -0.044488 0.34107 -0.93898 0.024265
-0.0028032 0.20683 1.0582 8.1132e-39 537.5 345 0 0 0 -0.028203 0.34228 -0.93918 0.02417
-0.00094684 0.20701 1.0592 8.482e-39 539 345 0 0 0 -0.0097238 0.34534 -0.93843 0.02863
0.00091191 0.20701 1.0592 8.2976e-39 540.5 345 0 0 0 -0.00011723 0.34418 -0.9389 0.028497
0.0027683 0.20683 1.0582 5.3473e-39 138 346 0 0 0 0.010857 0.35482 -0.93487 0.028107
0.0064826 0.20683 1.0582 5.3473e-39 141 346 0 0 0 0.051075 0.35465 -0.9336 0.027231
-0.0046643 0.20825 1.0592 6.0849e-39 147 346 0 0 0 -0.031608 0.33951 -0.94007 0.026207
-0.0028036 0.20874 1.0584 5.5778e-39 156.5 346 0 0 0 -0.022159 0.34151 -0.93962 0.02764
-0.00094684 0.20887 1.0592 5.6239e-39 158 346 0 0 0 0.0025494 0.34193 -0.93972 0.03039
0.00091191 0.20887 1.0592 5.4626e-39 159.5 346 0 0 0 0.0082041 0.34923 -0.937 0.029976
0.0027683 0.20869 1.0582 5.3473e-39 161 346 0 0 0 0.025461 0.35022 -0.93632 0.029829
0.0052445 0.20931 1.0582 5.3473e-39 171 346 0 0 0 0.058311 0.35586 -0.93272 0.029619
0.0064853 0.20878 1.0587 5.4395e-39 164.5 346 0 0 0 0.073644 0.35408 -0.93231 0.028683
-0.0028056 0.21073 1.0592 5.3473e-39 179.5 346 0 0 0 -0.0070186 0.33687 -0.94152 0.029995
0.0015315 0.21073 1.0592 5.7161e-39 183 346 0 0 0 0.024341 0.34977 -0.93652 0.03273
0.0027694 0.21126 1.0587 5.3012e-39 191 346 0 0 0 0.042938 0.35184 -0.93507 0.032143
0.0046274 0.21126 1.0587 5.2552e-39 192.5 346 0 0 0 0.077714 0.35876 -0.93019 0.030763
0.0064881 0.21073 1.0592 5.7161e-39 187 346 0 0 0 0.095952 0.3571 -0.92913 0.029996
0.005249 0.21321 1.0592 5.9927e-39 214 346 0 0 0 0.10949 0.35149 -0.92977 0.032516
-0.035674 0.075724 1.0601 7.0991e-39 389 322 0 0 0 0.64071 -0.2387 -0.72974 0.030827
0.033837 0.074611 1.0619 7.0991e-39 379 322 0 0 0 -0.5744 0.18114 -0.79828 0.019243
0.035019 0.075724 1.0601 6.2693e-39 162 323 0 0 0 -0.61051 0.16084 -0.77551 0.019639
0.03691 0.075789 1.061 5.8544e-39 163.5 323 0 0 0 -0.6276 0.14565 -0.7648 0.019594
-0.035674 0.076964 1.0601 6.2693e-39 190 323 0 0 0 0.64668 -0.23797 -0.72469 0.030504
0.035079 0.077096 1.0619 7.8366e-39 260 323 0 0 0 -0.59666 0.14374 -0.78951 0.017585
0.037564 0.077096 1.0619 8.2976e-39 262 323 0 0 0 -0.6252 0.13514 -0.76867 0.018406
0.041291 0.077096 1.0619 8.2976e-39 264 323 0 0 0 -0.66324 0.14201 -0.73481 0.021714
-0.035705 0.078892 1.061 6.4537e-39 263 323.5 0 0 0 0.6516 -0.21096 -0.72864 0.028356
0.038773 0.078892 1.061 5.2551e-39 331 323.5 0 0 0 -0.64946 0.12986 -0.74923 0.019164
0.040853 0.079121 1.0613 5.4395e-39 300.33 323.67 0 0 0 -0.67757 0.11669 -0.72614 0.021107
0.043738 0.078271 1.061 6.2693e-39 145 324 0 0 0 -0.71487 0.12939 -0.68718 0.02307
-0.038154 0.081925 1.0601 5.9005e-39 427 324 0 0 0 0.68009 -0.21844 -0.69983 0.029513
-0.03693 0.08134 1.0605 5.8083e-39 342.5 324 0 0 0 0.67376 -0.21879 -0.70582 0.028231
-0.035689 0.08134 1.0605 5.5317e-39 343.5 324 0 0 0 0.66668 -0.20835 -0.71563 0.02748
0.038806 0.080823 1.0619 6.7303e-39 402 324 0 0 0 -0.65463 0.11584 -0.74702 0.0185
0.040617 0.08134 1.0605 6.9839e-39 306 324.5 0 0 0 -0.69278 0.11155 -0.71247 0.021535
-0.038154 0.083165 1.0601 6.4537e-39 234 325 0 0 0 0.68906 -0.21238 -0.69288 0.028313
-0.036946 0.083236 1.061 6.5459e-39 235 325 0 0 0 0.67728 -0.20049 -0.70788 0.02641
-0.035735 0.083308 1.0619 6.4537e-39 236 325 0 0 0 0.66282 -0.18322 -0.72602 0.02501
0.038806 0.082687 1.0619 7.1913e-39 294 325 0 0 0 -0.65812 0.099259 -0.74634 0.01787
0.040617 0.0832 1.0605 7.3296e-39 382.5 325 0 0 0 -0.69111 0.094126 -0.71659 0.020034
0.04246 0.083165 1.0601 6.6381e-39 384 325 0 0 0 -0.71173 0.095012 -0.69599 0.021021
-0.036946 0.084478 1.061 6.6381e-39 407 325 0 0 0 0.68212 -0.19261 -0.70542 0.025636
-0.035689 0.085061 1.0605 6.8224e-39 311.5 325.5 0 0 0 0.68293 -0.18593 -0.70642 0.024872
0.038806 0.085172 1.0619 6.592e-39 271 326 0 0 0 -0.65954 0.07811 -0.7476 0.016246
0.040617 0.085062 1.0605 6.4076e-39 272.5 326 0 0 0 -0.68637 0.070187 -0.72385 0.018143
-0.034493 0.087035 1.0619 7.0069e-39 390 326 0 0 0 0.66972 -0.17501 -0.72169 0.02333
0.037564 0.087035 1.0619 6.3615e-39 153 327 0 0 0 -0.64561 0.063645 -0.76101 0.013559
0.039393 0.086961 1.061 5.9466e-39 154.5 327 0 0 0 -0.68138 0.059633 -0.7295 0.017007
-0.034877 0.089029 1.061 6.1156e-39 312.33 327 0 0 0 0.6856 -0.17985 -0.70541 0.023567
-0.033251 0.088277 1.0619 7.0991e-39 197 327 0 0 0 0.67219 -0.15742 -0.72345 0.022302
0.037564 0.088898 1.0619 5.3012e-39 343 327 0 0 0 -0.64742 0.054807 -0.76016 0.012646
0.039377 0.088784 1.0605 5.5548e-39 344.5 327 0 0 0 -0.68541 0.047122 -0.72663 0.016544
-0.034877 0.091098 1.061 6.0234e-39 228 328 0 0 0 0.69462 -0.17109 -0.69873 0.022984
0.037564 0.090762 1.0619 6.4537e-39 238 328 0 0 0 -0.64879 0.032871 -0.76026 0.010669
0.039377 0.090645 1.0605 6.592e-39 239.5 328 0 0 0 -0.69148 0.027573 -0.72187 0.015662
0.040014 0.091925 1.061 6.9147e-39 411 328 0 0 0 -0.68489 0.018608 -0.72841 0.013965
-0.034463 0.093167 1.061 5.2552e-39 144 329 0 0 0 0.69839 -0.16308 -0.69689 0.022266
-0.033251 0.092625 1.0619 6.4076e-39 248.5 328.5 0 0 0 0.69687 -0.14211 -0.70297 0.020106
0.038806 0.092625 1.0619 7.1452e-39 314.5 328.5 0 0 0 -0.65907 0.013426 -0.75196 0.010233
0.040617 0.093127 1.0605 7.9749e-39 220.5 329 0 0 0 -0.68841 0.011031 -0.72524 0.014185
-0.034434 0.094947 1.0601 6.131e-39 336 329 0 0 0 0.71123 -0.16623 -0.68302 0.020979
-0.033222 0.095028 1.061 6.3154e-39 337 329 0 0 0 0.71738 -0.14426 -0.68158 0.01792
0.037564 0.094489 1.0619 5.6239e-39 387 329 0 0 0 -0.65755 -0.0039942 -0.7534 0.0088279
0.038806 0.095111 1.0619 5.8083e-39 294 329.5 0 0 0 -0.66352 -0.010932 -0.74808 0.0093977
0.040626 0.095008 1.0608 6.0618e-39 295.5 329.5 0 0 0 -0.67154 -0.016249 -0.74079 0.010117
0.04246 0.095567 1.0601 7.0069e-39 203 330 0 0 0 -0.7004 -0.018412 -0.71351 0.014306
-0.034434 0.096807 1.0601 7.4678e-39 233 330 0 0 0 0.72479 -0.16027 -0.67006 0.018616
-0.033222 0.096891 1.061 7.3757e-39 234 330 0 0 0 0.73525 -0.13102 -0.66502 0.015227
0.038806 0.096974 1.0619 6.3615e-39 368 330 0 0 0 -0.66513 -0.022654 -0.74639 0.0090157
0.040652 0.096933 1.0615 6.2232e-39 369.5 330 0 0 0 -0.67181 -0.029597 -0.74013 0.009785
-0.034434 0.098668 1.0601 6.592e-39 303 330.5 0 0 0 0.74829 -0.13869 -0.64871 0.014101
-0.033207 0.09871 1.0605 7.0991e-39 304 330.5 0 0 0 0.74291 -0.12526 -0.65757 0.014194
-0.034448 0.1012 1.0605 8.4362e-39 400.5 331 0 0 0 0.7576 -0.12009 -0.64158 0.012893
-0.0326 0.10123 1.061 7.3987e-39 326.25 331.25 0 0 0 0.74526 -0.1017 -0.65897 0.013778
-0.030766 0.10194 1.0619 5.8083e-39 140 332 0 0 0 0.72085 -0.08358 -0.68803 0.016284
-0.034493 0.10319 1.0619 7.6522e-39 234 332 0 0 0 0.75662 -0.092223 -0.64732 0.012859
-0.0326 0.1031 1.061 7.0991e-39 235.5 332 0 0 0 0.7523 -0.079592 -0.654 0.014216
-0.030766 0.10319 1.0619 6.5459e-39 237 332 0 0 0 0.71253 -0.068559 -0.69829 0.016663
-0.029523 0.10319 1.0619 6.7303e-39 238 332 0 0 0 0.69471 -0.066725 -0.71619 0.01792
-0.034493 0.10443 1.0619 6.5459e-39 386 332 0 0 0 0.75438 -0.069913 -0.65271 0.013024
-0.032615 0.10439 1.0615 6.2232e-39 387.5 332 0 0 0 0.73642 -0.072484 -0.67264 0.014826
-0.031346 0.10492 1.0605 5.9466e-39 277 332.5 0 0 0 0.73359 -0.067025 -0.67628 0.014831
-0.029523 0.10443 1.0619 6.6381e-39 390 332 0 0 0 0.69584 -0.0502 -0.71644 0.018958
0.015201 0.17897 1.0619 6.9147e-39 362 344 0 0 0 0.77523 0.26078 -0.57533 0.026082
0.01643 0.17882 1.061 7.0991e-39 363 344 0 0 0 0.78202 0.27574 -0.55893 0.027326
0.015194 0.18075 1.0615 7.1913e-39 396 344 0 0 0 0.74434 0.27387 -0.60906 0.026248
0.016422 0.1806 1.0605 7.5601e-39 397 344 0 0 0 0.75202 0.28951 -0.59215 0.027117
0.015188 0.18316 1.061 7.3296e-39 441 344 0 0 0 0.64095 0.29484 -0.7087 0.036594
0.016415 0.18238 1.0601 7.4678e-39 432 344 0 0 0 0.70652 0.2792 -0.65029 0.027801
-0.01211 0.19727 1.0601 8.5742e-39 336 345 0 0 0 -0.26315 0.3549 -0.8971 0.013528
-0.010869 0.19727 1.0601 8.5742e-39 337 345 0 0 0 -0.22868 0.36206 -0.90367 0.015025
-0.010879 0.19868 1.061 6.8225e-39 357 345 0 0 0 -0.21938 0.34636 -0.91209 0.014665
-0.0096292 0.19913 1.0601 6.9608e-39 368 345 0 0 0 -0.1818 0.35699 -0.91625 0.016111
-0.010888 0.20071 1.0619 7.2835e-39 388.5 345 0 0 0 -0.22113 0.34323 -0.91285 0.014751
-0.0096292 0.20099 1.0601 7.8366e-39 401 345 0 0 0 -0.17496 0.35067 -0.92001 0.015828
0.013947 0.20116 1.061 6.9147e-39 420 345 0 0 0 0.3033 0.33433 -0.89232 0.023711
-0.0096292 0.20285 1.0601 7.1913e-39 431 345 0 0 0 -0.16977 0.34627 -0.92264 0.015135
0.013327 0.2024 1.061 7.6522e-39 439.5 345 0 0 0 0.27253 0.3305 -0.9036 0.022693
-0.0071488 0.20595 1.0601 7.4678e-39 518 345 0 0 0 -0.099121 0.33549 -0.93682 0.018102
0.0077339 0.20533 1.0601 5.8083e-39 521 345 0 0 0 0.074184 0.34685 -0.93498 0.026906
0.0089741 0.20595 1.0601 8.021e-39 531 345 0 0 0 0.10133 0.35159 -0.93066 0.025315
0.010835 0.20471 1.0601 4.7481e-39 514.5 345 0 0 0 0.16144 0.34534 -0.92449 0.022946
-0.0071611 0.20754 1.0619 7.56e-39 534 345 0 0 0 -0.082914 0.32882 -0.94075 0.019917
0.0077405 0.20737 1.061 5.3473e-39 142 346 0 0 0 0.082956 0.35495 -0.9312 0.027849
0.0089741 0.20719 1.0601 5.5317e-39 143 346 0 0 0 0.11008 0.35734 -0.92746 0.025677
0.010643 0.20665 1.0616 7.222e-39 403 345.33 0 0 0 0.14846 0.35777 -0.92193 0.025509
-0.0054951 0.20926 1.0601 5.5625e-39 157 346 0 0 0 -0.051591 0.33736 -0.93996 0.025674
0.0077405 0.20923 1.061 5.2551e-39 165.5 346 0 0 0 0.11123 0.35693 -0.92748 0.028148
0.0089818 0.20923 1.061 5.1629e-39 166.5 346 0 0 0 0.12714 0.35703 -0.9254 0.027595
0.010232 0.20879 1.0619 5.163e-39 160 346 0 0 0 0.14923 0.35926 -0.92123 0.027163
-0.0052955 0.21118 1.0615 5.67e-39 177.5 346 0 0 0 -0.018427 0.32626 -0.9451 0.030149
-0.00094765 0.21091 1.0601 5.7161e-39 181 346 0 0 0 0.019842 0.33589 -0.94169 0.033076
0.00029257 0.21091 1.0601 5.9927e-39 182 346 0 0 0 0.026185 0.33856 -0.94058 0.033065
0.0077472 0.21127 1.0619 5.9927e-39 188 346 0 0 0 0.12541 0.35064 -0.92807 0.030096
0.0089818 0.21109 1.061 5.5317e-39 189 346 0 0 0 0.14811 0.36042 -0.92096 0.029116
-0.0028096 0.21291 1.0608 5.4165e-39 200.5 346 0 0 0 0.03422 0.32489 -0.94513 0.036838
-0.00094847 0.21295 1.061 5.6239e-39 202 346 0 0 0 0.045028 0.32442 -0.94484 0.036784
0.00091314 0.2129 1.0608 5.3934e-39 203.5 346 0 0 0 0.056503 0.33409 -0.94085 0.035896
0.002773 0.21339 1.0601 5.2552e-39 212 346 0 0 0 0.077861 0.34442 -0.93558 0.033981
0.0040132 0.21339 1.0601 5.2552e-39 213 346 0 0 0 0.081929 0.34676 -0.93437 0.03451
0.0069115 0.21268 1.0607 5.6854e-39 206 346 0 0 0 0.12168 0.35241 -0.9279 0.032039
0.0089896 0.21251 1.0619 5.8083e-39 203 346 0 0 0 0.15699 0.36089 -0.9193 0.032343
-0.00094928 0.215 1.0619 5.6239e-39 222 346 0 0 0 0.07545 0.32402 -0.94304 0.040124
0.00091424 0.215 1.0619 5.8544e-39 223.5 346 0 0 0 0.093806 0.33106 -0.93894 0.038711
0.0027754 0.21481 1.061 6.9147e-39 225 346 0 0 0 0.099699 0.33642 -0.93642 0.037145
0.0046351 0.21472 1.0605 7.4218e-39 226.5 346 0 0 0 0.11798 0.34393 -0.93156 0.03566
0.0064993 0.21481 1.061 7.0991e-39 228 346 0 0 0 0.14774 0.3496 -0.92518 0.035039
0.0015354 0.21624 1.0619 7.3757e-39 236 346 0 0 0 0.1113 0.32931 -0.93764 0.041496
0.0027778 0.21686 1.0619 7.7444e-39 244 346 0 0 0 0.1416 0.33898 -0.93008 0.039405
0.0046402 0.21681 1.0617 7.7905e-39 245.5 346 0 0 0 0.16252 0.35018 -0.92248 0.038408
0.0065048 0.21624 1.0619 7.6522e-39 240 346 0 0 0 0.16639 0.35274 -0.92081 0.039364
0.0052625 0.21935 1.0619 6.592e-39 267.5 346 0 0 0 0.18923 0.35272 -0.9164 0.049071
0.0015354 0.22121 1.0619 7.0069e-39 274 346 0 0 0 0.1485 0.35451 -0.92319 0.051387
0.0027778 0.22121 1.0619 7.1913e-39 275 346 0 0 0 0.18766 0.34524 -0.91956 0.056483
0.0046413 0.22121 1.0619 7.7444e-39 276.5 346 0 0 0 0.20995 0.34722 -0.91398 0.057835
0.031379 0.074676 1.0628 6.6381e-39 372 322 0 0 0 -0.52932 0.19093 -0.82666 0.01863
0.033273 0.075362 1.0637 5.9927e-39 267 322.5 0 0 0 -0.55107 0.1636 -0.81826 0.017759
0.036384 0.077229 1.0637 8.1132e-39 261 323 0 0 0 -0.592 0.13443 -0.79465 0.016606
0.035124 0.079062 1.0633 6.0388e-39 327 323.5 0 0 0 -0.58913 0.12233 -0.79873 0.014783
0.03699 0.079062 1.0633 6.0157e-39 329.25 323.5 0 0 0 -0.60644 0.12427 -0.78536 0.015527
0.040117 0.078473 1.0637 3.6878e-39 429 323 0 0 0 -0.63939 0.11732 -0.75988 0.016958
-0.034552 0.080962 1.0637 7.56e-39 259 324 0 0 0 0.64429 -0.17976 -0.74336 0.024436
-0.033308 0.080962 1.0637 7.8366e-39 260 324 0 0 0 0.63505 -0.16438 -0.75478 0.023631
0.035139 0.080962 1.0637 7.2835e-39 399 324 0 0 0 -0.58963 0.11501 -0.79944 0.013974
0.03699 0.080928 1.0633 6.4998e-39 400.5 324 0 0 0 -0.61251 0.11073 -0.78267 0.014807
-0.034552 0.082207 1.0637 3.6878e-39 430 324 0 0 0 0.64337 -0.17495 -0.74529 0.023793
-0.033308 0.082207 1.0637 5.6239e-39 431 324 0 0 0 0.63695 -0.16165 -0.75377 0.023055
0.035139 0.082207 1.0637 7.7444e-39 204 325 0 0 0 -0.58809 0.1089 -0.80143 0.013288
0.03699 0.082794 1.0633 7.3065e-39 292.5 325 0 0 0 -0.61532 0.10549 -0.78119 0.014603
-0.034538 0.085281 1.0633 6.7303e-39 312.5 325.5 0 0 0 0.65759 -0.1655 -0.73497 0.022581
-0.033308 0.085318 1.0637 6.9608e-39 313.5 325.5 0 0 0 0.65075 -0.15777 -0.74272 0.022502
0.035139 0.085318 1.0637 6.4076e-39 263 326 0 0 0 -0.58985 0.091973 -0.80226 0.012585
0.036982 0.085263 1.063 6.9608e-39 269.5 326 0 0 0 -0.62286 0.086389 -0.77755 0.014086
-0.033279 0.08711 1.0628 6.6381e-39 391 326 0 0 0 0.65692 -0.15397 -0.73807 0.022008
0.035139 0.087185 1.0637 6.2693e-39 151 327 0 0 0 -0.59857 0.080022 -0.79707 0.012093
0.036353 0.08711 1.0628 6.4537e-39 152 327 0 0 0 -0.62463 0.072253 -0.77757 0.013309
-0.033279 0.089597 1.0628 5.8083e-39 372 327 0 0 0 0.67095 -0.14404 -0.72738 0.021652
0.035109 0.088975 1.0628 6.0388e-39 341 327 0 0 0 -0.61822 0.0584 -0.78383 0.012142
0.036353 0.088975 1.0628 5.7622e-39 342 327 0 0 0 -0.6284 0.05462 -0.77597 0.011964
-0.033279 0.09084 1.0628 5.9927e-39 168 328 0 0 0 0.67587 -0.14089 -0.72343 0.021138
0.035139 0.090918 1.0637 6.2693e-39 236 328 0 0 0 -0.60942 0.052996 -0.79108 0.0097035
0.036353 0.09084 1.0628 6.1771e-39 237 328 0 0 0 -0.63299 0.041035 -0.77307 0.01086
0.035139 0.092785 1.0637 7.099e-39 311.5 328.5 0 0 0 -0.61857 0.029389 -0.78518 0.0093926
0.036974 0.092706 1.0628 6.7072e-39 313 328.5 0 0 0 -0.64143 0.022378 -0.76686 0.0098382
0.035139 0.095274 1.0637 6.3154e-39 291 329.5 0 0 0 -0.61785 0.00088876 -0.7863 0.0069966
0.036778 0.095427 1.0631 6.3308e-39 261 329.67 0 0 0 -0.64462 -0.016327 -0.76433 0.008407
0.03699 0.097099 1.0633 6.8225e-39 366.5 330 0 0 0 -0.6506 -0.025575 -0.75899 0.0080263
-0.032049 0.098964 1.0633 7.3296e-39 305 330.5 0 0 0 0.71255 -0.095565 -0.69508 0.017175
-0.030819 0.09963 1.0637 7.7444e-39 208 331 0 0 0 0.6849 -0.086561 -0.72347 0.018485
-0.029574 0.09963 1.0637 7.6522e-39 209 331 0 0 0 0.67572 -0.079711 -0.73284 0.018877
0.037596 0.098301 1.0628 5.7161e-39 158 331 0 0 0 -0.65373 -0.02295 -0.75638 0.0079677
0.038839 0.098301 1.0628 5.5317e-39 159 331 0 0 0 -0.66178 -0.025213 -0.74927 0.0086931
-0.030792 0.10079 1.0628 6.9147e-39 364 331 0 0 0 0.69413 -0.089867 -0.71422 0.018279
-0.029549 0.10079 1.0628 7.1913e-39 365 331 0 0 0 0.68299 -0.077092 -0.72634 0.018895
-0.029549 0.10203 1.0628 5.6239e-39 141 332 0 0 0 0.69289 -0.068034 -0.71783 0.01956
0.016458 0.17788 1.0628 8.6664e-39 342 344 0 0 0 0.83538 0.2108 -0.50764 0.025279
0.015228 0.17803 1.0637 8.7586e-39 341 344 0 0 0 0.83376 0.22091 -0.50601 0.025764
0.012728 0.20399 1.0628 7.2835e-39 459 345 0 0 0 0.23783 0.34657 -0.90737 0.020372
0.013983 0.20417 1.0637 6.8225e-39 460 345 0 0 0 0.27655 0.34024 -0.89875 0.020428
0.011484 0.20772 1.0628 6.3615e-39 145 346 0 0 0 0.16285 0.36439 -0.9169 0.02671
0.011494 0.20915 1.0637 5.163e-39 161 346 0 0 0 0.16971 0.3603 -0.91727 0.029108
0.010241 0.21083 1.0628 5.1169e-39 182.5 346 0 0 0 0.16041 0.35942 -0.91929 0.030151
-0.0046804 0.2127 1.0628 5.0708e-39 192 346 0 0 0 0.0020258 0.32044 -0.94727 0.033776
0.0077539 0.21394 1.0628 6.2693e-39 216 346 0 0 0 0.15934 0.35375 -0.92167 0.035273
-0.0028152 0.21518 1.0628 5.7161e-39 220.5 346 0 0 0 0.034424 0.31951 -0.94696 0.038036
0.0077605 0.21537 1.0637 7.0069e-39 229 346 0 0 0 0.17612 0.35806 -0.91694 0.038149
0.009005 0.21412 1.0637 5.8083e-39 217 346 0 0 0 0.17488 0.36062 -0.91617 0.03652
-0.0028176 0.21661 1.0637 7.514e-39 232.5 346 0 0 0 0.050365 0.32606 -0.94401 0.041787
-0.00095051 0.21714 1.0633 7.6061e-39 241 346 0 0 0 0.11596 0.31841 -0.94083 0.046048
0.00070778 0.21726 1.0628 7.9288e-39 244.67 346 0 0 0 0.13651 0.32567 -0.93558 0.042985
0.0065104 0.21767 1.0628 7.56e-39 254 346 0 0 0 0.18025 0.35105 -0.91884 0.042805
0.00091514 0.219 1.0633 6.7303e-39 260.5 346 0 0 0 0.16439 0.33094 -0.92922 0.048128
0.0027802 0.21891 1.0628 6.6381e-39 262 346 0 0 0 0.17713 0.33671 -0.9248 0.04702
0.0040236 0.21891 1.0628 6.7303e-39 263 346 0 0 0 0.18361 0.34201 -0.92158 0.047389
0.0065104 0.21891 1.0628 6.4537e-39 265 346 0 0 0 0.20422 0.35398 -0.91269 0.048311
0.00091501 0.22016 1.0628 5.8544e-39 267.5 346 0 0 0 0.13706 0.34697 -0.92781 0.047604
0.0027802 0.22016 1.0628 6.1771e-39 269 346 0 0 0 0.19298 0.33888 -0.92082 0.053249
0.0040236 0.22016 1.0628 6.1771e-39 270 346 0 0 0 0.1943 0.33979 -0.92021 0.054252
0.0065104 0.22078 1.0628 7.2835e-39 275 346 0 0 0 0.22664 0.35362 -0.90752 0.056307
0.02398 0.072376 1.0655 6.4537e-39 386 321 0 0 0 -0.3591 0.29732 -0.88467 0.018092
0.027696 0.073559 1.0646 7.0991e-39 200 322 0 0 0 -0.44237 0.24488 -0.86275 0.018561
0.02772 0.074869 1.0655 6.7303e-39 369 322 0 0 0 -0.43557 0.22248 -0.87223 0.018252
-0.033337 0.077296 1.0646 6.2693e-39 191 323 0 0 0 0.62184 -0.15946 -0.76674 0.023962
0.03146 0.076116 1.0655 5.5317e-39 158 323 0 0 0 -0.50816 0.16806 -0.84471 0.017546
0.033113 0.076925 1.0652 7.1605e-39 225.33 323 0 0 0 -0.53944 0.15447 -0.82774 0.017058
-0.034582 0.079164 1.0646 6.8685e-39 264 323.5 0 0 0 0.62952 -0.17015 -0.75813 0.024708
-0.033365 0.079232 1.0655 7.0529e-39 265 323.5 0 0 0 0.62131 -0.14277 -0.77045 0.023162
-0.034582 0.083523 1.0646 5.9927e-39 237 325 0 0 0 0.64126 -0.16604 -0.74914 0.023159
-0.033337 0.083523 1.0646 5.7161e-39 238 325 0 0 0 0.63822 -0.15525 -0.75404 0.021991
0.03517 0.083523 1.0646 6.8225e-39 378 325 0 0 0 -0.57552 0.10368 -0.81119 0.012862
0.033953 0.087335 1.0655 5.9005e-39 150 327 0 0 0 -0.56311 0.094936 -0.82091 0.010825
-0.032119 0.088582 1.0655 7.4678e-39 198 327 0 0 0 0.6477 -0.12216 -0.75204 0.019547
0.033924 0.089128 1.0646 6.2232e-39 340 327 0 0 0 -0.58132 0.073871 -0.81031 0.010467
0.033953 0.091075 1.0655 6.5459e-39 235 328 0 0 0 -0.57495 0.057214 -0.81619 0.0086071
0.033953 0.092946 1.0655 7.1913e-39 310.5 328.5 0 0 0 -0.57911 0.039399 -0.81429 0.0074254
-0.032105 0.095397 1.0651 6.4998e-39 338 329 0 0 0 0.68367 -0.1114 -0.72124 0.018168
-0.030872 0.094815 1.0655 6.1771e-39 254 329 0 0 0 0.66642 -0.096918 -0.73925 0.020294
0.033924 0.095356 1.0646 6.1771e-39 290 329.5 0 0 0 -0.58896 -0.0011413 -0.80816 0.0061951
-0.032091 0.097225 1.0646 7.1913e-39 235 330 0 0 0 0.69428 -0.096986 -0.71314 0.018115
-0.030858 0.096644 1.0651 6.8686e-39 330 329.5 0 0 0 0.67619 -0.091472 -0.73102 0.019597
-0.029625 0.096685 1.0655 6.9608e-39 331 329.5 0 0 0 0.64594 -0.088034 -0.75829 0.019726
0.033953 0.097309 1.0655 6.6381e-39 364 330 0 0 0 -0.58254 -0.01773 -0.81261 0.0054915
0.03517 0.097225 1.0646 7.0069e-39 365 330 0 0 0 -0.60643 -0.019524 -0.7949 0.0052295
-0.030845 0.09847 1.0646 6.4537e-39 404 330 0 0 0 0.67567 -0.082968 -0.73252 0.018756
-0.0296 0.09847 1.0646 6.2693e-39 405 330 0 0 0 0.66049 -0.080165 -0.74655 0.01986
0.033953 0.099179 1.0655 6.3154e-39 207.5 331 0 0 0 -0.58477 -0.019852 -0.81096 0.0056561
0.0352 0.099179 1.0655 6.592e-39 208.5 331 0 0 0 -0.60263 -0.025047 -0.79762 0.0053723
0.036415 0.09847 1.0646 6.1771e-39 157 331 0 0 0 -0.61787 -0.020918 -0.78601 0.0048504
0.033953 0.10105 1.0655 6.6381e-39 416 331 0 0 0 -0.58255 -0.028431 -0.8123 0.0061722
-0.028379 0.10292 1.0655 5.9927e-39 190.5 332 0 0 0 0.65664 0.001373 -0.7542 0.02604
-0.028379 0.10479 1.0655 7.0069e-39 391 332 0 0 0 0.65501 0.01289 -0.75551 0.026318
0.011504 0.21057 1.0646 5.8083e-39 176 346 0 0 0 0.17936 0.3588 -0.91602 0.031795
0.010258 0.21306 1.0646 6.1771e-39 204 346 0 0 0 0.18416 0.36114 -0.91415 0.036163
-0.0046884 0.21431 1.0646 5.4395e-39 206 346 0 0 0 0.020033 0.31855 -0.94769 0.038805
0.0090128 0.21555 1.0646 6.9147e-39 230 346 0 0 0 0.19818 0.36554 -0.90945 0.041302
0.0077672 0.2168 1.0646 7.6522e-39 243 346 0 0 0 0.19676 0.35846 -0.91257 0.043966
-0.0028216 0.21876 1.0651 7.4218e-39 252 346 0 0 0 0.08126 0.34284 -0.93587 0.042071
-0.00095174 0.21929 1.0646 7.2835e-39 259 346 0 0 0 0.12615 0.34078 -0.93164 0.046532
0.0077672 0.21867 1.0646 6.7303e-39 260.5 346 0 0 0 0.21819 0.3592 -0.9074 0.049183
0.0077672 0.22054 1.0646 6.8225e-39 273 346 0 0 0 0.23481 0.35729 -0.90399 0.059153
0.022773 0.072501 1.0674 6.7303e-39 385 321 0 0 0 -0.32729 0.30165 -0.89548 0.016952
0.024625 0.073686 1.0665 7.1913e-39 195.5 322 0 0 0 -0.37609 0.2641 -0.88815 0.018661
0.026519 0.07375 1.0674 7.56e-39 197 322 0 0 0 -0.40131 0.24717 -0.88196 0.01842
0.028992 0.073686 1.0665 7.0069e-39 201 322 0 0 0 -0.45285 0.22445 -0.86287 0.018194
0.024647 0.074998 1.0674 7.1913e-39 366.5 322 0 0 0 -0.37232 0.24023 -0.89648 0.018814
0.029017 0.074998 1.0674 6.4537e-39 370 322 0 0 0 -0.44996 0.20654 -0.86884 0.01789
0.03024 0.074934 1.0665 6.4537e-39 371 322 0 0 0 -0.47516 0.19818 -0.85729 0.017465
0.027768 0.076247 1.0674 6.1771e-39 155 323 0 0 0 -0.42997 0.20196 -0.87996 0.017599
0.03089 0.076871 1.0674 6.4537e-39 207 323 0 0 0 -0.48775 0.16078 -0.85805 0.016697
0.03316 0.079116 1.0668 6.2078e-39 357.33 323.33 0 0 0 -0.53472 0.13541 -0.83411 0.015217
0.034012 0.079994 1.0674 6.2693e-39 230 324 0 0 0 -0.5494 0.11984 -0.82692 0.013665
0.032763 0.081242 1.0674 7.0069e-39 397 324 0 0 0 -0.53156 0.1142 -0.83929 0.013396
0.034012 0.081242 1.0674 7.1913e-39 398 324 0 0 0 -0.55392 0.11069 -0.82518 0.012691
-0.032174 0.083116 1.0674 7.514e-39 335.5 324.5 0 0 0 0.62736 -0.11922 -0.76955 0.020168
-0.030925 0.08374 1.0674 5.9005e-39 240 325 0 0 0 0.608 -0.10792 -0.78657 0.02232
0.032763 0.083116 1.0674 6.9147e-39 289 325 0 0 0 -0.53564 0.10481 -0.83792 0.012207
0.034012 0.083116 1.0674 7.0529e-39 290 325 0 0 0 -0.55249 0.10423 -0.82698 0.011774
-0.032174 0.084989 1.0674 7.1913e-39 411 325 0 0 0 0.63111 -0.11937 -0.76645 0.019698
-0.030925 0.084989 1.0674 7.2835e-39 412 325 0 0 0 0.61247 -0.11026 -0.78276 0.021161
-0.029677 0.084989 1.0674 6.8225e-39 413 325 0 0 0 0.60192 -0.10257 -0.79194 0.022809
0.033373 0.084952 1.0669 6.4537e-39 169.5 326 0 0 0 -0.54323 0.099062 -0.83372 0.011184
-0.032146 0.086787 1.0665 6.9607e-39 305 326 0 0 0 0.64261 -0.1237 -0.75614 0.019709
-0.030912 0.086824 1.0669 6.9607e-39 306 326 0 0 0 0.62236 -0.10908 -0.7751 0.020784
-0.029677 0.086862 1.0674 7.1913e-39 307 326 0 0 0 0.60267 -0.10065 -0.79162 0.022278
0.03317 0.086629 1.0671 6.5766e-39 285.33 326.33 0 0 0 -0.5416 0.093727 -0.8354 0.010275
-0.032146 0.089906 1.0665 6.1771e-39 373 327 0 0 0 0.65495 -0.10969 -0.74767 0.01883
-0.030899 0.089282 1.0665 7.1452e-39 286.5 327 0 0 0 0.6353 -0.10752 -0.76474 0.020396
-0.029664 0.089322 1.0669 7.1913e-39 287.5 327 0 0 0 0.61737 -0.10155 -0.78009 0.021542
0.031515 0.089984 1.0674 6.6381e-39 424 327 0 0 0 -0.52742 0.082075 -0.84563 0.0092996
0.032735 0.089282 1.0665 6.4998e-39 339 327 0 0 0 -0.54379 0.083514 -0.83506 0.0093561
-0.032146 0.091154 1.0665 6.6381e-39 169 328 0 0 0 0.66283 -0.10762 -0.74099 0.019328
-0.030925 0.091233 1.0674 5.9005e-39 183 328 0 0 0 0.63383 -0.093051 -0.76786 0.019889
-0.029677 0.091233 1.0674 5.8083e-39 184 328 0 0 0 0.61619 -0.088704 -0.78259 0.021502
0.031515 0.091233 1.0674 7.1913e-39 233 328 0 0 0 -0.53143 0.070687 -0.84415 0.0086305
0.032735 0.091154 1.0665 6.9147e-39 234 328 0 0 0 -0.54758 0.064151 -0.83429 0.0081613
-0.032146 0.093026 1.0665 6.6841e-39 249.5 328.5 0 0 0 0.66636 -0.10354 -0.7384 0.018746
-0.030912 0.093066 1.0669 6.4998e-39 250.5 328.5 0 0 0 0.64188 -0.091508 -0.76132 0.019317
-0.029664 0.093066 1.0669 6.131e-39 251.5 328.5 0 0 0 0.62633 -0.086817 -0.77471 0.020937
0.031515 0.093106 1.0674 6.8224e-39 308.5 328.5 0 0 0 -0.53619 0.04768 -0.84275 0.0075795
0.032735 0.093026 1.0665 6.9608e-39 309.5 328.5 0 0 0 -0.5565 0.041789 -0.82979 0.007103
-0.029651 0.094897 1.0665 6.5459e-39 255 329 0 0 0 0.639 -0.08766 -0.76419 0.02044
0.031487 0.094897 1.0665 6.7303e-39 382 329 0 0 0 -0.54206 0.021293 -0.84007 0.0066886
0.032735 0.094897 1.0665 6.7303e-39 383 329 0 0 0 -0.55919 0.015986 -0.82889 0.0060017
-0.028428 0.096852 1.0674 6.8686e-39 332 329.5 0 0 0 0.61115 -0.063175 -0.78899 0.023276
0.031501 0.096811 1.0669 6.2232e-39 278 330 0 0 0 -0.54516 0.00044551 -0.83833 0.006731
0.032735 0.096769 1.0665 6.2232e-39 279 330 0 0 0 -0.5682 -0.0075084 -0.82285 0.0059869
-0.028416 0.099307 1.0669 6.9146e-39 308 330.5 0 0 0 0.63005 -0.026642 -0.7761 0.02478
0.031501 0.099307 1.0669 6.1771e-39 205.5 331 0 0 0 -0.5482 -0.034723 -0.83563 0.0086268
0.032749 0.099307 1.0669 6.1771e-39 206.5 331 0 0 0 -0.56355 -0.024024 -0.82573 0.006803
-0.028403 0.10114 1.0665 7.2835e-39 366 331 0 0 0 0.64054 -0.0072039 -0.76789 0.026211
0.031487 0.10114 1.0665 6.6381e-39 414 331 0 0 0 -0.54968 -0.050948 -0.83382 0.0097386
0.032735 0.10114 1.0665 6.6381e-39 415 331 0 0 0 -0.56304 -0.038948 -0.82551 0.0085269
0.031515 0.10247 1.0674 8.021e-39 207 332 0 0 0 -0.54144 -0.057905 -0.83874 0.010516
0.032763 0.10247 1.0674 8.1132e-39 208 332 0 0 0 -0.55408 -0.055105 -0.83064 0.0099711
0.012783 0.20612 1.0674 5.9927e-39 516 345 0 0 0 0.23162 0.35329 -0.90639 0.024543
0.011534 0.21237 1.0674 5.0708e-39 191 346 0 0 0 0.23135 0.37216 -0.89888 0.039592
0.010285 0.21486 1.0674 6.0849e-39 218 346 0 0 0 0.2186 0.36526 -0.90487 0.04593
0.0090284 0.21717 1.0665 7.7444e-39 244 346 0 0 0 0.22561 0.36521 -0.90317 0.048873
0.0090284 0.21842 1.0665 7.1913e-39 256 346 0 0 0 0.25488 0.36849 -0.89401 0.052357
0.020922 0.073204 1.0685 6.9839e-39 280 321.5 0 0 0 -0.28309 0.30473 -0.9094 0.015364
0.022793 0.073813 1.0683 7.0991e-39 194 322 0 0 0 -0.32684 0.27896 -0.90297 0.01734
0.020936 0.075128 1.0692 6.7764e-39 363.5 322 0 0 0 -0.29474 0.27473 -0.91524 0.015897
0.022812 0.075128 1.0692 6.4537e-39 365 322 0 0 0 -0.33084 0.25525 -0.90851 0.017269
0.026542 0.075063 1.0683 7.0991e-39 368 322 0 0 0 -0.39762 0.23302 -0.88747 0.01814
-0.03223 0.07763 1.0692 6.6381e-39 192 323 0 0 0 0.61349 -0.090524 -0.7845 0.025269
-0.030979 0.07763 1.0692 6.9147e-39 193 323 0 0 0 0.59704 -0.083401 -0.79786 0.028671
0.024678 0.076972 1.0688 6.3384e-39 202 323 0 0 0 -0.37705 0.21484 -0.90093 0.018272
0.027178 0.076971 1.0688 6.6381e-39 204 323 0 0 0 -0.41356 0.20156 -0.88788 0.017623
0.029055 0.076972 1.0688 6.4537e-39 205.5 323 0 0 0 -0.4483 0.18124 -0.87532 0.017149
0.030318 0.07763 1.0692 7.0991e-39 256 323 0 0 0 -0.46989 0.16304 -0.86754 0.01642
-0.03223 0.078881 1.0692 7.2835e-39 369 323 0 0 0 0.61065 -0.092334 -0.7865 0.025082
-0.030979 0.078881 1.0692 6.7303e-39 370 323 0 0 0 0.59677 -0.088655 -0.7975 0.027523
-0.029728 0.078881 1.0692 6.4537e-39 371 323 0 0 0 0.57288 -0.084107 -0.81531 0.030148
0.027816 0.078881 1.0692 7.0991e-39 417 323 0 0 0 -0.43408 0.17296 -0.88411 0.017288
0.03093 0.078847 1.0688 7.3757e-39 419.5 323 0 0 0 -0.48555 0.14574 -0.86197 0.015246
-0.032216 0.080722 1.0688 7.2374e-39 212 324 0 0 0 0.61319 -0.10013 -0.78356 0.023659
-0.030965 0.080722 1.0688 7.2835e-39 213 324 0 0 0 0.60138 -0.095737 -0.79321 0.025044
-0.029715 0.080722 1.0688 7.3757e-39 214 324 0 0 0 0.58051 -0.090958 -0.80916 0.027951
0.031542 0.080688 1.0683 6.4076e-39 312 324 0 0 0 -0.49937 0.12413 -0.85745 0.01374
-0.030952 0.082563 1.0683 2.3971e-39 141 325 0 0 0 0.60189 -0.1075 -0.79131 0.023404
-0.029294 0.08342 1.0686 5.3473e-39 208.33 325 0 0 0 0.57978 -0.094796 -0.80924 0.025908
-0.027226 0.083885 1.0692 6.7303e-39 243 325 0 0 0 0.54021 -0.08475 -0.83725 0.028419
-0.025975 0.083885 1.0692 6.6381e-39 244 325 0 0 0 0.51827 -0.086745 -0.85081 0.028796
0.031542 0.083187 1.0683 6.9608e-39 288 325 0 0 0 -0.50555 0.10779 -0.85604 0.012055
-0.028477 0.085136 1.0692 6.2693e-39 414 325 0 0 0 0.56717 -0.095633 -0.81803 0.025663
-0.027226 0.085136 1.0692 6.1771e-39 415 325 0 0 0 0.54133 -0.094442 -0.83549 0.027107
-0.025975 0.085136 1.0692 6.6381e-39 416 325 0 0 0 0.51813 -0.091835 -0.85036 0.028111
0.031542 0.085062 1.0683 6.0849e-39 168 326 0 0 0 -0.5092 0.10101 -0.8547 0.011066
-0.028464 0.086975 1.0688 7.0069e-39 308 326 0 0 0 0.57986 -0.097336 -0.80888 0.0247
-0.027226 0.087012 1.0692 7.2835e-39 309 326 0 0 0 0.54526 -0.090672 -0.83335 0.026393
-0.025975 0.087012 1.0692 7.3296e-39 310 326 0 0 0 0.52051 -0.090002 -0.8491 0.026955
0.03093 0.086975 1.0688 6.7303e-39 229 326.5 0 0 0 -0.50449 0.098976 -0.85773 0.010578
-0.028452 0.088812 1.0683 7.8366e-39 201 327 0 0 0 0.5867 -0.095761 -0.80412 0.023881
-0.027202 0.088812 1.0683 7.8366e-39 202 327 0 0 0 0.56133 -0.090248 -0.82266 0.025871
-0.025975 0.088889 1.0692 7.6522e-39 203 327 0 0 0 0.53298 -0.083468 -0.842 0.02688
0.03093 0.08885 1.0688 6.1771e-39 251.5 327 0 0 0 -0.50516 0.091728 -0.85814 0.010062
-0.028464 0.090726 1.0688 6.3154e-39 280.5 327.5 0 0 0 0.59066 -0.093619 -0.80147 0.024921
-0.027226 0.090765 1.0692 6.4537e-39 281.5 327.5 0 0 0 0.56384 -0.093618 -0.82056 0.026248
-0.025975 0.09014 1.0692 6.3615e-39 378 327 0 0 0 0.53879 -0.081694 -0.83847 0.02652
0.030305 0.090726 1.0688 6.5459e-39 327.5 327.5 0 0 0 -0.50092 0.082584 -0.86154 0.009816
-0.028452 0.093186 1.0683 5.9466e-39 252.5 328.5 0 0 0 0.59922 -0.08826 -0.7957 0.023957
-0.027226 0.093268 1.0692 6.0849e-39 253.5 328.5 0 0 0 0.57649 -0.078447 -0.81333 0.025336
-0.025975 0.093893 1.0692 5.9005e-39 151 329 0 0 0 0.56167 -0.065214 -0.82478 0.02662
0.030292 0.093186 1.0683 6.8225e-39 307.5 328.5 0 0 0 -0.51258 0.050587 -0.85715 0.0085218
-0.028452 0.095061 1.0683 6.9147e-39 256 329 0 0 0 0.60408 -0.076129 -0.79328 0.023956
-0.027226 0.095144 1.0692 6.6381e-39 257 329 0 0 0 0.58497 -0.064987 -0.80845 0.024959
-0.025975 0.095144 1.0692 6.3615e-39 258 329 0 0 0 0.56314 -0.051863 -0.82473 0.025646
0.030292 0.095061 1.0683 6.2693e-39 381 329 0 0 0 -0.51558 0.022 -0.85656 0.0082952
-0.027226 0.09702 1.0692 6.5459e-39 333 329.5 0 0 0 0.59258 -0.019277 -0.80528 0.028956
-0.025975 0.09702 1.0692 6.131e-39 334 329.5 0 0 0 0.57221 -0.0062477 -0.82008 0.029223
0.029067 0.097646 1.0692 6.4537e-39 360 330 0 0 0 -0.48845 -0.020196 -0.87236 0.01124
