# .PCD v.7 - Point Cloud Data file format
VERSION .7
FIELDS x y z rgb u v vx vy vz normal_x normal_y normal_z curvature
SIZE 4 4 4 4 4 4 4 4 4 4 4 4 4
TYPE F F F F F F F F F F F F F
COUNT 1 1 1 1 1 1 1 1 1 1 1 1 1
WIDTH 559
HEIGHT 1
VIEWPOINT 0 0 0 1 0 0 0
POINTS 559
DATA ascii
-0.044783 0.098864 1.0555 7.7444e-39 219.5 329 0 0 0 0.78604 -0.20316 -0.58384 0.051327
-0.042931 0.098864 1.0555 7.3757e-39 221 329 0 0 0 0.78448 -0.19078 -0.59008 0.046973
-0.044783 0.1001 1.0555 8.482e-39 382.5 329 0 0 0 0.78791 -0.22893 -0.57165 0.049319
-0.042931 0.1001 1.0555 8.1132e-39 384 329 0 0 0 0.79098 -0.20114 -0.57783 0.040237
0.018799 0.15677 1.0546 7.0991e-39 164 343 0 0 0 0.64228 0.32874 -0.69239 0.012889
0.018815 0.15876 1.0555 7.7905e-39 226.5 343 0 0 0 0.65721 0.32799 -0.6786 0.011292
0.020033 0.15924 1.0546 8.1132e-39 240 343 0 0 0 0.66579 0.32782 -0.67026 0.010647
0.018815 0.16061 1.0555 7.4678e-39 265 343 0 0 0 0.6746 0.32825 -0.66119 0.0096516
0.020033 0.16109 1.0546 7.0991e-39 300 343 0 0 0 0.6746 0.32825 -0.66119 0.0096516
0.017565 0.16541 1.0546 7.0991e-39 409 343 0 0 0 0.63741 0.34395 -0.6895 0.0091716
0.016331 0.16726 1.0546 6.9147e-39 298 343.5 0 0 0 0.60294 0.35488 -0.71451 0.011015
0.015097 0.16911 1.0546 6.5459e-39 206 344 0 0 0 0.56622 0.36645 -0.73832 0.0128
0.016345 0.16925 1.0555 6.4537e-39 207 344 0 0 0 0.62286 0.3576 -0.69582 0.0084517
0.013864 0.17158 1.0546 8.021e-39 255 344 0 0 0 0.52963 0.37662 -0.76003 0.017702
0.01511 0.1711 1.0555 7.9288e-39 243.5 344 0 0 0 0.5836 0.36836 -0.72368 0.011587
0.016345 0.17049 1.0555 8.2054e-39 232 344 0 0 0 0.61985 0.3598 -0.69738 0.0084761
0.013875 0.17296 1.0555 7.0069e-39 280 344 0 0 0 0.5425 0.37344 -0.75248 0.015506
0.01263 0.17528 1.0546 7.56e-39 370 344 0 0 0 0.48132 0.39141 -0.7843 0.020966
0.010779 0.17775 1.0546 6.9147e-39 420.5 344 0 0 0 0.43252 0.40292 -0.80659 0.023439
0.012641 0.17666 1.0555 7.4678e-39 394 344 0 0 0 0.4821 0.39364 -0.78271 0.020589
0.0089281 0.17898 1.0546 7.4678e-39 454 344 0 0 0 0.39904 0.40364 -0.82331 0.025164
0.010789 0.17913 1.0555 7.053e-39 456 344 0 0 0 0.43529 0.40362 -0.80474 0.023202
0.0089358 0.18099 1.0555 6.9147e-39 176 345 0 0 0 0.40492 0.40241 -0.82104 0.024592
0.0076943 0.18392 1.0546 7.9288e-39 235 345 0 0 0 0.39333 0.38335 -0.83566 0.026729
-0.0046444 0.18515 1.0546 7.6522e-39 246 345 0 0 0 0.10002 0.348 -0.93214 0.031022
0.0077009 0.18531 1.0555 7.9288e-39 256 345 0 0 0 0.39907 0.37706 -0.8358 0.02664
-0.008967 0.18708 1.0551 7.076e-39 277.5 345 0 0 0 0.0042976 0.32896 -0.94433 0.021669
-0.0071182 0.18716 1.0555 6.5459e-39 279 345 0 0 0 0.07166 0.32996 -0.94127 0.025359
-0.0052646 0.18712 1.0553 7.4909e-39 302.25 345 0 0 0 0.12566 0.33974 -0.93209 0.027972
-0.0029992 0.18721 1.0546 7.8673e-39 315.33 345 0 0 0 0.17161 0.35403 -0.91935 0.029547
0.0064632 0.18708 1.0551 7.5601e-39 312 345 0 0 0 0.37465 0.37251 -0.84904 0.030605
-0.0083531 0.18901 1.0555 7.6522e-39 356 345 0 0 0 0.067934 0.32299 -0.94396 0.023528
-0.0052659 0.18901 1.0555 7.4218e-39 358.5 345 0 0 0 0.14889 0.33046 -0.932 0.026654
-0.002795 0.18893 1.0551 7.6983e-39 360.5 345 0 0 0 0.20538 0.33998 -0.91773 0.028608
-0.0009428 0.18885 1.0546 7.2835e-39 362 345 0 0 0 0.26536 0.35417 -0.89674 0.031136
0.0033758 0.18885 1.0546 7.9288e-39 365.5 345 0 0 0 0.3479 0.34895 -0.87017 0.031653
0.0052265 0.18885 1.0546 7.3757e-39 367 345 0 0 0 0.36577 0.35007 -0.86236 0.031463
-0.0025895 0.19061 1.0552 7.7444e-39 393 345 0 0 0 0.23036 0.33503 -0.91361 0.028115
-0.0009432 0.19078 1.0551 7.9288e-39 398.5 345 0 0 0 0.28461 0.33201 -0.89931 0.03091
0.0011136 0.19091 1.0546 7.4371e-39 404.33 345 0 0 0 0.33331 0.33024 -0.88309 0.032554
0.0033772 0.19078 1.0551 7.1452e-39 403.5 345 0 0 0 0.35295 0.33454 -0.87379 0.033492
0.0052287 0.19078 1.0551 7.0069e-39 406.5 345 0 0 0 0.36769 0.33495 -0.86753 0.033509
-0.0021785 0.19272 1.0555 6.9147e-39 439 345 0 0 0 0.24219 0.30883 -0.91977 0.029194
0.00070295 0.19313 1.0555 6.8532e-39 346.33 345.33 0 0 0 0.33612 0.30181 -0.89215 0.033871
0.0033786 0.19272 1.0555 7.0069e-39 449 345 0 0 0 0.35549 0.30939 -0.88199 0.034834
-0.0021785 0.19519 1.0555 6.3615e-39 172 346 0 0 0 0.23035 0.28982 -0.92895 0.031028
-0.0021785 0.19642 1.0555 6.6381e-39 210 346 0 0 0 0.23081 0.27334 -0.93382 0.033784
-0.038056 0.073055 1.0573 5.9927e-39 388 318 0 0 0 0.68724 0.21956 -0.69246 0.054296
-0.036819 0.073055 1.0573 6.1771e-39 389 318 0 0 0 0.69371 0.20792 -0.68959 0.050721
-0.03926 0.075464 1.0564 8.5742e-39 370 320 0 0 0 0.70398 0.13483 -0.69731 0.060574
-0.040496 0.077936 1.0564 5.163e-39 401 321 0 0 0 0.715 0.08097 -0.69442 0.062082
-0.039293 0.076766 1.0573 6.0849e-39 209 321 0 0 0 0.69936 0.12287 -0.70413 0.06009
-0.040496 0.079172 1.0564 7.6522e-39 237 322 0 0 0 0.71721 0.065064 -0.69381 0.059659
-0.039293 0.078003 1.0573 5.6239e-39 402 321 0 0 0 0.70082 0.095891 -0.70686 0.056876
-0.040908 0.081232 1.0564 6.7303e-39 283 322.67 0 0 0 0.73167 0.04005 -0.68049 0.055305
0.039877 0.081714 1.0573 8.8508e-39 381 323 0 0 0 -0.73727 0.016459 -0.6754 0.0095198
0.041079 0.081644 1.0564 8.943e-39 382 323 0 0 0 -0.7563 0.0049906 -0.65421 0.0081306
-0.054138 0.082951 1.0573 8.8508e-39 383 323 0 0 0 0.69792 -0.040538 -0.71503 0.10595
-0.052856 0.08288 1.0564 8.5742e-39 384 323 0 0 0 0.70163 -0.015927 -0.71236 0.09769
-0.05162 0.08288 1.0564 8.3898e-39 385 323 0 0 0 0.72544 0.0058488 -0.68826 0.095763
-0.049148 0.08288 1.0564 8.2976e-39 387 323 0 0 0 0.74411 0.0041781 -0.66804 0.079942
-0.04544 0.08288 1.0564 8.943e-39 390 323 0 0 0 0.7502 0.020672 -0.66088 0.063264
-0.041114 0.08288 1.0564 8.1132e-39 393.5 323 0 0 0 0.73692 0.035301 -0.67505 0.051701
0.041079 0.08288 1.0564 6.0849e-39 201 324 0 0 0 -0.75418 0.00034946 -0.65666 0.008074
-0.054114 0.08477 1.0568 8.0211e-39 293 324 0 0 0 0.71708 -0.052485 -0.69501 0.099957
-0.052878 0.08477 1.0568 8.021e-39 294 324 0 0 0 0.71348 -0.040489 -0.69951 0.092352
-0.05162 0.084734 1.0564 7.8366e-39 295 324 0 0 0 0.73331 -0.011543 -0.6798 0.085213
-0.049148 0.084116 1.0564 6.2693e-39 208 324 0 0 0 0.74637 0.0048912 -0.66552 0.075899
-0.046676 0.084734 1.0564 7.4218e-39 299 324 0 0 0 0.75687 0.010193 -0.65348 0.065634
-0.04544 0.084734 1.0564 7.6983e-39 300 324 0 0 0 0.75898 0.010422 -0.65103 0.059882
-0.042968 0.084734 1.0564 7.7444e-39 302 324 0 0 0 0.75474 0.019498 -0.65573 0.052489
-0.041123 0.084752 1.0566 7.4218e-39 303.5 324 0 0 0 0.74594 0.025026 -0.66555 0.049175
0.041114 0.084807 1.0573 7.8366e-39 283 324.5 0 0 0 -0.7434 -0.022691 -0.66846 0.0086408
-0.055375 0.087899 1.0573 8.3898e-39 363 325 0 0 0 0.7367 -0.13261 -0.66309 0.097776
-0.041114 0.086588 1.0564 6.592e-39 198.5 325 0 0 0 0.75132 0.0086346 -0.65989 0.046162
0.042315 0.087824 1.0564 7.0069e-39 169 326 0 0 0 -0.76486 -0.050616 -0.64221 0.0068706
-0.039293 0.090992 1.0573 7.6061e-39 394.5 326 0 0 0 0.74498 -0.018181 -0.66684 0.038586
-0.039293 0.092848 1.0573 7.56e-39 231 327 0 0 0 0.74685 -0.041275 -0.66371 0.037754
-0.039293 0.094703 1.0573 6.7303e-39 297.5 327.5 0 0 0 0.75344 -0.075369 -0.65319 0.037287
-0.040919 0.097328 1.0567 7.1913e-39 409.67 328 0 0 0 0.76902 -0.13676 -0.62442 0.040519
-0.041148 0.099033 1.0573 6.8686e-39 222.5 329 0 0 0 0.77448 -0.14888 -0.61483 0.034626
-0.044822 0.10142 1.0564 6.131e-39 161.5 330 0 0 0 0.79066 -0.2664 -0.55126 0.044175
-0.042968 0.10142 1.0564 5.9927e-39 163 330 0 0 0 0.79475 -0.20879 -0.56989 0.034709
-0.041767 0.10027 1.0573 7.9288e-39 385 329 0 0 0 0.78086 -0.17242 -0.60044 0.033769
-0.043004 0.10274 1.0573 8.2054e-39 242 330 0 0 0 0.78985 -0.19007 -0.5831 0.029143
0.018831 0.16198 1.0564 7.0991e-39 291 343 0 0 0 0.67975 0.33417 -0.65289 0.0089272
0.018831 0.16322 1.0564 7.4678e-39 359 343 0 0 0 0.68599 0.3338 -0.64653 0.0081157
0.018847 0.1646 1.0573 7.4678e-39 384 343 0 0 0 0.69079 0.33618 -0.64015 0.0071616
0.017595 0.16693 1.0564 7.0991e-39 439 343 0 0 0 0.66431 0.34677 -0.66215 0.0064718
0.017602 0.16885 1.0568 6.4998e-39 183.5 344 0 0 0 0.67153 0.34698 -0.65472 0.0051256
0.016359 0.17187 1.0564 8.3898e-39 257 344 0 0 0 0.62268 0.36104 -0.6942 0.0080513
0.015123 0.17311 1.0564 6.8225e-39 281 344 0 0 0 0.57915 0.36922 -0.72682 0.011916
0.016373 0.17326 1.0573 6.8225e-39 282 344 0 0 0 0.62524 0.35924 -0.69283 0.008275
0.013893 0.17503 1.0568 7.6061e-39 358.5 344 0 0 0 0.54451 0.3822 -0.74662 0.015827
0.012657 0.17875 1.0568 7.0991e-39 441.5 344 0 0 0 0.48894 0.3982 -0.77613 0.019096
0.010799 0.18118 1.0566 6.6611e-39 177.5 345 0 0 0 0.44818 0.39542 -0.80173 0.022001
0.0089434 0.18299 1.0564 7.56e-39 216 345 0 0 0 0.41561 0.3867 -0.82324 0.025256
0.011425 0.18315 1.0573 6.9147e-39 218 345 0 0 0 0.46863 0.37639 -0.7992 0.022196
0.0089511 0.18501 1.0573 7.8366e-39 246.5 345 0 0 0 0.41975 0.37391 -0.82704 0.026402
0.0077074 0.1867 1.0564 7.0069e-39 280 345 0 0 0 0.39934 0.36778 -0.8398 0.02884
0.0089511 0.18686 1.0573 7.0991e-39 281 345 0 0 0 0.41855 0.35864 -0.83438 0.027129
-0.0095963 0.18917 1.0564 8.1132e-39 355 345 0 0 0 0.015745 0.3223 -0.94651 0.019865
-0.0071243 0.18917 1.0564 7.2835e-39 357 345 0 0 0 0.11225 0.32559 -0.93883 0.024821
0.0070927 0.18863 1.0568 7.4218e-39 357 345 0 0 0 0.38684 0.35415 -0.85143 0.032203
-0.0089842 0.19115 1.0571 7.3065e-39 391.5 345 0 0 0 0.073453 0.31549 -0.94608 0.022391
-0.0071304 0.19119 1.0573 7.4679e-39 393 345 0 0 0 0.13924 0.31762 -0.93794 0.025333
-0.0052703 0.19103 1.0564 7.4218e-39 395 345 0 0 0 0.18863 0.31939 -0.92866 0.026713
-0.0034164 0.19165 1.0564 7.4678e-39 409 345 0 0 0 0.23404 0.31863 -0.91853 0.028682
0.006477 0.19119 1.0573 7.2374e-39 407.5 345 0 0 0 0.3751 0.30976 -0.8737 0.034432
-0.0089859 0.19305 1.0573 6.8225e-39 433.5 345 0 0 0 0.078488 0.30883 -0.94787 0.024359
-0.0052748 0.19305 1.0573 7.0069e-39 436.5 345 0 0 0 0.20821 0.30669 -0.92876 0.029644
-0.0034164 0.19288 1.0564 7.1913e-39 438 345 0 0 0 0.23 0.3063 -0.92373 0.029507
-0.00094441 0.19288 1.0564 6.5459e-39 440 345 0 0 0 0.30278 0.30343 -0.90347 0.033465
0.0052355 0.19288 1.0564 7.6522e-39 453 345 0 0 0 0.36331 0.29477 -0.88381 0.034794
-0.0089824 0.19482 1.0568 7.0991e-39 155 346 0 0 0 0.079136 0.29156 -0.95327 0.025467
-0.0052738 0.19486 1.0571 7.2604e-39 158 346 0 0 0 0.19904 0.28976 -0.93617 0.030024
-0.0030044 0.19453 1.0564 6.9762e-39 156 346 0 0 0 0.22939 0.29311 -0.92815 0.030662
-0.00094441 0.19474 1.0564 6.4998e-39 161.5 346 0 0 0 0.29349 0.28969 -0.91101 0.034432
0.0011155 0.19494 1.0564 6.6074e-39 167 346 0 0 0 0.3342 0.28073 -0.89972 0.035384
0.0033815 0.19474 1.0564 6.9608e-39 167.5 346 0 0 0 0.35376 0.27339 -0.89449 0.036316
0.0052355 0.19474 1.0564 7.0069e-39 174.5 346 0 0 0 0.35272 0.27259 -0.89514 0.036029
-0.0083603 0.19721 1.0564 7.1913e-39 216.5 346 0 0 0 0.071247 0.27977 -0.95742 0.029812
-0.0052728 0.1973 1.0568 7.0069e-39 219 346 0 0 0 0.17536 0.27514 -0.94528 0.032875
-0.0030044 0.19742 1.0564 7.3756e-39 224.67 346 0 0 0 0.21988 0.27102 -0.93713 0.034861
-0.00094522 0.19738 1.0573 7.514e-39 222.5 346 0 0 0 0.28579 0.26129 -0.92198 0.03731
0.0009096 0.19725 1.0566 7.076e-39 224 346 0 0 0 0.31525 0.26142 -0.91229 0.037923
0.0031763 0.19706 1.0567 7.3142e-39 222 346 0 0 0 0.33959 0.24784 -0.90733 0.036438
0.0048276 0.19759 1.0573 7.7751e-39 231 346 0 0 0 0.33864 0.24111 -0.9095 0.036347
-0.0083603 0.19906 1.0564 7.9288e-39 250 346 0 0 0 0.04583 0.27617 -0.96002 0.031949
-0.0052748 0.19923 1.0573 7.4679e-39 252.5 346 0 0 0 0.14424 0.26592 -0.95314 0.034712
-0.0027984 0.19906 1.0564 7.2374e-39 254.5 346 0 0 0 0.22781 0.257 -0.93918 0.036177
-0.00094522 0.19923 1.0573 7.8366e-39 256 346 0 0 0 0.25935 0.2555 -0.93137 0.038876
0.00091036 0.19923 1.0573 8.3437e-39 257.5 346 0 0 0 0.30481 0.24763 -0.91966 0.037932
0.0027659 0.19923 1.0573 8.2976e-39 259 346 0 0 0 0.31609 0.24117 -0.91757 0.037654
0.0046214 0.19923 1.0573 7.9288e-39 260.5 346 0 0 0 0.331 0.23107 -0.9149 0.036349
-0.0083639 0.201 1.0568 7.053e-39 281.5 346 0 0 0 0.037492 0.26864 -0.96251 0.031698
-0.0052748 0.20109 1.0573 7.7214e-39 306 346 0 0 0 0.13017 0.26219 -0.9562 0.035099
-0.0027994 0.201 1.0568 7.6983e-39 308 346 0 0 0 0.20211 0.2491 -0.94715 0.037489
0.0015289 0.20047 1.0573 6.7303e-39 280 346 0 0 0 0.29533 0.24009 -0.92474 0.039258
0.0027659 0.20109 1.0573 7.4218e-39 312.5 346 0 0 0 0.29953 0.23633 -0.92435 0.036589
0.0040029 0.20109 1.0573 7.6061e-39 313.5 346 0 0 0 0.30972 0.22188 -0.92458 0.037374
-0.0083674 0.20294 1.0573 8.2976e-39 354 346 0 0 0 -0.0036271 0.2906 -0.95684 0.034792
-0.0052748 0.20294 1.0573 7.514e-39 356.5 346 0 0 0 0.098755 0.26744 -0.9585 0.037548
-0.0028008 0.20294 1.0573 7.4679e-39 358.5 346 0 0 0 0.18897 0.24569 -0.95075 0.038741
0.0040029 0.20294 1.0573 7.8366e-39 364 346 0 0 0 0.29643 0.21926 -0.92954 0.038562
-0.0058934 0.20418 1.0573 7.6522e-39 373 346 0 0 0 0.050911 0.2727 -0.96075 0.034072
-0.0034193 0.2048 1.0573 7.3757e-39 383 346 0 0 0 0.12462 0.25472 -0.95895 0.039037
-0.035613 0.073118 1.0582 5.8083e-39 390 318 0 0 0 0.69037 0.21658 -0.69027 0.040902
-0.038105 0.075007 1.0587 7.2835e-39 375.5 319.5 0 0 0 0.69349 0.15503 -0.70358 0.048395
-0.036882 0.074419 1.0592 5.9005e-39 381 319 0 0 0 0.68776 0.18288 -0.70252 0.04276
-0.039327 0.079308 1.0582 7.56e-39 238 322 0 0 0 0.70817 0.0771 -0.70182 0.051943
-0.039327 0.081165 1.0582 6.8225e-39 314 322.5 0 0 0 0.71533 0.057839 -0.69639 0.047042
0.038673 0.081165 1.0582 7.6522e-39 296.5 323 0 0 0 -0.7129 0.051772 -0.69935 0.012954
-0.039361 0.083094 1.0592 7.8366e-39 395 323 0 0 0 0.71247 0.050699 -0.69987 0.04172
0.039292 0.083022 1.0582 6.2693e-39 199.5 324 0 0 0 -0.72049 0.013503 -0.69334 0.011449
-0.039361 0.084953 1.0592 7.4218e-39 305 324 0 0 0 0.71468 0.032385 -0.6987 0.0382
0.039108 0.084722 1.0589 8.0518e-39 314 324.33 0 0 0 -0.70925 -0.0048812 -0.70494 0.010423
-0.039361 0.086811 1.0592 6.2693e-39 200 325 0 0 0 0.71548 0.031361 -0.69793 0.037254
0.039325 0.086811 1.0592 8.2976e-39 360.5 325 0 0 0 -0.71007 -0.022752 -0.70376 0.0096222
0.041149 0.087356 1.0582 7.6061e-39 265 325.5 0 0 0 -0.73688 -0.035707 -0.67507 0.0085932
-0.039344 0.088631 1.0587 7.8827e-39 279.5 325.5 0 0 0 0.72294 0.022231 -0.69056 0.037832
0.039325 0.08867 1.0592 7.4218e-39 212 326 0 0 0 -0.71534 -0.042547 -0.69748 0.008415
0.041149 0.089213 1.0582 8.3898e-39 259 326 0 0 0 -0.73621 -0.055601 -0.67447 0.0083047
0.041149 0.09107 1.0582 6.5459e-39 319 326.5 0 0 0 -0.73715 -0.069069 -0.67219 0.0081709
-0.039327 0.09726 1.0582 7.5601e-39 254 328.5 0 0 0 0.74906 -0.084362 -0.65711 0.031776
-0.039327 0.099118 1.0582 6.8225e-39 224 329 0 0 0 0.75822 -0.10511 -0.64347 0.026128
-0.040989 0.10121 1.0585 6.6073e-39 238.33 329.67 0 0 0 0.76896 -0.1348 -0.62492 0.026388
-0.039344 0.10102 1.0587 6.7303e-39 276.5 329.5 0 0 0 0.77387 -0.092074 -0.62662 0.01491
-0.038741 0.10292 1.0592 7.8827e-39 245.5 330 0 0 0 0.77794 -0.070646 -0.62436 0.010467
-0.038741 0.10416 1.0592 7.2835e-39 394.5 330 0 0 0 0.78404 -0.06502 -0.6173 0.010054
0.01888 0.16674 1.0592 7.2835e-39 431.5 343 0 0 0 0.71354 0.33335 -0.61623 0.005338
0.01888 0.1686 1.0592 6.6381e-39 160 344 0 0 0 0.7071 0.3417 -0.61908 0.0043298
0.017625 0.17093 1.0582 8.6664e-39 233 344 0 0 0 0.67899 0.34715 -0.64689 0.0045122
0.015149 0.17464 1.0582 7.3757e-39 347 344 0 0 0 0.59897 0.36666 -0.7119 0.010372
0.017014 0.17471 1.0587 7.8366e-39 348.5 344 0 0 0 0.64604 0.35034 -0.67816 0.0066002
0.013911 0.17712 1.0582 7.2835e-39 395 344 0 0 0 0.54636 0.38135 -0.7457 0.015218
0.017641 0.17665 1.0592 7.5601e-39 386 344 0 0 0 0.64603 0.35116 -0.67775 0.0061896
0.013923 0.17913 1.0592 7.0991e-39 280.5 344.5 0 0 0 0.5415 0.38005 -0.74989 0.014774
0.013298 0.18091 1.0587 6.4998e-39 159.5 345 0 0 0 0.51917 0.38395 -0.76358 0.016449
0.010197 0.18331 1.0582 7.0069e-39 217 345 0 0 0 0.4429 0.38132 -0.81144 0.023659
0.01309 0.18254 1.0585 6.5459e-39 206 345 0 0 0 0.50435 0.37656 -0.77706 0.018205
0.010821 0.18525 1.0587 7.8827e-39 248 345 0 0 0 0.45557 0.36252 -0.81304 0.023903
0.012684 0.1847 1.0592 8.2976e-39 239 345 0 0 0 0.50323 0.35737 -0.7868 0.02005
0.010206 0.18718 1.0592 6.9147e-39 282 345 0 0 0 0.43836 0.34979 -0.82794 0.026679
0.0077206 0.1895 1.0582 7.4678e-39 369 345 0 0 0 0.39124 0.33099 -0.85871 0.033828
0.0089626 0.18896 1.0587 7.7444e-39 358.5 345 0 0 0 0.42196 0.33159 -0.8438 0.029404
0.0077206 0.19074 1.0582 7.8366e-39 393 345 0 0 0 0.38813 0.32002 -0.86426 0.034164
0.0089664 0.1909 1.0592 7.8366e-39 394 345 0 0 0 0.4169 0.29933 -0.85825 0.029826
-0.0071365 0.19321 1.0582 6.7303e-39 435 345 0 0 0 0.16048 0.30054 -0.94017 0.028999
0.007105 0.19267 1.0587 7.6061e-39 439 345 0 0 0 0.36985 0.28691 -0.88368 0.035009
-0.0071365 0.19507 1.0582 7.2374e-39 156.5 346 0 0 0 0.14234 0.28892 -0.94671 0.030779
0.0064881 0.19524 1.0592 7.2835e-39 175.5 346 0 0 0 0.35099 0.25293 -0.90157 0.035873
-0.0096127 0.19693 1.0582 7.0991e-39 204 346 0 0 0 0.04998 0.27653 -0.9597 0.029783
-0.0071365 0.19693 1.0582 6.7303e-39 206 346 0 0 0 0.13338 0.28406 -0.94948 0.034403
0.0064881 0.1971 1.0592 7.1913e-39 217 346 0 0 0 0.33944 0.2343 -0.91098 0.036094
-0.0096168 0.19887 1.0587 7.7905e-39 238 346 0 0 0 0.027329 0.2793 -0.95982 0.033345
-0.0071365 0.19879 1.0582 7.6522e-39 240 346 0 0 0 0.11439 0.27274 -0.95526 0.035032
0.0064881 0.19895 1.0592 7.8827e-39 251 346 0 0 0 0.33412 0.22046 -0.91638 0.035572
-0.009621 0.20081 1.0592 7.8366e-39 271 346 0 0 0 -0.015236 0.29039 -0.95679 0.036223
-0.0071396 0.20134 1.0587 7.8366e-39 304.5 346 0 0 0 0.075518 0.27358 -0.95888 0.036898
-0.00094603 0.20126 1.0582 7.8366e-39 309.5 346 0 0 0 0.26132 0.24463 -0.93374 0.040453
0.00070478 0.20147 1.0582 7.6522e-39 321.33 346 0 0 0 0.28859 0.23323 -0.92861 0.03973
0.0052445 0.20126 1.0582 7.4679e-39 314.5 346 0 0 0 0.31919 0.21573 -0.92281 0.037254
0.0064881 0.20081 1.0592 6.4537e-39 284 346 0 0 0 0.33872 0.22743 -0.91299 0.037149
-0.009621 0.20267 1.0592 7.1913e-39 321.5 346 0 0 0 -0.032246 0.29139 -0.95606 0.035262
-0.0071365 0.20312 1.0582 8.2976e-39 355 346 0 0 0 0.051471 0.27838 -0.95909 0.035819
-0.00094603 0.20312 1.0582 7.8366e-39 360 346 0 0 0 0.23102 0.24415 -0.94182 0.042684
0.00091113 0.20312 1.0582 7.4679e-39 361.5 346 0 0 0 0.27783 0.23238 -0.9321 0.040545
0.0027683 0.20312 1.0582 7.56e-39 363 346 0 0 0 0.29736 0.23066 -0.92649 0.039381
0.0052445 0.20312 1.0582 8.2054e-39 365 346 0 0 0 0.32599 0.23141 -0.91661 0.038447
0.0064881 0.20205 1.0592 7.56e-39 347 346 0 0 0 0.34651 0.22328 -0.91108 0.034505
-0.0083746 0.20436 1.0582 8.2976e-39 371 346 0 0 0 0.002589 0.27907 -0.96027 0.034501
-0.0071426 0.20453 1.0592 8.021e-39 372 346 0 0 0 0.05148 0.26692 -0.96234 0.036887
-0.005073 0.20518 1.0582 7.3142e-39 384.33 346 0 0 0 0.087723 0.25988 -0.96165 0.038417
-0.0021841 0.20497 1.0582 7.4218e-39 384 346 0 0 0 0.18379 0.23954 -0.95333 0.04309
-0.00094684 0.20515 1.0592 7.6061e-39 385 346 0 0 0 0.21504 0.23791 -0.94718 0.04441
0.00091159 0.20511 1.059 7.4909e-39 386.5 346 0 0 0 0.27048 0.24259 -0.93166 0.046896
0.0027683 0.20497 1.0582 7.4679e-39 388 346 0 0 0 0.30048 0.23125 -0.92533 0.043429
0.0046277 0.20506 1.0587 7.514e-39 389.5 346 0 0 0 0.3151 0.23236 -0.92018 0.042475
-0.0052814 0.20692 1.0587 6.9608e-39 404.5 346 0 0 0 0.060052 0.26966 -0.96108 0.038063
-0.0028041 0.20692 1.0587 6.9147e-39 407.5 346 0 0 0 0.13977 0.25105 -0.95783 0.043361
0.0015315 0.20701 1.0592 7.6522e-39 411 346 0 0 0 0.28316 0.24345 -0.92766 0.050383
0.0027683 0.20683 1.0582 7.4678e-39 412 346 0 0 0 0.28383 0.24286 -0.92761 0.049997
0.0046277 0.20692 1.0587 7.0069e-39 413.5 346 0 0 0 0.3259 0.23035 -0.91691 0.04541
-0.0059035 0.20825 1.0592 7.4678e-39 427 346 0 0 0 0.044351 0.27283 -0.96104 0.039447
-0.0030121 0.20866 1.0592 6.8532e-39 435 346 0 0 0 0.11093 0.25812 -0.95972 0.045131
0.0015315 0.20887 1.0592 7.2374e-39 443.5 346 0 0 0 0.27415 0.24714 -0.92939 0.053019
0.0027694 0.20878 1.0587 7.0991e-39 444.5 346 0 0 0 0.28606 0.24545 -0.92624 0.053005
0.0046286 0.20883 1.059 7.2835e-39 446.5 346 0 0 0 0.31561 0.24293 -0.91727 0.052321
0.0015315 0.21073 1.0592 8.1132e-39 147 347 0 0 0 0.25652 0.25851 -0.93133 0.056261
0.0027706 0.21073 1.0592 7.2835e-39 148 347 0 0 0 0.27848 0.2539 -0.92628 0.05709
0.0040098 0.21073 1.0592 6.7303e-39 149 347 0 0 0 0.31003 0.25055 -0.91712 0.057523
-0.036914 0.075724 1.0601 8.5742e-39 372 320 0 0 0 0.68384 0.15279 -0.71345 0.040412
-0.03572 0.0752 1.0615 6.8686e-39 377.5 319.5 0 0 0 0.68422 0.15491 -0.71264 0.033436
-0.038154 0.076964 1.0601 5.9927e-39 210 321 0 0 0 0.68273 0.13775 -0.71756 0.047241
-0.036946 0.07703 1.061 6.0849e-39 211 321 0 0 0 0.68582 0.12785 -0.71645 0.038388
-0.038154 0.078824 1.0601 6.9146e-39 321 321.5 0 0 0 0.68601 0.10386 -0.72014 0.045333
-0.036946 0.078892 1.061 7.099e-39 322 321.5 0 0 0 0.68591 0.1004 -0.72073 0.037985
-0.035735 0.079581 1.0619 7.6522e-39 241 322 0 0 0 0.67765 0.091796 -0.72963 0.031794
-0.038171 0.08134 1.0605 7.0529e-39 315 322.5 0 0 0 0.686 0.067138 -0.72449 0.04057
-0.036978 0.080823 1.0619 7.2835e-39 405 322 0 0 0 0.6784 0.081097 -0.7302 0.036207
-0.035735 0.080823 1.0619 6.6381e-39 406 322 0 0 0 0.67852 0.078429 -0.73039 0.030377
0.037499 0.081304 1.0601 7.8366e-39 295.5 323 0 0 0 -0.68347 0.068227 -0.72679 0.015283
-0.03822 0.083308 1.0619 7.8366e-39 396 323 0 0 0 0.68543 0.054711 -0.72608 0.035696
-0.036978 0.082066 1.0619 6.9147e-39 227 323 0 0 0 0.67652 0.065996 -0.73346 0.035257
0.037531 0.083236 1.061 6.6381e-39 198 324 0 0 0 -0.67559 0.052789 -0.73539 0.014534
-0.055517 0.085025 1.0601 7.6522e-39 292 324 0 0 0 0.65308 -0.075062 -0.75356 0.11284
-0.03822 0.085172 1.0619 7.4218e-39 306 324 0 0 0 0.68716 0.044342 -0.72515 0.03325
0.037531 0.085098 1.061 7.5601e-39 280.5 324.5 0 0 0 -0.67595 0.029922 -0.73634 0.013172
-0.055517 0.086886 1.0601 7.0069e-39 187 325 0 0 0 0.67244 -0.11036 -0.73188 0.10387
0.037531 0.08696 1.061 8.5742e-39 359 325 0 0 0 -0.68284 -0.00028872 -0.73056 0.011086
0.037515 0.088784 1.0605 7.6983e-39 210.5 326 0 0 0 -0.69298 -0.024926 -0.72052 0.0091622
-0.038171 0.091265 1.0605 7.7905e-39 395.5 326 0 0 0 0.69683 -0.0051557 -0.71721 0.030779
0.037531 0.090684 1.061 7.0991e-39 418 326 0 0 0 -0.69573 -0.044699 -0.71691 0.0076977
0.039164 0.091046 1.0604 6.9147e-39 351.67 326.33 0 0 0 -0.70886 -0.049242 -0.70363 0.0073233
-0.038154 0.093087 1.0601 8.021e-39 232 327 0 0 0 0.70338 -0.022805 -0.71045 0.030815
-0.036962 0.092586 1.0615 7.4679e-39 334 326.5 0 0 0 0.69679 -0.0014746 -0.71728 0.025816
0.037564 0.092625 1.0619 7.6061e-39 300.5 327 0 0 0 -0.68986 -0.05255 -0.72203 0.0071973
0.038773 0.093167 1.061 8.2054e-39 387 327 0 0 0 -0.7098 -0.065649 -0.70134 0.0068944
-0.038154 0.094947 1.0601 6.5459e-39 298.5 327.5 0 0 0 0.71099 -0.032758 -0.70244 0.029776
-0.036946 0.095028 1.061 6.6842e-39 299.5 327.5 0 0 0 0.71916 -0.027383 -0.6943 0.018404
0.037531 0.095028 1.061 7.0069e-39 224 328 0 0 0 -0.70832 -0.07089 -0.70233 0.0065878
0.038739 0.094947 1.0601 7.053e-39 225 328 0 0 0 -0.71445 -0.073849 -0.69578 0.0065731
-0.038187 0.096891 1.061 8.3898e-39 362 328 0 0 0 0.72156 -0.040163 -0.69119 0.021901
-0.036978 0.096974 1.0619 8.2976e-39 363 328 0 0 0 0.72701 -0.034075 -0.68578 0.015184
0.037531 0.096891 1.061 7.2835e-39 423 328 0 0 0 -0.71049 -0.080458 -0.69909 0.0063167
-0.038187 0.098752 1.061 6.6381e-39 186.5 329 0 0 0 0.73839 -0.058184 -0.67186 0.01509
-0.036978 0.098837 1.0619 6.7303e-39 187.5 329 0 0 0 0.73504 -0.047906 -0.67632 0.013246
-0.038154 0.10115 1.0601 6.7303e-39 277.5 329.5 0 0 0 0.7646 -0.068486 -0.64085 0.011019
-0.036978 0.10132 1.0619 6.8685e-39 278.5 329.5 0 0 0 0.74579 -0.058716 -0.66359 0.011933
-0.041255 0.10301 1.0601 8.1593e-39 243.5 330 0 0 0 0.78003 -0.092456 -0.61887 0.012121
-0.036946 0.1031 1.061 7.0991e-39 253 330 0 0 0 0.75547 -0.06679 -0.65177 0.01152
-0.036914 0.10425 1.0601 7.6522e-39 396 330 0 0 0 0.76502 -0.07388 -0.63976 0.011074
0.015182 0.17687 1.0605 7.514e-39 384 344 0 0 0 0.61346 0.35919 -0.70332 0.0083656
0.016415 0.1768 1.0601 7.6061e-39 385 344 0 0 0 0.63764 0.35265 -0.68487 0.0065204
0.015201 0.17897 1.0619 7.6522e-39 424 344 0 0 0 0.61193 0.35752 -0.70549 0.0075032
0.017247 0.17913 1.0604 7.4064e-39 330.67 344.33 0 0 0 0.64031 0.35025 -0.68361 0.0058131
0.015201 0.18145 1.0619 6.4537e-39 161 345 0 0 0 0.60165 0.35762 -0.71423 0.0081068
0.016839 0.18083 1.0607 6.6688e-39 155 345 0 0 0 0.63036 0.35197 -0.69192 0.0060517
0.013935 0.18362 1.0601 6.9147e-39 220 345 0 0 0 0.54659 0.357 -0.75749 0.014696
0.015201 0.1827 1.0619 6.3615e-39 201 345 0 0 0 0.59846 0.35382 -0.71879 0.0082092
0.017262 0.18301 1.0613 6.884e-39 209.33 345 0 0 0 0.6386 0.34192 -0.68941 0.0054207
0.013947 0.18502 1.061 8.021e-39 240 345 0 0 0 0.54164 0.34638 -0.76593 0.015125
0.011455 0.18734 1.0601 7.1913e-39 283 345 0 0 0 0.46628 0.33616 -0.81828 0.025343
0.013324 0.18684 1.0608 7.1221e-39 272.5 345 0 0 0 0.51962 0.33664 -0.78528 0.018932
0.010839 0.18928 1.0605 7.9288e-39 360 345 0 0 0 0.45484 0.31356 -0.83355 0.027128
0.013333 0.18883 1.0615 7.4679e-39 350.5 345 0 0 0 0.51727 0.31481 -0.79582 0.019877
-0.010888 0.19139 1.0619 7.56e-39 378 345 0 0 0 0.009242 0.30675 -0.95174 0.025231
0.010848 0.19131 1.0615 7.1913e-39 395.5 345 0 0 0 0.46211 0.28291 -0.84049 0.026536
0.013338 0.19015 1.0619 7.8366e-39 373.5 345 0 0 0 0.52208 0.29605 -0.79987 0.021043
-0.010888 0.19326 1.0619 7.0069e-39 417 345 0 0 0 0.016809 0.29662 -0.95485 0.029023
0.0077339 0.19354 1.0601 7.2835e-39 455 345 0 0 0 0.36537 0.2612 -0.89346 0.035192
0.0089779 0.193 1.0605 7.4679e-39 441 345 0 0 0 0.38729 0.26487 -0.88309 0.034667
0.010232 0.19264 1.0619 7.6522e-39 426 345 0 0 0 0.43439 0.25597 -0.86359 0.029079
-0.010879 0.19495 1.061 6.4537e-39 142 346 0 0 0 0.022302 0.28111 -0.95942 0.03013
0.0077405 0.19495 1.061 6.9147e-39 157 346 0 0 0 0.35158 0.24959 -0.90227 0.03684
0.0089818 0.19495 1.061 6.8225e-39 158 346 0 0 0 0.38063 0.24173 -0.89257 0.033204
-0.010879 0.19681 1.061 7.0991e-39 184 346 0 0 0 -6.3522e-06 0.28105 -0.95969 0.035357
0.0077472 0.19636 1.0619 7.0069e-39 196 346 0 0 0 0.34639 0.22477 -0.91076 0.036041
0.0089896 0.19636 1.0619 6.5459e-39 197 346 0 0 0 0.37814 0.22328 -0.89842 0.031464
-0.010888 0.19885 1.0619 8.482e-39 226 346 0 0 0 -0.029142 0.29373 -0.95544 0.04011
0.0077472 0.20133 1.0619 5.8083e-39 285 346 0 0 0 0.35797 0.2226 -0.90681 0.033581
0.0089896 0.20071 1.0619 6.9147e-39 275 346 0 0 0 0.38338 0.22486 -0.8958 0.030719
0.0073294 0.20329 1.0613 8.0825e-39 360.67 346 0 0 0 0.35762 0.23248 -0.90447 0.036892
0.0089896 0.2032 1.0619 7.6522e-39 359 346 0 0 0 0.39702 0.22085 -0.89084 0.030919
0.010232 0.20257 1.0619 7.4678e-39 351 346 0 0 0 0.43269 0.22589 -0.87279 0.02661
-0.0090174 0.20551 1.061 7.7905e-39 378.5 346 0 0 0 -0.029889 0.28379 -0.95842 0.034684
-0.0071488 0.20595 1.0601 7.1913e-39 388 346 0 0 0 0.044943 0.26769 -0.96246 0.036951
0.0069115 0.20524 1.0607 7.6215e-39 388.67 346 0 0 0 0.34872 0.2375 -0.90664 0.040657
0.0089896 0.20506 1.0619 7.9288e-39 385 346 0 0 0 0.39136 0.23307 -0.89023 0.03628
-0.00094765 0.20719 1.0601 7.2835e-39 409 346 0 0 0 0.23565 0.24415 -0.94067 0.051018
0.00029257 0.20719 1.0601 7.6522e-39 410 346 0 0 0 0.2626 0.24289 -0.93383 0.052241
0.0073294 0.20701 1.0613 7.1298e-39 414.67 346 0 0 0 0.35566 0.23659 -0.90417 0.043988
0.0089857 0.20684 1.0615 7.6522e-39 412.5 346 0 0 0 0.40655 0.25265 -0.878 0.041489
-0.0050817 0.20926 1.0601 6.884e-39 438.67 346 0 0 0 0.054851 0.27782 -0.95907 0.041977
-0.0021879 0.20967 1.0601 6.9147e-39 447 346 0 0 0 0.16747 0.27218 -0.94756 0.050938
-0.00094806 0.20914 1.0605 7.0991e-39 441.5 346 0 0 0 0.22371 0.25691 -0.94019 0.053184
0.0002927 0.20914 1.0605 7.3757e-39 442.5 346 0 0 0 0.24286 0.25217 -0.93671 0.053406
0.0069115 0.20896 1.0607 7.1913e-39 445 346 0 0 0 0.3599 0.246 -0.89998 0.050631
0.0089818 0.20861 1.061 6.7303e-39 439 346 0 0 0 0.4189 0.25611 -0.87117 0.04512
-0.005293 0.21109 1.061 6.592e-39 141.5 347 0 0 0 0.036277 0.29695 -0.9542 0.042347
-0.002808 0.21091 1.0601 7.4679e-39 143.5 347 0 0 0 0.14742 0.2821 -0.94799 0.052823
-0.00094847 0.21109 1.061 8.2054e-39 145 347 0 0 0 0.2031 0.27751 -0.93901 0.055819
0.00029282 0.21109 1.061 8.2054e-39 146 347 0 0 0 0.23943 0.26137 -0.93507 0.057571
0.0052535 0.21091 1.0601 6.5459e-39 150 347 0 0 0 0.33619 0.25188 -0.90749 0.057191
0.0073294 0.21074 1.0613 7.3449e-39 254.67 346.67 0 0 0 0.39795 0.26175 -0.87927 0.057047
0.0089896 0.21065 1.0619 7.0991e-39 145.5 347 0 0 0 0.43214 0.25538 -0.86489 0.051416
-0.0028116 0.21305 1.0615 6.5459e-39 168.75 347 0 0 0 0.1142 0.32347 -0.93932 0.054239
-0.00094928 0.21314 1.0619 6.4076e-39 170.5 347 0 0 0 0.19138 0.29481 -0.9362 0.059316
0.0009132 0.21295 1.061 6.592e-39 172.75 347 0 0 0 0.21783 0.28085 -0.9347 0.060098
0.002773 0.21277 1.0601 7.1452e-39 176 347 0 0 0 0.26682 0.27228 -0.92449 0.061867
0.0046345 0.21281 1.0603 6.8225e-39 180.5 347 0 0 0 0.31084 0.26712 -0.91216 0.063784
0.0064993 0.21295 1.061 6.3615e-39 183 347 0 0 0 0.37748 0.27478 -0.88431 0.066698
0.0089896 0.21251 1.0619 6.7303e-39 170 347 0 0 0 0.41898 0.26861 -0.86736 0.065231
0.0015341 0.21481 1.061 6.6381e-39 211 347 0 0 0 0.21611 0.31141 -0.92538 0.06414
0.0027754 0.21481 1.061 6.5459e-39 212 347 0 0 0 0.22804 0.30824 -0.92357 0.064593
0.0046396 0.2149 1.0615 6.9147e-39 213.5 347 0 0 0 0.31817 0.3086 -0.8964 0.071812
0.0065048 0.215 1.0619 7.3757e-39 215 347 0 0 0 0.35624 0.30182 -0.88431 0.075384
0.0015354 0.21624 1.0619 7.7444e-39 230 347 0 0 0 0.17366 0.3424 -0.92337 0.064094
0.0027778 0.21624 1.0619 7.4678e-39 231 347 0 0 0 0.25832 0.33875 -0.90472 0.071649
0.0046413 0.21624 1.0619 7.6061e-39 232.5 347 0 0 0 0.27029 0.34375 -0.89932 0.075025
0.0015354 0.22121 1.0619 7.6522e-39 271 347 0 0 0 0.078628 0.47444 -0.87677 0.07995
-0.035766 0.077163 1.0628 6.3615e-39 212 321 0 0 0 0.67848 0.12207 -0.72441 0.030971
-0.035766 0.078406 1.0628 6.5459e-39 405 321 0 0 0 0.67282 0.11008 -0.73157 0.03098
-0.037009 0.08338 1.0628 8.1132e-39 397 323 0 0 0 0.67614 0.058246 -0.73447 0.033175
-0.035782 0.082794 1.0633 7.7444e-39 313 323 0 0 0 0.67214 0.063746 -0.73767 0.028155
0.036353 0.082758 1.0628 7.9288e-39 287.5 323.5 0 0 0 -0.64816 0.073241 -0.75797 0.016746
-0.037009 0.085244 1.0628 7.4679e-39 307 324 0 0 0 0.67455 0.046294 -0.73678 0.030766
0.036353 0.085244 1.0628 7.7444e-39 279.5 324.5 0 0 0 -0.64692 0.057893 -0.76036 0.01555
-0.038253 0.08711 1.0628 6.2693e-39 201 325 0 0 0 0.68212 0.033206 -0.73048 0.031116
-0.037041 0.087185 1.0637 6.3615e-39 202 325 0 0 0 0.67179 0.030994 -0.74009 0.027751
0.035139 0.087185 1.0637 9.1274e-39 357 325 0 0 0 -0.62894 0.042489 -0.77629 0.014158
0.036353 0.08711 1.0628 8.943e-39 358 325 0 0 0 -0.65244 0.020941 -0.75756 0.013049
-0.038269 0.089013 1.0633 7.6983e-39 280.5 325.5 0 0 0 0.67819 0.018688 -0.73465 0.02993
-0.037041 0.089674 1.0637 6.0849e-39 185 326 0 0 0 0.669 0.018162 -0.74304 0.026642
0.035139 0.089051 1.0637 7.2835e-39 339.5 325.5 0 0 0 -0.63569 0.017911 -0.77174 0.012289
0.036353 0.088975 1.0628 7.6522e-39 204 326 0 0 0 -0.659 -0.0029502 -0.75213 0.011032
-0.037009 0.09084 1.0628 8.5742e-39 358 326 0 0 0 0.67425 0.0072575 -0.73846 0.027903
0.036353 0.09084 1.0628 6.9147e-39 417 326 0 0 0 -0.66738 -0.023238 -0.74435 0.009298
-0.035797 0.093407 1.0637 7.7444e-39 234 327 0 0 0 0.68757 0.0023741 -0.72611 0.016089
0.036384 0.092785 1.0637 7.9749e-39 299.5 327 0 0 0 -0.66641 -0.038234 -0.74461 0.0083334
-0.035797 0.094652 1.0637 6.9147e-39 404 327 0 0 0 0.69301 -0.0043524 -0.72091 0.014793
0.036353 0.095192 1.0628 7.0069e-39 223 328 0 0 0 -0.6854 -0.066417 -0.72513 0.006618
0.035139 0.097141 1.0637 6.6381e-39 421 328 0 0 0 -0.67114 -0.069216 -0.73809 0.0074305
0.036353 0.097057 1.0628 6.8225e-39 422 328 0 0 0 -0.68703 -0.078391 -0.72239 0.0064803
0.033881 0.098964 1.0633 7.8366e-39 289 329 0 0 0 -0.66742 -0.087072 -0.73957 0.006938
0.035139 0.098385 1.0637 7.1913e-39 210 329 0 0 0 -0.67733 -0.077423 -0.7316 0.0070615
-0.035797 0.10461 1.0637 7.8366e-39 397 330 0 0 0 0.72701 -0.063525 -0.68368 0.014709
0.015214 0.18037 1.0628 7.1913e-39 139 345 0 0 0 0.62267 0.35231 -0.69868 0.0065142
0.015214 0.1841 1.0628 6.7303e-39 221 345 0 0 0 0.60066 0.34189 -0.72272 0.0090228
0.017088 0.1848 1.0633 7.6522e-39 232.5 345 0 0 0 0.63682 0.32768 -0.69792 0.0060368
0.017717 0.18923 1.0637 8.2976e-39 354 345 0 0 0 0.64777 0.29293 -0.70327 0.0090158
0.013349 0.19156 1.0628 7.0991e-39 397.5 345 0 0 0 0.5329 0.27135 -0.80149 0.020301
0.017701 0.19094 1.0628 7.4678e-39 389 345 0 0 0 0.64211 0.27785 -0.71449 0.01097
0.011484 0.1928 1.0628 7.3757e-39 427 345 0 0 0 0.48177 0.25613 -0.83803 0.025675
0.012739 0.19297 1.0637 7.0069e-39 428 345 0 0 0 0.52923 0.25531 -0.80915 0.02079
0.010662 0.19457 1.0634 7.1298e-39 360 345.33 0 0 0 0.46413 0.23432 -0.85421 0.026233
0.0077539 0.19777 1.0628 7.2835e-39 218 346 0 0 0 0.34556 0.21816 -0.91269 0.036708
0.0089973 0.19777 1.0628 7.6522e-39 219 346 0 0 0 0.38628 0.22202 -0.89526 0.03095
0.01025 0.1967 1.0637 6.4537e-39 198 346 0 0 0 0.46008 0.22789 -0.85813 0.025365
0.0077539 0.19902 1.0628 7.3757e-39 241 346 0 0 0 0.35578 0.22046 -0.90819 0.034492
0.0089973 0.19902 1.0628 7.3757e-39 242 346 0 0 0 0.3832 0.22165 -0.89668 0.03075
0.01025 0.19919 1.0637 7.56e-39 243 346 0 0 0 0.45032 0.22182 -0.86487 0.024388
-0.010902 0.20097 1.0633 7.1452e-39 259 346 0 0 0 -0.079734 0.30188 -0.95001 0.038646
0.0077539 0.20026 1.0628 8.021e-39 263 346 0 0 0 0.34877 0.22158 -0.91064 0.034827
0.010658 0.20114 1.0631 6.8532e-39 280 346 0 0 0 0.44792 0.23009 -0.86396 0.025363
0.010862 0.20337 1.0628 7.6522e-39 360.5 346 0 0 0 0.45029 0.22459 -0.86417 0.026542
0.010241 0.20524 1.0628 7.9288e-39 386 346 0 0 0 0.43839 0.23988 -0.86619 0.03443
-0.0071672 0.20772 1.0628 7.1913e-39 403 346 0 0 0 0.036503 0.27321 -0.96126 0.040429
0.010241 0.2071 1.0628 7.56e-39 413.5 346 0 0 0 0.43494 0.25134 -0.86467 0.041407
0.01025 0.20915 1.0637 6.6381e-39 440 346 0 0 0 0.44174 0.25857 -0.85907 0.048347
-0.0053021 0.2127 1.0628 6.6381e-39 158 347 0 0 0 0.071689 0.33853 -0.93822 0.05222
0.0077539 0.21332 1.0628 6.4076e-39 184 347 0 0 0 0.39833 0.27406 -0.87534 0.06916
0.0089973 0.21394 1.0628 6.6381e-39 200 347 0 0 0 0.41456 0.27846 -0.86637 0.07311
-0.0028176 0.21537 1.0637 6.7764e-39 205.5 347 0 0 0 0.087897 0.37329 -0.92354 0.058546
-0.00095092 0.21537 1.0637 6.7303e-39 207 347 0 0 0 0.14782 0.34211 -0.92796 0.063131
0.00029332 0.21518 1.0628 6.5459e-39 210 347 0 0 0 0.19589 0.31452 -0.92882 0.066335
0.0077605 0.21537 1.0637 7.4678e-39 216 347 0 0 0 0.37614 0.30757 -0.87402 0.082151
0.009005 0.21537 1.0637 7.2835e-39 217 347 0 0 0 0.41114 0.29586 -0.86223 0.081021
0.00091514 0.21714 1.0633 7.4679e-39 237 347 0 0 0 0.19644 0.38083 -0.90354 0.07169
0.0027802 0.21767 1.0628 7.1913e-39 246 347 0 0 0 0.21669 0.37922 -0.89958 0.07507
0.0046476 0.21777 1.0633 6.9608e-39 247.5 347 0 0 0 0.25431 0.37698 -0.89062 0.081366
0.006929 0.21697 1.0634 7.4678e-39 239.33 347 0 0 0 0.33231 0.33595 -0.88131 0.086262
0.0015381 0.2191 1.0637 7.6522e-39 256 347 0 0 0 0.16111 0.43743 -0.8847 0.079359
0.0027826 0.2191 1.0637 8.1132e-39 257 347 0 0 0 0.19559 0.42017 -0.88611 0.083179
0.0046493 0.2191 1.0637 8.1593e-39 258.5 347 0 0 0 0.21686 0.41472 -0.88373 0.086954
0.00070787 0.22064 1.0631 7.7444e-39 265.67 347 0 0 0 0.076137 0.46881 -0.88001 0.076268
0.0027814 0.22087 1.0633 7.8827e-39 268.5 347 0 0 0 0.13905 0.48208 -0.86502 0.090865
0.0046485 0.22092 1.0635 7.537e-39 270 347 0 0 0 0.16744 0.47919 -0.86159 0.095822
-0.030845 0.072313 1.0646 7.56e-39 388 317 0 0 0 0.67104 0.20366 -0.7129 0.026132
0.03517 0.081032 1.0646 6.2693e-39 211 323 0 0 0 -0.61571 0.11002 -0.78025 0.018865
0.03517 0.0829 1.0646 7.7444e-39 286.5 323.5 0 0 0 -0.61349 0.087003 -0.7849 0.017646
-0.035828 0.084769 1.0646 6.9147e-39 219 324 0 0 0 0.66738 0.053513 -0.74279 0.024853
0.03517 0.084769 1.0646 8.7586e-39 375 324 0 0 0 -0.61423 0.067973 -0.78619 0.016784
-0.035843 0.086675 1.0651 7.6061e-39 300 324.5 0 0 0 0.67396 0.034565 -0.73796 0.020302
0.03517 0.086015 1.0646 6.6381e-39 182 325 0 0 0 -0.61454 0.059039 -0.78667 0.015925
-0.037073 0.088506 1.0646 9.3118e-39 378 325 0 0 0 0.66507 0.028819 -0.74622 0.026649
0.033953 0.089206 1.0655 7.2835e-39 338.5 325.5 0 0 0 -0.61097 0.034886 -0.79089 0.013071
-0.035859 0.091075 1.0655 8.2054e-39 359 326 0 0 0 0.67293 0.016753 -0.73952 0.016927
0.03517 0.090997 1.0646 6.7303e-39 416 326 0 0 0 -0.63996 -0.0037553 -0.7684 0.010585
-0.035859 0.092322 1.0655 6.5459e-39 436 326 0 0 0 0.67676 0.0056085 -0.73618 0.016153
0.035185 0.092906 1.0651 7.8827e-39 298.5 327 0 0 0 -0.646 -0.024052 -0.76296 0.0092091
-0.035828 0.095979 1.0646 7.0069e-39 197 328 0 0 0 0.69423 -0.012166 -0.71965 0.014594
0.033938 0.095397 1.0651 7.053e-39 221 328 0 0 0 -0.6436 -0.043387 -0.76413 0.0083316
0.03517 0.095356 1.0646 7.0069e-39 222 328 0 0 0 -0.66047 -0.053125 -0.74897 0.0077344
-0.035859 0.097309 1.0655 8.2976e-39 364 328 0 0 0 0.6953 -0.018098 -0.7185 0.014844
0.033315 0.097267 1.0651 7.1452e-39 419.5 328 0 0 0 -0.64192 -0.063974 -0.7641 0.0079194
-0.035859 0.099179 1.0655 7.1451e-39 188.5 329 0 0 0 0.703 -0.029995 -0.71056 0.015067
0.031447 0.099136 1.0651 8.1593e-39 287 329 0 0 0 -0.62476 -0.083092 -0.77638 0.0078075
0.032693 0.099136 1.0651 8.1132e-39 288 329 0 0 0 -0.63551 -0.085982 -0.76729 0.0068097
-0.035859 0.10105 1.0655 7.6522e-39 390 329 0 0 0 0.70531 -0.045527 -0.70744 0.015807
-0.035843 0.10288 1.0651 6.9608e-39 211.5 330 0 0 0 0.71097 -0.059758 -0.70068 0.016002
-0.032931 0.10556 1.0649 6.7303e-39 248 330.67 0 0 0 0.68678 -0.074758 -0.72301 0.019482
0.015241 0.18566 1.0646 7.7444e-39 241 345 0 0 0 0.61202 0.32418 -0.72135 0.0085209
0.016486 0.18566 1.0646 8.021e-39 242 345 0 0 0 0.63675 0.31967 -0.70168 0.0064241
0.015254 0.18707 1.0655 8.2054e-39 262 345 0 0 0 0.61935 0.31367 -0.71974 0.0092772
0.017123 0.18707 1.0655 8.2976e-39 263.5 345 0 0 0 0.65547 0.30747 -0.6898 0.0067536
0.015247 0.18885 1.0651 6.6842e-39 319 345 0 0 0 0.61011 0.29679 -0.73463 0.01191
0.016911 0.18867 1.0652 7.0683e-39 309.33 345 0 0 0 0.64999 0.29407 -0.70074 0.0088031
0.015254 0.19081 1.0655 7.8366e-39 375 345 0 0 0 0.6176 0.27869 -0.73546 0.013132
0.016486 0.19127 1.0646 7.56e-39 388 345 0 0 0 0.62293 0.27919 -0.73076 0.012663
0.013995 0.19313 1.0646 6.7303e-39 429 345 0 0 0 0.56143 0.25704 -0.78659 0.018192
0.015254 0.19205 1.0655 6.8225e-39 399 345 0 0 0 0.61646 0.25979 -0.7433 0.014046
0.0165 0.1933 1.0655 7.0991e-39 431 345 0 0 0 0.63164 0.2555 -0.73195 0.013768
0.011504 0.19562 1.0646 6.4537e-39 160 346 0 0 0 0.48906 0.22385 -0.84304 0.024399
0.01275 0.19438 1.0646 6.9147e-39 138 346 0 0 0 0.53288 0.23367 -0.81329 0.020539
0.011514 0.19704 1.0655 6.3615e-39 199 346 0 0 0 0.51796 0.22021 -0.82657 0.02055
0.010258 0.19812 1.0646 7.4678e-39 220 346 0 0 0 0.45984 0.2209 -0.86009 0.024778
0.011504 0.20061 1.0646 7.4678e-39 266 346 0 0 0 0.48281 0.21999 -0.84764 0.021458
-0.0071858 0.20951 1.0655 7.6522e-39 426 346 0 0 0 -0.00049857 0.30526 -0.95227 0.042999
0.010258 0.21057 1.0646 6.7303e-39 139 347 0 0 0 0.44947 0.26822 -0.85208 0.059166
-0.0053112 0.21431 1.0646 6.4537e-39 174.5 347 0 0 0 0.05215 0.38223 -0.92259 0.056697
-0.0028201 0.2168 1.0646 7.0991e-39 222.5 347 0 0 0 0.065731 0.40296 -0.91286 0.063528
-0.00095174 0.2168 1.0646 7.56e-39 228 347 0 0 0 0.13722 0.40317 -0.90478 0.071464
0.0090206 0.21699 1.0655 7.0069e-39 236 347 0 0 0 0.38426 0.33445 -0.86052 0.094824
-0.0028225 0.21823 1.0655 6.9147e-39 241.5 347 0 0 0 0.039275 0.44885 -0.89274 0.069702
-0.00095256 0.21885 1.0655 6.9608e-39 248.5 347 0 0 0 0.11719 0.45857 -0.8809 0.079414
0.00029383 0.21867 1.0646 7.1913e-39 249.5 347 0 0 0 0.13767 0.43713 -0.8888 0.075549
0.0071478 0.21876 1.0651 7.7905e-39 255 347 0 0 0 0.28373 0.38576 -0.87789 0.094402
0.0069391 0.22102 1.0649 7.2835e-39 270.67 347 0 0 0 0.21057 0.47231 -0.85591 0.10621
-0.030925 0.07375 1.0674 5.9927e-39 391 318 0 0 0 0.64411 0.16652 -0.74659 0.032424
-0.034642 0.074934 1.0665 4.6098e-39 383 319 0 0 0 0.66917 0.16181 -0.72528 0.023987
-0.033423 0.074998 1.0674 4.1488e-39 384 319 0 0 0 0.66915 0.16971 -0.72348 0.024451
-0.034672 0.076871 1.0674 7.5601e-39 293.5 320.5 0 0 0 0.67139 0.13048 -0.72953 0.024215
-0.033423 0.076871 1.0674 7.4679e-39 294.5 320.5 0 0 0 0.66359 0.13863 -0.73514 0.024795
-0.034642 0.079301 1.0665 6.9146e-39 324 321.5 0 0 0 0.65934 0.11264 -0.74336 0.024724
-0.033423 0.07937 1.0674 7.0068e-39 325 321.5 0 0 0 0.65484 0.11208 -0.74741 0.025117
-0.034672 0.081242 1.0674 6.4537e-39 407 322 0 0 0 0.66086 0.094036 -0.74459 0.023283
-0.033423 0.081242 1.0674 6.7303e-39 408 322 0 0 0 0.65197 0.098225 -0.75185 0.023759
-0.034672 0.082491 1.0674 7.2835e-39 229 323 0 0 0 0.65934 0.075872 -0.748 0.022157
-0.033423 0.083116 1.0674 7.5601e-39 315 323 0 0 0 0.65118 0.077898 -0.75491 0.022801
0.034012 0.08374 1.0674 5.9927e-39 195 324 0 0 0 -0.59228 0.098854 -0.79965 0.016943
0.032763 0.084989 1.0674 9.0352e-39 373 324 0 0 0 -0.58085 0.093782 -0.80859 0.016173
0.034012 0.084989 1.0674 8.6664e-39 374 324 0 0 0 -0.5926 0.085037 -0.801 0.016134
0.033373 0.086824 1.0669 7.7214e-39 268 325 0 0 0 -0.59518 0.069226 -0.8006 0.014823
-0.03589 0.089282 1.0665 8.021e-39 282.5 325.5 0 0 0 0.67094 0.021574 -0.7412 0.017543
0.032763 0.089359 1.0674 7.1452e-39 337.5 325.5 0 0 0 -0.59773 0.042734 -0.80056 0.012514
0.033373 0.091193 1.0669 6.7303e-39 414.5 326 0 0 0 -0.60841 0.020204 -0.79336 0.011633
-0.034672 0.09373 1.0674 7.4678e-39 235 327 0 0 0 0.66273 0.0051266 -0.74885 0.017458
0.033373 0.093066 1.0669 7.9058e-39 297 327 0 0 0 -0.61862 -0.009446 -0.78563 0.010296
-0.034672 0.094979 1.0674 7.0069e-39 405 327 0 0 0 0.66459 0.00040364 -0.74721 0.017629
0.031515 0.094979 1.0674 6.4537e-39 175 328 0 0 0 -0.60797 -0.022765 -0.79364 0.0095442
0.032763 0.094979 1.0674 6.1771e-39 176 328 0 0 0 -0.61949 -0.027851 -0.78451 0.0088438
-0.034672 0.096852 1.0674 7.6983e-39 281.5 328 0 0 0 0.66855 -0.011547 -0.74358 0.017844
0.031501 0.096811 1.0669 7.7444e-39 340.5 328 0 0 0 -0.61533 -0.049011 -0.78675 0.0089026
0.032735 0.096145 1.0665 8.021e-39 264 328 0 0 0 -0.62893 -0.049875 -0.77586 0.0086305
-0.034657 0.099307 1.0669 7.053e-39 189.5 329 0 0 0 0.67669 -0.023928 -0.73588 0.018379
0.030266 0.09935 1.0674 8.1593e-39 286 329 0 0 0 -0.60498 -0.092541 -0.79084 0.0084797
-0.034642 0.10114 1.0665 7.8366e-39 391 329 0 0 0 0.68692 -0.040502 -0.72561 0.018009
-0.033423 0.10122 1.0674 7.9288e-39 392 329 0 0 0 0.67003 -0.025688 -0.74189 0.021581
-0.034642 0.103 1.0665 7.514e-39 213.5 330 0 0 0 0.69351 -0.050845 -0.71865 0.018414
-0.032997 0.10327 1.0671 7.4064e-39 229.33 330 0 0 0 0.66643 -0.043203 -0.74432 0.022714
-0.034642 0.10488 1.0665 7.7444e-39 398 330 0 0 0 0.69899 -0.066849 -0.712 0.019295
-0.032146 0.10488 1.0665 6.8225e-39 400 330 0 0 0 0.65567 -0.062583 -0.75245 0.023223
0.015267 0.19347 1.0665 7.0069e-39 430 345 0 0 0 0.61947 0.24761 -0.74495 0.01453
0.012772 0.19596 1.0665 6.4537e-39 161 346 0 0 0 0.55989 0.22248 -0.79814 0.018939
0.01465 0.19479 1.0669 6.8225e-39 139.5 346 0 0 0 0.62321 0.24276 -0.74342 0.014983
0.016529 0.19488 1.0674 6.4537e-39 141 346 0 0 0 0.65288 0.2306 -0.7215 0.013122
0.012783 0.19738 1.0674 6.3615e-39 200 346 0 0 0 0.58017 0.22166 -0.78376 0.017269
0.014031 0.19613 1.0674 6.4537e-39 162 346 0 0 0 0.62056 0.23203 -0.74904 0.015663
0.011524 0.19908 1.0665 7.2835e-39 232.5 346 0 0 0 0.52686 0.21883 -0.8213 0.019297
0.010276 0.21281 1.0665 6.8686e-39 162.5 347 0 0 0 0.45878 0.28005 -0.84326 0.072735
0.010285 0.21486 1.0674 6.6381e-39 201 347 0 0 0 0.44855 0.29249 -0.84454 0.084546
-0.005325 0.21611 1.0674 6.9608e-39 203.5 347 0 0 0 0.0052732 0.44313 -0.89644 0.065912
-0.002825 0.21967 1.0665 7.3757e-39 252.5 347 0 0 0 0.053891 0.48133 -0.87488 0.076478
0.0077807 0.21967 1.0665 7.4678e-39 261 347 0 0 0 0.27523 0.41317 -0.86807 0.10621
0.0090362 0.21924 1.0674 7.6061e-39 256.5 347 0 0 0 0.33212 0.40866 -0.85011 0.11304
0.024043 0.071314 1.0683 9.9571e-39 383 317 0 0 0 -0.35429 0.23437 -0.90529 0.016009
-0.029728 0.072626 1.0692 7.4678e-39 389 317 0 0 0 0.61943 0.138 -0.77283 0.046676
0.021561 0.073252 1.0692 7.2374e-39 374.5 318.5 0 0 0 -0.29757 0.23074 -0.9264 0.012591
0.024683 0.073236 1.069 7.1913e-39 377 318.5 0 0 0 -0.39487 0.22771 -0.89007 0.017649
-0.032202 0.075063 1.0683 3.6878e-39 385 319 0 0 0 0.65289 0.15136 -0.74218 0.029163
-0.030979 0.075128 1.0692 3.6878e-39 386 319 0 0 0 0.63339 0.10203 -0.76707 0.040204
0.024689 0.075128 1.0692 1.0049e-38 357.5 320 0 0 0 -0.41482 0.21916 -0.88312 0.018235
0.026565 0.075128 1.0692 9.7727e-39 359 320 0 0 0 -0.45365 0.22863 -0.86135 0.019969
-0.03223 0.077004 1.0692 7.3296e-39 295.5 320.5 0 0 0 0.64384 0.11037 -0.75716 0.0304
-0.030979 0.077004 1.0692 7.4218e-39 296.5 320.5 0 0 0 0.62762 0.098836 -0.77222 0.037767
0.027816 0.07763 1.0692 7.0069e-39 389 321 0 0 0 -0.50079 0.19271 -0.84384 0.01913
-0.03223 0.078881 1.0692 6.1771e-39 408 321 0 0 0 0.6391 0.10073 -0.7625 0.0291
-0.030979 0.078881 1.0692 7.8366e-39 409 321 0 0 0 0.61865 0.09443 -0.77997 0.032954
0.031542 0.078813 1.0683 6.1771e-39 220 322 0 0 0 -0.56288 0.1627 -0.81037 0.01888
-0.03223 0.080757 1.0692 7.6983e-39 326.5 322 0 0 0 0.63376 0.092621 -0.76796 0.027711
-0.030979 0.080757 1.0692 7.6983e-39 327.5 322 0 0 0 0.61347 0.089039 -0.78468 0.029996
-0.029728 0.081383 1.0692 8.021e-39 411 322 0 0 0 0.58557 0.07477 -0.80716 0.031849
0.031569 0.080757 1.0692 6.9147e-39 300 322.5 0 0 0 -0.56197 0.13273 -0.81644 0.018132
0.032792 0.081313 1.0683 5.9005e-39 209 323 0 0 0 -0.57358 0.12294 -0.80987 0.01811
0.034042 0.081313 1.0683 5.9005e-39 210 323 0 0 0 -0.58878 0.12058 -0.79924 0.018375
-0.034702 0.083812 1.0683 8.2054e-39 399 323 0 0 0 0.65603 0.067939 -0.75167 0.021952
-0.03223 0.08326 1.0692 7.3296e-39 316 323 0 0 0 0.62544 0.071676 -0.77697 0.025399
-0.030979 0.08326 1.0692 7.2835e-39 317 323 0 0 0 0.60151 0.076299 -0.79521 0.02699
0.031569 0.08326 1.0692 7.7905e-39 283.5 323.5 0 0 0 -0.56567 0.11607 -0.81642 0.016765
0.032792 0.083187 1.0683 7.514e-39 284.5 323.5 0 0 0 -0.57461 0.11355 -0.81051 0.017316
0.034042 0.082563 1.0683 8.943e-39 376 323 0 0 0 -0.58795 0.11051 -0.80131 0.017669
-0.034702 0.085062 1.0683 6.9147e-39 220 324 0 0 0 0.65855 0.053982 -0.7506 0.020675
-0.032841 0.085099 1.0688 6.5459e-39 221.5 324 0 0 0 0.63714 0.060898 -0.76834 0.022831
0.031569 0.085136 1.0692 8.8508e-39 372 324 0 0 0 -0.57022 0.10112 -0.81524 0.015719
-0.034702 0.086937 1.0683 7.8366e-39 301 324.5 0 0 0 0.6576 0.037064 -0.75245 0.019243
-0.033054 0.086779 1.0689 8.1747e-39 334.67 324.33 0 0 0 0.63717 0.039319 -0.76972 0.021849
0.031152 0.087221 1.0692 7.4371e-39 266 325 0 0 0 -0.57107 0.088451 -0.81612 0.014138
-0.034732 0.088889 1.0692 9.0352e-39 380 325 0 0 0 0.65643 0.026005 -0.75394 0.018844
-0.033481 0.088889 1.0692 9.0352e-39 381 325 0 0 0 0.63585 0.023689 -0.77145 0.020837
0.03093 0.08885 1.0688 6.3615e-39 432.5 325 0 0 0 -0.57939 0.066794 -0.81231 0.013095
-0.034717 0.090726 1.0688 7.2835e-39 273.5 326 0 0 0 0.65904 0.015004 -0.75195 0.017419
-0.033467 0.090726 1.0688 7.3296e-39 274.5 326 0 0 0 0.64161 0.017011 -0.76684 0.019196
0.03093 0.090726 1.0688 7.4218e-39 326 326 0 0 0 -0.57984 0.045042 -0.81348 0.011984
-0.034702 0.092562 1.0683 6.4537e-39 157 327 0 0 0 0.66008 0.0097967 -0.75113 0.017577
-0.033452 0.093186 1.0683 6.6842e-39 197 327 0 0 0 0.64165 0.0091898 -0.76694 0.019282
0.03093 0.093227 1.0688 7.6753e-39 295 327 0 0 0 -0.59126 0.0096409 -0.80642 0.01017
-0.033452 0.095061 1.0683 7.2835e-39 406 327 0 0 0 0.6439 0.0045377 -0.7651 0.020204
0.029067 0.095144 1.0692 6.6381e-39 173 328 0 0 0 -0.56793 -0.012954 -0.82297 0.0099146
0.030292 0.095061 1.0683 6.5459e-39 174 328 0 0 0 -0.58833 -0.017102 -0.80844 0.0099601
-0.033452 0.096936 1.0683 7.7444e-39 282.5 328 0 0 0 0.64776 -0.0020861 -0.76184 0.020813
0.027816 0.097646 1.0692 6.5459e-39 415 328 0 0 0 -0.55323 -0.063746 -0.83059 0.010267
0.029067 0.09702 1.0692 7.514e-39 338.5 328 0 0 0 -0.56576 -0.047275 -0.82321 0.0096992
0.030292 0.096936 1.0683 7.7444e-39 339.5 328 0 0 0 -0.59635 -0.049877 -0.80117 0.0088809
-0.032841 0.098854 1.0688 6.4998e-39 152.5 329 0 0 0 0.63909 -0.0093421 -0.76908 0.024009
0.027816 0.098897 1.0692 6.4537e-39 204 329 0 0 0 -0.55782 -0.089931 -0.82508 0.010445
0.029042 0.098811 1.0683 6.8225e-39 205 329 0 0 0 -0.57791 -0.076981 -0.81246 0.009278
-0.032637 0.10054 1.0689 7.2835e-39 284 329 0 0 0 0.62937 -0.023061 -0.77676 0.024842
