# .PCD v.7 - Point Cloud Data file format
VERSION .7
FIELDS x y z rgb u v vx vy vz normal_x normal_y normal_z curvature
SIZE 4 4 4 4 4 4 4 4 4 4 4 4 4
TYPE F F F F F F F F F F F F F
COUNT 1 1 1 1 1 1 1 1 1 1 1 1 1
WIDTH 555
HEIGHT 1
VIEWPOINT 0 0 0 1 0 0 0
POINTS 555
DATA ascii
0.30404 0.22273 0.93065 5.67e-39 207.5 369 0 0 0 -0.15169 0.31336 -0.93744 0.0033577
0.30657 0.22291 0.93065 6.0542e-39 226.33 369 0 0 0 -0.1387 0.30847 -0.94107 0.0033263
0.30893 0.22327 0.93065 6.0849e-39 267.5 369 0 0 0 -0.13094 0.30669 -0.94276 0.0032991
0.31601 0.22273 0.93065 5.9927e-39 225.5 369 0 0 0 -0.11038 0.29373 -0.94949 0.0027264
0.31874 0.22272 0.93065 5.8544e-39 228 369 0 0 0 -0.1062 0.29357 -0.95002 0.0029663
0.30143 0.22445 0.931 5.9466e-39 406.5 369 0 0 0 -0.16925 0.32419 -0.93073 0.0033466
0.30274 0.2252 0.93112 6.761e-39 275 369.67 0 0 0 -0.16662 0.32455 -0.93108 0.0033851
0.30448 0.22514 0.93088 7.222e-39 276.67 369.67 0 0 0 -0.15492 0.31913 -0.93496 0.0034799
0.30681 0.22495 0.93082 7.6061e-39 312 369.5 0 0 0 -0.14085 0.31184 -0.93964 0.0034761
0.30893 0.2249 0.93065 7.2835e-39 314 369.5 0 0 0 -0.1333 0.30657 -0.94247 0.0033853
0.31093 0.22509 0.93065 6.7917e-39 282.67 369.67 0 0 0 -0.12683 0.30392 -0.94422 0.0032432
0.3133 0.2249 0.93065 6.7533e-39 322.5 369.5 0 0 0 -0.12426 0.29938 -0.94601 0.0029576
0.31492 0.22545 0.93065 6.3615e-39 220 370 0 0 0 -0.11993 0.2939 -0.94828 0.0029014
0.31661 0.22495 0.93082 5.7391e-39 330.5 369.5 0 0 0 -0.11436 0.29205 -0.94954 0.0028008
0.31863 0.22478 0.93088 5.9312e-39 370 369.33 0 0 0 -0.10598 0.28954 -0.95128 0.0027377
0.30318 0.22671 0.93135 7.0991e-39 352 370 0 0 0 -0.16665 0.32742 -0.93006 0.0033758
0.30492 0.22702 0.93112 6.3308e-39 291 370.33 0 0 0 -0.15699 0.32327 -0.93319 0.0034211
0.30699 0.22726 0.93135 6.2232e-39 261.5 370.5 0 0 0 -0.14769 0.31942 -0.93603 0.0036114
0.30911 0.22721 0.93117 6.131e-39 263.5 370.5 0 0 0 -0.13906 0.31271 -0.93961 0.0035965
0.31117 0.22713 0.93082 6.3384e-39 265.5 370.5 0 0 0 -0.13037 0.30718 -0.94268 0.0034832
0.31319 0.22696 0.93088 6.7918e-39 298.67 370.33 0 0 0 -0.12707 0.30077 -0.9452 0.0032333
0.31464 0.22732 0.93088 6.5459e-39 237.33 370.67 0 0 0 -0.12636 0.30067 -0.94532 0.0031976
0.31679 0.22726 0.93135 6.8455e-39 270.5 370.5 0 0 0 -0.1194 0.29739 -0.94726 0.0032161
0.31843 0.22726 0.93135 6.7303e-39 272 370.5 0 0 0 -0.11299 0.29314 -0.94937 0.0029901
0.32073 0.22726 0.93065 6.0542e-39 243 370.67 0 0 0 -0.10355 0.28735 -0.95221 0.0029489
0.32255 0.22708 0.93065 6.5919e-39 276 370.5 0 0 0 -0.10226 0.28445 -0.95322 0.0030357
0.32581 0.22762 0.93065 5.3473e-39 185 371 0 0 0 -0.10563 0.27745 -0.95492 0.0033293
0.30536 0.22889 0.93135 5.8083e-39 279 371 0 0 0 -0.16039 0.3285 -0.93079 0.0033473
0.30699 0.22889 0.93135 5.5778e-39 280.5 371 0 0 0 -0.15213 0.32452 -0.93356 0.0034773
0.30862 0.22889 0.93135 5.9005e-39 282 371 0 0 0 -0.14529 0.31995 -0.93623 0.0036518
0.31153 0.22925 0.93135 6.6381e-39 333 371 0 0 0 -0.13616 0.31391 -0.93964 0.0035952
0.31298 0.22943 0.93135 6.3615e-39 358.5 371 0 0 0 -0.13236 0.31044 -0.94133 0.0036048
0.31462 0.22943 0.93135 6.1541e-39 361.5 371 0 0 0 -0.12844 0.30768 -0.94278 0.0035777
0.31698 0.22925 0.93135 6.2386e-39 339 371 0 0 0 -0.12004 0.30154 -0.94587 0.0034462
0.31843 0.22943 0.93135 5.9927e-39 365 371 0 0 0 -0.11624 0.29965 -0.94694 0.0034085
0.32098 0.2293 0.93082 5.6239e-39 367.5 371 0 0 0 -0.10702 0.29141 -0.95059 0.0032934
0.32291 0.22944 0.93065 5.7161e-39 394 371 0 0 0 -0.10538 0.28754 -0.95195 0.0032693
0.32526 0.22925 0.93065 6.108e-39 371.5 371 0 0 0 -0.10668 0.27913 -0.95431 0.0032732
0.32116 0.23106 0.93135 6.2232e-39 244.5 372 0 0 0 -0.11027 0.29586 -0.94884 0.003605
0.32322 0.23098 0.931 6.5459e-39 246.5 372 0 0 0 -0.10793 0.28858 -0.95135 0.0035106
0.32472 0.23089 0.93065 6.8225e-39 248 372 0 0 0 -0.10822 0.28261 -0.95311 0.0033735
0.32696 0.23148 0.93082 7.076e-39 320 372 0 0 0 -0.11117 0.27714 -0.95438 0.0034767
0.32908 0.23144 0.93065 6.5459e-39 322 372 0 0 0 -0.11399 0.27067 -0.9559 0.0034519
0.33072 0.23198 0.93065 7.4218e-39 393.5 372 0 0 0 -0.11691 0.25818 -0.959 0.0032195
0.32134 0.23251 0.93135 7.4986e-39 317 372.33 0 0 0 -0.11367 0.2995 -0.9473 0.0039246
0.32352 0.23251 0.93135 7.7752e-39 319 372.33 0 0 0 -0.11164 0.28916 -0.95075 0.0037662
0.32497 0.23269 0.93135 6.8224e-39 286.5 372.5 0 0 0 -0.11045 0.28493 -0.95216 0.0036644
0.32707 0.23282 0.93112 6.8225e-39 254.67 372.67 0 0 0 -0.11201 0.27633 -0.95451 0.0035814
0.32933 0.23324 0.93135 6.1771e-39 189 373 0 0 0 -0.1185 0.27233 -0.95488 0.0035546
0.33072 0.23307 0.93065 5.5778e-39 190.5 373 0 0 0 -0.12001 0.26247 -0.95745 0.0033296
0.33235 0.23307 0.93065 5.3473e-39 192 373 0 0 0 -0.11585 0.25633 -0.95962 0.003127
0.32497 0.23433 0.93135 6.2693e-39 293 373 0 0 0 -0.1168 0.29042 -0.94974 0.0038663
0.32715 0.23433 0.93135 6.3615e-39 295 373 0 0 0 -0.11468 0.28438 -0.95183 0.0038562
0.32879 0.23487 0.93135 5.67e-39 361 373 0 0 0 -0.1201 0.27961 -0.95257 0.0038203
0.33084 0.23479 0.931 5.6239e-39 364 373 0 0 0 -0.11832 0.26929 -0.95576 0.0035545
0.33248 0.23479 0.931 5.6239e-39 365.5 373 0 0 0 -0.11856 0.26468 -0.95702 0.0035465
0.33078 0.23687 0.93135 6.8839e-39 256.67 374 0 0 0 -0.11963 0.28239 -0.95181 0.0040138
0.25954 0.1398 0.93311 6.3154e-39 424.5 339 0 0 0 -0.066645 -0.89448 -0.44212 0.017951
0.26127 0.13985 0.93346 5.9927e-39 426 339 0 0 0 -0.048455 -0.90173 -0.42958 0.017273
0.26236 0.13985 0.93346 5.7161e-39 427 339 0 0 0 -0.041694 -0.90318 -0.42724 0.017783
0.26509 0.13985 0.93346 5.7161e-39 429.5 339 0 0 0 -0.015922 -0.91012 -0.41403 0.015494
0.26708 0.13975 0.93276 6.1771e-39 431.5 339 0 0 0 0.0030303 -0.90643 -0.42234 0.015164
0.26892 0.13985 0.93346 6.0849e-39 433 339 0 0 0 0.015387 -0.91732 -0.39786 0.010402
0.27097 0.13978 0.93299 5.7468e-39 435 339 0 0 0 0.028097 -0.91455 -0.4035 0.010615
0.27253 0.1392 0.93275 5.8083e-39 399 339 0 0 0 0.04017 -0.92447 -0.37914 0.0072119
0.3032 0.1398 0.93311 5.3934e-39 198.5 340 0 0 0 -0.036515 -0.90966 -0.41374 0.0073453
0.30496 0.13985 0.93346 5.0708e-39 200 340 0 0 0 -0.043158 -0.90292 -0.42763 0.0070967
0.30659 0.13985 0.93346 5.3012e-39 201.5 340 0 0 0 -0.03559 -0.89777 -0.43902 0.0070802
0.30866 0.1398 0.93311 5.3012e-39 203.5 340 0 0 0 -0.020568 -0.89075 -0.45403 0.0063492
0.31085 0.13926 0.93311 5.9928e-39 304 339.5 0 0 0 -0.008293 -0.88497 -0.46558 0.0058843
0.31273 0.13938 0.93276 5.7469e-39 274.67 339.67 0 0 0 0.0082614 -0.88156 -0.472 0.0055798
0.24252 0.14193 0.93276 5.9005e-39 359 340 0 0 0 -0.47219 -0.70543 -0.52859 0.068563
0.25035 0.14094 0.93346 6.9147e-39 228 340 0 0 0 -0.19638 -0.82784 -0.52547 0.043526
0.25253 0.14094 0.93346 7.1913e-39 230 340 0 0 0 -0.16956 -0.83486 -0.5237 0.03889
0.25716 0.14133 0.9324 6.4537e-39 303.5 340 0 0 0 -0.13293 -0.84097 -0.52449 0.034755
0.26306 0.14073 0.93205 7.4678e-39 251 340 0 0 0 -0.044441 -0.88101 -0.47101 0.025937
0.27396 0.14073 0.93205 5.6239e-39 261 340 0 0 0 0.041943 -0.91155 -0.40903 0.01143
0.27505 0.14073 0.93205 5.8083e-39 262 340 0 0 0 0.045661 -0.91363 -0.40398 0.010827
0.27941 0.14182 0.93205 7.6522e-39 393 340 0 0 0 0.047208 -0.91894 -0.39155 0.010993
0.29468 0.14182 0.93205 6.3615e-39 407 340 0 0 0 -0.013743 -0.93289 -0.3599 0.0070143
0.29654 0.14193 0.93276 5.9927e-39 408.5 340 0 0 0 -0.020268 -0.92907 -0.36936 0.0073476
0.29873 0.14138 0.93276 7.0991e-39 373.5 340 0 0 0 -0.026021 -0.92343 -0.38288 0.0076684
0.30085 0.14136 0.93258 6.8455e-39 375.5 340 0 0 0 -0.02973 -0.91871 -0.3938 0.0078306
0.30297 0.14078 0.9324 8.0671e-39 340.5 340 0 0 0 -0.029782 -0.91211 -0.40887 0.0078175
0.30516 0.14078 0.9324 7.5601e-39 342.5 340 0 0 0 -0.031202 -0.90602 -0.42208 0.0076007
0.30734 0.14078 0.9324 7.8366e-39 344.5 340 0 0 0 -0.024405 -0.89896 -0.43735 0.0072573
0.30886 0.14073 0.93205 7.6522e-39 346 340 0 0 0 -0.013588 -0.89373 -0.44839 0.0066318
0.31346 0.14084 0.93276 7.56e-39 350 340 0 0 0 0.013595 -0.87994 -0.47488 0.0055052
0.31509 0.14138 0.93275 6.7303e-39 390.5 340 0 0 0 0.026851 -0.87792 -0.47806 0.0054923
0.31716 0.14187 0.9324 5.9927e-39 431.5 340 0 0 0 0.035625 -0.87189 -0.4884 0.0053716
0.31913 0.14127 0.93276 7.265e-39 386.4 340 0 0 0 0.039591 -0.86784 -0.49526 0.0049477
0.32085 0.14073 0.93205 6.7303e-39 357 340 0 0 0 0.046624 -0.86577 -0.49827 0.0051005
0.24343 0.14291 0.93205 5.9005e-39 439 340 0 0 0 -0.47508 -0.67916 -0.55951 0.071226
0.24516 0.14351 0.9324 6.0849e-39 357 340.5 0 0 0 -0.44526 -0.69043 -0.57013 0.071915
0.28311 0.14204 0.93346 7.2835e-39 396 340 0 0 0 0.045725 -0.93677 -0.34694 0.0049391
0.28475 0.14204 0.93346 7.053e-39 397.5 340 0 0 0 0.039379 -0.93867 -0.34256 0.0050091
0.28705 0.14291 0.93205 4.8864e-39 212 341 0 0 0 0.026142 -0.93483 -0.35413 0.0063762
0.28901 0.14253 0.93311 6.085e-39 307.5 340.5 0 0 0 0.021152 -0.93993 -0.34072 0.0058232
0.29076 0.14204 0.93346 7.1913e-39 403 340 0 0 0 0.0098573 -0.9373 -0.34839 0.0063212
0.29294 0.14204 0.93346 7.3757e-39 405 340 0 0 0 -0.0073343 -0.93472 -0.35532 0.0066622
0.29403 0.14204 0.93346 7.0069e-39 406 340 0 0 0 -0.010682 -0.93214 -0.36195 0.0067169
0.2358 0.15927 0.93205 8.1132e-39 462 345 0 0 0 -0.66392 0.032123 -0.74711 0.027201
0.23689 0.15927 0.93205 8.1132e-39 463 345 0 0 0 -0.65948 0.030534 -0.7511 0.028589
0.2353 0.16093 0.93223 7.6753e-39 315 346 0 0 0 -0.62903 0.10181 -0.77069 0.016147
0.23748 0.16093 0.93223 7.7675e-39 317 346 0 0 0 -0.61433 0.097843 -0.78296 0.016915
0.23534 0.16315 0.9324 6.7533e-39 382.75 346.5 0 0 0 -0.60468 0.12723 -0.78624 0.013915
0.23752 0.16315 0.9324 6.3384e-39 385 346.5 0 0 0 -0.58374 0.14137 -0.79954 0.013034
0.23534 0.16533 0.9324 5.7852e-39 326.5 347.5 0 0 0 -0.59441 0.12255 -0.79477 0.013289
0.23752 0.16533 0.9324 6.0849e-39 328.5 347.5 0 0 0 -0.57288 0.13637 -0.80821 0.012857
0.23907 0.16526 0.93205 6.4998e-39 330 347.5 0 0 0 -0.55518 0.1503 -0.81804 0.012598
0.23513 0.16731 0.93229 6.4229e-39 417.67 348 0 0 0 -0.58649 0.12672 -0.79998 0.012495
0.23768 0.16731 0.93229 6.4537e-39 296.67 348.33 0 0 0 -0.56393 0.13998 -0.81387 0.011812
0.23907 0.16745 0.93205 6.1311e-39 259 348.5 0 0 0 -0.54744 0.14669 -0.82389 0.011522
0.24016 0.16799 0.93205 5.5317e-39 143 349 0 0 0 -0.52905 0.15761 -0.83383 0.011881
0.23561 0.16885 0.93276 5.4703e-39 362 348.67 0 0 0 -0.57914 0.1343 -0.80409 0.011554
0.23737 0.1688 0.93252 5.1015e-39 363.67 348.67 0 0 0 -0.56388 0.14159 -0.81363 0.011382
0.23907 0.16908 0.93205 7.6522e-39 334 349 0 0 0 -0.5437 0.1509 -0.8256 0.011172
0.24016 0.16908 0.93205 7.6522e-39 335 349 0 0 0 -0.52476 0.16137 -0.83581 0.011595
0.23542 0.17085 0.93276 6.7073e-39 345.5 349.5 0 0 0 -0.57023 0.14117 -0.80927 0.011916
0.23707 0.17085 0.93276 7.3296e-39 347 349.5 0 0 0 -0.56187 0.15186 -0.81316 0.011356
0.23871 0.17085 0.93276 7.3757e-39 348.5 349.5 0 0 0 -0.54142 0.16044 -0.8253 0.011385
0.24016 0.17072 0.93205 7.3296e-39 350 349.5 0 0 0 -0.52238 0.1674 -0.83612 0.011344
0.23542 0.17248 0.93276 7.3757e-39 386.5 350 0 0 0 -0.56611 0.15182 -0.81023 0.012081
0.23707 0.17303 0.93276 5.8544e-39 449.5 350 0 0 0 -0.548 0.16492 -0.82006 0.012162
0.23871 0.17303 0.93276 5.1169e-39 451 350 0 0 0 -0.52873 0.17527 -0.83049 0.011999
0.24016 0.17289 0.93205 4.7481e-39 452.5 350 0 0 0 -0.51518 0.1797 -0.83804 0.012009
0.23737 0.17499 0.93252 6.5766e-39 337 351 0 0 0 -0.53456 0.17843 -0.82608 0.012748
0.23889 0.1754 0.93276 6.5766e-39 386 351 0 0 0 -0.51997 0.19098 -0.83256 0.012728
0.24016 0.17509 0.93205 7.2374e-39 363.5 351 0 0 0 -0.50504 0.19217 -0.84143 0.012881
0.23567 0.17726 0.93299 5.8391e-39 278.33 352 0 0 0 -0.55099 0.18003 -0.81486 0.013386
0.23707 0.1774 0.93276 6.085e-39 302.5 352 0 0 0 -0.53604 0.18654 -0.82333 0.01332
0.23871 0.1774 0.93276 6.2463e-39 304 352 0 0 0 -0.51611 0.19725 -0.8335 0.013717
0.24034 0.1774 0.93276 6.0388e-39 305.5 352 0 0 0 -0.4969 0.2046 -0.84334 0.013744
0.23536 0.17876 0.93323 6.4844e-39 450.67 352 0 0 0 -0.55473 0.18879 -0.81033 0.01431
0.23725 0.17917 0.93346 5.6239e-39 493 352 0 0 0 -0.52749 0.2007 -0.82551 0.014877
0.23889 0.17917 0.93346 5.5317e-39 494.5 352 0 0 0 -0.50574 0.21311 -0.83595 0.014744
0.24034 0.17903 0.93276 5.4395e-39 496 352 0 0 0 -0.48396 0.21933 -0.84716 0.013998
0.24234 0.17944 0.93205 5.2551e-39 388.5 352.5 0 0 0 -0.45432 0.23822 -0.8584 0.013657
0.2367 0.18026 0.93346 5.163e-39 273.5 353 0 0 0 -0.52161 0.21645 -0.82527 0.014547
0.23889 0.18026 0.93346 5.2091e-39 275.5 353 0 0 0 -0.49507 0.22412 -0.83945 0.014273
0.2407 0.18085 0.93276 5.6239e-39 366 353 0 0 0 -0.45982 0.24294 -0.85414 0.013543
0.24234 0.18108 0.93205 5.6239e-39 424 353 0 0 0 -0.43501 0.25496 -0.86358 0.012589
0.24107 0.18267 0.93276 6.2385e-39 247 354 0 0 0 -0.44894 0.26037 -0.85479 0.0128
0.24293 0.18275 0.93223 6.6842e-39 273.5 354 0 0 0 -0.41306 0.27646 -0.86773 0.011286
0.24152 0.1851 0.93311 6.7764e-39 345.5 354.5 0 0 0 -0.42375 0.2945 -0.85657 0.011075
0.24302 0.185 0.93258 7.2374e-39 347 354.5 0 0 0 -0.40587 0.29764 -0.86411 0.010258
0.24452 0.18544 0.93205 6.7303e-39 245 355 0 0 0 -0.37855 0.30657 -0.87333 0.0093263
0.24325 0.18681 0.93346 5.0247e-39 375.5 355 0 0 0 -0.39522 0.31622 -0.86244 0.0091814
0.24501 0.18735 0.93252 5.501e-39 455.33 355 0 0 0 -0.36403 0.32726 -0.872 0.0077145
0.2458 0.1894 0.93276 5.6239e-39 343 356 0 0 0 -0.35578 0.33593 -0.87211 0.0073052
0.24724 0.1898 0.93205 5.6239e-39 411.5 356 0 0 0 -0.34205 0.33526 -0.87784 0.0073902
0.24888 0.1898 0.93205 5.7161e-39 414 356 0 0 0 -0.33218 0.33391 -0.88213 0.0072599
0.24598 0.19118 0.93346 6.2693e-39 207 357 0 0 0 -0.35978 0.33983 -0.86895 0.0071723
0.24734 0.19096 0.9324 5.9005e-39 208.5 357 0 0 0 -0.34778 0.33613 -0.87525 0.0071146
0.24888 0.19144 0.93205 5.8083e-39 281 357 0 0 0 -0.33544 0.33308 -0.88121 0.0071529
0.24598 0.19227 0.93346 6.7303e-39 349 357 0 0 0 -0.363 0.34176 -0.86686 0.0071165
0.24744 0.19268 0.93276 6.7072e-39 403 357 0 0 0 -0.35355 0.33676 -0.87269 0.0069303
0.24907 0.19322 0.93276 8.021e-39 457 357 0 0 0 -0.34247 0.33085 -0.87935 0.0070326
0.25269 0.19307 0.93205 8.5742e-39 460.5 357 0 0 0 -0.30952 0.32153 -0.89488 0.0070216
0.25488 0.19307 0.93205 7.9749e-39 462.5 357 0 0 0 -0.28831 0.31523 -0.90416 0.0068891
0.25652 0.19307 0.93205 7.56e-39 464 357 0 0 0 -0.27382 0.311 -0.91011 0.0064604
0.24707 0.19446 0.93346 7.0991e-39 261 358 0 0 0 -0.36233 0.33472 -0.86987 0.0070513
0.24912 0.19462 0.93293 6.592e-39 296 358 0 0 0 -0.34828 0.32841 -0.87798 0.0068523
0.25076 0.19494 0.93229 6.423e-39 352.67 358 0 0 0 -0.3342 0.32149 -0.88598 0.0068359
0.25279 0.19478 0.9324 6.3154e-39 332.5 358 0 0 0 -0.31578 0.31836 -0.89383 0.0069537
0.25498 0.19478 0.9324 6.2923e-39 334.5 358 0 0 0 -0.29287 0.31206 -0.90379 0.0067071
0.25695 0.19494 0.93229 6.3615e-39 358.33 358 0 0 0 -0.2751 0.30762 -0.91087 0.0063631
0.25979 0.19471 0.93205 6.6381e-39 339 358 0 0 0 -0.24149 0.3016 -0.92235 0.0049671
0.26088 0.19525 0.93205 6.3615e-39 406 358 0 0 0 -0.23304 0.2961 -0.92629 0.0042852
0.25085 0.19715 0.93328 6.108e-39 243.5 359 0 0 0 -0.34568 0.3177 -0.88294 0.0067546
0.25303 0.19715 0.93328 6.0849e-39 245.5 359 0 0 0 -0.32381 0.31445 -0.89234 0.0067188
0.25526 0.19718 0.93346 5.9927e-39 247.5 359 0 0 0 -0.30013 0.30997 -0.90213 0.0066339
0.25721 0.197 0.93258 6.108e-39 249.5 359 0 0 0 -0.27818 0.30614 -0.91044 0.0062162
0.25998 0.19703 0.93276 6.3615e-39 270.5 359 0 0 0 -0.2459 0.30188 -0.92109 0.0049392
0.26088 0.19688 0.93205 6.6381e-39 274.5 359 0 0 0 -0.23745 0.29857 -0.92438 0.004524
0.25144 0.19883 0.93346 8.5742e-39 439 359 0 0 0 -0.34216 0.31554 -0.88507 0.0068816
0.25581 0.19883 0.93346 8.5742e-39 443 359 0 0 0 -0.29811 0.3085 -0.9033 0.0064099
0.25726 0.19923 0.93276 7.537e-39 350 359.5 0 0 0 -0.28475 0.3085 -0.9076 0.005971
0.25913 0.19894 0.93229 7.6522e-39 383.33 359.33 0 0 0 -0.26024 0.30524 -0.91603 0.0052651
0.26125 0.1993 0.93262 7.5047e-39 335.2 359.6 0 0 0 -0.24112 0.30193 -0.92233 0.0044291
0.26306 0.19962 0.93205 7.2835e-39 261 360 0 0 0 -0.22308 0.29833 -0.92803 0.0034267
0.25745 0.20101 0.93346 7.0991e-39 382.5 360 0 0 0 -0.28117 0.31213 -0.90748 0.0055183
0.25889 0.20086 0.93276 5.9927e-39 384 360 0 0 0 -0.26246 0.30985 -0.91384 0.0049431
0.26072 0.20101 0.93346 5.4395e-39 385.5 360 0 0 0 -0.24935 0.30984 -0.91751 0.0045888
0.26283 0.20117 0.93252 5.624e-39 307.33 360.33 0 0 0 -0.23173 0.3047 -0.92383 0.0038793
0.26451 0.20144 0.93205 5.7776e-39 228.67 360.67 0 0 0 -0.2146 0.30002 -0.92948 0.0026992
0.25909 0.2021 0.93346 5.9927e-39 143 361 0 0 0 -0.26535 0.31257 -0.91208 0.0047861
0.26127 0.20265 0.93346 6.7764e-39 240.5 361 0 0 0 -0.24659 0.31154 -0.91768 0.0041216
0.26266 0.20278 0.93323 6.9147e-39 273.67 361 0 0 0 -0.2367 0.3085 -0.9213 0.0038119
0.26488 0.20325 0.93205 6.9454e-39 373.33 361 0 0 0 -0.21172 0.30512 -0.92848 0.0022295
0.26633 0.20398 0.93205 8.482e-39 443 361 0 0 0 -0.20829 0.30701 -0.92863 0.0021504
0.26346 0.20483 0.93346 6.7303e-39 343.5 361.5 0 0 0 -0.23004 0.31674 -0.92019 0.0029837
0.26478 0.20491 0.93299 6.6073e-39 313 361.67 0 0 0 -0.22009 0.3139 -0.92359 0.00239
0.26687 0.20507 0.93205 7.053e-39 251.5 362 0 0 0 -0.21054 0.3103 -0.92703 0.0020483
0.27069 0.20507 0.93205 6.6381e-39 255 362 0 0 0 -0.20115 0.30828 -0.92978 0.001796
0.26346 0.20702 0.93346 5.67e-39 274 362.5 0 0 0 -0.23328 0.32468 -0.9166 0.00274
0.26504 0.20697 0.93328 5.7161e-39 275.75 362.5 0 0 0 -0.22166 0.32125 -0.92069 0.0020586
0.26697 0.20678 0.9324 5.6701e-39 282.5 362.5 0 0 0 -0.21155 0.31785 -0.92424 0.0020309
0.26906 0.20671 0.93205 6.0158e-39 289 362.5 0 0 0 -0.20345 0.31425 -0.92728 0.0019108
0.27112 0.20694 0.93229 6.0234e-39 257 362.67 0 0 0 -0.20207 0.3157 -0.92709 0.0018479
0.26728 0.20865 0.93346 5.9005e-39 345.5 363 0 0 0 -0.21324 0.32766 -0.92042 0.0018261
0.26925 0.2085 0.93276 5.9927e-39 347.5 363 0 0 0 -0.20674 0.32436 -0.92307 0.0018133
0.27116 0.20919 0.9329 6.3984e-39 422.4 363 0 0 0 -0.20337 0.32495 -0.9236 0.0017702
0.27347 0.20892 0.93223 6.7072e-39 412.5 363 0 0 0 -0.20479 0.32301 -0.92397 0.0018294
0.27505 0.20943 0.93205 6.1771e-39 475 363 0 0 0 -0.20405 0.32477 -0.92352 0.0018268
0.27723 0.20888 0.93205 7.0529e-39 423 363 0 0 0 -0.20019 0.32313 -0.92494 0.0018641
0.27832 0.20943 0.93205 5.7161e-39 493 363 0 0 0 -0.20037 0.32309 -0.92491 0.0018822
0.27285 0.21115 0.93323 5.7161e-39 338 364 0 0 0 -0.20435 0.33474 -0.91989 0.0016732
0.27477 0.21126 0.93293 5.3243e-39 367.5 364 0 0 0 -0.20407 0.33599 -0.91949 0.0017008
0.27679 0.21114 0.9324 5.5087e-39 369.5 364 0 0 0 -0.20145 0.33226 -0.92143 0.0017942
0.27892 0.21111 0.93223 6.0619e-39 371.5 364 0 0 0 -0.20114 0.33045 -0.92214 0.0018423
0.28051 0.21161 0.93205 6.0849e-39 456 364 0 0 0 -0.2014 0.3301 -0.92221 0.0018567
0.27547 0.21302 0.93346 4.8864e-39 250 365 0 0 0 -0.20299 0.34081 -0.91796 0.0015237
0.277 0.21294 0.93311 5.2551e-39 251.5 365 0 0 0 -0.20352 0.33967 -0.91826 0.0016011
0.27919 0.21294 0.93311 6.6842e-39 253.5 365 0 0 0 -0.20353 0.33741 -0.91909 0.0016959
0.28116 0.21332 0.9324 7.1451e-39 329.5 365 0 0 0 -0.20454 0.33429 -0.92001 0.0017605
0.28329 0.21328 0.93223 7.4909e-39 331.5 365 0 0 0 -0.20507 0.32909 -0.92176 0.0018295
0.28541 0.21379 0.93205 8.021e-39 407.5 365 0 0 0 -0.20561 0.32465 -0.92322 0.0018396
0.28705 0.21379 0.93205 7.8366e-39 409 365 0 0 0 -0.20576 0.32012 -0.92476 0.0017541
0.27765 0.21466 0.93346 6.6842e-39 295.5 365.5 0 0 0 -0.20498 0.34219 -0.917 0.0015374
0.27929 0.21466 0.93346 6.8225e-39 297 365.5 0 0 0 -0.20558 0.34173 -0.91704 0.0015378
0.28126 0.21504 0.93276 6.1771e-39 194.5 366 0 0 0 -0.20694 0.34012 -0.91733 0.0016148
0.28334 0.21496 0.9324 6.6842e-39 199 366 0 0 0 -0.20924 0.33479 -0.91877 0.0017371
0.28541 0.21488 0.93205 7.053e-39 203.5 366 0 0 0 -0.20908 0.32891 -0.92092 0.0017858
0.28705 0.21488 0.93205 6.4537e-39 207 366 0 0 0 -0.20808 0.32474 -0.92263 0.0018068
0.28814 0.21597 0.93205 6.8225e-39 361 366 0 0 0 -0.21012 0.32259 -0.92292 0.0018418
0.27984 0.2163 0.93346 7.0069e-39 353 366 0 0 0 -0.20721 0.34478 -0.91553 0.0015229
0.28093 0.2163 0.93346 6.9147e-39 354 366 0 0 0 -0.20878 0.34368 -0.91559 0.0015708
0.28285 0.2167 0.93332 6.6934e-39 271.4 366.4 0 0 0 -0.21293 0.34212 -0.91521 0.0015377
0.28486 0.21697 0.93323 6.4844e-39 217 366.67 0 0 0 -0.21465 0.33749 -0.91653 0.0016326
0.28683 0.21677 0.93311 6.3154e-39 254 366.5 0 0 0 -0.21583 0.33345 -0.91773 0.0018092
0.28879 0.21714 0.9324 6.2693e-39 150.5 367 0 0 0 -0.212 0.32635 -0.92117 0.0019078
0.28639 0.21848 0.93346 5.9005e-39 255 367 0 0 0 -0.22005 0.33838 -0.91492 0.0017
0.28901 0.21895 0.93311 6.9839e-39 331.5 367 0 0 0 -0.21715 0.33297 -0.91759 0.0018919
0.29098 0.21878 0.9324 7.0991e-39 333.5 367 0 0 0 -0.20898 0.32685 -0.92168 0.0019792
0.29304 0.21869 0.93205 7.1451e-39 335.5 367 0 0 0 -0.20504 0.32172 -0.92437 0.0019947
0.29468 0.21924 0.93205 7.8366e-39 411 367 0 0 0 -0.20028 0.31976 -0.92609 0.0022755
0.28923 0.22098 0.93323 6.8839e-39 244.67 368 0 0 0 -0.22015 0.3371 -0.91537 0.0018166
0.29109 0.22105 0.93276 7.0299e-39 271.25 368 0 0 0 -0.21465 0.33416 -0.91775 0.0019293
0.29326 0.22105 0.93276 7.0529e-39 273.5 368 0 0 0 -0.20824 0.32972 -0.92082 0.0021131
0.29522 0.22087 0.93205 7.4218e-39 275.5 368 0 0 0 -0.20037 0.32503 -0.92423 0.002361
0.29741 0.22087 0.93205 7.2374e-39 277.5 368 0 0 0 -0.18761 0.32187 -0.92801 0.0027181
0.29131 0.2234 0.93346 5.2321e-39 358 368.5 0 0 0 -0.21698 0.33853 -0.9156 0.001805
0.29316 0.2231 0.93299 5.6239e-39 397.67 368.33 0 0 0 -0.21446 0.33616 -0.91706 0.001958
0.2949 0.22323 0.93276 5.5087e-39 280.25 368.75 0 0 0 -0.20517 0.33278 -0.92041 0.002254
0.29698 0.22315 0.9324 5.8544e-39 200.5 369 0 0 0 -0.19428 0.3297 -0.92388 0.0026337
0.29861 0.22369 0.9324 5.2551e-39 251.5 369 0 0 0 -0.18815 0.32924 -0.92531 0.0028035
0.30013 0.22361 0.93205 5.6239e-39 253 369 0 0 0 -0.17762 0.32636 -0.92841 0.003143
0.29294 0.22504 0.93346 7.8366e-39 398 369 0 0 0 -0.21545 0.3402 -0.91534 0.0018325
0.29447 0.22495 0.93311 7.1452e-39 399.5 369 0 0 0 -0.2103 0.3396 -0.91676 0.0020356
0.29654 0.22487 0.93276 6.7303e-39 401.5 369 0 0 0 -0.19974 0.3357 -0.92055 0.0023657
0.29861 0.22533 0.9324 7.1682e-39 303.5 369.5 0 0 0 -0.18972 0.33366 -0.92341 0.0026535
0.30049 0.22543 0.93205 6.4844e-39 272.33 369.67 0 0 0 -0.17759 0.33022 -0.92705 0.0031541
0.31976 0.22579 0.93205 6.1771e-39 224 370 0 0 0 -0.10625 0.28966 -0.95121 0.0028705
0.29513 0.22613 0.93346 6.7303e-39 200 370 0 0 0 -0.20945 0.34157 -0.91622 0.0020353
0.29676 0.22667 0.93346 7.6522e-39 273.5 370 0 0 0 -0.20434 0.3405 -0.91777 0.0021366
0.29884 0.22714 0.93311 7.9749e-39 347.5 370 0 0 0 -0.19154 0.33657 -0.92197 0.0025548
0.30079 0.22697 0.9324 8.2054e-39 349.5 370 0 0 0 -0.1798 0.3336 -0.92541 0.0030957
0.30268 0.22761 0.93205 6.0235e-39 224.67 370.67 0 0 0 -0.17172 0.33098 -0.92788 0.0032141
0.3045 0.22797 0.93205 5.3473e-39 163 371 0 0 0 -0.1624 0.32779 -0.93069 0.0032948
0.31976 0.22743 0.93205 6.4537e-39 273 370.5 0 0 0 -0.10872 0.29197 -0.95023 0.0030807
0.2995 0.22831 0.93346 5.9005e-39 158 371 0 0 0 -0.19123 0.33794 -0.92153 0.0025599
0.30102 0.22877 0.93311 5.6239e-39 217 371 0 0 0 -0.1825 0.33632 -0.92389 0.0029453
0.30297 0.22914 0.9324 5.9927e-39 276.5 371 0 0 0 -0.17357 0.33416 -0.9264 0.003077
0.3045 0.22906 0.93205 6.0849e-39 278 371 0 0 0 -0.16533 0.33086 -0.92908 0.0031874
0.30995 0.22906 0.93205 6.3615e-39 283 371 0 0 0 -0.14234 0.3181 -0.93731 0.0035744
0.31976 0.22906 0.93205 6.1771e-39 292 371 0 0 0 -0.11175 0.29698 -0.94832 0.0033532
0.30168 0.2305 0.93346 8.1132e-39 414 371 0 0 0 -0.1822 0.33698 -0.92371 0.0028704
0.30342 0.2308 0.93323 7.3756e-39 351.33 371.33 0 0 0 -0.17521 0.33656 -0.92522 0.0029965
0.30522 0.23083 0.93258 7.1452e-39 322.75 371.5 0 0 0 -0.16564 0.33293 -0.92829 0.0031348
0.30734 0.23078 0.9324 7.0068e-39 325.5 371.5 0 0 0 -0.15591 0.33071 -0.93076 0.0032396
0.30922 0.23051 0.93205 7.4371e-39 358.67 371.33 0 0 0 -0.14843 0.32562 -0.93378 0.003448
0.31075 0.23093 0.93229 6.7303e-39 299.33 371.67 0 0 0 -0.14474 0.32436 -0.9348 0.0035008
0.31267 0.23124 0.93205 5.5778e-39 236.5 372 0 0 0 -0.13826 0.31921 -0.93754 0.0036868
0.31486 0.23124 0.93205 6.592e-39 238.5 372 0 0 0 -0.13328 0.31467 -0.9398 0.0037479
0.31685 0.23088 0.93205 6.3e-39 306 371.67 0 0 0 -0.12495 0.30853 -0.94297 0.0037564
0.31948 0.23093 0.93229 5.9927e-39 308.33 371.67 0 0 0 -0.11707 0.30178 -0.94616 0.0037678
0.30706 0.23262 0.93323 6.7918e-39 371 372 0 0 0 -0.15944 0.33656 -0.92807 0.0029448
0.3088 0.23329 0.93299 5.9312e-39 237.33 372.67 0 0 0 -0.15551 0.33546 -0.92913 0.0030178
0.31084 0.23313 0.93311 6.7073e-39 273 372.5 0 0 0 -0.14892 0.3312 -0.93173 0.0033013
0.31279 0.23297 0.9324 7.3757e-39 275 372.5 0 0 0 -0.14329 0.32748 -0.93393 0.0035902
0.31486 0.23288 0.93205 7.6061e-39 277 372.5 0 0 0 -0.13549 0.32085 -0.93739 0.003837
0.31704 0.23288 0.93205 7.4679e-39 279 372.5 0 0 0 -0.12887 0.31593 -0.93999 0.0038639
0.31933 0.23296 0.9324 7.076e-39 281 372.5 0 0 0 -0.12269 0.30989 -0.94282 0.0040588
0.32085 0.23342 0.93205 5.3473e-39 181 373 0 0 0 -0.11611 0.30478 -0.94532 0.0039988
0.32303 0.23342 0.93205 5.4395e-39 183 373 0 0 0 -0.11574 0.29623 -0.94808 0.0040263
0.3263 0.23342 0.93205 5.9927e-39 186 373 0 0 0 -0.11311 0.28313 -0.95239 0.003742
0.30932 0.23486 0.93346 6.1771e-39 278 373 0 0 0 -0.15643 0.33937 -0.92755 0.003066
0.31333 0.23523 0.93346 6.5459e-39 324.67 373 0 0 0 -0.14767 0.33465 -0.9307 0.0034727
0.31521 0.23533 0.93311 7.3757e-39 348 373 0 0 0 -0.14144 0.33077 -0.93305 0.0036742
0.31734 0.23528 0.93293 7.0069e-39 350 373 0 0 0 -0.13528 0.32744 -0.93514 0.0038366
0.31927 0.23505 0.93276 6.6995e-39 330.33 373 0 0 0 -0.13006 0.32095 -0.93812 0.0040273
0.32121 0.23527 0.93247 7.0437e-39 366.6 373 0 0 0 -0.12457 0.31404 -0.9412 0.004112
0.32315 0.23515 0.9324 6.4537e-39 355.5 373 0 0 0 -0.12152 0.30406 -0.94487 0.0041531
0.32457 0.2353 0.93229 6.4844e-39 378.33 373 0 0 0 -0.12093 0.29784 -0.94692 0.0041156
0.32667 0.23524 0.93205 6.1771e-39 380.33 373 0 0 0 -0.11486 0.29 -0.95011 0.0039406
0.31697 0.23705 0.93346 5.6239e-39 199 374 0 0 0 -0.14235 0.33508 -0.93138 0.0035837
0.31861 0.23705 0.93346 5.3012e-39 200.5 374 0 0 0 -0.1395 0.33321 -0.93248 0.0037532
0.32067 0.23696 0.93311 5.4395e-39 202.5 374 0 0 0 -0.13607 0.32525 -0.93579 0.0038384
0.32255 0.23723 0.93276 6.1464e-39 248.67 374 0 0 0 -0.13123 0.32022 -0.93821 0.003853
0.32491 0.23742 0.93276 6.6842e-39 273 374 0 0 0 -0.12461 0.30844 -0.94305 0.0040171
0.32697 0.23733 0.9324 6.6611e-39 275 374 0 0 0 -0.12265 0.29953 -0.94617 0.0039579
0.32903 0.23724 0.93205 6.8917e-39 277 374 0 0 0 -0.1178 0.2938 -0.94858 0.0040657
0.32134 0.23814 0.93346 6.7303e-39 336 374 0 0 0 -0.13759 0.32723 -0.93487 0.0038795
0.32316 0.23887 0.93346 6.0542e-39 403.67 374 0 0 0 -0.13608 0.32881 -0.93454 0.0034673
0.32516 0.23923 0.93346 5.7622e-39 438.5 374 0 0 0 -0.12942 0.32615 -0.93642 0.0035726
0.32722 0.23914 0.93311 5.7161e-39 440.5 374 0 0 0 -0.12274 0.31565 -0.9409 0.0037107
0.32873 0.23905 0.93276 5.2552e-39 442 374 0 0 0 -0.1185 0.31243 -0.94252 0.0037691
0.32516 0.24033 0.93346 7.053e-39 214.5 375 0 0 0 -0.13404 0.32995 -0.93443 0.0032581
0.3268 0.24033 0.93346 7.3757e-39 216 375 0 0 0 -0.12923 0.32531 -0.93673 0.0034093
0.26077 0.13798 0.93558 4.8864e-39 212 339 0 0 0 -0.035512 -0.93904 -0.34198 0.0064595
0.30323 0.13788 0.93488 5.9927e-39 262 339 0 0 0 -0.057424 -0.90561 -0.4202 0.0063901
0.30674 0.13798 0.93558 5.2552e-39 265 339 0 0 0 -0.055332 -0.89787 -0.43676 0.0066348
0.31097 0.13791 0.93511 5.6239e-39 273 339 0 0 0 -0.02317 -0.88662 -0.46191 0.0060949
0.31284 0.13777 0.93417 5.5317e-39 277 339 0 0 0 -0.0043289 -0.88123 -0.47266 0.0057285
0.25903 0.13902 0.93523 8.1593e-39 348.5 339 0 0 0 -0.04669 -0.92654 -0.3733 0.0092048
0.26112 0.13897 0.93488 7.6983e-39 350.5 339 0 0 0 -0.03894 -0.92706 -0.37289 0.0093371
0.2632 0.13947 0.93453 6.7764e-39 390 339 0 0 0 -0.031123 -0.92349 -0.38236 0.011254
0.26515 0.13907 0.93558 8.6664e-39 354 339 0 0 0 -0.0092943 -0.9392 -0.34324 0.0064871
0.26669 0.13902 0.93523 8.2976e-39 355.5 339 0 0 0 -0.0018457 -0.93689 -0.34963 0.006069
0.26867 0.13892 0.93453 6.8225e-39 357.5 339 0 0 0 0.019888 -0.92973 -0.3677 0.0064634
0.27087 0.13892 0.93453 5.8544e-39 359.5 339 0 0 0 0.033136 -0.93307 -0.35817 0.0055333
0.29983 0.13947 0.93453 6.8685e-39 270.5 339.5 0 0 0 -0.043482 -0.91722 -0.39601 0.0068499
0.30125 0.13963 0.93441 6.4844e-39 260.33 339.67 0 0 0 -0.044907 -0.91419 -0.40278 0.0070721
0.30257 0.13892 0.93453 7.3757e-39 389.5 339 0 0 0 -0.050519 -0.90923 -0.41321 0.0067911
0.30487 0.13897 0.93488 7.1913e-39 391.5 339 0 0 0 -0.051166 -0.90264 -0.42734 0.0067047
0.30694 0.13892 0.93453 7.8366e-39 393.5 339 0 0 0 -0.045823 -0.89754 -0.43855 0.0067631
0.30913 0.13892 0.93453 7.6983e-39 395.5 339 0 0 0 -0.030185 -0.89052 -0.45393 0.0062696
0.31417 0.13897 0.93488 7.56e-39 400 339 0 0 0 0.0080794 -0.87793 -0.47871 0.0053672
0.24271 0.14126 0.93558 5.209e-39 220.5 340 0 0 0 -0.38927 -0.76454 -0.51376 0.062582
0.24945 0.14105 0.93417 7.0991e-39 227 340 0 0 0 -0.21313 -0.82731 -0.51974 0.044471
0.25163 0.14105 0.93417 6.7303e-39 229 340 0 0 0 -0.1846 -0.83541 -0.51769 0.040299
0.25382 0.14105 0.93417 7.7444e-39 231 340 0 0 0 -0.15471 -0.84783 -0.50719 0.034239
0.25491 0.14105 0.93417 7.8366e-39 232 340 0 0 0 -0.14979 -0.85411 -0.49806 0.032557
0.25684 0.14121 0.93523 7.3757e-39 233.5 340 0 0 0 -0.10379 -0.88482 -0.45423 0.020952
0.25839 0.14006 0.93488 6.0849e-39 423 339 0 0 0 -0.064121 -0.90997 -0.40969 0.012964
0.275 0.14017 0.93558 6.2693e-39 438 339 0 0 0 0.054833 -0.93605 -0.34757 0.0042059
0.27677 0.14105 0.93417 5.9005e-39 263 340 0 0 0 0.056107 -0.9272 -0.37034 0.0059682
0.27862 0.14116 0.93488 5.4395e-39 264.5 340 0 0 0 0.064633 -0.93406 -0.35121 0.0035994
0.28047 0.14126 0.93558 5.3473e-39 266 340 0 0 0 0.059504 -0.93858 -0.33988 0.0033527
0.29065 0.14116 0.93488 7.7905e-39 282.5 340 0 0 0 0.0075746 -0.93562 -0.35292 0.0062275
0.29361 0.14126 0.93558 7.0069e-39 285 340 0 0 0 -0.020448 -0.92974 -0.36765 0.0066903
0.29521 0.14079 0.93488 6.8532e-39 238.67 340 0 0 0 -0.025764 -0.92737 -0.37326 0.0066451
0.29733 0.14121 0.93523 8.3437e-39 334.5 340 0 0 0 -0.035201 -0.92284 -0.38357 0.0067183
0.29886 0.14061 0.93488 7.1452e-39 241 340 0 0 0 -0.040693 -0.91862 -0.39305 0.0068248
0.3155 0.14017 0.93558 5.2552e-39 214 340 0 0 0 0.016547 -0.87726 -0.47973 0.0052524
0.31709 0.14043 0.93488 6.3e-39 261.33 340 0 0 0 0.027281 -0.87418 -0.48484 0.0052331
0.31964 0.14006 0.93488 5.0708e-39 217 340 0 0 0 0.041998 -0.86881 -0.49336 0.0048558
0.2418 0.14214 0.93417 6.4537e-39 358 340 0 0 0 -0.48668 -0.70157 -0.52052 0.069031
0.24726 0.14324 0.93417 6.4537e-39 455 340 0 0 0 -0.35345 -0.74822 -0.56146 0.065678
0.24835 0.14214 0.93417 5.8083e-39 364 340 0 0 0 -0.26678 -0.80164 -0.53498 0.053326
0.28114 0.14214 0.93417 7.9288e-39 394 340 0 0 0 0.056315 -0.93408 -0.3526 0.0046733
0.28245 0.14225 0.93488 7.6522e-39 395 340 0 0 0 0.052054 -0.93877 -0.34059 0.0040902
0.28682 0.14225 0.93488 7.3757e-39 399 340 0 0 0 0.029123 -0.94064 -0.33816 0.0054702
0.29207 0.14214 0.93417 7.3757e-39 404 340 0 0 0 -0.00088397 -0.93497 -0.35472 0.0066726
0.23314 0.15914 0.93453 7.7444e-39 418.5 345 0 0 0 -0.68186 0.050187 -0.72976 0.022857
0.23441 0.15926 0.93523 7.8366e-39 419.5 345 0 0 0 -0.70589 0.011609 -0.70823 0.02703
0.23341 0.16097 0.93558 7.4678e-39 249 346 0 0 0 -0.64157 0.10365 -0.76003 0.019935
0.2345 0.16753 0.93558 8.2054e-39 371 348 0 0 0 -0.60749 0.11587 -0.78583 0.013345
0.23341 0.16863 0.93558 5.8083e-39 498 348 0 0 0 -0.61365 0.11807 -0.7807 0.014007
0.2345 0.16917 0.93558 5.8544e-39 397 348.5 0 0 0 -0.59956 0.12565 -0.7904 0.012938
0.23542 0.18108 0.93488 5.5778e-39 337.5 353 0 0 0 -0.54506 0.22049 -0.80888 0.015291
0.23697 0.18156 0.93453 5.5778e-39 404.5 353 0 0 0 -0.51773 0.23084 -0.82381 0.015276
0.23906 0.18149 0.93417 6.1771e-39 407.5 353 0 0 0 -0.48824 0.24359 -0.83803 0.014344
0.23736 0.18318 0.93535 6.3e-39 243 354 0 0 0 -0.50367 0.26016 -0.82379 0.014377
0.23924 0.18327 0.93488 6.3615e-39 269.5 354 0 0 0 -0.48065 0.26409 -0.8362 0.013858
0.2407 0.18367 0.93417 7.56e-39 345 354 0 0 0 -0.44621 0.27733 -0.85087 0.011909
0.23997 0.18505 0.93558 7.56e-39 447 354 0 0 0 -0.45733 0.29353 -0.83945 0.011979
0.2407 0.18531 0.93417 6.2233e-39 344.5 354.5 0 0 0 -0.44012 0.29587 -0.8478 0.010954
0.23997 0.18614 0.93558 4.8864e-39 240 355 0 0 0 -0.44904 0.30427 -0.84011 0.010921
0.24134 0.18702 0.93453 6.0849e-39 373.5 355 0 0 0 -0.42357 0.31624 -0.84887 0.0093063
0.24198 0.18819 0.93488 6.0849e-39 491 355 0 0 0 -0.40923 0.32872 -0.85116 0.0088131
0.24344 0.18856 0.93488 6.0542e-39 419.33 355.33 0 0 0 -0.39458 0.33103 -0.85716 0.0079738
0.24463 0.18921 0.93453 6.0849e-39 274.5 356 0 0 0 -0.3726 0.33869 -0.86398 0.0070901
0.24526 0.19038 0.93488 6.0849e-39 409 356 0 0 0 -0.37107 0.34192 -0.86336 0.0070771
0.24617 0.19351 0.93417 7.6522e-39 450 357 0 0 0 -0.36601 0.33845 -0.86688 0.0070354
0.24666 0.19543 0.93464 5.9927e-39 348.33 358 0 0 0 -0.36731 0.331 -0.86921 0.0069591
0.24835 0.1957 0.93417 5.7161e-39 394 358 0 0 0 -0.35847 0.32852 -0.87382 0.0068504
0.24764 0.19709 0.93558 6.1771e-39 144 359 0 0 0 -0.37209 0.32565 -0.8692 0.0074298
0.24918 0.19702 0.93523 6.4537e-39 145.5 359 0 0 0 -0.35948 0.32382 -0.87516 0.006843
0.24982 0.19818 0.93558 6.7303e-39 338 359 0 0 0 -0.3577 0.31776 -0.87811 0.0070349
0.25054 0.19898 0.93417 8.1132e-39 438 359 0 0 0 -0.35526 0.31552 -0.87991 0.0067982
0.25328 0.19898 0.93417 8.0671e-39 440.5 359 0 0 0 -0.32521 0.31206 -0.89267 0.0064298
0.25491 0.19898 0.93417 7.8366e-39 442 359 0 0 0 -0.30931 0.31026 -0.89893 0.0064324
0.25118 0.20069 0.93453 6.6381e-39 313 360 0 0 0 -0.35327 0.31369 -0.88136 0.0069535
0.25316 0.20048 0.93441 6.7303e-39 293.67 360 0 0 0 -0.32828 0.31205 -0.89155 0.0063135
0.25467 0.2009 0.93464 7.1605e-39 337.33 360 0 0 0 -0.31677 0.31233 -0.89561 0.0061642
0.256 0.20061 0.93417 7.0991e-39 317.5 360 0 0 0 -0.30202 0.31113 -0.9011 0.0061797
0.25182 0.20241 0.93488 6.6381e-39 483 360 0 0 0 -0.34607 0.30919 -0.8858 0.0070737
0.25256 0.20311 0.93558 6.4076e-39 388 360.5 0 0 0 -0.33657 0.30774 -0.88995 0.0065916
0.25465 0.20303 0.93523 6.592e-39 391.5 360.5 0 0 0 -0.31507 0.31154 -0.89648 0.005906
0.2567 0.20292 0.9347 6.2463e-39 393.5 360.5 0 0 0 -0.29613 0.31612 -0.90132 0.0054681
0.25855 0.20298 0.93417 6.1771e-39 381.67 360.67 0 0 0 -0.27356 0.31618 -0.9084 0.0048346
0.26038 0.2028 0.93417 6.2232e-39 239.5 361 0 0 0 -0.25828 0.31386 -0.91366 0.0044355
0.25739 0.20522 0.93523 6.6381e-39 329 361.5 0 0 0 -0.28552 0.31822 -0.904 0.0048752
0.25898 0.20518 0.93506 6.3615e-39 330.5 361.5 0 0 0 -0.27269 0.3201 -0.90729 0.0043977
0.26112 0.20514 0.93488 6.2923e-39 336.75 361.5 0 0 0 -0.25288 0.32145 -0.91254 0.003703
0.26256 0.20498 0.93417 6.4076e-39 342.5 361.5 0 0 0 -0.23982 0.31933 -0.9168 0.0033269
0.25749 0.20694 0.93558 7.3757e-39 380 362 0 0 0 -0.28155 0.32171 -0.90401 0.0044826
0.25968 0.20694 0.93558 5.7161e-39 382 362 0 0 0 -0.26494 0.32391 -0.90823 0.0038341
0.26144 0.20725 0.93535 5.4395e-39 308 362.33 0 0 0 -0.25087 0.32655 -0.91128 0.0031776
0.26276 0.20733 0.93488 5.8083e-39 272 362.5 0 0 0 -0.24225 0.32656 -0.91361 0.0029463
0.26132 0.20858 0.93558 5.5779e-39 248 363 0 0 0 -0.25067 0.33001 -0.91009 0.0029543
0.2634 0.20905 0.93523 6.4537e-39 341.5 363 0 0 0 -0.23796 0.3314 -0.91299 0.0023536
0.26529 0.20881 0.93417 6.8686e-39 343.5 363 0 0 0 -0.22444 0.3292 -0.9172 0.0018699
0.26693 0.20991 0.93417 6.0849e-39 467 363 0 0 0 -0.21444 0.33206 -0.91856 0.0017149
0.26858 0.20991 0.93417 5.9466e-39 468.5 363 0 0 0 -0.20944 0.33151 -0.91991 0.0016557
0.26472 0.21053 0.93535 5.9927e-39 401.33 363.33 0 0 0 -0.22719 0.33539 -0.91427 0.0016692
0.26647 0.21085 0.93511 6.1464e-39 339.67 363.67 0 0 0 -0.2176 0.33618 -0.91631 0.0016154
0.26877 0.21116 0.93488 6.7303e-39 278.5 364 0 0 0 -0.21034 0.33547 -0.91827 0.0015641
0.27076 0.211 0.93417 6.1771e-39 280.5 364 0 0 0 -0.20511 0.33326 -0.92025 0.0016131
0.26734 0.21241 0.93558 7.9288e-39 443 364 0 0 0 -0.21508 0.34045 -0.91533 0.0014783
0.26898 0.21241 0.93558 7.7905e-39 444.5 364 0 0 0 -0.21051 0.34054 -0.91636 0.0014421
0.27122 0.21267 0.93511 6.884e-39 373.33 364.33 0 0 0 -0.20456 0.34027 -0.91781 0.001493
0.27283 0.21287 0.93441 5.839e-39 314.33 364.67 0 0 0 -0.20239 0.34141 -0.91786 0.0015201
0.27458 0.21318 0.93417 5.2552e-39 249 365 0 0 0 -0.20422 0.34195 -0.91726 0.0015116
0.27315 0.21499 0.93488 6.0157e-39 288 365.5 0 0 0 -0.20363 0.34507 -0.91622 0.0014264
0.27529 0.21494 0.9347 6.2693e-39 291.5 365.5 0 0 0 -0.20315 0.34523 -0.91627 0.0013817
0.27677 0.21483 0.93417 6.6381e-39 294.5 365.5 0 0 0 -0.20513 0.3453 -0.9158 0.0014163
0.27391 0.21679 0.93558 7.4678e-39 347 366 0 0 0 -0.20195 0.34665 -0.916 0.0014101
0.275 0.21679 0.93558 7.9288e-39 348 366 0 0 0 -0.20225 0.34602 -0.91617 0.001418
0.27703 0.21694 0.93505 7.076e-39 380 366 0 0 0 -0.20557 0.34707 -0.91503 0.0013861
0.27866 0.21725 0.93441 6.1464e-39 431.67 366 0 0 0 -0.20662 0.34738 -0.91468 0.0014103
0.2806 0.21756 0.93417 6.2693e-39 473.5 366 0 0 0 -0.20876 0.34543 -0.91493 0.0014388
0.27872 0.2189 0.93523 5.3934e-39 247.5 367 0 0 0 -0.2072 0.34766 -0.91444 0.0014093
0.28075 0.21932 0.9347 6.1311e-39 320 367 0 0 0 -0.21012 0.3456 -0.91456 0.0014004
0.28289 0.21928 0.93453 6.2923e-39 325.5 367 0 0 0 -0.21694 0.34387 -0.91362 0.0013976
0.28497 0.2192 0.93417 6.5689e-39 327.5 367 0 0 0 -0.21982 0.34218 -0.91356 0.0014929
0.28734 0.21938 0.93417 7.222e-39 354.33 367 0 0 0 -0.22192 0.33806 -0.91458 0.001687
0.27938 0.22062 0.93558 6.3154e-39 287.5 367.5 0 0 0 -0.20783 0.34627 -0.91482 0.0014256
0.28102 0.22117 0.93558 5.8083e-39 187.5 368 0 0 0 -0.21162 0.34333 -0.91506 0.0014374
0.28321 0.22117 0.93558 5.209e-39 189.5 368 0 0 0 -0.21748 0.34378 -0.91352 0.0013827
0.28519 0.221 0.93488 5.8083e-39 191.5 368 0 0 0 -0.22218 0.34232 -0.91294 0.0014241
0.28716 0.22083 0.93417 6.2693e-39 193.5 368 0 0 0 -0.2236 0.34031 -0.91334 0.0015906
0.28879 0.22193 0.93417 7.4678e-39 342 368 0 0 0 -0.22406 0.33946 -0.91354 0.0017034
0.28321 0.22226 0.93558 6.8225e-39 336.5 368 0 0 0 -0.21812 0.34324 -0.91357 0.0014451
0.28544 0.22252 0.93511 6.3e-39 380.33 368 0 0 0 -0.22476 0.34153 -0.9126 0.0014274
0.28737 0.22264 0.93488 6.1771e-39 403 368 0 0 0 -0.22575 0.33923 -0.91321 0.0016157
0.28934 0.22302 0.93417 5.0247e-39 469.5 368 0 0 0 -0.22255 0.33972 -0.91382 0.0016879
0.28704 0.22445 0.93558 6.0849e-39 240 369 0 0 0 -0.22731 0.33858 -0.91307 0.0016219
0.28863 0.22496 0.93541 6.9377e-39 314 369 0 0 0 -0.22438 0.34132 -0.91277 0.0016723
0.29039 0.22496 0.93464 6.6688e-39 340 369 0 0 0 -0.21955 0.34107 -0.91404 0.0017204
0.29207 0.22521 0.93417 7.56e-39 390 369 0 0 0 -0.21697 0.34 -0.91505 0.0017999
0.29098 0.22695 0.93535 5.8698e-39 243.67 370 0 0 0 -0.21959 0.34063 -0.9142 0.0018477
0.29278 0.22697 0.9347 6.8455e-39 269.5 370 0 0 0 -0.21615 0.34161 -0.91465 0.0018637
0.2947 0.22708 0.93441 7.2834e-39 295.33 370 0 0 0 -0.2106 0.3403 -0.91643 0.0020001
0.29306 0.22883 0.93558 5.209e-39 471.5 370 0 0 0 -0.21499 0.3381 -0.91623 0.0021208
0.29536 0.22914 0.93535 5.839e-39 403.67 370.33 0 0 0 -0.21101 0.3382 -0.91711 0.0020891
0.2971 0.22912 0.93453 5.9927e-39 290.75 370.75 0 0 0 -0.20563 0.34019 -0.9176 0.0021215
0.29907 0.22927 0.93441 6.0542e-39 232.67 371 0 0 0 -0.19407 0.3389 -0.92059 0.0023921
0.29744 0.23102 0.93558 7.5601e-39 409.5 371 0 0 0 -0.20317 0.33538 -0.91992 0.0023887
0.29952 0.23094 0.93523 8.1593e-39 411.5 371 0 0 0 -0.19451 0.3374 -0.92105 0.0024843
0.30147 0.23131 0.93453 7.514e-39 317 371.5 0 0 0 -0.18387 0.33746 -0.92321 0.002832
0.303 0.23176 0.93417 6.3615e-39 222 372 0 0 0 -0.17697 0.33535 -0.92532 0.0029617
0.30072 0.23211 0.93558 6.8225e-39 219.5 372 0 0 0 -0.18698 0.33525 -0.92339 0.0027876
0.30292 0.23321 0.93558 7.8366e-39 366.5 372 0 0 0 -0.17685 0.33625 -0.92502 0.0030244
0.30476 0.23294 0.93453 7.053e-39 368.5 372 0 0 0 -0.16903 0.33877 -0.92556 0.0028981
0.30682 0.23395 0.93417 5.3012e-39 167.5 373 0 0 0 -0.16232 0.34045 -0.92615 0.0028621
0.30565 0.2343 0.93558 5.2552e-39 166 373 0 0 0 -0.16691 0.34059 -0.92528 0.0029558
0.30706 0.23522 0.93488 6.3154e-39 275.5 373 0 0 0 -0.16133 0.33982 -0.92655 0.0029225
0.30847 0.23504 0.93417 6.1771e-39 277 373 0 0 0 -0.15805 0.33995 -0.92707 0.0029545
0.3112 0.23504 0.93417 5.67e-39 279.5 373 0 0 0 -0.15277 0.33734 -0.9289 0.0032116
0.30729 0.23649 0.93558 6.9608e-39 404.5 373 0 0 0 -0.16348 0.34489 -0.9243 0.002907
0.30925 0.23686 0.93488 6.131e-39 299 373.5 0 0 0 -0.15915 0.34417 -0.92532 0.0030271
0.31132 0.23677 0.93453 6.3385e-39 301 373.5 0 0 0 -0.15537 0.34266 -0.92652 0.0031624
0.31328 0.23693 0.93441 6.2385e-39 267 373.67 0 0 0 -0.15138 0.34132 -0.92768 0.0032609
0.31502 0.23723 0.93417 5.9005e-39 197 374 0 0 0 -0.14555 0.33871 -0.92956 0.0034575
0.31612 0.23723 0.93417 5.9005e-39 198 374 0 0 0 -0.14372 0.33683 -0.93053 0.003569
0.31058 0.23868 0.93558 6.7303e-39 293.5 374 0 0 0 -0.15687 0.34739 -0.92451 0.003066
0.31277 0.23868 0.93558 6.3615e-39 295.5 374 0 0 0 -0.15392 0.34544 -0.92573 0.0032419
0.31484 0.23914 0.93523 5.3934e-39 363 374 0 0 0 -0.15045 0.34296 -0.92722 0.0033708
0.3169 0.23905 0.93488 5.5547e-39 365 374 0 0 0 -0.14714 0.34041 -0.92869 0.0034879
0.31885 0.23886 0.93417 5.8313e-39 383 374 0 0 0 -0.1446 0.33669 -0.93045 0.0034655
0.32093 0.23911 0.93441 5.6546e-39 401.33 374 0 0 0 -0.14049 0.33622 -0.93125 0.0033973
0.3155 0.24087 0.93558 5.2552e-39 205 375 0 0 0 -0.15251 0.35005 -0.92423 0.0031704
0.31769 0.24087 0.93558 5.163e-39 207 375 0 0 0 -0.14989 0.34802 -0.92543 0.0032061
0.31921 0.24133 0.93523 5.6009e-39 271 375 0 0 0 -0.14955 0.34574 -0.92634 0.0032125
0.32127 0.24124 0.93488 6.2002e-39 273 375 0 0 0 -0.14872 0.34034 -0.92847 0.0031497
0.32322 0.24106 0.93417 7.1913e-39 275 375 0 0 0 -0.14299 0.34134 -0.929 0.0030892
0.32486 0.2416 0.93417 7.7444e-39 339 375 0 0 0 -0.1358 0.34007 -0.93055 0.003007
0.31988 0.24306 0.93558 5.2552e-39 425 375 0 0 0 -0.15311 0.34825 -0.92481 0.0031315
0.32249 0.24297 0.93523 5.2552e-39 427.5 375 0 0 0 -0.14776 0.34699 -0.92616 0.0029894
0.32401 0.24288 0.93488 5.3473e-39 429 375 0 0 0 -0.14393 0.34798 -0.92639 0.0029712
0.32316 0.24416 0.93558 5.9005e-39 197 376 0 0 0 -0.14646 0.35379 -0.92378 0.0030601
0.26081 0.1372 0.93772 7.3757e-39 398.5 338 0 0 0 -0.03251 -0.94906 -0.31341 0.0057051
0.30744 0.1372 0.93772 6.3615e-39 438 338 0 0 0 -0.064012 -0.89805 -0.43521 0.0065552
0.30854 0.1372 0.93772 5.9927e-39 439 338 0 0 0 -0.057095 -0.89628 -0.43979 0.0068421
0.31116 0.13714 0.93736 5.6239e-39 472.5 338 0 0 0 -0.035746 -0.88861 -0.45727 0.0068194
0.313 0.13699 0.93629 5.8083e-39 474.5 338 0 0 0 -0.013637 -0.8829 -0.46936 0.0063661
0.24381 0.13939 0.93772 7.3757e-39 284 339 0 0 0 -0.16274 -0.8635 -0.47736 0.03976
0.25952 0.13818 0.93701 5.1169e-39 210.5 339 0 0 0 -0.037861 -0.94314 -0.33024 0.0059957
0.26281 0.13819 0.937 5.0247e-39 213.5 339 0 0 0 -0.024266 -0.94518 -0.32565 0.0058145
0.265 0.13873 0.93701 6.7303e-39 284.5 339 0 0 0 -0.013535 -0.94565 -0.3249 0.0055279
0.2673 0.13824 0.93736 5.0708e-39 217.5 339 0 0 0 0.0039244 -0.94789 -0.31857 0.0048347
0.26884 0.13819 0.937 5.3473e-39 219 339 0 0 0 0.017702 -0.94424 -0.32878 0.0043665
0.27192 0.13808 0.93629 5.5317e-39 221 339 0 0 0 0.040984 -0.94121 -0.33531 0.0041121
0.27542 0.13929 0.937 5.3473e-39 362 339 0 0 0 0.058095 -0.94017 -0.33572 0.0033606
0.27672 0.13939 0.93772 5.4395e-39 363 339 0 0 0 0.060262 -0.94101 -0.33298 0.0031547
0.29691 0.13934 0.93736 7.7905e-39 383.5 339 0 0 0 -0.048638 -0.92179 -0.38463 0.0060464
0.29954 0.13873 0.93701 6.8225e-39 322 339 0 0 0 -0.059717 -0.91362 -0.40216 0.0060247
0.30095 0.13808 0.93629 5.5778e-39 259.5 339 0 0 0 -0.061233 -0.91145 -0.40683 0.0062266
0.30259 0.13808 0.93629 5.6239e-39 261 339 0 0 0 -0.061115 -0.9072 -0.41623 0.0062741
0.30502 0.13819 0.937 5.9005e-39 263 339 0 0 0 -0.06628 -0.90202 -0.42658 0.0061462
0.30611 0.13819 0.937 5.5317e-39 264 339 0 0 0 -0.061589 -0.89893 -0.43375 0.0062546
0.30874 0.13814 0.93665 5.4856e-39 266.5 339 0 0 0 -0.049399 -0.89291 -0.44751 0.0068276
0.31519 0.13863 0.93629 6.638e-39 339.5 339 0 0 0 0.0086991 -0.87863 -0.47743 0.0055797
0.31679 0.13859 0.93724 7.1298e-39 320.33 339 0 0 0 0.019262 -0.87756 -0.47908 0.005524
0.24162 0.14104 0.93772 6.5458e-39 311.5 339.5 0 0 0 -0.34373 -0.78706 -0.51224 0.059596
0.24308 0.14038 0.937 7.514e-39 405.5 339 0 0 0 -0.25942 -0.82555 -0.50117 0.05175
0.24491 0.14159 0.93772 4.9786e-39 222 340 0 0 0 -0.26271 -0.82122 -0.50653 0.055511
0.24601 0.14159 0.93772 5.2552e-39 223 340 0 0 0 -0.21942 -0.84078 -0.49491 0.049352
0.24875 0.14159 0.93772 7.053e-39 225.5 340 0 0 0 -0.16849 -0.86915 -0.46495 0.039232
0.25075 0.14038 0.937 5.9466e-39 412.5 339 0 0 0 -0.14106 -0.88434 -0.44502 0.029554
0.25285 0.14033 0.93665 5.7161e-39 414.5 339 0 0 0 -0.12266 -0.89291 -0.43321 0.02338
0.25514 0.14038 0.937 5.7622e-39 418 339 0 0 0 -0.073452 -0.91914 -0.38701 0.012668
0.25678 0.14038 0.937 5.6239e-39 421 339 0 0 0 -0.05549 -0.9303 -0.36258 0.008627
0.27696 0.14033 0.93665 5.9466e-39 446 339 0 0 0 0.062405 -0.93876 -0.33887 0.0032897
0.27936 0.14043 0.93736 6.0388e-39 462.5 339 0 0 0 0.068037 -0.93942 -0.33595 0.0028669
0.28111 0.14049 0.93772 5.8083e-39 472 339 0 0 0 0.058315 -0.93941 -0.3378 0.0034417
0.28309 0.14148 0.937 5.6854e-39 270.33 340 0 0 0 0.046397 -0.94004 -0.33788 0.0042311
0.28484 0.14098 0.93736 5.9927e-39 376 339.5 0 0 0 0.036962 -0.93924 -0.34126 0.0049632
0.28693 0.14148 0.93701 5.7161e-39 278.5 340 0 0 0 0.024704 -0.93898 -0.34309 0.0054787
0.29132 0.14038 0.937 6.2693e-39 481.5 339 0 0 0 -0.011849 -0.93302 -0.35964 0.0064518
0.29296 0.14148 0.937 7.1913e-39 284 340 0 0 0 -0.019555 -0.9289 -0.36981 0.0064726
0.29471 0.14043 0.93736 5.9927e-39 484.5 339 0 0 0 -0.033148 -0.92503 -0.37844 0.0062497
0.29734 0.14038 0.937 6.2693e-39 144 340 0 0 0 -0.046097 -0.92007 -0.38904 0.0062142
0.29844 0.14038 0.937 6.2693e-39 145 340 0 0 0 -0.046927 -0.91741 -0.39517 0.0061717
0.24509 0.14247 0.93629 5.5778e-39 360.5 340 0 0 0 -0.35724 -0.77606 -0.51972 0.05962
0.24722 0.1429 0.93677 5.8698e-39 393 340 0 0 0 -0.28837 -0.80725 -0.51497 0.055088
0.2889 0.14247 0.93629 7.4678e-39 400.5 340 0 0 0 0.013898 -0.93685 -0.34946 0.0061497
0.23468 0.16109 0.93629 7.8366e-39 250 346 0 0 0 -0.6381 0.10699 -0.76248 0.018268
0.23358 0.16273 0.93629 7.8366e-39 432 346 0 0 0 -0.63539 0.095175 -0.7663 0.018262
0.23468 0.16273 0.93629 7.9288e-39 433 346 0 0 0 -0.62978 0.099922 -0.77032 0.017012
0.23376 0.16505 0.937 5.8083e-39 341.5 347 0 0 0 -0.62715 0.097524 -0.77277 0.016865
0.23486 0.16505 0.937 5.5778e-39 347 347 0 0 0 -0.62078 0.10149 -0.77739 0.0159
0.23358 0.16712 0.93629 6.4076e-39 299 348 0 0 0 -0.62027 0.109 -0.77678 0.014961
0.23468 0.16657 0.93629 5.2552e-39 229 348 0 0 0 -0.61229 0.11237 -0.78261 0.014152
0.23358 0.16985 0.93629 7.2835e-39 286 349 0 0 0 -0.61415 0.12517 -0.7792 0.013078
0.23394 0.17121 0.93772 5.8083e-39 440 349 0 0 0 -0.61017 0.13723 -0.7803 0.013529
0.23468 0.17095 0.93629 6.0849e-39 441 349 0 0 0 -0.59444 0.13585 -0.79258 0.01272
0.23468 0.1819 0.93629 6.0849e-39 402 353 0 0 0 -0.5569 0.22803 -0.79867 0.015999
0.23531 0.18307 0.93665 6.5459e-39 153.5 354 0 0 0 -0.54 0.24836 -0.80419 0.015985
0.23549 0.1843 0.93736 7.3757e-39 339.5 354 0 0 0 -0.54031 0.26805 -0.79763 0.015622
0.237 0.18502 0.93683 7.9058e-39 418.25 354 0 0 0 -0.50643 0.28431 -0.81406 0.013674
0.23906 0.18519 0.93629 7.7444e-39 446 354 0 0 0 -0.47204 0.29297 -0.83147 0.012154
0.23723 0.18657 0.93772 5.3473e-39 237 355 0 0 0 -0.50259 0.3037 -0.80942 0.012683
0.23869 0.18697 0.937 5.647e-39 304.5 355 0 0 0 -0.47075 0.31067 -0.82576 0.011333
0.24016 0.18738 0.93629 6.9147e-39 372 355 0 0 0 -0.44455 0.31662 -0.83793 0.010206
0.23174 0.18986 0.93772 7.3757e-39 262 356 0 0 0 -0.52286 0.34331 -0.78022 0.013838
0.23942 0.18876 0.93772 5.9927e-39 486 355 0 0 0 -0.4537 0.33157 -0.82717 0.0099791
0.24107 0.18898 0.937 6.3615e-39 416.67 355.33 0 0 0 -0.42632 0.33393 -0.84068 0.0088348
0.24235 0.18957 0.93629 6.8225e-39 272 356 0 0 0 -0.4032 0.33943 -0.84983 0.0080805
0.24162 0.19095 0.93772 5.9005e-39 405 356 0 0 0 -0.41702 0.35009 -0.83877 0.0080384
0.24308 0.19081 0.937 6.2232e-39 406.5 356 0 0 0 -0.39092 0.34531 -0.8532 0.0076053
0.24496 0.19144 0.93653 6.5152e-39 273 356.67 0 0 0 -0.37764 0.34311 -0.86004 0.007502
