# .PCD v.7 - Point Cloud Data file format
VERSION .7
FIELDS x y z rgb u v vx vy vz normal_x normal_y normal_z curvature
SIZE 4 4 4 4 4 4 4 4 4 4 4 4 4
TYPE F F F F F F F F F F F F F
COUNT 1 1 1 1 1 1 1 1 1 1 1 1 1
WIDTH 550
HEIGHT 1
VIEWPOINT 0 0 0 1 0 0 0
POINTS 550
DATA ascii
0.0068336 0.10735 0.98956 7.1913e-39 283.33 340.67 0 0 0 0.26028 0.30255 -0.91691 0.0090735
0.0083773 0.10716 0.98956 6.9608e-39 329.5 340.5 0 0 0 0.28455 0.30038 -0.91038 0.0096495
-0.022882 0.10889 0.98956 5.7161e-39 385 341 0 0 0 -0.36215 0.43245 -0.82574 0.010052
-0.021128 0.10881 0.98877 6.131e-39 386.5 341 0 0 0 -0.32645 0.42837 -0.84257 0.010923
-0.019007 0.10958 0.98877 5.1322e-39 235.67 341.67 0 0 0 -0.27823 0.41775 -0.86491 0.012105
-0.017079 0.10996 0.98877 4.5176e-39 161 342 0 0 0 -0.23522 0.40822 -0.88206 0.011236
-0.015922 0.10996 0.98877 4.5176e-39 162 342 0 0 0 -0.20411 0.39868 -0.89409 0.011198
-0.01303 0.10996 0.98877 4.7942e-39 164.5 342 0 0 0 -0.15449 0.38587 -0.90952 0.010758
0.0037448 0.10942 0.98917 6.4076e-39 293.5 341.5 0 0 0 0.19384 0.32183 -0.92674 0.0090633
0.0049021 0.10942 0.98917 6.5459e-39 294.5 341.5 0 0 0 0.22029 0.33218 -0.91713 0.0091892
0.0064445 0.10922 0.98903 6.3922e-39 334 341.33 0 0 0 0.23707 0.32145 -0.91677 0.0094559
0.0083706 0.10938 0.98877 6.1771e-39 297.5 341.5 0 0 0 0.27492 0.32391 -0.90526 0.0092125
0.011851 0.10889 0.98956 7.4678e-39 415 341 0 0 0 0.35156 0.31847 -0.88033 0.01046
-0.022882 0.11005 0.98956 5.163e-39 154 342 0 0 0 -0.35967 0.43913 -0.82329 0.009493
-0.020952 0.11044 0.98956 5.5932e-39 189.33 342 0 0 0 -0.32836 0.44181 -0.83485 0.0099681
-0.01883 0.11121 0.98956 5.9005e-39 258.5 342 0 0 0 -0.28467 0.43657 -0.85345 0.011183
-0.017093 0.11121 0.98956 5.4395e-39 260 342 0 0 0 -0.24528 0.43014 -0.8688 0.011106
-0.015351 0.11117 0.98917 5.9466e-39 261.5 342 0 0 0 -0.20506 0.41312 -0.88729 0.011332
-0.013036 0.11117 0.98917 6.0849e-39 263.5 342 0 0 0 -0.15619 0.40183 -0.90229 0.011047
-0.0078248 0.11112 0.98877 4.9786e-39 281 342 0 0 0 -0.045387 0.37017 -0.92785 0.011472
-0.00088392 0.11112 0.98877 5.4395e-39 367 342 0 0 0 0.10004 0.35458 -0.92966 0.010104
0.00027289 0.11112 0.98877 5.3473e-39 368 342 0 0 0 0.11859 0.34656 -0.9305 0.009883
0.0037433 0.11112 0.98877 5.8083e-39 373 342 0 0 0 0.19006 0.34641 -0.91863 0.0095409
0.0049001 0.11112 0.98877 6.0849e-39 374 342 0 0 0 0.2173 0.3494 -0.91143 0.0091675
0.006832 0.11079 0.9893 6.1771e-39 311 342 0 0 0 0.25259 0.34826 -0.90273 0.0095331
0.0083773 0.11121 0.98956 6.3615e-39 377 342 0 0 0 0.28088 0.35645 -0.8911 0.0092614
-0.019408 0.11237 0.98956 7.2835e-39 447 342 0 0 0 -0.29329 0.44549 -0.84588 0.01066
-0.017093 0.11237 0.98956 6.4537e-39 449 342 0 0 0 -0.24626 0.4379 -0.86464 0.010978
-0.015353 0.11292 0.98936 6.131e-39 328.5 342.5 0 0 0 -0.20673 0.43662 -0.87557 0.011297
-0.013038 0.11292 0.98936 6.1771e-39 330.5 342.5 0 0 0 -0.15874 0.42925 -0.88913 0.011407
-0.011295 0.11286 0.98877 5.9005e-39 332 342.5 0 0 0 -0.12174 0.4132 -0.90246 0.011964
-0.0074392 0.11305 0.98877 5.8391e-39 295.67 342.67 0 0 0 -0.042759 0.40734 -0.91228 0.011581
-0.00088392 0.11286 0.98877 5.6239e-39 342.5 342.5 0 0 0 0.10005 0.38239 -0.91857 0.010528
0.00065849 0.11305 0.98877 5.7776e-39 305.67 342.67 0 0 0 0.12213 0.3831 -0.9156 0.010557
0.0033587 0.11308 0.98903 5.5932e-39 308.67 342.67 0 0 0 0.18328 0.3804 -0.90648 0.010197
0.0049021 0.1129 0.98917 6.0388e-39 349.5 342.5 0 0 0 0.2176 0.37884 -0.89952 0.009614
0.0066394 0.11292 0.98936 6.0388e-39 351 342.5 0 0 0 0.24257 0.38286 -0.89139 0.0097061
0.0083773 0.11237 0.98956 5.9005e-39 471 342 0 0 0 0.27863 0.36711 -0.88747 0.0091681
-0.015356 0.11468 0.98956 5.9005e-39 391.5 343 0 0 0 -0.20756 0.45589 -0.8655 0.010361
-0.013041 0.11468 0.98956 6.6842e-39 393.5 343 0 0 0 -0.16234 0.45214 -0.87705 0.011152
-0.01053 0.11504 0.9893 4.9171e-39 446.67 343 0 0 0 -0.1143 0.4484 -0.88649 0.011188
-0.0089816 0.11517 0.98877 5.3473e-39 279 343.5 0 0 0 -0.078055 0.44042 -0.89439 0.011552
-0.0072509 0.11524 0.98936 5.2782e-39 280.5 343.5 0 0 0 -0.043539 0.44412 -0.89491 0.011679
-0.00474 0.11536 0.98877 5.2552e-39 243.33 343.67 0 0 0 0.010109 0.43275 -0.90146 0.011752
-0.0026191 0.11517 0.98877 5.624e-39 284.5 343.5 0 0 0 0.053917 0.42335 -0.90436 0.011607
-0.00088428 0.11522 0.98917 5.6701e-39 286 343.5 0 0 0 0.088223 0.42487 -0.90095 0.011486
0.0008517 0.11524 0.98936 5.9005e-39 287.5 343.5 0 0 0 0.12482 0.42608 -0.89603 0.011501
0.0031669 0.11524 0.98936 5.9697e-39 289.5 343.5 0 0 0 0.17869 0.42262 -0.88852 0.010849
-0.010147 0.117 0.98956 6.3615e-39 250 344 0 0 0 -0.1061 0.47884 -0.87147 0.010886
-0.0089888 0.117 0.98956 6.2693e-39 251 344 0 0 0 -0.082173 0.47171 -0.87791 0.011284
-0.0066733 0.117 0.98956 5.7161e-39 253 344 0 0 0 -0.037684 0.46774 -0.88306 0.01151
-0.0049345 0.11695 0.98917 5.5778e-39 254.5 344 0 0 0 0.0048837 0.45176 -0.89212 0.012012
-0.0026204 0.11695 0.98917 5.9005e-39 256.5 344 0 0 0 0.056873 0.44821 -0.89212 0.012062
-0.00088463 0.117 0.98956 5.9927e-39 258 344 0 0 0 0.087622 0.45068 -0.88838 0.011758
0.00027311 0.117 0.98956 5.8083e-39 259 344 0 0 0 0.11487 0.44486 -0.8882 0.011534
0.0025886 0.117 0.98956 5.9005e-39 261 344 0 0 0 0.16245 0.44114 -0.88261 0.011147
-0.010147 0.11815 0.98956 7.8366e-39 422 344 0 0 0 -0.10508 0.48765 -0.86669 0.010425
-0.0089888 0.11815 0.98956 7.9288e-39 423 344 0 0 0 -0.085098 0.48349 -0.87121 0.010453
-0.0051297 0.11854 0.98956 7.4986e-39 346.33 344.33 0 0 0 -0.00084963 0.47358 -0.88075 0.011815
-0.0024283 0.11854 0.98956 7.3757e-39 348.67 344.33 0 0 0 0.05698 0.47047 -0.88057 0.011726
-0.042666 0.096389 0.99194 8.1132e-39 200 337 0 0 0 -0.59595 0.39633 -0.69841 0.0092025
-0.036834 0.099211 0.99115 5.209e-39 276 338 0 0 0 -0.55825 0.39414 -0.73008 0.0085654
-0.035645 0.099711 0.99035 5.9005e-39 379 338 0 0 0 -0.54311 0.39603 -0.7404 0.0081426
-0.035122 0.10103 0.99194 5.209e-39 474.5 338 0 0 0 -0.54458 0.38436 -0.74546 0.0080243
-0.032762 0.10091 0.99075 5.0708e-39 476.5 338 0 0 0 -0.51008 0.40321 -0.75977 0.0083221
-0.028693 0.10087 0.99035 5.163e-39 480 338 0 0 0 -0.46965 0.41577 -0.77882 0.0099563
-0.032573 0.10247 0.99088 6.7303e-39 282 339 0 0 0 -0.50176 0.40401 -0.76486 0.0076091
-0.028693 0.10261 0.99035 6.9608e-39 318.5 339 0 0 0 -0.45811 0.41332 -0.78696 0.0095103
-0.027535 0.10319 0.99035 7.0991e-39 419 339 0 0 0 -0.44324 0.41245 -0.79588 0.010429
-0.031024 0.10497 0.99075 5.3473e-39 208 340 0 0 0 -0.47585 0.4117 -0.77722 0.0077716
-0.029284 0.10497 0.99075 5.5548e-39 209.5 340 0 0 0 -0.45463 0.41571 -0.78771 0.0083046
-0.027535 0.10492 0.99035 4.9325e-39 211 340 0 0 0 -0.43497 0.41877 -0.79714 0.0096643
0.0072253 0.1055 0.99035 5.7161e-39 263 340 0 0 0 0.26546 0.27407 -0.92435 0.008809
0.01128 0.1055 0.99035 5.5778e-39 264.5 340 0 0 0 0.3543 0.25852 -0.89869 0.010529
0.013029 0.10559 0.99115 5.163e-39 356 340 0 0 0 0.38616 0.28547 -0.87715 0.0096059
0.016508 0.10559 0.99115 5.5317e-39 357 340 0 0 0 0.42011 0.28346 -0.86207 0.0082334
-0.031048 0.10737 0.99155 5.4395e-39 296 340.5 0 0 0 -0.4701 0.41461 -0.77917 0.007063
-0.029308 0.10737 0.99155 5.9927e-39 297.5 340.5 0 0 0 -0.44786 0.42187 -0.78832 0.0073566
-0.026967 0.10729 0.99075 6.3615e-39 299.5 340.5 0 0 0 -0.42449 0.42821 -0.79778 0.0087019
0.0095465 0.10728 0.99075 6.7303e-39 330.5 340.5 0 0 0 0.32434 0.2963 -0.89834 0.010859
0.01128 0.10724 0.99035 6.3845e-39 332 340.5 0 0 0 0.35154 0.29343 -0.889 0.010575
0.013019 0.10724 0.99035 6.0388e-39 333.5 340.5 0 0 0 0.38237 0.30204 -0.87325 0.0094303
0.014768 0.10733 0.99115 6.0158e-39 335 340.5 0 0 0 0.40448 0.31347 -0.85914 0.0087272
0.016508 0.10733 0.99115 5.9466e-39 337.5 340.5 0 0 0 0.41841 0.3018 -0.85665 0.0081576
0.018842 0.10799 0.99194 6.9147e-39 219 341 0 0 0 0.44634 0.31982 -0.83576 0.0064207
-0.026988 0.10912 0.99155 5.4856e-39 381.5 341 0 0 0 -0.42213 0.42818 -0.79904 0.0078957
-0.024638 0.10898 0.99035 5.6239e-39 383.5 341 0 0 0 -0.38025 0.43233 -0.81762 0.0096725
0.0095427 0.10898 0.99035 6.1771e-39 413 341 0 0 0 0.31538 0.327 -0.89085 0.010245
0.010701 0.10898 0.99035 6.7303e-39 414 341 0 0 0 0.3396 0.3187 -0.88493 0.010628
0.013019 0.10898 0.99035 7.8366e-39 416 341 0 0 0 0.37747 0.32422 -0.86741 0.0092343
0.014763 0.10903 0.99075 8.021e-39 417.5 341 0 0 0 0.39734 0.32402 -0.85857 0.0085881
0.016508 0.10907 0.99115 8.1132e-39 419 341 0 0 0 0.41423 0.32545 -0.85 0.0081752
0.018842 0.10916 0.99194 7.3757e-39 421 341 0 0 0 0.44423 0.33109 -0.83249 0.0065129
-0.026798 0.11068 0.99168 3.0732e-39 448.33 341.33 0 0 0 -0.40932 0.4353 -0.80185 0.007514
-0.024658 0.11081 0.99115 3.6648e-39 401 341.5 0 0 0 -0.38074 0.44323 -0.81154 0.0083751
-0.0229 0.1113 0.99035 5.6239e-39 255 342 0 0 0 -0.35861 0.44762 -0.81916 0.0086731
-0.021741 0.1113 0.99035 5.9005e-39 256 342 0 0 0 -0.33408 0.44638 -0.83014 0.0095079
0.0095427 0.11072 0.99035 6.5459e-39 281 342 0 0 0 0.30796 0.35147 -0.8841 0.0095531
0.01128 0.11072 0.99035 6.4998e-39 282.5 342 0 0 0 0.34649 0.34616 -0.87185 0.0098233
0.013024 0.11077 0.99075 6.638e-39 284 342 0 0 0 0.37487 0.34353 -0.86108 0.0088633
0.014772 0.11083 0.99135 6.3154e-39 285.5 342 0 0 0 0.39909 0.34452 -0.84973 0.0081687
0.016521 0.11032 0.99194 7.1913e-39 190 342 0 0 0 0.41516 0.33877 -0.84432 0.0076595
-0.024484 0.11303 0.99194 7.1913e-39 358 342.33 0 0 0 -0.37458 0.45264 -0.8092 0.0072935
-0.022918 0.11313 0.99115 7.0069e-39 319.5 342.5 0 0 0 -0.35535 0.45586 -0.81604 0.0080079
-0.021175 0.11311 0.99095 7.03e-39 323.5 342.5 0 0 0 -0.32955 0.45817 -0.82552 0.0088696
-0.018651 0.11323 0.99035 7.2527e-39 285 342.67 0 0 0 -0.28172 0.45798 -0.84314 0.010103
-0.017107 0.11361 0.99035 6.6381e-39 205 343 0 0 0 -0.24897 0.45726 -0.85377 0.010048
0.009159 0.11326 0.99062 5.9312e-39 313.67 342.67 0 0 0 0.29766 0.38267 -0.87462 0.0088849
0.011288 0.11311 0.99095 5.8774e-39 387.5 342.5 0 0 0 0.34154 0.37287 -0.86274 0.0094929
0.013035 0.11317 0.99155 5.9466e-39 389 342.5 0 0 0 0.37823 0.37409 -0.84676 0.0083327
0.014587 0.11303 0.99194 5.0708e-39 440.67 342.33 0 0 0 0.39396 0.37016 -0.8413 0.0080678
-0.022918 0.11487 0.99115 6.1771e-39 385 343 0 0 0 -0.34962 0.46475 -0.81349 0.0074886
-0.021179 0.11487 0.99115 6.4537e-39 386.5 343 0 0 0 -0.32986 0.46618 -0.8209 0.0082081
-0.018845 0.11477 0.99035 6.0388e-39 388.5 343 0 0 0 -0.28151 0.46399 -0.83992 0.0097665
-0.017107 0.11477 0.99035 5.6239e-39 390 343 0 0 0 -0.24817 0.46423 -0.85024 0.0096349
-0.015368 0.11593 0.99035 1.89e-39 544.5 343 0 0 0 -0.2168 0.4773 -0.85158 0.0097483
-0.013052 0.11593 0.99035 1.6595e-39 546.5 343 0 0 0 -0.16361 0.47048 -0.86711 0.010733
-0.011313 0.11593 0.99035 1.6595e-39 548 343 0 0 0 -0.13777 0.4723 -0.8706 0.010636
0.004908 0.11535 0.99035 6.0389e-39 291 343.5 0 0 0 0.21558 0.42137 -0.8809 0.010157
0.006646 0.11535 0.99035 6.1541e-39 292.5 343.5 0 0 0 0.24377 0.41973 -0.8743 0.0094708
0.008971 0.11487 0.99115 7.0069e-39 412.5 343 0 0 0 0.29178 0.40703 -0.86556 0.0088577
0.011299 0.11496 0.99194 7.8366e-39 414.5 343 0 0 0 0.33548 0.40909 -0.84859 0.0088344
-0.022937 0.11612 0.99194 6.1771e-39 538 343 0 0 0 -0.34921 0.47015 -0.81056 0.0069618
-0.021003 0.11651 0.99194 6.1771e-39 439.33 343.33 0 0 0 -0.32705 0.47688 -0.81586 0.0075313
-0.018868 0.11665 0.99155 5.6009e-39 391.5 343.5 0 0 0 -0.28662 0.4798 -0.82924 0.008339
-0.01712 0.1166 0.99115 4.7942e-39 393.5 343.5 0 0 0 -0.24884 0.48118 -0.84056 0.0087944
-0.015375 0.11714 0.99075 6.4537e-39 245.5 344 0 0 0 -0.21831 0.48577 -0.84639 0.0092785
-0.013052 0.11709 0.99035 5.8544e-39 247.5 344 0 0 0 -0.16618 0.48296 -0.85973 0.010275
-0.011313 0.11709 0.99035 6.0849e-39 249 344 0 0 0 -0.13502 0.48297 -0.86517 0.01055
-0.0078373 0.11709 0.99035 6.0849e-39 252 344 0 0 0 -0.057118 0.47531 -0.87796 0.011572
0.001432 0.11709 0.99035 5.7161e-39 260 344 0 0 0 0.13994 0.44718 -0.88343 0.011564
0.0037493 0.11709 0.99035 6.1771e-39 262 344 0 0 0 0.19017 0.44265 -0.8763 0.010659
0.0049119 0.11718 0.99115 6.5459e-39 263 344 0 0 0 0.21799 0.44662 -0.86776 0.010052
0.0066513 0.11718 0.99115 6.0849e-39 264.5 344 0 0 0 0.2441 0.43854 -0.86493 0.0095136
0.0087821 0.11648 0.99168 5.7468e-39 210 344 0 0 0 0.28851 0.43015 -0.85541 0.0087919
-0.017134 0.11844 0.99194 7.56e-39 416 344 0 0 0 -0.24721 0.49681 -0.83191 0.0081005
-0.015196 0.11879 0.99168 6.9147e-39 337.67 344.33 0 0 0 -0.2113 0.50101 -0.83925 0.0083618
-0.013059 0.1189 0.99095 7.0069e-39 299.5 344.5 0 0 0 -0.16484 0.50156 -0.84927 0.009357
-0.01093 0.11905 0.99062 7.2527e-39 261.33 344.67 0 0 0 -0.12933 0.49822 -0.85735 0.0099885
-0.008996 0.11941 0.99035 7.0991e-39 183 345 0 0 0 -0.089607 0.49897 -0.86197 0.010131
-0.007258 0.11883 0.99035 7.4679e-39 304.5 344.5 0 0 0 -0.054215 0.49082 -0.86957 0.011183
-0.0043613 0.11941 0.99035 7.0991e-39 187 345 0 0 0 0.015146 0.48854 -0.87241 0.011886
-0.0032027 0.11941 0.99035 7.4678e-39 188 345 0 0 0 0.039665 0.48739 -0.87228 0.011966
-0.00088534 0.11883 0.99035 7.1452e-39 310 344.5 0 0 0 0.08811 0.47067 -0.8779 0.012017
0.00085299 0.11887 0.99075 7.2835e-39 311.5 344.5 0 0 0 0.1235 0.47518 -0.87118 0.011915
0.0031715 0.11887 0.99075 7.5831e-39 314 344.5 0 0 0 0.17798 0.46956 -0.86478 0.010991
0.0049159 0.11902 0.99194 7.56e-39 315.5 344.5 0 0 0 0.21508 0.47348 -0.85414 0.010223
0.0066566 0.11844 0.99194 7.6522e-39 437.5 344 0 0 0 0.24335 0.46142 -0.85315 0.0093385
-0.013073 0.12076 0.99194 5.4856e-39 276.5 345 0 0 0 -0.16898 0.51785 -0.83861 0.0084018
-0.010555 0.12111 0.99168 6.0234e-39 332 345 0 0 0 -0.12491 0.51803 -0.84619 0.0086525
-0.0089996 0.1212 0.99075 5.8544e-39 360 345 0 0 0 -0.088137 0.5149 -0.85271 0.0096642
-0.0072667 0.12129 0.99155 5.8314e-39 361.5 345 0 0 0 -0.054467 0.51658 -0.8545 0.0099332
-0.0049426 0.12119 0.99075 5.5547e-39 363.5 345 0 0 0 -0.0022358 0.50812 -0.86128 0.011257
-0.002625 0.12122 0.99095 4.9786e-39 365.5 345 0 0 0 0.045723 0.5059 -0.86138 0.01159
-0.00088569 0.1212 0.99075 5.4395e-39 405.5 345 0 0 0 0.088334 0.4994 -0.86186 0.011814
0.00085368 0.12129 0.99155 5.9927e-39 407 345 0 0 0 0.12399 0.50287 -0.85542 0.011734
0.002981 0.12111 0.99168 5.5317e-39 395 345 0 0 0 0.1694 0.50084 -0.8488 0.010762
-0.0049486 0.12308 0.99194 6.6842e-39 201.5 346 0 0 0 -0.0093566 0.53166 -0.84691 0.010346
-0.0026276 0.12308 0.99194 6.7764e-39 203.5 346 0 0 0 0.041373 0.52696 -0.84888 0.01111
-0.00088676 0.12308 0.99194 6.5459e-39 205 346 0 0 0 0.07914 0.5263 -0.84661 0.011348
-0.038054 0.09879 0.99274 4.1488e-39 173 338 0 0 0 -0.56968 0.38057 -0.72845 0.0081507
-0.036922 0.10119 0.99354 5.5317e-39 473 338 0 0 0 -0.55707 0.37331 -0.74183 0.0073222
-0.034966 0.10269 0.99301 6.2078e-39 280 339 0 0 0 -0.53721 0.38247 -0.75175 0.0074897
-0.033408 0.10344 0.99274 5.8083e-39 414 339 0 0 0 -0.51299 0.39116 -0.76409 0.0080638
0.020019 0.10344 0.99274 5.3473e-39 458 339 0 0 0 0.46626 0.27732 -0.84005 0.0067139
-0.032643 0.10501 0.99301 4.1488e-39 193.67 340 0 0 0 -0.50398 0.39921 -0.76592 0.0074001
0.017696 0.10576 0.99274 5.9005e-39 358 340 0 0 0 0.43524 0.29777 -0.84965 0.0073237
0.018857 0.10518 0.99274 6.2232e-39 274 340 0 0 0 0.45124 0.29589 -0.84192 0.0066507
0.020019 0.10518 0.99274 6.1311e-39 275.5 340 0 0 0 0.46203 0.29368 -0.83683 0.0065687
-0.032273 0.10701 0.99354 6.9147e-39 416 340 0 0 0 -0.49367 0.40466 -0.76977 0.0067599
0.017696 0.10692 0.99274 5.2552e-39 459 340 0 0 0 0.4337 0.30912 -0.84638 0.007212
0.018857 0.10692 0.99274 5.163e-39 460 340 0 0 0 0.44982 0.31151 -0.83703 0.0063547
0.020019 0.10692 0.99274 4.8864e-39 461 340 0 0 0 0.45795 0.31039 -0.83303 0.0062421
-0.031085 0.10924 0.99274 6.3615e-39 378 341 0 0 0 -0.46412 0.41787 -0.78101 0.0065533
-0.029344 0.10924 0.99274 6.0849e-39 379.5 341 0 0 0 -0.44342 0.42579 -0.78872 0.0066355
0.017696 0.10866 0.99274 7.2835e-39 319 341 0 0 0 0.43211 0.3299 -0.83931 0.0071985
0.020019 0.10866 0.99274 6.6841e-39 325 341 0 0 0 0.45553 0.32719 -0.82791 0.0060451
-0.03111 0.11049 0.99354 2.2127e-39 543 341 0 0 0 -0.46109 0.42101 -0.78112 0.0061474
-0.029367 0.11049 0.99354 1.7978e-39 544.5 341 0 0 0 -0.4428 0.42838 -0.78767 0.0061582
-0.027601 0.11157 0.99274 6.4537e-39 251 342 0 0 0 -0.4204 0.43515 -0.79618 0.0064706
0.017313 0.11121 0.99301 6.2693e-39 320 342 0 0 0 0.42725 0.35077 -0.83332 0.0068806
0.018865 0.11103 0.99314 6.7303e-39 289 342 0 0 0 0.44258 0.35042 -0.82543 0.0063447
0.020035 0.11049 0.99354 7.0991e-39 193 342 0 0 0 0.45596 0.34957 -0.81848 0.0056648
-0.026841 0.11318 0.99327 7.4679e-39 355 342.33 0 0 0 -0.40592 0.44426 -0.79866 0.0062676
-0.025278 0.11389 0.99274 6.9147e-39 198 343 0 0 0 -0.38267 0.45514 -0.804 0.0068004
0.015373 0.11389 0.99274 5.9005e-39 240 343 0 0 0 0.4037 0.37956 -0.83244 0.0077381
0.016548 0.1134 0.99354 4.1488e-39 392 342.5 0 0 0 0.41892 0.37468 -0.82711 0.0070575
-0.026461 0.11514 0.99354 5.7161e-39 382 343 0 0 0 -0.39364 0.45745 -0.79736 0.0059295
-0.024698 0.11505 0.99274 5.7161e-39 383.5 343 0 0 0 -0.37259 0.46439 -0.80344 0.0064487
0.01305 0.11505 0.99274 8.2976e-39 416 343 0 0 0 0.37195 0.40632 -0.8346 0.0082095
0.014804 0.11514 0.99354 8.021e-39 417.5 343 0 0 0 0.39825 0.39777 -0.82655 0.0078591
-0.024126 0.11684 0.99314 5.8544e-39 353.5 343.5 0 0 0 -0.36221 0.47213 -0.80368 0.0060311
-0.022955 0.11737 0.99274 5.5317e-39 236 344 0 0 0 -0.34854 0.47627 -0.80727 0.0064953
-0.021794 0.11737 0.99274 5.5317e-39 237 344 0 0 0 -0.33493 0.48023 -0.81068 0.0066661
0.0095657 0.11737 0.99274 5.6239e-39 278 344 0 0 0 0.30219 0.44726 -0.84181 0.0083979
0.011313 0.11684 0.99314 5.5087e-39 229 344 0 0 0 0.33399 0.43674 -0.83529 0.0083952
0.013061 0.11631 0.99354 6.4537e-39 180 344 0 0 0 0.37132 0.42004 -0.82806 0.0079914
0.014223 0.11631 0.99354 6.6381e-39 181 344 0 0 0 0.3825 0.41643 -0.82479 0.0078736
-0.02123 0.11863 0.99354 7.3296e-39 412.5 344 0 0 0 -0.32449 0.48956 -0.80934 0.0063456
-0.018701 0.11895 0.99301 6.9454e-39 334.67 344.33 0 0 0 -0.28154 0.50016 -0.81888 0.007008
-0.017148 0.1197 0.99274 5.9005e-39 176 345 0 0 0 -0.25076 0.50784 -0.82414 0.0074038
-0.015986 0.1197 0.99274 6.1771e-39 177 345 0 0 0 -0.22944 0.51042 -0.82875 0.0074362
0.0066621 0.1197 0.99274 7.0991e-39 196.5 345 0 0 0 0.24405 0.47995 -0.84266 0.0092211
0.0089888 0.11916 0.99314 6.8917e-39 319 344.5 0 0 0 0.29091 0.47169 -0.8324 0.0081483
-0.017162 0.12095 0.99354 6.2693e-39 263 345 0 0 0 -0.25437 0.51899 -0.81605 0.0063695
-0.015412 0.1209 0.99314 6.0388e-39 264.5 345 0 0 0 -0.21869 0.5213 -0.82488 0.0068436
0.0049198 0.12086 0.99274 5.2552e-39 369 345 0 0 0 0.21289 0.49572 -0.84198 0.0098781
0.0066621 0.12086 0.99274 5.67e-39 370.5 345 0 0 0 0.24326 0.49005 -0.83706 0.0090037
0.0084042 0.12086 0.99274 6.0849e-39 372 345 0 0 0 0.27394 0.48868 -0.82834 0.0082148
-0.014837 0.12212 0.99354 8.3898e-39 435 345 0 0 0 -0.20577 0.5285 -0.82362 0.0066814
-0.01328 0.12244 0.99301 7.6215e-39 355.67 345.33 0 0 0 -0.17857 0.53063 -0.82858 0.0073293
-0.01076 0.1226 0.99274 7.2835e-39 317.5 345.5 0 0 0 -0.12716 0.53262 -0.83674 0.0081639
-0.0090177 0.12318 0.99274 6.4537e-39 198 346 0 0 0 -0.090963 0.53767 -0.83823 0.0083098
-0.0072755 0.12318 0.99274 6.4537e-39 199.5 346 0 0 0 -0.056687 0.53451 -0.84326 0.0095773
0.00085474 0.12318 0.99274 6.131e-39 206.5 346 0 0 0 0.12394 0.52813 -0.84007 0.010888
0.0033722 0.12283 0.99301 5.7776e-39 289.33 345.67 0 0 0 0.17824 0.52148 -0.83444 0.010123
0.0049238 0.12212 0.99354 5.9005e-39 452 345 0 0 0 0.20548 0.51398 -0.83283 0.0095663
0.0060862 0.12212 0.99354 6.0849e-39 453 345 0 0 0 0.2308 0.51122 -0.82788 0.0091018
-0.009025 0.12444 0.99354 6.0849e-39 365 346 0 0 0 -0.096513 0.54685 -0.83165 0.007712
-0.0072814 0.12444 0.99354 5.7622e-39 366.5 346 0 0 0 -0.063943 0.54854 -0.83368 0.0086708
-0.0051477 0.12476 0.99301 5.1322e-39 395 346 0 0 0 -0.018555 0.55007 -0.83491 0.0094069
-0.0026296 0.12434 0.99274 5.9927e-39 371.5 346 0 0 0 0.037275 0.54359 -0.83852 0.010552
-0.00088783 0.12497 0.99314 5.8544e-39 411.5 346 0 0 0 0.076204 0.54872 -0.83253 0.010409
0.00085541 0.12444 0.99354 6.2232e-39 374.5 346 0 0 0 0.12745 0.54629 -0.82785 0.010205
0.002599 0.12444 0.99354 6.0849e-39 376 346 0 0 0 0.16216 0.541 -0.82524 0.0098443
-0.044003 0.096778 0.99594 8.021e-39 199 337 0 0 0 -0.61656 0.34646 -0.70698 0.0096651
-0.041673 0.097943 0.99594 6.1771e-39 411 337 0 0 0 -0.59829 0.35619 -0.71776 0.0088148
-0.040475 0.099029 0.99514 4.5176e-39 171 338 0 0 0 -0.59281 0.35354 -0.72359 0.008533
-0.039279 0.098949 0.99434 4.241e-39 172 338 0 0 0 -0.57967 0.36506 -0.7285 0.0079189
-0.038146 0.10019 0.99514 6.5459e-39 376 338 0 0 0 -0.56951 0.36898 -0.73452 0.0075235
-0.036982 0.10311 0.99514 6.3154e-39 311.5 339 0 0 0 -0.55393 0.36838 -0.74663 0.0066486
-0.035818 0.10369 0.99514 5.9005e-39 412 339 0 0 0 -0.54567 0.37187 -0.75096 0.0065266
0.023579 0.10377 0.99594 5.2552e-39 459 339 0 0 0 0.50646 0.29819 -0.80906 0.004721
0.024744 0.10318 0.99594 5.2091e-39 411.5 339 0 0 0 0.51839 0.28333 -0.80684 0.0052966
-0.034653 0.10485 0.99514 3.9644e-39 166 340 0 0 0 -0.53084 0.37608 -0.75946 0.0068093
-0.033462 0.10593 0.99434 5.9927e-39 245 340 0 0 0 -0.51276 0.38946 -0.76511 0.0073939
0.021214 0.10535 0.99434 6.4076e-39 276.5 340 0 0 0 0.47804 0.30412 -0.824 0.0058385
0.022987 0.10489 0.99554 7.3757e-39 192.5 340 0 0 0 0.49923 0.30318 -0.8117 0.0050432
-0.034681 0.1061 0.99594 5.9927e-39 244 340 0 0 0 -0.52563 0.38165 -0.7603 0.0066891
-0.033489 0.10718 0.99514 6.6381e-39 415 340 0 0 0 -0.51142 0.38959 -0.76595 0.0070565
0.021214 0.10709 0.99434 4.7942e-39 462 340 0 0 0 0.47428 0.31572 -0.82181 0.0056211
0.022983 0.10662 0.99534 5.3704e-39 413.5 340 0 0 0 0.49324 0.31798 -0.80969 0.0046081
-0.032325 0.10834 0.99514 3.319e-39 174 341 0 0 0 -0.49274 0.40518 -0.77009 0.0065152
0.021214 0.10884 0.99434 6.7764e-39 326 341 0 0 0 0.4694 0.32878 -0.81949 0.0055451
0.022784 0.10873 0.99514 6.6688e-39 295 341 0 0 0 0.48511 0.33375 -0.80826 0.0049333
-0.031161 0.11184 0.99514 5.9927e-39 248 342 0 0 0 -0.45921 0.42505 -0.78004 0.0055779
-0.029403 0.1118 0.99474 6.3615e-39 249.5 342 0 0 0 -0.44456 0.42952 -0.78605 0.0057735
0.020658 0.1113 0.99554 6.9607e-39 290.5 342 0 0 0 0.46413 0.36217 -0.80834 0.0050984
0.022414 0.11076 0.99594 7.8366e-39 195 342 0 0 0 0.48394 0.35556 -0.79961 0.0048715
-0.028832 0.113 0.99514 7.9288e-39 431 342 0 0 0 -0.43521 0.43658 -0.7874 0.0055321
0.017724 0.11291 0.99434 1.8439e-39 544 342 0 0 0 0.43045 0.37276 -0.82205 0.0065723
0.018888 0.11291 0.99434 1.7517e-39 545 342 0 0 0 0.44168 0.37138 -0.8167 0.0062097
0.020083 0.11309 0.99594 1.6595e-39 546 342 0 0 0 0.45965 0.37861 -0.80335 0.005427
-0.027657 0.1147 0.99474 6.7303e-39 288.5 343 0 0 0 -0.41513 0.45036 -0.79047 0.0052123
0.017351 0.11494 0.99514 7.4371e-39 360.67 343 0 0 0 0.42735 0.39464 -0.8134 0.0067884
0.018911 0.11479 0.99554 7.1452e-39 332.5 343 0 0 0 0.4452 0.39347 -0.80435 0.006094
0.020083 0.11426 0.99594 6.5459e-39 245 343 0 0 0 0.45882 0.38618 -0.80021 0.0057384
-0.026503 0.11707 0.99514 5.9466e-39 351.5 343.5 0 0 0 -0.39429 0.46834 -0.79069 0.0050121
-0.025329 0.11703 0.99474 6.0388e-39 352.5 343.5 0 0 0 -0.37865 0.4717 -0.79632 0.0053708
0.013071 0.11756 0.99434 4.7942e-39 281 344 0 0 0 0.36783 0.43859 -0.81996 0.0077395
0.015014 0.11721 0.99461 5.7161e-39 249.33 344 0 0 0 0.39317 0.42875 -0.81338 0.0075203
0.016574 0.11649 0.99514 6.6381e-39 183 344 0 0 0 0.4198 0.41137 -0.80904 0.0071236
-0.024175 0.11882 0.99514 8.7586e-39 410 344 0 0 0 -0.36442 0.48386 -0.79566 0.0051323
-0.022992 0.11873 0.99434 8.021e-39 411 344 0 0 0 -0.34791 0.48533 -0.80213 0.0057821
-0.021264 0.11999 0.99514 5.0247e-39 172.5 345 0 0 0 -0.32541 0.49912 -0.80311 0.0056656
-0.019502 0.11989 0.99434 5.0708e-39 174 345 0 0 0 -0.30094 0.50512 -0.80888 0.0059998
0.011326 0.11931 0.99434 6.7995e-39 321 344.5 0 0 0 0.33214 0.46675 -0.81965 0.0077875
0.013082 0.11882 0.99514 6.6381e-39 443 344 0 0 0 0.36323 0.46111 -0.8096 0.0075206
0.014257 0.11892 0.99594 6.1771e-39 444 344 0 0 0 0.38182 0.45872 -0.80237 0.0072769
-0.023029 0.12008 0.99594 5.0708e-39 171 345 0 0 0 -0.34756 0.49673 -0.79528 0.0052444
-0.018936 0.12115 0.99514 5.9927e-39 261.5 345 0 0 0 -0.28671 0.51979 -0.80474 0.0054061
0.0095811 0.12105 0.99434 6.0849e-39 373 345 0 0 0 0.29703 0.49052 -0.81925 0.0077475
0.011331 0.1211 0.99474 6.3615e-39 374.5 345 0 0 0 0.32894 0.48579 -0.80982 0.0073795
0.013092 0.12066 0.99594 6.5459e-39 289 345 0 0 0 0.3612 0.47933 -0.79986 0.0070416
0.014257 0.12008 0.99594 7.0991e-39 203 345 0 0 0 0.37702 0.46782 -0.79938 0.0070982
-0.018368 0.12241 0.99594 7.7444e-39 432 345 0 0 0 -0.27551 0.5297 -0.80219 0.0052282
-0.016413 0.1227 0.99514 7.8674e-39 353 345.33 0 0 0 -0.23924 0.53522 -0.81012 0.0055136
-0.014861 0.12348 0.99514 7.0069e-39 193 346 0 0 0 -0.21044 0.54424 -0.8121 0.0059007
-0.012522 0.12338 0.99434 7.4678e-39 195 346 0 0 0 -0.16496 0.54135 -0.82445 0.0073301
-0.011359 0.12338 0.99434 7.1913e-39 196 346 0 0 0 -0.14193 0.54405 -0.82696 0.00739
0.0049278 0.12338 0.99434 5.9927e-39 210 346 0 0 0 0.20806 0.52826 -0.82319 0.0091958
0.0068686 0.12303 0.99461 5.8698e-39 292.33 345.67 0 0 0 0.24289 0.52287 -0.81708 0.008511
0.0088104 0.12267 0.99487 5.4088e-39 374.67 345.33 0 0 0 0.28267 0.51022 -0.81227 0.0076219
0.010762 0.12241 0.99594 5.2552e-39 457 345 0 0 0 0.3216 0.50687 -0.79979 0.0070472
-0.013115 0.12464 0.99514 4.8864e-39 285.5 346 0 0 0 -0.17855 0.55334 -0.81359 0.0064323
-0.010592 0.12503 0.99514 5.5932e-39 364.33 346 0 0 0 -0.13132 0.55831 -0.81917 0.0071404
-0.0090395 0.12581 0.99514 5.8083e-39 443 346 0 0 0 -0.097526 0.5688 -0.81668 0.007339
-0.0072931 0.12581 0.99514 5.0247e-39 444.5 346 0 0 0 -0.061352 0.57073 -0.81884 0.008117
-0.0043789 0.12571 0.99434 4.7942e-39 447 346 0 0 0 0.0062068 0.56547 -0.82475 0.0094567
-0.0026339 0.12571 0.99434 5.5317e-39 448.5 346 0 0 0 0.040088 0.56688 -0.82282 0.0097075
0.00085612 0.12571 0.99434 5.7161e-39 451.5 346 0 0 0 0.12542 0.55916 -0.81952 0.0097313
0.0033777 0.12535 0.99461 5.8698e-39 428 346 0 0 0 0.17508 0.55401 -0.81389 0.0092405
0.0049337 0.12528 0.99554 5.5318e-39 416.5 346 0 0 0 0.20527 0.55311 -0.80742 0.0084278
0.0061009 0.12474 0.99594 6.2693e-39 379 346 0 0 0 0.22841 0.54755 -0.805 0.0080105
-0.0049686 0.12707 0.99594 6.6381e-39 204.5 347 0 0 0 -0.0076619 0.58959 -0.80767 0.0084753
-0.002636 0.12697 0.99514 6.1771e-39 206.5 347 0 0 0 0.038002 0.58329 -0.81137 0.0090408
-0.00088962 0.12697 0.99514 6.1771e-39 208 347 0 0 0 0.078362 0.5822 -0.80926 0.0090933
0.00085737 0.12702 0.99554 5.9466e-39 209.5 347 0 0 0 0.12084 0.58228 -0.80396 0.0088805
0.0026032 0.12697 0.99514 5.9927e-39 211 347 0 0 0 0.15691 0.57782 -0.80094 0.0086403
-0.042889 0.098646 0.99715 5.5318e-39 289.5 337.5 0 0 0 -0.61231 0.34329 -0.71221 0.0087771
-0.04174 0.099269 0.99755 4.7942e-39 170 338 0 0 0 -0.60515 0.34409 -0.71791 0.0084631
-0.040573 0.10044 0.99755 5.5317e-39 365 338 0 0 0 -0.59776 0.34515 -0.72357 0.0081518
-0.038996 0.10116 0.99702 5.9312e-39 436.33 338 0 0 0 -0.58079 0.35572 -0.73222 0.007286
0.025951 0.1016 0.99755 3.9644e-39 177 339 0 0 0 0.53895 0.2793 -0.79469 0.0053565
0.027118 0.10044 0.99755 7.4678e-39 423 338 0 0 0 0.54611 0.26829 -0.79359 0.0051587
0.029056 0.1008 0.99728 6.6995e-39 343 338.33 0 0 0 0.56192 0.26694 -0.78293 0.0070517
0.030595 0.10035 0.99675 7.0991e-39 426 338 0 0 0 0.56729 0.26531 -0.77961 0.0074851
-0.038208 0.10269 0.99675 6.4537e-39 211 339 0 0 0 -0.56596 0.36004 -0.74166 0.006637
-0.037072 0.1051 0.99755 4.241e-39 164 340 0 0 0 -0.55865 0.36663 -0.74397 0.0060434
-0.035905 0.1051 0.99755 4.3332e-39 165 340 0 0 0 -0.5455 0.37162 -0.75122 0.0061669
0.024764 0.10502 0.99675 7.0991e-39 194 340 0 0 0 0.51482 0.30688 -0.80049 0.0047322
-0.034737 0.10744 0.99755 6.0849e-39 414 340 0 0 0 -0.52752 0.38499 -0.7573 0.0063319
0.024764 0.10677 0.99675 5.7622e-39 415 340 0 0 0 0.51477 0.32223 -0.79447 0.0044597
-0.033163 0.10932 0.99702 5.1015e-39 308.67 341 0 0 0 -0.50276 0.40195 -0.76529 0.0063901
0.023598 0.10968 0.99675 8.3898e-39 425 341 0 0 0 0.50103 0.34874 -0.79205 0.0042789
0.024774 0.10915 0.99715 7.053e-39 329 341 0 0 0 0.51156 0.34393 -0.78741 0.0043451
-0.032403 0.11094 0.99755 3.319e-39 542 341 0 0 0 -0.4881 0.41511 -0.76775 0.005874
0.023617 0.11094 0.99755 7.8366e-39 196 342 0 0 0 0.50138 0.36106 -0.78629 0.0044202
0.021274 0.11265 0.99715 3.9644e-39 467.5 342 0 0 0 0.47125 0.37568 -0.79799 0.0052294
0.022441 0.11265 0.99715 3.78e-39 468.5 342 0 0 0 0.48459 0.3732 -0.79113 0.0048964
-0.028879 0.11551 0.99675 6.3615e-39 380 343 0 0 0 -0.42895 0.45271 -0.7817 0.0048525
0.0201 0.11551 0.99675 7.7444e-39 422 343 0 0 0 0.458 0.40258 -0.79257 0.0060417
-0.028902 0.11678 0.99755 6.3615e-39 468 343 0 0 0 -0.42882 0.45796 -0.77871 0.0046552
-0.027712 0.11668 0.99675 6.0849e-39 469 343 0 0 0 -0.41242 0.46355 -0.78424 0.0049519
0.017383 0.11749 0.99702 5.5625e-39 251.67 344 0 0 0 0.43133 0.43236 -0.79184 0.0069735
0.018941 0.11731 0.99715 6.3154e-39 274.5 344 0 0 0 0.44491 0.42889 -0.7862 0.0068865
0.020116 0.11678 0.99755 6.9147e-39 186 344 0 0 0 0.45978 0.42188 -0.78142 0.0063593
-0.026568 0.11911 0.99755 8.943e-39 408 344 0 0 0 -0.39481 0.48003 -0.78339 0.0045387
-0.02538 0.11901 0.99675 9.1274e-39 409 344 0 0 0 -0.37783 0.48417 -0.78919 0.0048008
0.015435 0.11901 0.99675 5.8083e-39 445 344 0 0 0 0.39637 0.45559 -0.79708 0.0070887
-0.024214 0.12018 0.99675 4.8864e-39 170 345 0 0 0 -0.36372 0.49258 -0.79061 0.004928
-0.023067 0.12144 0.99755 6.0849e-39 258 345 0 0 0 -0.34628 0.51111 -0.78668 0.0046005
-0.021299 0.12135 0.99675 6.0849e-39 259.5 345 0 0 0 -0.32212 0.51449 -0.79469 0.004912
0.015051 0.12099 0.99702 6.3615e-39 319.67 345 0 0 0 0.38703 0.48189 -0.78612 0.0067984
-0.020732 0.12261 0.99755 7.2835e-39 430 345 0 0 0 -0.31247 0.52667 -0.79056 0.0045596
-0.018973 0.12314 0.99715 7.2835e-39 310.5 345.5 0 0 0 -0.28723 0.53586 -0.79395 0.004847
-0.017217 0.12368 0.99675 6.7303e-39 191 346 0 0 0 -0.2589 0.54197 -0.79952 0.0049532
0.0096043 0.12368 0.99675 6.6381e-39 214 346 0 0 0 0.29941 0.52872 -0.79423 0.0069462
0.011358 0.12314 0.99715 6.2693e-39 336.5 345.5 0 0 0 0.33074 0.51882 -0.78831 0.0066542
0.013113 0.12261 0.99755 5.8083e-39 459 345 0 0 0 0.35823 0.50938 -0.78243 0.0063908
0.01428 0.12261 0.99755 5.3473e-39 460 345 0 0 0 0.3782 0.50389 -0.77657 0.0061962
-0.016647 0.12494 0.99755 5.3473e-39 282.5 346 0 0 0 -0.24664 0.55662 -0.79331 0.004601
-0.014885 0.12484 0.99675 5.5317e-39 284 346 0 0 0 -0.21581 0.55777 -0.80145 0.0053609
0.007272 0.12484 0.99675 6.5459e-39 380 346 0 0 0 0.25209 0.5507 -0.79573 0.0074025
0.0084381 0.12484 0.99675 6.3615e-39 381 346 0 0 0 0.27071 0.54829 -0.79126 0.0071518
-0.013334 0.12643 0.99702 6.6688e-39 358.67 346.33 0 0 0 -0.18423 0.5732 -0.79843 0.0058677
-0.010813 0.1267 0.99755 6.5459e-39 320.5 346.5 0 0 0 -0.139 0.58383 -0.79988 0.006473
-0.0090614 0.12728 0.99755 6.8225e-39 201 347 0 0 0 -0.097683 0.59203 -0.79997 0.0071533
-0.0073081 0.12723 0.99715 6.592e-39 202.5 347 0 0 0 -0.056734 0.59556 -0.80131 0.0077794
0.0037735 0.12718 0.99675 5.9005e-39 213 347 0 0 0 0.18369 0.58845 -0.78739 0.0080357
0.0049437 0.12728 0.99755 6.5459e-39 214 347 0 0 0 0.20409 0.59129 -0.78021 0.0074503
0.0064982 0.12647 0.99728 5.7469e-39 376 346.33 0 0 0 0.23548 0.57671 -0.78227 0.0071096
0.008445 0.12611 0.99755 5.8083e-39 458 346 0 0 0 0.26707 0.57021 -0.77687 0.0065435
-0.0049766 0.12845 0.99755 5.9927e-39 365.5 347 0 0 0 -0.0086774 0.61137 -0.7913 0.0081131
-0.0026424 0.12845 0.99755 5.8083e-39 370.5 347 0 0 0 0.040618 0.61211 -0.78973 0.0085602
-0.00089177 0.12845 0.99755 6.1771e-39 372 347 0 0 0 0.084456 0.6103 -0.78765 0.008701
0.00027532 0.12845 0.99755 6.2693e-39 373 347 0 0 0 0.10723 0.61091 -0.78441 0.0090027
0.0026095 0.12845 0.99755 5.9927e-39 375 347 0 0 0 0.16335 0.60898 -0.77619 0.0081987
-0.046483 0.095922 0.99917 6.9147e-39 454 336 0 0 0 -0.66068 0.32535 -0.6765 0.010794
-0.045314 0.097091 0.99917 7.2835e-39 198 337 0 0 0 -0.6467 0.33056 -0.68739 0.010692
0.032981 0.097013 0.99836 5.7161e-39 380 337 0 0 0 0.61186 0.22968 -0.75688 0.018759
0.034204 0.09717 0.99998 5.8083e-39 381 337 0 0 0 0.61699 0.23125 -0.75223 0.020679
-0.044128 0.098805 0.99876 5.1168e-39 288.5 337.5 0 0 0 -0.62999 0.32877 -0.70358 0.0096565
0.031812 0.099349 0.99836 5.9927e-39 231 338 0 0 0 0.59808 0.25656 -0.75926 0.012606
0.033007 0.098844 0.99917 6.131e-39 385 337.5 0 0 0 0.61111 0.24503 -0.75267 0.016614
0.034204 0.098925 0.99998 5.8544e-39 386 337.5 0 0 0 0.61621 0.24926 -0.7471 0.017707
-0.043011 0.10068 0.99998 5.2552e-39 363 338 0 0 0 -0.62583 0.33281 -0.70539 0.0086284
-0.041429 0.10141 0.99944 5.7776e-39 434.33 338 0 0 0 -0.60623 0.34382 -0.71713 0.0076666
0.02714 0.10168 0.99836 3.9644e-39 178 339 0 0 0 0.54638 0.28042 -0.7892 0.0053963
0.028308 0.10168 0.99836 4.6098e-39 179 339 0 0 0 0.55956 0.27588 -0.78153 0.0068881
0.031431 0.10132 0.99863 5.4703e-39 263.33 338.67 0 0 0 0.59438 0.26715 -0.75851 0.011091
0.033021 0.10123 0.99958 6.1772e-39 305.5 338.5 0 0 0 0.61028 0.26482 -0.74661 0.013817
-0.04124 0.10298 0.99958 7.1452e-39 208.5 339 0 0 0 -0.60175 0.34609 -0.71981 0.007454
-0.039438 0.10285 0.99836 6.9147e-39 210 339 0 0 0 -0.58492 0.35177 -0.73084 0.0071826
0.025972 0.10285 0.99836 5.4395e-39 364 339 0 0 0 0.53999 0.2904 -0.78999 0.005208
0.02714 0.10285 0.99836 5.7161e-39 365 339 0 0 0 0.54674 0.29171 -0.78484 0.0052689
0.028903 0.10289 0.99876 6.0388e-39 372 339 0 0 0 0.56482 0.28919 -0.77288 0.0065886
0.030694 0.10302 0.99998 5.9005e-39 379 339 0 0 0 0.59579 0.28684 -0.75017 0.010234
-0.040671 0.10419 0.99998 6.2693e-39 408 339 0 0 0 -0.59858 0.34956 -0.72077 0.0071077
-0.038878 0.10467 0.99897 5.3243e-39 286 339.5 0 0 0 -0.57956 0.35621 -0.73295 0.0067552
0.025972 0.10461 0.99836 6.1311e-39 328 339.5 0 0 0 0.53362 0.30688 -0.78808 0.0047213
0.027162 0.10469 0.99917 6.3154e-39 329 339.5 0 0 0 0.54631 0.308 -0.7789 0.0051081
0.028921 0.10471 0.99937 6.5459e-39 330.5 339.5 0 0 0 0.55905 0.30949 -0.76921 0.0050893
0.030694 0.10419 0.99998 5.7161e-39 465 339 0 0 0 0.594 0.29386 -0.74888 0.009596
-0.038917 0.10712 0.99998 5.9696e-39 323.5 340 0 0 0 -0.57937 0.36384 -0.72935 0.0067319
-0.037117 0.10699 0.99876 5.9005e-39 325 340 0 0 0 -0.55465 0.37145 -0.74457 0.0059371
-0.035934 0.10695 0.99836 5.9466e-39 326 340 0 0 0 -0.54613 0.37835 -0.74739 0.0060083
0.025972 0.10695 0.99836 5.8083e-39 416 340 0 0 0 0.53087 0.3252 -0.78257 0.0043229
0.027173 0.10707 0.99958 6.0388e-39 421.5 340 0 0 0 0.54614 0.32382 -0.77258 0.0051673
0.028744 0.10692 0.99998 6.0849e-39 408.33 340 0 0 0 0.55606 0.32542 -0.76479 0.0050782
-0.037162 0.10887 0.99998 4.1488e-39 170 341 0 0 0 -0.5548 0.38296 -0.73861 0.0057057
-0.035174 0.10914 0.9989 4.1488e-39 239.33 341 0 0 0 -0.532 0.39006 -0.75155 0.005828
0.025982 0.10932 0.99876 6.9147e-39 330 341 0 0 0 0.52685 0.34579 -0.77644 0.004174
0.027184 0.10887 0.99998 5.7161e-39 234 341 0 0 0 0.54575 0.3427 -0.76466 0.0048451
0.028354 0.10887 0.99998 5.6239e-39 235 341 0 0 0 0.55155 0.34183 -0.76089 0.0047822
-0.037162 0.11004 0.99998 5.5317e-39 372 341 0 0 0 -0.55138 0.38624 -0.73946 0.0057549
-0.035593 0.11079 0.99971 5.8698e-39 484 341 0 0 0 -0.53324 0.39804 -0.74647 0.0055938
-0.033597 0.11103 0.99836 4.7942e-39 541 341 0 0 0 -0.50726 0.40696 -0.75965 0.0058241
0.024804 0.11103 0.99836 7.56e-39 197 342 0 0 0 0.51435 0.36247 -0.77721 0.0040346
0.026014 0.11121 0.99998 7.0991e-39 198 342 0 0 0 0.52924 0.37034 -0.76339 0.0044362
-0.034822 0.11238 0.99998 6.2693e-39 245 342 0 0 0 -0.5212 0.41227 -0.74725 0.0056713
-0.033034 0.11285 0.99897 6.8685e-39 338 342 0 0 0 -0.49511 0.41887 -0.76119 0.005457
0.023645 0.11283 0.99876 3.5956e-39 469.5 342 0 0 0 0.50412 0.37992 -0.77558 0.004844
0.024834 0.11292 0.99958 5.3012e-39 272.5 342.5 0 0 0 0.51947 0.3885 -0.76106 0.0048315
0.026014 0.11238 0.99998 5.9927e-39 392 342 0 0 0 0.52795 0.38238 -0.75832 0.004813
-0.033054 0.11526 0.99958 6.9377e-39 286 343 0 0 0 -0.48927 0.43481 -0.75601 0.0050463
-0.031261 0.1157 0.99836 6.4537e-39 379 343 0 0 0 -0.46032 0.44492 -0.76821 0.004676
0.0213 0.11512 0.99836 7.0991e-39 334.5 343 0 0 0 0.47763 0.4073 -0.77845 0.0055837
0.023061 0.11516 0.99876 7.0068e-39 336 343 0 0 0 0.49658 0.4093 -0.76543 0.0051039
0.024844 0.1153 0.99998 7.1452e-39 337.5 343 0 0 0 0.51651 0.41287 -0.75017 0.0055915
-0.033652 0.11706 0.99998 5.4395e-39 464 343 0 0 0 -0.49057 0.44238 -0.75076 0.0048299
-0.03069 0.11692 0.99876 5.9927e-39 466.5 343 0 0 0 -0.45162 0.45298 -0.76866 0.0045564
0.0213 0.11687 0.99836 7.2835e-39 187 344 0 0 0 0.47467 0.42139 -0.77273 0.006039
0.023072 0.11696 0.99917 7.4218e-39 188.5 344 0 0 0 0.49304 0.42553 -0.75884 0.0056441
-0.030727 0.11823 0.99998 5.5778e-39 229.5 344 0 0 0 -0.4528 0.46179 -0.7627 0.0044693
-0.02896 0.11876 0.99958 6.8224e-39 318.5 344 0 0 0 -0.42688 0.47209 -0.7713 0.0044154
-0.027769 0.11867 0.99876 7.3757e-39 319.5 344 0 0 0 -0.41375 0.47367 -0.77746 0.0045223
0.017219 0.11925 0.99876 5.4395e-39 446.5 344 0 0 0 0.42726 0.46647 -0.7745 0.0069124
0.018979 0.1193 0.99917 5.9005e-39 448 344 0 0 0 0.45084 0.46136 -0.76413 0.0066449
0.020733 0.11872 0.99917 5.7852e-39 407.5 344 0 0 0 0.47139 0.4473 -0.76008 0.0063739
0.022496 0.11876 0.99958 5.4856e-39 409 344 0 0 0 0.48818 0.44889 -0.74845 0.0064555
-0.027008 0.12089 0.99944 5.1015e-39 196.67 345 0 0 0 -0.399 0.49431 -0.77231 0.0043665
-0.025045 0.12122 0.9989 5.4395e-39 227.33 345 0 0 0 -0.37207 0.50444 -0.77917 0.004513
0.017036 0.12089 0.99944 6.3922e-39 263.33 345 0 0 0 0.42307 0.48866 -0.76304 0.0062713
0.018987 0.12111 0.99958 6.2232e-39 294 345 0 0 0 0.44846 0.4866 -0.74974 0.0061678
0.020165 0.12057 0.99998 5.9927e-39 208 345 0 0 0 0.46531 0.475 -0.7469 0.0065065
-0.024273 0.12281 0.99917 7.6522e-39 427 345 0 0 0 -0.35811 0.51943 -0.77586 0.0043978
-0.023104 0.12339 0.99917 7.053e-39 307 345.5 0 0 0 -0.34276 0.52742 -0.7774 0.004108
-0.021534 0.12352 0.99863 7.2528e-39 268 345.67 0 0 0 -0.32456 0.53278 -0.78154 0.004284
-0.019581 0.12388 0.99836 7.0991e-39 189 346 0 0 0 -0.29689 0.54057 -0.78717 0.0043863
0.011956 0.12388 0.99836 6.7303e-39 216 346 0 0 0 0.34408 0.53075 -0.77454 0.0058701
0.013124 0.12388 0.99836 6.3615e-39 217 346 0 0 0 0.35878 0.52909 -0.76899 0.0055978
0.015075 0.12352 0.99863 5.8391e-39 299.33 345.67 0 0 0 0.39023 0.51788 -0.76126 0.005516
0.016655 0.12291 0.99998 4.9786e-39 462 345 0 0 0 0.41741 0.51296 -0.75009 0.0054713
-0.024292 0.12408 0.99998 6.7303e-39 185 346 0 0 0 -0.35711 0.529 -0.76982 0.0041856
-0.023123 0.12525 0.99998 5.4395e-39 277 346 0 0 0 -0.33745 0.54153 -0.76998 0.0037611
-0.021359 0.1252 0.99958 5.209e-39 278.5 346 0 0 0 -0.31668 0.5475 -0.77457 0.0039445
-0.019005 0.1251 0.99876 4.7942e-39 280.5 346 0 0 0 -0.28536 0.55328 -0.78259 0.0042732
0.0096198 0.12505 0.99836 6.1771e-39 382 346 0 0 0 0.30172 0.55215 -0.77724 0.0063555
0.011386 0.1252 0.99958 6.2693e-39 383.5 346 0 0 0 0.33693 0.5585 -0.758 0.0050291
0.013145 0.12525 0.99998 6.3615e-39 385 346 0 0 0 0.36163 0.55709 -0.74758 0.0043986
0.014315 0.12525 0.99998 6.1771e-39 386 346 0 0 0 0.3744 0.55049 -0.74618 0.0045925
-0.020783 0.12642 0.99998 7.8366e-39 433 346 0 0 0 -0.30844 0.55686 -0.77122 0.0038564
-0.01902 0.12637 0.99958 8.7125e-39 434.5 346 0 0 0 -0.28278 0.563 -0.77657 0.00404
-0.016674 0.1269 0.99917 7.8136e-39 315.5 346.5 0 0 0 -0.24077 0.57701 -0.78044 0.0045082
-0.014915 0.12685 0.99876 7.1913e-39 317 346.5 0 0 0 -0.2154 0.57934 -0.78611 0.0051325
-0.012573 0.12738 0.99836 6.2693e-39 198 347 0 0 0 -0.17001 0.59013 -0.78921 0.0060639
-0.011414 0.12748 0.99917 6.4537e-39 199 347 0 0 0 -0.14743 0.59785 -0.78794 0.006332
0.0072837 0.12738 0.99836 6.6381e-39 216 347 0 0 0 0.24899 0.59363 -0.76525 0.0064763
0.0092383 0.1271 0.99917 6.2078e-39 298 346.67 0 0 0 0.28817 0.58771 -0.75602 0.0055027
0.010801 0.12696 0.99958 5.8083e-39 339.5 346.5 0 0 0 0.31707 0.58262 -0.74834 0.0047937
-0.013173 0.12929 0.99958 6.7072e-39 360 347 0 0 0 -0.17616 0.60933 -0.7731 0.0056848
-0.010635 0.12904 0.99917 5.1937e-39 336.67 347 0 0 0 -0.12678 0.61429 -0.77883 0.0065312
-0.009076 0.12924 0.99917 5.3012e-39 363.5 347 0 0 0 -0.093983 0.61968 -0.77921 0.0069063
-0.0073213 0.12921 0.99897 5.7161e-39 383.75 347 0 0 0 -0.057817 0.62261 -0.78039 0.0074496
-0.0049824 0.12977 0.99876 5.5778e-39 443.5 347 0 0 0 -0.0020863 0.6328 -0.77431 0.0079481
-0.0026454 0.12977 0.99876 4.7481e-39 445.5 347 0 0 0 0.043849 0.63236 -0.77344 0.0080831
-0.00089249 0.12972 0.99836 4.7942e-39 447 347 0 0 0 0.084157 0.62956 -0.77238 0.0084775
0.0010551 0.12943 0.99917 5.7776e-39 423.67 347 0 0 0 0.13617 0.63083 -0.76388 0.0081272
0.0033923 0.1294 0.9989 5.839e-39 425.67 347 0 0 0 0.17727 0.62548 -0.75984 0.0075811
0.0049517 0.12865 0.99917 5.8083e-39 377 347 0 0 0 0.20529 0.61917 -0.75794 0.0072453
0.0067081 0.1287 0.99958 6.131e-39 378.5 347 0 0 0 0.24121 0.61306 -0.75231 0.0064079
-0.010253 0.1311 0.99998 6.9147e-39 194 348 0 0 0 -0.11464 0.63235 -0.76616 0.0069643
-0.0067436 0.1311 0.99998 6.3615e-39 197 348 0 0 0 -0.034106 0.64484 -0.76355 0.0076094
-0.0049886 0.1311 0.99998 6.4076e-39 198.5 348 0 0 0 -0.0013187 0.64865 -0.76108 0.0078031
-0.0026488 0.1311 0.99998 6.9608e-39 200.5 348 0 0 0 0.047004 0.64942 -0.75897 0.0079083
-0.00089394 0.1311 0.99998 6.5459e-39 202 348 0 0 0 0.088602 0.64927 -0.75538 0.0080887
0.00027599 0.1311 0.99998 6.4537e-39 203 348 0 0 0 0.11615 0.64728 -0.75335 0.008538
0.0026158 0.1311 0.99998 6.1771e-39 206 348 0 0 0 0.16268 0.64633 -0.74552 0.0080766
-0.046597 0.097328 1.0016 7.2835e-39 197 337 0 0 0 -0.67399 0.30922 -0.67091 0.012237
-0.045406 0.099046 1.0012 4.702e-39 287.5 337.5 0 0 0 -0.66096 0.31717 -0.6801 0.0098394
-0.044217 0.10076 1.0008 5.2552e-39 362 338 0 0 0 -0.63996 0.32452 -0.69652 0.0089692
-0.043046 0.10193 1.0008 5.8083e-39 468 338 0 0 0 -0.63064 0.32805 -0.70333 0.008771
0.034632 0.10118 1.0011 6.5766e-39 347.67 338.33 0 0 0 0.62098 0.2722 -0.73504 0.015374
-0.044253 0.1026 1.0016 6.3615e-39 336.5 338.5 0 0 0 -0.64183 0.32743 -0.69343 0.0085038
-0.043046 0.1031 1.0008 7.3757e-39 207 339 0 0 0 -0.62873 0.33274 -0.70284 0.0084905
0.03189 0.1031 1.0008 5.7161e-39 380 339 0 0 0 0.61053 0.28484 -0.739 0.011689
0.033061 0.1031 1.0008 5.7161e-39 381 339 0 0 0 0.61348 0.28269 -0.73738 0.012281
0.035431 0.10201 1.0016 5.9005e-39 185 339 0 0 0 0.6389 0.27687 -0.71774 0.018248
-0.044253 0.10436 1.0016 6.4537e-39 404 339 0 0 0 -0.63936 0.33161 -0.69373 0.008279
-0.043081 0.10495 1.0016 5.7162e-39 282 339.5 0 0 0 -0.62715 0.33926 -0.70114 0.0081653
-0.041496 0.10508 1.0011 5.3781e-39 242.67 339.67 0 0 0 -0.61335 0.34411 -0.71091 0.0077238
0.031508 0.10508 1.0011 6.7303e-39 288.33 339.67 0 0 0 0.61081 0.30076 -0.73243 0.010844
0.033088 0.10495 1.0016 6.4998e-39 334 339.5 0 0 0 0.6171 0.29577 -0.72918 0.011373
-0.043081 0.1067 1.0016 5.7161e-39 233 340 0 0 0 -0.62569 0.34422 -0.70001 0.0078475
-0.041117 0.10706 1.0013 5.7776e-39 292.67 340 0 0 0 -0.60109 0.35723 -0.71489 0.0069864
0.029548 0.10779 1.0008 5.8083e-39 469 340 0 0 0 0.57225 0.33538 -0.74837 0.0060326
0.031126 0.10706 1.0013 5.7161e-39 410.33 340 0 0 0 0.59922 0.31855 -0.73448 0.0088791
0.033088 0.1067 1.0016 5.5317e-39 382 340 0 0 0 0.61828 0.31146 -0.72161 0.010587
-0.040737 0.10905 1.0016 4.0566e-39 167 341 0 0 0 -0.59699 0.36392 -0.71496 0.0067708
-0.038948 0.10896 1.0008 3.7339e-39 168.5 341 0 0 0 -0.57897 0.37162 -0.72573 0.0064097
0.029548 0.10896 1.0008 5.6239e-39 236 341 0 0 0 0.56904 0.34698 -0.74552 0.005432
-0.040737 0.11022 1.0016 5.7161e-39 364 341 0 0 0 -0.59361 0.37519 -0.71194 0.0065928
-0.038956 0.11074 1.001 5.7622e-39 418.5 341 0 0 0 -0.56849 0.38422 -0.72745 0.0059579
-0.037192 0.1113 1.0008 6.1771e-39 538 341 0 0 0 -0.55169 0.3932 -0.73555 0.0056793
0.027206 0.11072 1.0008 7.3296e-39 313.5 341.5 0 0 0 0.54926 0.36641 -0.75104 0.0048617
0.028783 0.11058 1.0013 7.2834e-39 353 341.33 0 0 0 0.5656 0.36142 -0.74127 0.0051812
-0.038785 0.11295 1.0016 6.6688e-39 302 342 0 0 0 -0.56162 0.40178 -0.7233 0.0058479
-0.036621 0.1131 1.0012 7.1913e-39 335 342 0 0 0 -0.54202 0.40704 -0.73521 0.0054048
-0.03485 0.11364 1.0008 8.021e-39 428 342 0 0 0 -0.5194 0.42109 -0.74358 0.0053468
0.026632 0.1131 1.0012 5.9928e-39 274 342.5 0 0 0 0.54104 0.39464 -0.74266 0.0051706
-0.036636 0.1149 1.0016 6.9608e-39 191.5 343 0 0 0 -0.53707 0.42248 -0.73012 0.0056356
-0.03485 0.11539 1.0008 6.6381e-39 284.5 343 0 0 0 -0.51253 0.43037 -0.74303 0.0051502
0.026035 0.11539 1.0008 7.2835e-39 338.5 343 0 0 0 0.52918 0.41243 -0.74153 0.005408
-0.03605 0.11608 1.0016 6.4537e-39 375 343 0 0 0 -0.52505 0.43238 -0.73305 0.0054904
-0.034878 0.11725 1.0016 5.3473e-39 463 343 0 0 0 -0.51052 0.4415 -0.73787 0.0053421
-0.032508 0.11715 1.0008 5.6239e-39 465 343 0 0 0 -0.47906 0.44845 -0.75458 0.0047419
0.024865 0.11715 1.0008 7.0069e-39 190 344 0 0 0 0.51681 0.43549 -0.73706 0.0060359
0.026057 0.11725 1.0016 6.8225e-39 191 344 0 0 0 0.53165 0.43586 -0.7262 0.006006
-0.033107 0.11896 1.0012 5.9927e-39 314.5 344 0 0 0 -0.48061 0.46233 -0.74517 0.0048667
-0.030752 0.1195 1.0008 7.0069e-39 404.5 344 0 0 0 -0.44962 0.47527 -0.75628 0.0043842
0.023704 0.11896 1.0012 5.6239e-39 410 344 0 0 0 0.50759 0.45527 -0.73149 0.0065285
0.024875 0.11896 1.0012 5.5779e-39 411 344 0 0 0 0.51768 0.45444 -0.72491 0.0065969
-0.032535 0.12076 1.0016 4.5176e-39 163 345 0 0 0 -0.46863 0.47831 -0.7427 0.0047318
-0.030771 0.12133 1.0014 5.5548e-39 208 345 0 0 0 -0.44615 0.48784 -0.75031 0.0044248
-0.029008 0.12131 1.0012 5.4856e-39 209.5 345 0 0 0 -0.42501 0.4945 -0.75818 0.0043066
-0.027825 0.12184 1.0008 5.5317e-39 254 345 0 0 0 -0.41059 0.50089 -0.76192 0.0043258
0.017839 0.12184 1.0008 6.4537e-39 380 345 0 0 0 0.43814 0.50217 -0.74556 0.0058747
0.020967 0.12148 1.0011 5.9312e-39 324.67 345 0 0 0 0.47427 0.49059 -0.73102 0.0060351
0.022532 0.12131 1.0012 5.9005e-39 297 345 0 0 0 0.49098 0.48582 -0.72313 0.0063379
-0.02725 0.12306 1.0012 7.8827e-39 424.5 345 0 0 0 -0.39693 0.51441 -0.76015 0.0042665
-0.025483 0.12301 1.0008 7.6522e-39 426 345 0 0 0 -0.3757 0.51847 -0.76814 0.0042664
0.017854 0.12311 1.0016 5.2552e-39 463 345 0 0 0 0.43648 0.52131 -0.73329 0.0053382
0.01901 0.12301 1.0008 5.5317e-39 464 345 0 0 0 0.44529 0.51029 -0.73574 0.005542
0.020775 0.12306 1.0012 5.8083e-39 465.5 345 0 0 0 0.46679 0.50833 -0.72368 0.0056757
0.022541 0.12311 1.0016 6.3615e-39 467 345 0 0 0 0.48705 0.50917 -0.7096 0.0057652
-0.026676 0.12486 1.0016 6.4537e-39 223.5 346 0 0 0 -0.38238 0.52982 -0.75702 0.0039564
-0.025107 0.12503 1.0013 5.9005e-39 241.67 346 0 0 0 -0.36424 0.53583 -0.76172 0.0040632
0.015498 0.12535 1.0008 5.8083e-39 387 346 0 0 0 0.39464 0.55418 -0.7329 0.004295
0.016668 0.12418 1.0008 5.9005e-39 220 346 0 0 0 0.41568 0.53306 -0.73693 0.0048094
0.019026 0.12428 1.0016 5.7161e-39 222 346 0 0 0 0.44431 0.53038 -0.72201 0.0048879
0.020197 0.12428 1.0016 5.6239e-39 223 346 0 0 0 0.45982 0.52873 -0.71345 0.0051762
-0.024332 0.12662 1.0016 7.56e-39 430 346 0 0 0 -0.34925 0.5482 -0.75994 0.0040369
-0.02315 0.12716 1.0012 7.3757e-39 310 346.5 0 0 0 -0.33345 0.55465 -0.76235 0.0037019
-0.021586 0.12733 1.0011 7.1298e-39 271 346.67 0 0 0 -0.31563 0.56211 -0.76447 0.0040568
-0.019043 0.12769 1.0008 7.053e-39 192.5 347 0 0 0 -0.27612 0.57781 -0.76805 0.0040492
0.011985 0.1271 1.0008 5.5318e-39 340.5 346.5 0 0 0 0.33802 0.58249 -0.73922 0.00428
0.013161 0.12716 1.0012 5.2551e-39 341.5 346.5 0 0 0 0.36102 0.57928 -0.73082 0.0040809
0.014725 0.12698 1.0013 5.3166e-39 383 346.33 0 0 0 0.38301 0.56941 -0.72737 0.0038912
-0.020816 0.12897 1.0016 5.4395e-39 265 347 0 0 0 -0.2999 0.5773 -0.75946 0.0039809
-0.019059 0.12897 1.0016 5.209e-39 276.5 347 0 0 0 -0.27641 0.58327 -0.7638 0.0042455
-0.016702 0.12886 1.0008 5.209e-39 278.5 347 0 0 0 -0.24046 0.59359 -0.768 0.0046519
-0.014945 0.12886 1.0008 4.9786e-39 282 347 0 0 0 -0.20937 0.60283 -0.76991 0.0053516
0.0090616 0.12891 1.0012 6.4076e-39 381 347 0 0 0 0.28269 0.61359 -0.73729 0.0052239
0.010823 0.12897 1.0016 6.3615e-39 383 347 0 0 0 0.31776 0.60642 -0.72889 0.0042645
-0.018473 0.13014 1.0016 7.4678e-39 432 347 0 0 0 -0.25803 0.59466 -0.76144 0.0047364
-0.016715 0.13014 1.0016 7.9749e-39 433.5 347 0 0 0 -0.23427 0.60349 -0.76218 0.0050286
-0.014945 0.13003 1.0008 8.943e-39 435 347 0 0 0 -0.20609 0.61223 -0.76335 0.0054778
-0.013194 0.13126 1.0012 6.9608e-39 191.5 348 0 0 0 -0.17063 0.63034 -0.75734 0.0061638
-0.011437 0.13067 1.0012 6.7303e-39 315.5 347.5 0 0 0 -0.14097 0.63331 -0.76095 0.0066532
