# .PCD v.7 - Point Cloud Data file format
VERSION .7
FIELDS x y z rgb u v vx vy vz normal_x normal_y normal_z curvature
SIZE 4 4 4 4 4 4 4 4 4 4 4 4 4
TYPE F F F F F F F F F F F F F
COUNT 1 1 1 1 1 1 1 1 1 1 1 1 1
WIDTH 560
HEIGHT 1
VIEWPOINT 0 0 0 1 0 0 0
POINTS 560
DATA ascii
-0.0082753 0.17135 1.0457 6.4537e-39 430 352 0 0 0 -0.20017 0.448 -0.87134 0.029905
-0.0058236 0.1712 1.0448 6.4537e-39 432 352 0 0 0 0.002984 0.47385 -0.8806 0.048159
-0.0082753 0.17318 1.0457 7.0069e-39 468.5 352 0 0 0 -0.21002 0.42887 -0.87861 0.02844
-0.0058236 0.17304 1.0448 7.0068e-39 470.5 352 0 0 0 -0.041472 0.45845 -0.88775 0.043118
0.011294 0.17311 1.0452 7.0991e-39 484.5 352 0 0 0 0.42347 0.36648 -0.82847 0.06483
-0.0082683 0.17487 1.0448 6.0849e-39 509 352 0 0 0 -0.21909 0.42353 -0.87899 0.027703
-0.0052124 0.17487 1.0448 6.6381e-39 512 352 0 0 0 -0.049532 0.44379 -0.89476 0.044074
-0.0082753 0.17624 1.0457 5.3473e-39 197 353 0 0 0 -0.24148 0.39688 -0.88554 0.028218
-0.0052158 0.17681 1.0455 5.8544e-39 220 353 0 0 0 -0.062846 0.42147 -0.90466 0.045228
-0.0033788 0.1767 1.0448 6.3154e-39 221.5 353 0 0 0 0.024873 0.42421 -0.90522 0.052938
0.010067 0.1767 1.0448 6.1772e-39 245 353 0 0 0 0.39399 0.33897 -0.85433 0.062231
-0.0052144 0.17922 1.0452 6.7995e-39 275.5 353 0 0 0 -0.099156 0.39084 -0.9151 0.044418
-0.0033817 0.1793 1.0457 6.7303e-39 277 353 0 0 0 -0.02655 0.39184 -0.91965 0.05091
0.010478 0.1794 1.0451 6.5152e-39 319 353 0 0 0 0.39024 0.31473 -0.86525 0.059548
-0.0052144 0.18106 1.0452 7.6983e-39 346.5 353 0 0 0 -0.14595 0.36574 -0.9192 0.038862
-0.0033817 0.18114 1.0457 7.56e-39 348 353 0 0 0 -0.077325 0.36922 -0.92612 0.047138
0.010076 0.18114 1.0457 5.9005e-39 359 353 0 0 0 0.3716 0.29712 -0.87956 0.059666
-0.0070519 0.18358 1.0457 7.2835e-39 388 353 0 0 0 -0.237 0.32404 -0.91588 0.030608
-0.0052168 0.18236 1.0457 8.2515e-39 367.5 353 0 0 0 -0.15946 0.3498 -0.92316 0.038429
-0.0025648 0.18266 1.0451 6.8839e-39 377 353 0 0 0 -0.036792 0.35858 -0.93277 0.050448
-0.00093402 0.18343 1.0448 5.9927e-39 393 353 0 0 0 0.022234 0.35392 -0.93501 0.055932
0.0088488 0.18289 1.0452 6.2693e-39 390 353 0 0 0 0.33424 0.28624 -0.89797 0.06099
-0.0021582 0.18481 1.0457 6.4537e-39 428 353 0 0 0 -0.03934 0.33179 -0.94253 0.048444
-0.00093402 0.18465 1.0448 6.1771e-39 429 353 0 0 0 -0.0021961 0.34217 -0.93964 0.049144
0.00028836 0.18587 1.0448 7.56e-39 455 353 0 0 0 0.046456 0.33871 -0.93974 0.053041
0.0051779 0.18587 1.0448 8.1132e-39 459 353 0 0 0 0.23456 0.29652 -0.92577 0.058966
0.0070115 0.18526 1.0448 8.2745e-39 448 353 0 0 0 0.27825 0.29449 -0.91425 0.062517
0.0088525 0.18481 1.0457 8.2054e-39 437 353 0 0 0 0.32368 0.28423 -0.90246 0.060673
-0.0021582 0.18603 1.0457 8.021e-39 453 353 0 0 0 -0.042305 0.3291 -0.94335 0.046721
-0.00093481 0.18664 1.0457 6.7303e-39 475 353 0 0 0 -0.0041018 0.32809 -0.94464 0.048336
0.00028836 0.18709 1.0448 5.7161e-39 497 353 0 0 0 0.042846 0.33089 -0.9427 0.051267
0.0051779 0.18709 1.0448 5.9927e-39 501 353 0 0 0 0.21319 0.30563 -0.92798 0.055261
0.0070174 0.18725 1.0457 6.4537e-39 502.5 353 0 0 0 0.28021 0.29465 -0.9136 0.061243
0.00028861 0.18909 1.0457 5.7162e-39 193.5 354 0 0 0 0.038808 0.32863 -0.94366 0.048197
0.0039555 0.18893 1.0448 5.5779e-39 215.5 354 0 0 0 0.15188 0.32071 -0.93492 0.051882
0.0051779 0.18893 1.0448 5.2551e-39 216.5 354 0 0 0 0.1955 0.32031 -0.92692 0.047651
0.0068135 0.18889 1.0457 5.3781e-39 210.67 354 0 0 0 0.24565 0.29936 -0.92198 0.055271
0.0015107 0.19137 1.0448 6.6842e-39 273.5 354 0 0 0 0.058198 0.33432 -0.94066 0.049289
0.0031417 0.19122 1.0451 6.5766e-39 270.67 354 0 0 0 0.12142 0.32663 -0.93732 0.050331
0.0051823 0.19092 1.0457 6.3615e-39 264 354 0 0 0 0.17483 0.3194 -0.93135 0.052398
0.0015107 0.19321 1.0448 5.9005e-39 351 354 0 0 0 0.03446 0.34123 -0.93935 0.04679
0.0035503 0.19291 1.0454 5.7776e-39 331 354 0 0 0 0.12724 0.33541 -0.93344 0.050049
0.0051823 0.19276 1.0457 6.0849e-39 321.5 354 0 0 0 0.16863 0.33374 -0.92746 0.049416
0.0015114 0.19512 1.0452 5.5317e-39 388 354 0 0 0 0.028952 0.3497 -0.93641 0.045641
0.0027354 0.19521 1.0457 5.6701e-39 389 354 0 0 0 0.059307 0.34609 -0.93632 0.047934
0.046858 0.080952 1.0475 5.9005e-39 365 325 0 0 0 -0.86013 0.13717 -0.49128 0.02277
0.046858 0.082177 1.0475 5.8083e-39 227 326 0 0 0 -0.8559 0.12513 -0.50177 0.023985
-0.040118 0.091903 1.0466 7.2835e-39 414 332 0 0 0 0.68448 -0.493 -0.53706 0.075356
-0.040118 0.094965 1.0466 7.0991e-39 291 334.5 0 0 0 0.74532 -0.40183 -0.532 0.063555
-0.040118 0.096801 1.0466 7.56e-39 405 335 0 0 0 0.76122 -0.37586 -0.52846 0.050685
-0.040152 0.098109 1.0475 7.9288e-39 282 336 0 0 0 0.75884 -0.3847 -0.52551 0.049947
-0.041343 0.1017 1.0466 3.6878e-39 488 337 0 0 0 0.78267 -0.37028 -0.50033 0.038241
0.018656 0.1568 1.0466 6.4537e-39 434 351 0 0 0 0.80149 0.31741 -0.50681 0.0084026
0.017431 0.15864 1.0466 6.8685e-39 471.5 351 0 0 0 0.7874 0.33181 -0.51952 0.010429
0.018672 0.15877 1.0475 6.8686e-39 472.5 351 0 0 0 0.81345 0.31823 -0.48686 0.0086897
0.017439 0.16115 1.047 5.1169e-39 173.5 352 0 0 0 0.78081 0.34103 -0.52348 0.011787
0.018672 0.16061 1.0475 5.163e-39 144 352 0 0 0 0.80617 0.32709 -0.49306 0.0097701
0.014982 0.16782 1.0466 6.2693e-39 375 352 0 0 0 0.61855 0.37064 -0.69284 0.041454
0.01377 0.16919 1.0475 6.6381e-39 392 352 0 0 0 0.54391 0.37951 -0.74842 0.056068
0.012533 0.17027 1.0466 6.5459e-39 427 352 0 0 0 0.48177 0.38179 -0.78875 0.062554
0.011309 0.17517 1.0466 6.2693e-39 153 353 0 0 0 0.41442 0.32435 -0.85033 0.062986
0.011309 0.177 1.0466 6.0389e-39 246 353 0 0 0 0.4141 0.31828 -0.85277 0.059513
0.011309 0.17884 1.0466 4.7942e-39 279 353 0 0 0 0.41105 0.30489 -0.85911 0.057944
0.012544 0.17899 1.0475 4.7942e-39 280 353 0 0 0 0.4557 0.28997 -0.84158 0.052146
0.011309 0.18129 1.0466 6.9147e-39 360 353 0 0 0 0.40892 0.28031 -0.86845 0.054772
0.012539 0.18075 1.047 7.4679e-39 351 353 0 0 0 0.4626 0.26985 -0.8445 0.049998
-0.0052212 0.18374 1.0466 7.0069e-39 389.5 353 0 0 0 -0.15058 0.32819 -0.93253 0.037516
-0.0033845 0.18374 1.0466 6.3615e-39 391 353 0 0 0 -0.064273 0.33746 -0.93914 0.04708
0.010702 0.1832 1.047 6.592e-39 391.5 353 0 0 0 0.39301 0.27292 -0.8781 0.055706
0.012544 0.18267 1.0475 7.4678e-39 382 353 0 0 0 0.43835 0.26392 -0.85918 0.051679
-0.0070579 0.18496 1.0466 5.6239e-39 424 353 0 0 0 -0.25071 0.31099 -0.91675 0.02926
-0.0052231 0.18504 1.047 5.9005e-39 425.5 353 0 0 0 -0.16023 0.31265 -0.93626 0.035418
-0.0033874 0.18512 1.0475 6.4537e-39 427 353 0 0 0 -0.069409 0.32108 -0.9445 0.046018
0.010093 0.18512 1.0475 7.7444e-39 438 353 0 0 0 0.3543 0.27876 -0.89262 0.057767
-0.0070639 0.18634 1.0475 7.7444e-39 449 353 0 0 0 -0.24162 0.30306 -0.92183 0.030233
-0.0021601 0.18741 1.0466 5.6239e-39 495 353 0 0 0 -0.040606 0.32252 -0.94569 0.043582
0.00886 0.1868 1.0466 7.0991e-39 483 353 0 0 0 0.31507 0.28598 -0.90496 0.061282
0.010093 0.18634 1.0475 7.7444e-39 463 353 0 0 0 0.35574 0.28197 -0.89104 0.059202
-0.0021619 0.1888 1.0475 5.9927e-39 151 354 0 0 0 -0.029307 0.3187 -0.9474 0.043805
-0.00093561 0.18864 1.0466 6.2693e-39 152 354 0 0 0 0.011225 0.31834 -0.94791 0.047213
0.0076356 0.18986 1.0466 5.3473e-39 240 354 0 0 0 0.26212 0.30366 -0.91602 0.057571
0.00886 0.18925 1.0466 5.8083e-39 219.5 354 0 0 0 0.30888 0.28194 -0.90835 0.061187
-0.0021619 0.19002 1.0475 5.2552e-39 232 354 0 0 0 -0.035552 0.32163 -0.9462 0.042809
-0.0009364 0.19002 1.0475 5.0708e-39 233 354 0 0 0 0.018829 0.32637 -0.94506 0.046425
0.00028885 0.19108 1.0466 6.4537e-39 260 354 0 0 0 0.047033 0.32972 -0.94291 0.047004
0.0070233 0.19108 1.0466 6.5459e-39 265.5 354 0 0 0 0.23139 0.31182 -0.92154 0.051628
0.0088676 0.19125 1.0475 7.0069e-39 267 354 0 0 0 0.27927 0.30115 -0.91176 0.058087
0.00028885 0.19292 1.0466 6.8225e-39 317.5 354 0 0 0 0.024228 0.34185 -0.93944 0.045303
0.0068214 0.19277 1.0469 6.2693e-39 312 354 0 0 0 0.21734 0.32049 -0.92198 0.049498
0.00028885 0.19476 1.0466 5.6239e-39 375 354 0 0 0 0.013671 0.35223 -0.93581 0.044766
0.0039622 0.19537 1.0466 5.624e-39 390 354 0 0 0 0.11649 0.34898 -0.92986 0.049747
0.0051867 0.19537 1.0466 5.7622e-39 391 354 0 0 0 0.15102 0.3402 -0.92815 0.046341
0.0064111 0.19476 1.0466 6.8225e-39 380 354 0 0 0 0.19151 0.33155 -0.92379 0.044275
0.00069717 0.19691 1.0472 7.5293e-39 422.67 354 0 0 0 0.011337 0.35954 -0.93306 0.046035
0.0033517 0.19729 1.047 8.2054e-39 436.5 354 0 0 0 0.077959 0.35698 -0.93085 0.0501
0.0051911 0.19737 1.0475 7.8366e-39 438 354 0 0 0 0.13727 0.35064 -0.9264 0.048237
0.0064166 0.19676 1.0475 6.6381e-39 421.5 354 0 0 0 0.178 0.34519 -0.9215 0.046553
-0.0082894 0.19982 1.0475 6.5459e-39 483 354 0 0 0 -0.27645 0.35654 -0.89244 0.035554
0.0015146 0.19921 1.0475 7.0991e-39 475 354 0 0 0 0.017248 0.36909 -0.92923 0.046753
0.0033508 0.19908 1.0468 7.099e-39 476.5 354 0 0 0 0.078856 0.36416 -0.92799 0.045245
0.0051889 0.19912 1.047 6.8224e-39 478 354 0 0 0 0.12176 0.35906 -0.92534 0.044642
0.0064166 0.19921 1.0475 6.8224e-39 479 354 0 0 0 0.17 0.35605 -0.91887 0.044023
-0.0082894 0.20105 1.0475 6.3615e-39 503 354 0 0 0 -0.29627 0.36263 -0.88358 0.033414
0.0051911 0.20105 1.0475 5.3473e-39 145 355 0 0 0 0.11671 0.37107 -0.92124 0.042584
-0.0082894 0.20228 1.0475 6.3615e-39 152 355 0 0 0 -0.31038 0.37172 -0.87492 0.033101
0.038312 0.077341 1.0484 7.8366e-39 413 322 0 0 0 -0.73233 0.29055 -0.61585 0.027712
0.045671 0.079794 1.0484 5.7161e-39 387 324 0 0 0 -0.82699 0.18734 -0.53008 0.025977
0.04571 0.081089 1.0493 6.1771e-39 364 325 0 0 0 -0.82425 0.16333 -0.54216 0.025574
0.04571 0.082931 1.0493 6.0849e-39 341 326 0 0 0 -0.8278 0.15129 -0.54024 0.025905
0.046898 0.083474 1.0484 6.4537e-39 457 326 0 0 0 -0.84816 0.11688 -0.51668 0.024251
-0.046953 0.088418 1.0489 6.592e-39 433 329 0 0 0 0.59317 -0.64269 -0.48486 0.087392
-0.042676 0.088455 1.0493 5.9005e-39 454 329 0 0 0 0.55386 -0.61744 -0.55858 0.095963
-0.041448 0.088455 1.0493 5.7161e-39 455 329 0 0 0 0.55415 -0.60137 -0.57556 0.09836
0.046938 0.089069 1.0493 7.8366e-39 397 330.5 0 0 0 -0.86033 0.023776 -0.50919 0.027169
-0.04022 0.09091 1.0493 5.7161e-39 421 331 0 0 0 0.59562 -0.55962 -0.57625 0.094415
0.046938 0.09091 1.0493 6.8225e-39 384 332 0 0 0 -0.86082 0.012371 -0.50875 0.027723
-0.038993 0.093365 1.0493 7.8366e-39 391 333 0 0 0 0.63449 -0.54059 -0.55244 0.086575
-0.037765 0.093365 1.0493 7.9288e-39 392 333 0 0 0 0.63053 -0.49299 -0.5995 0.082671
0.046918 0.092712 1.0489 5.6239e-39 313.5 333.5 0 0 0 -0.87038 -0.036131 -0.49106 0.026143
-0.038993 0.095206 1.0493 6.9146e-39 292 334.5 0 0 0 0.6775 -0.46913 -0.56649 0.076476
0.046938 0.095206 1.0493 6.7764e-39 425.5 334.5 0 0 0 -0.86748 -0.053807 -0.49456 0.028158
-0.038993 0.097048 1.0493 6.3615e-39 412 335 0 0 0 0.72031 -0.39907 -0.56735 0.062684
0.046938 0.097048 1.0493 4.6098e-39 254 336 0 0 0 -0.85972 -0.013222 -0.5106 0.028978
-0.040186 0.099419 1.0484 5.9927e-39 478 336 0 0 0 0.75456 -0.38197 -0.5336 0.047005
-0.040203 0.10131 1.0489 5.5778e-39 282.5 337.5 0 0 0 0.759 -0.38017 -0.52858 0.042421
-0.038993 0.10196 1.0493 5.4395e-39 198 338 0 0 0 0.76267 -0.34559 -0.54672 0.035231
-0.037765 0.10196 1.0493 5.163e-39 199 338 0 0 0 0.76163 -0.29752 -0.57568 0.032201
0.046898 0.10065 1.0484 6.2693e-39 438 337 0 0 0 -0.86374 0.044839 -0.50194 0.02999
-0.038993 0.10319 1.0493 5.8083e-39 360 338 0 0 0 0.76915 -0.32862 -0.5481 0.031095
0.018687 0.16197 1.0484 5.163e-39 205 352 0 0 0 0.81464 0.30666 -0.49226 0.010296
0.017461 0.1632 1.0484 7.3757e-39 252 352 0 0 0 0.78794 0.32376 -0.52377 0.013518
0.018703 0.16334 1.0493 7.1913e-39 253 352 0 0 0 0.81581 0.30582 -0.49084 0.011664
0.017461 0.16504 1.0484 6.3615e-39 303.5 352 0 0 0 0.77815 0.30515 -0.54897 0.017013
0.015008 0.16933 1.0484 6.3615e-39 393 352 0 0 0 0.63094 0.33394 -0.70029 0.041652
0.012555 0.17178 1.0484 7.3757e-39 447 352 0 0 0 0.49778 0.33589 -0.79962 0.059911
0.012565 0.17316 1.0493 7.1913e-39 483 352 0 0 0 0.49095 0.31457 -0.81241 0.057411
0.01256 0.17492 1.0489 6.2693e-39 329 352.5 0 0 0 0.47946 0.30467 -0.82298 0.056353
0.012555 0.1773 1.0484 5.9928e-39 247 353 0 0 0 0.46147 0.29445 -0.83687 0.053411
0.013793 0.1793 1.0493 4.8864e-39 281 353 0 0 0 0.48822 0.27428 -0.8285 0.048537
0.013781 0.18099 1.0484 7.4218e-39 352 353 0 0 0 0.48604 0.26161 -0.83386 0.048009
0.013793 0.18298 1.0493 7.1913e-39 383 353 0 0 0 0.48542 0.24829 -0.83828 0.047972
0.011328 0.18528 1.0484 7.4678e-39 439 353 0 0 0 0.39743 0.2646 -0.87866 0.05611
0.012555 0.18466 1.0484 6.4997e-39 422 353 0 0 0 0.43765 0.25279 -0.86288 0.052456
-0.0082964 0.1865 1.0484 7.4678e-39 448 353 0 0 0 -0.29492 0.29439 -0.90904 0.027693
-0.0070759 0.18789 1.0493 6.1771e-39 491 353 0 0 0 -0.25721 0.29631 -0.91981 0.029697
-0.0050269 0.18696 1.0487 7.1298e-39 464.67 353 0 0 0 -0.16447 0.30844 -0.93692 0.034757
-0.0033903 0.18711 1.0484 6.9146e-39 473 353 0 0 0 -0.076372 0.31148 -0.94718 0.043312
0.010919 0.18732 1.0484 6.5766e-39 491.67 353 0 0 0 0.37493 0.27483 -0.88538 0.059572
0.013174 0.1872 1.0489 6.9146e-39 486.75 353 0 0 0 0.46458 0.24469 -0.85106 0.051307
-0.0033931 0.18912 1.0493 5.8083e-39 150 354 0 0 0 -0.062419 0.31787 -0.94608 0.041326
0.010715 0.18896 1.0484 5.8083e-39 199.5 354 0 0 0 0.35968 0.27661 -0.89113 0.060881
0.013168 0.18896 1.0484 5.8083e-39 201.5 354 0 0 0 0.45385 0.24277 -0.85737 0.052814
-0.0021637 0.19141 1.0484 6.7303e-39 258 354 0 0 0 -0.034531 0.33341 -0.94215 0.042055
-0.00093719 0.19141 1.0484 6.6381e-39 259 354 0 0 0 0.013585 0.33075 -0.94362 0.044849
0.010719 0.19087 1.0489 6.9839e-39 255.5 354 0 0 0 0.35154 0.27651 -0.89441 0.060116
0.013176 0.19091 1.0491 6.9147e-39 257.5 354 0 0 0 0.46024 0.26274 -0.84803 0.054406
-0.0021637 0.19325 1.0484 6.4997e-39 315.5 354 0 0 0 -0.03888 0.34616 -0.93737 0.041539
-0.00093719 0.19325 1.0484 6.9147e-39 316.5 354 0 0 0 0.0086733 0.34168 -0.93978 0.044513
0.0076486 0.19386 1.0484 5.9005e-39 356 354 0 0 0 0.23536 0.32528 -0.91586 0.050274
0.0088751 0.19264 1.0484 7.2835e-39 292 354 0 0 0 0.25803 0.31547 -0.91318 0.053322
0.01011 0.1928 1.0493 7.56e-39 293 354 0 0 0 0.32064 0.29918 -0.89871 0.055308
-0.0083035 0.19464 1.0493 7.514e-39 355.5 354 0 0 0 -0.27636 0.32792 -0.90338 0.031974
-0.0027784 0.19517 1.0489 6.4537e-39 372.5 354 0 0 0 -0.061833 0.35629 -0.93233 0.040709
-0.00093719 0.19509 1.0484 6.0849e-39 374 354 0 0 0 -0.0078229 0.35655 -0.93424 0.043638
0.0076551 0.19525 1.0493 7.3757e-39 381 354 0 0 0 0.2207 0.33303 -0.91672 0.046583
0.0088826 0.19403 1.0493 5.7161e-39 357 354 0 0 0 0.25788 0.32261 -0.91072 0.052115
-0.0083035 0.19771 1.0493 6.5459e-39 427 354 0 0 0 -0.27841 0.35109 -0.89399 0.033259
-0.0025741 0.19724 1.049 7.099e-39 420 354 0 0 0 -0.070198 0.36668 -0.92769 0.041175
-0.00093759 0.19701 1.0489 6.8685e-39 415.5 354 0 0 0 -0.023806 0.36515 -0.93064 0.043412
-0.0082964 0.19877 1.0484 7.3757e-39 449 354 0 0 0 -0.27384 0.35623 -0.89337 0.034651
-0.0027794 0.19894 1.0493 7.5139e-39 455.5 354 0 0 0 -0.087518 0.3742 -0.92321 0.040176
-0.00093799 0.19894 1.0493 7.56e-39 457 354 0 0 0 -0.027367 0.37755 -0.92559 0.044766
0.00028934 0.19938 1.0484 7.0069e-39 474 354 0 0 0 -0.0048945 0.37331 -0.9277 0.045581
0.0088826 0.19894 1.0493 7.9288e-39 465 354 0 0 0 0.23558 0.35963 -0.90287 0.045085
-0.0027794 0.20016 1.0493 5.67e-39 487.5 354 0 0 0 -0.094358 0.37993 -0.92019 0.039324
-0.00093799 0.20016 1.0493 5.7161e-39 489 354 0 0 0 -0.032327 0.37949 -0.92463 0.043646
0.0015172 0.20139 1.0493 6.1771e-39 514 354 0 0 0 0.009102 0.38046 -0.92475 0.047394
0.0033556 0.20122 1.0484 5.4856e-39 143.5 355 0 0 0 0.061454 0.37308 -0.92576 0.046603
0.0070385 0.20069 1.0489 5.6239e-39 321.5 354.5 0 0 0 0.19347 0.36362 -0.91124 0.043233
0.0088826 0.20016 1.0493 5.6239e-39 498 354 0 0 0 0.24038 0.36392 -0.89988 0.044068
0.011338 0.20016 1.0493 5.7161e-39 500 354 0 0 0 0.32103 0.36935 -0.87208 0.040704
-0.0033931 0.20262 1.0493 5.8083e-39 195 355 0 0 0 -0.12748 0.38879 -0.91246 0.037459
0.0033585 0.20262 1.0493 6.6842e-39 200.5 355 0 0 0 0.068134 0.38012 -0.92242 0.043739
0.0051955 0.20245 1.0484 6.1771e-39 202 355 0 0 0 0.12236 0.37674 -0.9182 0.041547
0.0064275 0.20262 1.0493 5.9005e-39 203 355 0 0 0 0.16515 0.38197 -0.9093 0.041878
0.042135 0.078835 1.0519 7.6522e-39 401 323 0 0 0 -0.73656 0.22896 -0.63644 0.026243
0.04452 0.078701 1.0501 7.8366e-39 402 323 0 0 0 -0.7949 0.21419 -0.56768 0.026874
0.045749 0.084844 1.0501 5.9005e-39 430 327 0 0 0 -0.82241 0.12899 -0.55408 0.027285
0.046977 0.084844 1.0501 5.9005e-39 431 327 0 0 0 -0.83926 0.10102 -0.53427 0.026851
0.045808 0.086798 1.0515 6.3615e-39 423 328.5 0 0 0 -0.80014 0.09883 -0.59162 0.028813
0.046977 0.086688 1.0501 6.0849e-39 424 328.5 0 0 0 -0.83588 0.083411 -0.54254 0.027342
-0.045208 0.088605 1.051 6.6381e-39 435 329 0 0 0 0.56033 -0.62629 -0.54202 0.094488
-0.043941 0.08853 1.0501 5.9005e-39 453 329 0 0 0 0.55106 -0.62204 -0.55623 0.0964
-0.040289 0.089835 1.051 6.1771e-39 429 330 0 0 0 0.55781 -0.55977 -0.61278 0.096475
0.045827 0.088681 1.0519 7.6522e-39 401 330 0 0 0 -0.80839 0.059409 -0.58565 0.031039
-0.039026 0.092216 1.0501 6.8225e-39 415 332 0 0 0 0.5928 -0.54508 -0.59285 0.091519
-0.03723 0.092949 1.0515 7.2374e-39 404.5 332.5 0 0 0 0.5828 -0.51219 -0.63087 0.093757
0.045827 0.092373 1.0519 5.7161e-39 364 333 0 0 0 -0.80574 0.015016 -0.59208 0.033019
-0.037419 0.095164 1.051 6.3922e-39 316 334.33 0 0 0 0.62773 -0.50155 -0.59531 0.087131
-0.037214 0.097213 1.051 6.2693e-39 413.5 335 0 0 0 0.70724 -0.35411 -0.6119 0.062813
-0.039042 0.099016 1.0505 7.053e-39 412 336 0 0 0 0.72033 -0.40416 -0.56372 0.061781
-0.03723 0.0991 1.0515 7.1221e-39 413.5 336 0 0 0 0.71198 -0.35956 -0.60316 0.061131
0.046977 0.098973 1.0501 6.8224e-39 383 336.5 0 0 0 -0.83135 -0.016766 -0.5555 0.032814
-0.039026 0.10082 1.0501 5.6239e-39 369 337 0 0 0 0.74798 -0.33931 -0.57044 0.04211
-0.037215 0.1009 1.051 5.5778e-39 372.5 337 0 0 0 0.7461 -0.28742 -0.6006 0.038086
-0.036569 0.10204 1.0501 5.3473e-39 210 338 0 0 0 0.75399 -0.26857 -0.59948 0.032028
0.018719 0.1647 1.0501 5.2552e-39 273 352 0 0 0 0.81366 0.28296 -0.50783 0.014792
0.018751 0.16622 1.0519 7.0069e-39 336 352 0 0 0 0.81428 0.26123 -0.51837 0.016994
0.013805 0.17085 1.0501 6.5459e-39 428 352 0 0 0 0.57694 0.33171 -0.7464 0.05055
0.015059 0.17114 1.0519 6.3615e-39 429 352 0 0 0 0.66232 0.28312 -0.69367 0.036571
0.013816 0.17837 1.051 7.6522e-39 261 353 0 0 0 0.51526 0.26488 -0.81508 0.047248
0.015059 0.18098 1.0519 7.1913e-39 343 353 0 0 0 0.54837 0.23825 -0.80158 0.041504
0.015059 0.18222 1.0519 7.6522e-39 363 353 0 0 0 0.5472 0.23765 -0.80256 0.042644
0.013805 0.18497 1.0501 6.4998e-39 423 353 0 0 0 0.49085 0.23989 -0.83757 0.051224
-0.0095554 0.18714 1.0519 7.3757e-39 447 353 0 0 0 -0.39025 0.27715 -0.87801 0.023718
-0.0083105 0.18867 1.0501 5.6239e-39 318 353.5 0 0 0 -0.31252 0.29244 -0.90377 0.027231
-0.0070879 0.18944 1.051 5.9005e-39 147 354 0 0 0 -0.26603 0.30273 -0.91519 0.029815
-0.0054454 0.18892 1.0504 6.0542e-39 263 353.67 0 0 0 -0.18622 0.31108 -0.93196 0.033326
0.015052 0.18891 1.0515 5.9005e-39 356.5 353.5 0 0 0 0.55009 0.2315 -0.80238 0.04663
0.01629 0.18899 1.0519 5.8544e-39 357.5 353.5 0 0 0 0.5972 0.21198 -0.77357 0.043348
-0.0083247 0.19083 1.0519 5.2552e-39 214 354 0 0 0 -0.29485 0.3046 -0.90569 0.030611
-0.0052459 0.19075 1.0515 5.3934e-39 229.5 354 0 0 0 -0.15738 0.32758 -0.93162 0.035741
-0.003396 0.19112 1.0501 5.9005e-39 244 354 0 0 0 -0.074894 0.3334 -0.93981 0.039679
0.015033 0.19112 1.0501 6.3615e-39 259 354 0 0 0 0.53543 0.24687 -0.8077 0.048278
0.01629 0.19083 1.0519 6.6381e-39 247 354 0 0 0 0.60578 0.24163 -0.75805 0.044478
-0.0083212 0.1926 1.0515 5.9927e-39 265.5 354 0 0 0 -0.27935 0.31825 -0.90591 0.032697
-0.0046325 0.19267 1.0519 5.2551e-39 268.5 354 0 0 0 -0.12853 0.34651 -0.9292 0.037116
-0.003396 0.19296 1.0501 4.9786e-39 282 354 0 0 0 -0.068693 0.34728 -0.93524 0.040068
0.011347 0.19296 1.0501 7.2835e-39 294 354 0 0 0 0.35968 0.3031 -0.88247 0.058002
0.013196 0.19304 1.0505 6.4076e-39 335.5 354 0 0 0 0.45154 0.27985 -0.84723 0.054872
0.015059 0.19329 1.0519 7.0991e-39 337 354 0 0 0 0.5419 0.2742 -0.79445 0.050019
0.01629 0.19206 1.0519 5.2552e-39 273 354 0 0 0 0.59839 0.24837 -0.76173 0.045351
-0.0046305 0.19506 1.0515 7.0068e-39 358.5 354 0 0 0 -0.11759 0.35991 -0.92555 0.039712
-0.003396 0.19419 1.0501 7.56e-39 347 354 0 0 0 -0.08028 0.35349 -0.93199 0.040499
0.0088902 0.19542 1.0501 7.3757e-39 382 354 0 0 0 0.24654 0.32934 -0.91146 0.050452
0.010743 0.19497 1.051 6.7073e-39 371 354 0 0 0 0.32684 0.32117 -0.88883 0.052775
0.013201 0.19436 1.051 7.9749e-39 360.5 354 0 0 0 0.45594 0.30509 -0.83609 0.053314
-0.0083105 0.19665 1.0501 5.8083e-39 392 354 0 0 0 -0.2766 0.34725 -0.89605 0.032816
-0.0046325 0.19698 1.0519 6.1771e-39 395 354 0 0 0 -0.11607 0.37344 -0.92036 0.040161
-0.003396 0.19665 1.0501 6.1771e-39 396 354 0 0 0 -0.089732 0.3699 -0.92473 0.040919
0.0076616 0.19726 1.0501 6.6841e-39 422.5 354 0 0 0 0.2084 0.34618 -0.91473 0.048684
0.008894 0.19735 1.0505 6.8685e-39 423.5 354 0 0 0 0.25042 0.34754 -0.9036 0.048397
-0.0050401 0.19893 1.0513 7.5293e-39 445 354 0 0 0 -0.14188 0.38379 -0.91245 0.0383
0.0076616 0.19911 1.0501 7.9288e-39 464 354 0 0 0 0.21499 0.3582 -0.90856 0.045832
0.010742 0.19928 1.051 8.1132e-39 466.5 354 0 0 0 0.31825 0.36529 -0.87481 0.044988
-0.0050401 0.20097 1.0513 5.8698e-39 492.67 354 0 0 0 -0.14353 0.38967 -0.9097 0.038163
-0.0027827 0.20165 1.0505 5.9005e-39 508.5 354 0 0 0 -0.098104 0.38445 -0.91792 0.038046
-0.00093959 0.20173 1.051 6.2693e-39 510 354 0 0 0 -0.032642 0.38292 -0.9232 0.043459
0.00028983 0.20156 1.0501 6.3615e-39 511 354 0 0 0 -0.010451 0.38088 -0.92456 0.043896
0.0076681 0.20173 1.051 5.7161e-39 147 355 0 0 0 0.21843 0.37121 -0.90249 0.042688
0.0088902 0.20156 1.0501 5.9005e-39 148 355 0 0 0 0.24252 0.37469 -0.89487 0.041897
0.010537 0.20133 1.051 5.839e-39 266 354.67 0 0 0 0.31507 0.3805 -0.86945 0.042942
-0.0052459 0.20305 1.0515 5.6239e-39 193.5 355 0 0 0 -0.18119 0.3917 -0.90208 0.034233
-0.0021711 0.20314 1.0519 5.9005e-39 196 355 0 0 0 -0.066981 0.38729 -0.91952 0.042361
-0.00094039 0.20314 1.0519 5.9927e-39 197 355 0 0 0 -0.04241 0.38268 -0.92291 0.04323
0.00090489 0.20296 1.051 6.3154e-39 198.5 355 0 0 0 -0.0016637 0.3802 -0.9249 0.04582
0.0089053 0.20314 1.0519 5.3473e-39 205 355 0 0 0 0.27219 0.38568 -0.88157 0.042351
0.011367 0.20314 1.0519 5.2552e-39 207 355 0 0 0 0.36436 0.39667 -0.84255 0.044324
-0.0046325 0.20437 1.0519 5.3473e-39 213 355 0 0 0 -0.14934 0.39259 -0.90751 0.037465
-0.0033989 0.20419 1.051 5.163e-39 214 355 0 0 0 -0.12467 0.38995 -0.91236 0.037757
0.0033643 0.20419 1.051 5.163e-39 231.5 355 0 0 0 0.070972 0.38035 -0.92212 0.041922
0.0052087 0.20419 1.051 4.9786e-39 233 355 0 0 0 0.12464 0.38183 -0.91579 0.040461
0.0064439 0.20437 1.0519 4.8864e-39 234 355 0 0 0 0.17852 0.38372 -0.90603 0.041702
0.038508 0.07897 1.0537 8.021e-39 399 323 0 0 0 -0.68039 0.20101 -0.70475 0.023576
0.040974 0.07897 1.0537 7.7444e-39 400 323 0 0 0 -0.69868 0.22203 -0.6801 0.025395
0.044653 0.080784 1.0533 6.4537e-39 374.5 324.5 0 0 0 -0.76005 0.19864 -0.61876 0.027299
0.044672 0.083284 1.0537 5.8544e-39 340 326 0 0 0 -0.76224 0.14865 -0.62999 0.027717
0.044672 0.085134 1.0537 5.9927e-39 429 327 0 0 0 -0.76208 0.12143 -0.63599 0.028069
0.044672 0.086983 1.0537 6.8686e-39 422 328.5 0 0 0 -0.76569 0.092455 -0.63653 0.029114
-0.04898 0.088757 1.0528 6.4537e-39 431 329 0 0 0 0.54892 -0.64981 -0.52578 0.093724
-0.040392 0.088832 1.0537 5.6239e-39 456 329 0 0 0 0.52292 -0.54149 -0.65829 0.10071
0.045269 0.08941 1.0533 7.6522e-39 395.5 330.5 0 0 0 -0.78355 0.071359 -0.61722 0.0308
-0.039126 0.09122 1.0528 6.0849e-39 422 331 0 0 0 0.56286 -0.51951 -0.64288 0.096412
-0.037294 0.091259 1.0533 6.4537e-39 423.5 331 0 0 0 0.55674 -0.5009 -0.66268 0.095098
0.04507 0.090861 1.0534 6.6995e-39 384.33 331.67 0 0 0 -0.78019 0.046377 -0.62382 0.031545
-0.036662 0.092452 1.0528 6.1771e-39 417 332 0 0 0 0.56787 -0.48989 -0.66147 0.095113
-0.035461 0.093764 1.0537 7.8366e-39 394 333 0 0 0 0.58546 -0.4452 -0.67752 0.091678
0.04507 0.093326 1.0534 5.8083e-39 294.33 333.67 0 0 0 -0.78827 0.015204 -0.61514 0.033642
-0.035461 0.094996 1.0537 5.7161e-39 363 334 0 0 0 0.60901 -0.43259 -0.66481 0.088357
0.045866 0.094915 1.0528 5.7161e-39 468 334 0 0 0 -0.80143 -0.020597 -0.59773 0.035761
-0.036662 0.096147 1.0528 7.7444e-39 226 335 0 0 0 0.62851 -0.46745 -0.62166 0.087848
-0.035461 0.096846 1.0537 6.6381e-39 321 335 0 0 0 0.65076 -0.39371 -0.64923 0.084186
0.045905 0.097462 1.0537 4.9786e-39 253 336 0 0 0 -0.78425 -0.052883 -0.61818 0.035036
0.018783 0.16773 1.0537 5.6239e-39 357 352 0 0 0 0.83086 0.22416 -0.50934 0.018509
0.013852 0.17266 1.0537 7.56e-39 448 352 0 0 0 0.61902 0.26041 -0.74094 0.042715
0.013852 0.17759 1.0537 5.2552e-39 235 353 0 0 0 0.54872 0.24447 -0.79946 0.04476
0.015085 0.18006 1.0537 5.0708e-39 282 353 0 0 0 0.60184 0.22862 -0.76519 0.035562
0.016927 0.1806 1.0533 6.7764e-39 314 353 0 0 0 0.68193 0.20214 -0.70293 0.026727
0.015085 0.18376 1.0537 7.2835e-39 384 353 0 0 0 0.57514 0.20968 -0.79072 0.042747
0.016724 0.18289 1.0534 7.8366e-39 371.33 353 0 0 0 0.65859 0.19764 -0.72608 0.030957
0.018783 0.18315 1.0537 8.0671e-39 376.5 353 0 0 0 0.7441 0.17287 -0.64531 0.023599
0.015085 0.18499 1.0537 6.0849e-39 406 353 0 0 0 0.58144 0.2187 -0.78364 0.045701
0.016317 0.18499 1.0537 6.2693e-39 409 353 0 0 0 0.65409 0.2 -0.7295 0.035992
0.018783 0.18499 1.0537 5.8083e-39 411 353 0 0 0 0.75227 0.1633 -0.6383 0.02447
0.015078 0.18676 1.0533 7.1913e-39 462.5 353 0 0 0 0.57319 0.21338 -0.79115 0.046479
0.016724 0.18699 1.0534 6.6688e-39 470.67 353 0 0 0 0.65699 0.19557 -0.72809 0.035385
0.018783 0.18684 1.0537 6.8224e-39 465.5 353 0 0 0 0.73695 0.16639 -0.65515 0.025517
0.020016 0.18684 1.0537 6.5919e-39 466.5 353 0 0 0 0.76158 0.15799 -0.62851 0.025415
-0.0095676 0.18922 1.0533 5.3473e-39 317 353.5 0 0 0 -0.38212 0.28519 -0.87901 0.026067
0.017543 0.18923 1.0533 5.9005e-39 359 353.5 0 0 0 0.68239 0.20725 -0.701 0.035678
0.019178 0.18894 1.0528 5.8083e-39 287.67 353.67 0 0 0 0.74224 0.18472 -0.64417 0.028658
-0.0095717 0.19116 1.0537 5.2552e-39 211 354 0 0 0 -0.37304 0.29634 -0.87922 0.027854
-0.0071 0.19099 1.0528 5.7161e-39 215 354 0 0 0 -0.25848 0.31608 -0.91284 0.032806
0.01755 0.19116 1.0537 6.5459e-39 248 354 0 0 0 0.68189 0.22988 -0.69439 0.037493
0.018767 0.19099 1.0528 6.7303e-39 249 354 0 0 0 0.7136 0.20714 -0.66923 0.031639
-0.0095717 0.193 1.0537 6.2232e-39 264.5 354 0 0 0 -0.36641 0.3101 -0.87726 0.029256
-0.0071 0.19284 1.0528 5.6239e-39 266.5 354 0 0 0 -0.24389 0.33025 -0.91184 0.032783
-0.0058682 0.19284 1.0528 5.1629e-39 267.5 354 0 0 0 -0.18556 0.33796 -0.92269 0.03603
0.016317 0.19362 1.0537 7.0069e-39 338 354 0 0 0 0.62648 0.26764 -0.73204 0.041194
-0.0095717 0.19485 1.0537 7.1913e-39 342 354 0 0 0 -0.35002 0.32503 -0.87855 0.030902
-0.0071 0.19531 1.0528 7.3296e-39 356.5 354 0 0 0 -0.23663 0.35091 -0.90602 0.036246
-0.0058682 0.19531 1.0528 7.1913e-39 357.5 354 0 0 0 -0.16749 0.35925 -0.91809 0.03804
0.012608 0.19592 1.0528 7.2835e-39 385 354 0 0 0 0.42645 0.32985 -0.84222 0.053903
0.015085 0.19485 1.0537 7.8366e-39 362 354 0 0 0 0.53859 0.3036 -0.78597 0.048127
-0.0071061 0.19732 1.0537 5.9005e-39 393 354 0 0 0 -0.21299 0.37307 -0.90302 0.038037
-0.0058682 0.19715 1.0528 5.9927e-39 394 354 0 0 0 -0.16227 0.37012 -0.9147 0.037904
0.010761 0.19715 1.0528 6.4998e-39 407.5 354 0 0 0 0.34841 0.3504 -0.86938 0.051781
0.013852 0.19609 1.0537 7.56e-39 386 354 0 0 0 0.48515 0.32085 -0.81344 0.049645
-0.0071061 0.19917 1.0537 7.099e-39 439 354 0 0 0 -0.20879 0.38652 -0.89834 0.037282
-0.0058682 0.19838 1.0528 6.6381e-39 429 354 0 0 0 -0.16477 0.38197 -0.90937 0.037904
0.010761 0.19838 1.0528 7.8366e-39 442.5 354 0 0 0 0.33777 0.36535 -0.86743 0.049533
0.012608 0.19962 1.0528 7.3757e-39 477 354 0 0 0 0.38942 0.37571 -0.84095 0.04565
-0.0071061 0.20102 1.0537 6.3615e-39 484 354 0 0 0 -0.21328 0.39451 -0.8938 0.035202
0.012608 0.20085 1.0528 5.8083e-39 501 354 0 0 0 0.39876 0.38708 -0.83136 0.043371
-0.0071061 0.20287 1.0537 6.2232e-39 329 354.5 0 0 0 -0.2104 0.39617 -0.89374 0.034476
-0.0058682 0.20208 1.0528 5.9005e-39 506 354 0 0 0 -0.18277 0.39493 -0.90035 0.03431
0.0076812 0.20331 1.0528 5.5317e-39 204 355 0 0 0 0.24386 0.3826 -0.89115 0.043996
0.010153 0.20348 1.0537 5.3473e-39 206 355 0 0 0 0.33288 0.38773 -0.85957 0.043018
-0.0052569 0.20534 1.0537 5.3473e-39 226 355 0 0 0 -0.17635 0.39492 -0.90163 0.036981
-0.0027889 0.20516 1.0528 5.9005e-39 228.5 355 0 0 0 -0.11359 0.39209 -0.91289 0.041097
-0.00094119 0.20454 1.0528 5.8083e-39 216 355 0 0 0 -0.031962 0.38191 -0.92365 0.046867
0.0011122 0.20507 1.0534 5.8698e-39 231.33 355 0 0 0 0.0020247 0.38117 -0.9245 0.046545
0.00337 0.20577 1.0528 6.6842e-39 247.5 355 0 0 0 0.065842 0.38954 -0.91865 0.043313
0.0052176 0.20577 1.0528 6.9147e-39 249 355 0 0 0 0.15738 0.39224 -0.9063 0.045504
0.0064549 0.20595 1.0537 7.1913e-39 250 355 0 0 0 0.20314 0.39421 -0.89629 0.045444
-0.0034047 0.20701 1.0528 5.9005e-39 257 355 0 0 0 -0.12769 0.39377 -0.9103 0.041192
0.0033712 0.20709 1.0533 7.1913e-39 262.5 355 0 0 0 0.098925 0.39402 -0.91376 0.042028
0.0052176 0.20701 1.0528 6.8225e-39 264 355 0 0 0 0.14531 0.4005 -0.9047 0.040426
0.0064549 0.20718 1.0537 6.6381e-39 265 355 0 0 0 0.20489 0.40102 -0.89286 0.042862
-0.0034062 0.20895 1.0533 6.3154e-39 276.5 355 0 0 0 -0.13586 0.40913 -0.9023 0.03855
0.0033729 0.20903 1.0537 5.8083e-39 282 355 0 0 0 0.11434 0.41019 -0.90481 0.040679
0.0052198 0.20895 1.0533 5.4396e-39 283.5 355 0 0 0 0.15869 0.41306 -0.89677 0.038568
0.034839 0.076569 1.0546 5.6239e-39 431 321 0 0 0 -0.62718 0.21095 -0.74976 0.018372
0.037307 0.077803 1.0546 8.1132e-39 412 322 0 0 0 -0.65009 0.20681 -0.73117 0.020198
0.042261 0.080923 1.0551 6.9608e-39 369 324.5 0 0 0 -0.71059 0.17883 -0.6805 0.024596
0.042279 0.08281 1.0555 5.4395e-39 223 326 0 0 0 -0.70858 0.15342 -0.68875 0.024845
-0.037373 0.088984 1.0555 6.131e-39 458.5 329 0 0 0 0.50906 -0.48495 -0.71111 0.096489
-0.039193 0.090142 1.0546 6.4537e-39 430 330 0 0 0 0.53208 -0.51203 -0.67433 0.097513
-0.037342 0.090142 1.0546 6.6381e-39 431.5 330 0 0 0 0.52991 -0.47892 -0.69988 0.096418
-0.035521 0.091454 1.0555 6.0849e-39 425 331 0 0 0 0.53674 -0.44316 -0.71799 0.094873
-0.035491 0.09261 1.0546 5.9927e-39 418 332 0 0 0 0.55668 -0.45407 -0.69565 0.093466
0.043514 0.093306 1.0555 5.9927e-39 310 333.5 0 0 0 -0.72467 0.042201 -0.6878 0.026714
0.043514 0.095159 1.0555 5.6239e-39 466 334 0 0 0 -0.72558 0.023868 -0.68772 0.027497
0.04471 0.095077 1.0546 5.8083e-39 467 334 0 0 0 -0.74182 0.017579 -0.67037 0.029992
-0.034287 0.097012 1.0555 6.3615e-39 322 335 0 0 0 0.65293 -0.34257 -0.67552 0.082677
0.043514 0.096394 1.0555 6.1771e-39 381 335 0 0 0 -0.72116 0.0077899 -0.69273 0.024913
0.04471 0.097545 1.0546 5.0708e-39 252 336 0 0 0 -0.74364 -0.016781 -0.66837 0.029077
-0.035491 0.098779 1.0546 8.1132e-39 348 336 0 0 0 0.68272 -0.3451 -0.64404 0.071622
0.045327 0.098779 1.0546 5.5778e-39 419.5 336 0 0 0 -0.749 -0.041426 -0.66127 0.032046
-0.035521 0.10071 1.0555 6.3154e-39 428 336.5 0 0 0 0.69882 -0.29756 -0.65047 0.066017
0.045546 0.10045 1.0549 7.3142e-39 374.67 337 0 0 0 -0.71588 -0.04892 -0.6965 0.030121
-0.035521 0.10318 1.0555 5.2551e-39 286 338 0 0 0 0.7335 -0.21606 -0.64443 0.039615
-0.030582 0.10504 1.0555 5.9927e-39 480 338 0 0 0 0.73137 -0.0098048 -0.68191 0.01968
-0.029347 0.10504 1.0555 5.8083e-39 481 338 0 0 0 0.7127 0.007552 -0.70143 0.019962
0.01511 0.17296 1.0555 7.9288e-39 449 352 0 0 0 0.74797 0.20279 -0.63199 0.027442
0.01511 0.17913 1.0555 7.6522e-39 262 353 0 0 0 0.67667 0.20231 -0.70794 0.028858
0.016963 0.17913 1.0555 7.0991e-39 263.5 353 0 0 0 0.73759 0.17944 -0.65097 0.023892
0.017565 0.18392 1.0546 7.6522e-39 386 353 0 0 0 0.72837 0.17676 -0.66199 0.024917
0.017565 0.18515 1.0546 6.0849e-39 410 353 0 0 0 0.7191 0.17522 -0.67245 0.027843
0.017565 0.18638 1.0546 7.9288e-39 444 353 0 0 0 0.71619 0.17142 -0.67653 0.028072
0.018799 0.19255 1.0546 5.4395e-39 274 354 0 0 0 0.74476 0.22788 -0.62722 0.029197
0.016345 0.19519 1.0555 7.6522e-39 363 354 0 0 0 0.63652 0.29621 -0.71211 0.03517
-0.0095799 0.19687 1.0546 7.099e-39 379 354 0 0 0 -0.35076 0.34457 -0.87077 0.032627
0.01263 0.19749 1.0546 6.4537e-39 409 354 0 0 0 0.42217 0.34564 -0.83804 0.04997
-0.009584 0.19942 1.0551 6.7764e-39 437 354 0 0 0 -0.34395 0.3715 -0.86237 0.031829
0.01263 0.19872 1.0546 8.1132e-39 444 354 0 0 0 0.39954 0.36856 -0.83936 0.046294
-0.0071121 0.20489 1.0546 5.2552e-39 208 355 0 0 0 -0.21761 0.39988 -0.89036 0.03581
0.0077009 0.20507 1.0555 5.163e-39 235 355 0 0 0 0.27788 0.3989 -0.87388 0.049914
0.0089358 0.20507 1.0555 5.5317e-39 236 355 0 0 0 0.30077 0.4006 -0.86548 0.048169
0.010784 0.20498 1.0551 5.209e-39 237.5 355 0 0 0 0.33995 0.40129 -0.85053 0.046715
-0.0052639 0.20683 1.0551 5.2551e-39 248 355 0 0 0 -0.17908 0.40368 -0.8972 0.037764
-0.0021767 0.20674 1.0546 6.6842e-39 250.5 355 0 0 0 -0.077751 0.38879 -0.91804 0.045817
-0.0009428 0.20674 1.0546 6.6842e-39 251.5 355 0 0 0 -0.033249 0.38713 -0.92143 0.047396
0.00070243 0.20701 1.0549 6.6381e-39 255.33 355 0 0 0 0.02093 0.3842 -0.92301 0.048944
0.010171 0.2063 1.0555 7.0991e-39 253 355 0 0 0 0.33211 0.41354 -0.84776 0.048965
-0.0046444 0.20859 1.0546 7.1913e-39 269 355 0 0 0 -0.15797 0.41467 -0.89616 0.037459
-0.0021785 0.20877 1.0555 6.6381e-39 271 355 0 0 0 -0.082686 0.40291 -0.9115 0.044425
-0.0009436 0.20877 1.0555 6.0849e-39 272 355 0 0 0 -0.011988 0.39969 -0.91657 0.048056
0.00090811 0.20868 1.0551 5.7622e-39 273.5 355 0 0 0 0.054018 0.39284 -0.91802 0.048149
0.0064604 0.20921 1.0546 5.624e-39 284.5 355 0 0 0 0.22871 0.41021 -0.88285 0.044744
-0.0046484 0.21001 1.0555 4.8864e-39 282 355 0 0 0 -0.17493 0.42228 -0.88943 0.037573
-0.0034105 0.21106 1.0546 6.2693e-39 335 355 0 0 0 -0.10372 0.43766 -0.89314 0.034051
-0.0009436 0.21001 1.0555 6.2693e-39 285 355 0 0 0 0.0046746 0.40675 -0.91353 0.044946
0.0011146 0.21042 1.0555 6.3308e-39 304 355 0 0 0 0.067195 0.40891 -0.9101 0.044166
0.0033758 0.21106 1.0546 6.8686e-39 340.5 355 0 0 0 0.14201 0.41564 -0.89838 0.041399
0.0052265 0.21106 1.0546 7.0069e-39 342 355 0 0 0 0.1821 0.42917 -0.88467 0.041184
0.0064659 0.21124 1.0555 7.0991e-39 343 355 0 0 0 0.19634 0.4353 -0.87861 0.042361
0.0033786 0.21248 1.0555 5.67e-39 353.5 355 0 0 0 0.16359 0.43236 -0.88674 0.043963
0.005231 0.21309 1.0555 6.9608e-39 361.5 355 0 0 0 0.20454 0.43781 -0.87549 0.044297
-0.042968 0.0767 1.0564 8.482e-39 362 321 0 0 0 0.059727 -0.79112 -0.60874 0.10889
0.034899 0.077936 1.0564 8.1132e-39 411 322 0 0 0 -0.61922 0.16965 -0.76667 0.016978
0.037403 0.07924 1.0573 7.7444e-39 398 323 0 0 0 -0.63403 0.16755 -0.75494 0.017665
0.039041 0.080866 1.057 6.7303e-39 369 324.33 0 0 0 -0.65403 0.15641 -0.74012 0.019137
0.041079 0.081026 1.0564 6.9147e-39 368 324.5 0 0 0 -0.67016 0.16576 -0.72347 0.021553
0.043588 0.081714 1.0573 8.1132e-39 362 325 0 0 0 -0.68446 0.15495 -0.7124 0.0227
0.03864 0.082951 1.0573 5.8083e-39 220 326 0 0 0 -0.65036 0.13693 -0.74718 0.01788
0.041114 0.082951 1.0573 5.4395e-39 222 326 0 0 0 -0.6637 0.14369 -0.73407 0.020316
0.043551 0.08288 1.0564 5.4395e-39 224 326 0 0 0 -0.71056 0.14854 -0.68778 0.024694
0.041114 0.084807 1.0573 5.9466e-39 439 326.5 0 0 0 -0.66768 0.11879 -0.73491 0.020172
0.042933 0.084734 1.0564 6.1541e-39 440.5 326.5 0 0 0 -0.70643 0.12045 -0.69746 0.02435
-0.047314 0.087862 1.0568 5.7161e-39 338 328.5 0 0 0 0.45379 -0.65083 -0.60868 0.10074
-0.041114 0.087824 1.0564 5.7622e-39 219.5 329 0 0 0 0.48348 -0.55258 -0.67889 0.10136
-0.038674 0.087899 1.0573 5.5778e-39 221.5 329 0 0 0 0.4799 -0.48268 -0.73261 0.10072
-0.036788 0.087824 1.0564 5.5317e-39 223 329 0 0 0 0.48103 -0.47703 -0.73556 0.097429
-0.035582 0.08728 1.0573 7.1452e-39 289 328.5 0 0 0 0.4583 -0.43713 -0.77387 0.092547
0.041097 0.087243 1.0568 7.0991e-39 419 328.5 0 0 0 -0.69367 0.090306 -0.71461 0.022255
0.042933 0.087206 1.0564 6.9608e-39 420.5 328.5 0 0 0 -0.698 0.094125 -0.70989 0.024498
-0.03926 0.08906 1.0564 5.7161e-39 457 329 0 0 0 0.52037 -0.50211 -0.69072 0.098029
-0.035552 0.08906 1.0564 6.0849e-39 460 329 0 0 0 0.5007 -0.44142 -0.74461 0.094113
-0.033108 0.089137 1.0573 5.163e-39 215 330 0 0 0 0.47264 -0.37159 -0.79908 0.087515
0.041079 0.08906 1.0564 8.3898e-39 397 330 0 0 0 -0.69158 0.081614 -0.71768 0.022139
0.042933 0.08906 1.0564 8.1593e-39 398.5 330 0 0 0 -0.69954 0.080004 -0.7101 0.023775
-0.034747 0.09076 1.057 6.4537e-39 431 330.33 0 0 0 0.51583 -0.41661 -0.74857 0.092298
-0.033108 0.090992 1.0573 6.3154e-39 431 330.5 0 0 0 0.51001 -0.36406 -0.77932 0.090368
0.041114 0.090992 1.0573 6.131e-39 382.5 331.5 0 0 0 -0.67879 0.070561 -0.73094 0.019914
0.042933 0.090914 1.0564 6.4767e-39 384 331.5 0 0 0 -0.70956 0.061823 -0.70193 0.024245
-0.034316 0.092768 1.0564 5.8083e-39 419 332 0 0 0 0.54621 -0.39471 -0.73882 0.092554
-0.033108 0.092848 1.0573 5.6239e-39 420 332 0 0 0 0.55351 -0.34719 -0.75703 0.090014
0.041079 0.092768 1.0564 6.4537e-39 360 333 0 0 0 -0.69552 0.054677 -0.71643 0.021828
0.042315 0.092768 1.0564 5.9927e-39 361 333 0 0 0 -0.69898 0.048633 -0.71349 0.022635
-0.034316 0.094622 1.0564 6.6842e-39 379.5 333.5 0 0 0 0.58752 -0.37681 -0.71612 0.089588
-0.033108 0.094703 1.0573 6.6381e-39 380.5 333.5 0 0 0 0.59008 -0.3241 -0.73943 0.091612
0.041114 0.094703 1.0573 6.1771e-39 345 334 0 0 0 -0.67948 0.041028 -0.73254 0.01976
0.042315 0.094622 1.0564 6.3154e-39 346 334 0 0 0 -0.69621 0.039611 -0.71674 0.022485
-0.03308 0.097094 1.0564 6.3154e-39 323 335 0 0 0 0.64548 -0.2927 -0.70547 0.081169
0.041114 0.097178 1.0573 6.638e-39 305.5 335.5 0 0 0 -0.67185 0.013939 -0.74056 0.016978
0.042727 0.0973 1.0564 6.2693e-39 292.33 335.67 0 0 0 -0.68683 0.0036147 -0.72681 0.019864
-0.034316 0.098948 1.0564 7.9288e-39 349 336 0 0 0 0.67199 -0.30209 -0.67614 0.072029
-0.033108 0.099033 1.0573 7.6522e-39 350 336 0 0 0 0.67486 -0.24446 -0.69628 0.06862
0.041114 0.099033 1.0573 5.5317e-39 416 336 0 0 0 -0.67023 -0.016485 -0.74197 0.017834
0.042933 0.098948 1.0564 5.4395e-39 417.5 336 0 0 0 -0.68826 -0.021666 -0.72515 0.020957
-0.034316 0.1008 1.0564 6.6842e-39 429 336.5 0 0 0 0.69856 -0.25091 -0.67012 0.059651
-0.033108 0.10089 1.0573 6.4537e-39 430 336.5 0 0 0 0.69825 -0.18102 -0.69259 0.051113
0.041114 0.10027 1.0573 7.8366e-39 281 337 0 0 0 -0.66749 -0.021457 -0.74431 0.017776
0.04297 0.10027 1.0573 7.7444e-39 282.5 337 0 0 0 -0.67421 -0.030455 -0.73791 0.020165
-0.034316 0.10328 1.0564 5.1168e-39 287 338 0 0 0 0.73212 -0.14578 -0.66539 0.032413
-0.03308 0.10328 1.0564 5.1629e-39 288 338 0 0 0 0.72581 -0.11167 -0.67877 0.034559
-0.031459 0.10357 1.0573 5.4703e-39 314.33 338 0 0 0 0.71317 -0.03454 -0.70014 0.028107
-0.029384 0.10331 1.0568 5.4857e-39 291 338 0 0 0 0.69334 0.0015578 -0.72061 0.024283
-0.034316 0.10513 1.0564 6.5459e-39 477 338 0 0 0 0.74647 -0.13061 -0.65247 0.028284
-0.03308 0.10513 1.0564 6.7303e-39 478 338 0 0 0 0.74367 -0.062804 -0.66559 0.025246
-0.031844 0.10513 1.0564 6.2693e-39 479 338 0 0 0 0.73248 -0.029312 -0.68016 0.021483
-0.033108 0.10646 1.0573 7.8366e-39 342 339 0 0 0 0.74248 -0.013662 -0.66973 0.018707
0.013887 0.17496 1.0564 6.4076e-39 495 352 0 0 0 0.69769 0.19589 -0.6891 0.032731
0.015136 0.17449 1.0573 6.3615e-39 485 352 0 0 0 0.77368 0.16789 -0.61092 0.02875
0.013887 0.17681 1.0564 6.3615e-39 155 353 0 0 0 0.66075 0.19202 -0.72563 0.032617
0.015136 0.1782 1.0573 5.4395e-39 236 353 0 0 0 0.73483 0.17262 -0.65591 0.024883
0.016984 0.17812 1.0568 5.0708e-39 237.5 353 0 0 0 0.77004 0.16217 -0.61704 0.02379
-0.010842 0.18934 1.0573 5.5317e-39 488 353 0 0 0 -0.55974 0.24034 -0.79305 0.023624
-0.010842 0.19119 1.0573 5.163e-39 176 354 0 0 0 -0.53027 0.26218 -0.80627 0.024738
-0.010842 0.19305 1.0573 7.6522e-39 251 354 0 0 0 -0.51899 0.27916 -0.80791 0.026523
-0.012074 0.19482 1.0568 6.5458e-39 307.5 354 0 0 0 -0.54079 0.28602 -0.79104 0.027155
-0.010842 0.1949 1.0573 6.3615e-39 308.5 354 0 0 0 -0.48722 0.30762 -0.8173 0.028459
-0.010842 0.19676 1.0573 8.3898e-39 366 354 0 0 0 -0.45879 0.33576 -0.82267 0.030498
0.013887 0.19783 1.0564 6.1771e-39 410 354 0 0 0 0.49578 0.34937 -0.79507 0.042259
0.015123 0.19659 1.0564 7.6522e-39 387 354 0 0 0 0.57617 0.31378 -0.7547 0.04009
0.013899 0.19923 1.0573 8.1132e-39 445 354 0 0 0 0.48698 0.37571 -0.78848 0.037977
0.012651 0.20277 1.0564 5.9927e-39 151 355 0 0 0 0.40579 0.3909 -0.82615 0.040116
-0.0071274 0.20719 1.0568 5.8084e-39 246.5 355 0 0 0 -0.23007 0.40846 -0.88331 0.038663
-0.0058883 0.20771 1.0564 5.7161e-39 255 355 0 0 0 -0.20306 0.41126 -0.88861 0.03989
0.0077107 0.20719 1.0568 6.7303e-39 258.5 355 0 0 0 0.31308 0.41472 -0.85439 0.054675
0.0089472 0.20719 1.0568 6.8225e-39 259.5 355 0 0 0 0.33838 0.42373 -0.84021 0.053261
0.010179 0.20771 1.0564 7.1913e-39 268 355 0 0 0 0.36136 0.43307 -0.82575 0.051616
0.007714 0.20913 1.0573 4.8864e-39 279 355 0 0 0 0.33119 0.41486 -0.84747 0.060521
0.0089511 0.20913 1.0573 4.702e-39 280 355 0 0 0 0.36553 0.42848 -0.82632 0.05674
0.010179 0.20895 1.0564 4.702e-39 281 355 0 0 0 0.37834 0.43635 -0.81637 0.051744
-0.0046563 0.2116 1.0573 6.7303e-39 295 355 0 0 0 -0.13626 0.44076 -0.88722 0.037981
-0.0021814 0.2109 1.0568 6.0388e-39 310 355 0 0 0 -0.048013 0.42372 -0.90452 0.040523
-0.00094441 0.21142 1.0564 6.2693e-39 337 355 0 0 0 -0.021732 0.42653 -0.90421 0.038441
0.00029157 0.21142 1.0564 6.4537e-39 338 355 0 0 0 0.042844 0.42086 -0.90611 0.044169
0.007714 0.21037 1.0573 7.0991e-39 292 355 0 0 0 0.36389 0.42454 -0.82907 0.059175
0.0089511 0.21037 1.0573 7.3757e-39 293 355 0 0 0 0.37042 0.42661 -0.8251 0.059005
0.010188 0.21037 1.0573 7.0991e-39 294 355 0 0 0 0.3971 0.43792 -0.80656 0.056086
-0.0034164 0.21266 1.0564 7.9288e-39 348 355 0 0 0 -0.089752 0.45618 -0.88535 0.032444
0.00090966 0.21275 1.0568 5.4856e-39 351.5 355 0 0 0 0.088403 0.43404 -0.89655 0.046039
0.0033815 0.21389 1.0564 8.2976e-39 366.5 355 0 0 0 0.14233 0.44454 -0.88438 0.045593
0.0064715 0.21266 1.0564 5.9927e-39 356 355 0 0 0 0.20825 0.43531 -0.87586 0.044356
0.0015289 0.2147 1.0573 6.9608e-39 371.5 355 0 0 0 0.095394 0.45714 -0.88427 0.042909
0.0027659 0.21531 1.0573 6.2693e-39 379 355 0 0 0 0.12198 0.46925 -0.8746 0.042196
0.0046192 0.21522 1.0568 7.1913e-39 380.5 355 0 0 0 0.17006 0.45844 -0.87231 0.043501
0.006477 0.21408 1.0573 7.3757e-39 369 355 0 0 0 0.22788 0.44494 -0.86608 0.04633
0.00524 0.21655 1.0573 5.9927e-39 395 355 0 0 0 0.16392 0.46421 -0.87042 0.045134
0.031271 0.075659 1.0592 8.2976e-39 361 321 0 0 0 -0.55908 0.20017 -0.80459 0.015884
-0.041803 0.076832 1.0582 8.3898e-39 363 321 0 0 0 0.050397 -0.68457 -0.7272 0.10257
-0.036851 0.076832 1.0582 7.9288e-39 364 321 0 0 0 0.15415 -0.61275 -0.77509 0.081701
0.03313 0.076898 1.0592 5.8083e-39 429.5 321 0 0 0 -0.58067 0.18156 -0.79364 0.014628
-0.050513 0.079376 1.0592 7.3757e-39 414 322 0 0 0 -0.061745 -0.84803 -0.52634 0.13806
-0.049274 0.079376 1.0592 7.1913e-39 415 322 0 0 0 0.00063418 -0.81782 -0.57547 0.12758
-0.047994 0.079308 1.0582 7.3757e-39 416 322 0 0 0 0.030357 -0.80957 -0.58624 0.12152
-0.044279 0.07807 1.0582 5.6239e-39 432 321 0 0 0 0.056725 -0.76152 -0.64565 0.1101
-0.043059 0.078723 1.0587 6.5919e-39 321 322 0 0 0 0.10608 -0.72452 -0.68104 0.10949
-0.041839 0.078137 1.0592 5.7161e-39 223 322 0 0 0 0.089369 -0.65744 -0.74819 0.10016
-0.036851 0.078689 1.0582 6.3615e-39 326 322 0 0 0 0.19444 -0.60718 -0.77041 0.084218
-0.035643 0.079376 1.0592 6.6381e-39 426 322 0 0 0 0.23651 -0.5204 -0.82052 0.079606
0.034989 0.079376 1.0592 6.4537e-39 396 323 0 0 0 -0.6037 0.14701 -0.78354 0.014258
0.036197 0.079308 1.0582 7.1913e-39 397 323 0 0 0 -0.6189 0.15187 -0.77064 0.016094
-0.048035 0.080615 1.0592 7.6522e-39 405 323 0 0 0 0.059369 -0.77949 -0.6236 0.12271
-0.036882 0.080615 1.0592 7.3757e-39 414 323 0 0 0 0.24139 -0.54479 -0.80308 0.08577
-0.035643 0.081854 1.0592 7.7444e-39 400 324 0 0 0 0.28992 -0.46631 -0.83577 0.086447
-0.033165 0.081854 1.0592 7.8366e-39 402 324 0 0 0 0.32359 -0.43249 -0.84157 0.079185
0.037467 0.081234 1.0592 5.9466e-39 304 324.5 0 0 0 -0.62206 0.14063 -0.77024 0.014866
0.039911 0.081784 1.0582 8.3898e-39 359 325 0 0 0 -0.65272 0.15043 -0.74251 0.019028
0.043625 0.080546 1.0582 5.5317e-39 385 324 0 0 0 -0.67093 0.16269 -0.72345 0.020936
-0.035643 0.083094 1.0592 5.6239e-39 386 325 0 0 0 0.32969 -0.46069 -0.82406 0.090623
-0.033165 0.083094 1.0592 5.8083e-39 388 325 0 0 0 0.34498 -0.40592 -0.8463 0.079883
0.037467 0.083094 1.0592 5.5317e-39 219 326 0 0 0 -0.62155 0.12658 -0.77308 0.014452
0.039911 0.083022 1.0582 5.3473e-39 221 326 0 0 0 -0.65323 0.13373 -0.74526 0.018753
-0.036882 0.085572 1.0592 7.8366e-39 355 327 0 0 0 0.39508 -0.43919 -0.80686 0.093617
-0.03521 0.085111 1.0585 7.4064e-39 360.67 326.67 0 0 0 0.38677 -0.43262 -0.81441 0.091048
-0.033137 0.08488 1.0582 6.9608e-39 364.5 326.5 0 0 0 0.38449 -0.39734 -0.83324 0.085749
-0.031926 0.085572 1.0592 7.6522e-39 359 327 0 0 0 0.39156 -0.33682 -0.85629 0.073586
-0.029447 0.084953 1.0592 6.9147e-39 367.5 326.5 0 0 0 0.40835 -0.29167 -0.86497 0.067243
0.037467 0.084953 1.0592 6.1771e-39 429 326.5 0 0 0 -0.62603 0.11524 -0.77124 0.014238
0.039309 0.084916 1.0587 5.9927e-39 437.5 326.5 0 0 0 -0.64645 0.1189 -0.75363 0.017596
-0.049232 0.087975 1.0582 6.1771e-39 460 328 0 0 0 0.45149 -0.68594 -0.57065 0.1061
-0.044279 0.087975 1.0582 5.0708e-39 217 329 0 0 0 0.46107 -0.60086 -0.65298 0.10886
-0.043041 0.087975 1.0582 5.2552e-39 218 329 0 0 0 0.46678 -0.57235 -0.67419 0.10732
-0.038122 0.086811 1.0592 6.6381e-39 227 328 0 0 0 0.42443 -0.44964 -0.78593 0.097493
-0.036851 0.086737 1.0582 8.3898e-39 353 328 0 0 0 0.43497 -0.44563 -0.78244 0.094516
-0.034389 0.087393 1.0587 7.0529e-39 290 328.5 0 0 0 0.43594 -0.38592 -0.81303 0.088711
-0.033137 0.087356 1.0582 7.0991e-39 291 328.5 0 0 0 0.43017 -0.36406 -0.82609 0.083765
0.037467 0.086811 1.0592 5.9005e-39 421 328 0 0 0 -0.63203 0.10812 -0.76737 0.014482
0.039292 0.087356 1.0582 7.053e-39 417.5 328.5 0 0 0 -0.65664 0.10234 -0.74723 0.018006
-0.050513 0.08805 1.0592 6.1771e-39 459 328 0 0 0 0.35329 -0.72685 -0.58897 0.12397
-0.045557 0.08805 1.0592 5.0708e-39 216 329 0 0 0 0.4338 -0.61758 -0.65605 0.10871
-0.034375 0.089213 1.0582 5.9005e-39 461 329 0 0 0 0.47106 -0.39315 -0.78964 0.090351
-0.031926 0.089289 1.0592 5.2552e-39 216 330 0 0 0 0.45403 -0.30667 -0.83655 0.077311
0.03684 0.08865 1.059 7.6522e-39 401.25 329.5 0 0 0 -0.63179 0.10284 -0.76829 0.013998
0.039292 0.089213 1.0582 7.8366e-39 395.5 330 0 0 0 -0.65989 0.091782 -0.74574 0.016884
-0.031926 0.091148 1.0592 5.8083e-39 441 330.5 0 0 0 0.49035 -0.28822 -0.82249 0.078614
-0.029447 0.091148 1.0592 6.1771e-39 444 330.5 0 0 0 0.51064 -0.20218 -0.83569 0.067934
0.037054 0.090942 1.0592 6.2693e-39 378.67 331.33 0 0 0 -0.6369 0.090132 -0.76566 0.013703
0.039292 0.09107 1.0582 6.108e-39 380 331.5 0 0 0 -0.6629 0.071393 -0.7453 0.016659
-0.031926 0.093007 1.0592 5.6239e-39 421 332 0 0 0 0.51945 -0.25584 -0.8153 0.081097
-0.029447 0.093007 1.0592 6.0849e-39 423 332 0 0 0 0.55031 -0.17818 -0.81573 0.065524
0.037435 0.092927 1.0582 7.56e-39 357 333 0 0 0 -0.65763 0.062228 -0.75077 0.014683
0.039292 0.092927 1.0582 7.5601e-39 358.5 333 0 0 0 -0.6635 0.05837 -0.7459 0.01601
-0.031926 0.094866 1.0592 6.4998e-39 381.5 333.5 0 0 0 0.55991 -0.24504 -0.79149 0.081568
-0.029447 0.094866 1.0592 6.0849e-39 383.5 333.5 0 0 0 0.57412 -0.14049 -0.80663 0.058907
0.037451 0.094825 1.0587 6.7764e-39 330.5 334 0 0 0 -0.65613 0.043939 -0.75336 0.013329
0.039292 0.094784 1.0582 5.9927e-39 343 334 0 0 0 -0.66388 0.039253 -0.74681 0.014836
-0.031286 0.097281 1.0584 6.4306e-39 324.5 335 0 0 0 0.6296 -0.18036 -0.7557 0.065165
-0.029447 0.097344 1.0592 6.5458e-39 326 335 0 0 0 0.62214 -0.083459 -0.77844 0.050712
0.036831 0.097302 1.0587 6.4537e-39 301.5 335.5 0 0 0 -0.64656 0.011953 -0.76277 0.011488
0.039292 0.09726 1.0582 6.615e-39 304 335.5 0 0 0 -0.66303 0.01934 -0.74835 0.014652
-0.031306 0.099203 1.0592 7.8366e-39 351.5 336 0 0 0 0.64642 -0.11969 -0.75354 0.055166
-0.029447 0.099203 1.0592 8.2976e-39 353 336 0 0 0 0.64572 -0.056958 -0.76145 0.042847
0.037435 0.099118 1.0582 6.3615e-39 413 336 0 0 0 -0.64781 -0.010527 -0.76173 0.011698
0.039292 0.099118 1.0582 6.0388e-39 414.5 336 0 0 0 -0.65559 -0.014214 -0.75498 0.013811
-0.031306 0.10106 1.0592 5.3473e-39 431.5 336.5 0 0 0 0.67018 -0.084272 -0.7374 0.044197
