# .PCD v.7 - Point Cloud Data file format
VERSION .7
FIELDS x y z rgb u v vx vy vz normal_x normal_y normal_z curvature
SIZE 4 4 4 4 4 4 4 4 4 4 4 4 4
TYPE F F F F F F F F F F F F F
COUNT 1 1 1 1 1 1 1 1 1 1 1 1 1
WIDTH 560
HEIGHT 1
VIEWPOINT 0 0 0 1 0 0 0
POINTS 560
DATA ascii
0.14585 -0.071215 1.2437 8.6664e-39 402 243 0 0 0 -0.27284 -0.069162 -0.95957 0.04467
0.14715 -0.071143 1.2424 8.2976e-39 403 243 0 0 0 -0.27653 -0.049823 -0.95971 0.043845
0.14876 -0.071215 1.2437 8.2054e-39 404 243 0 0 0 -0.27095 -0.080688 -0.95921 0.05108
0.18204 -0.071143 1.2424 7.9288e-39 427 243 0 0 0 0.70936 -0.19641 -0.67693 0.041122
0.14148 -0.069033 1.2437 7.8827e-39 289.5 244 0 0 0 -0.30284 0.050477 -0.9517 0.025749
0.14585 -0.069033 1.2437 7.9749e-39 292.5 244 0 0 0 -0.28964 0.012981 -0.95705 0.033771
0.1473 -0.069033 1.2437 8.0671e-39 293.5 244 0 0 0 -0.28957 -0.0045663 -0.95715 0.038568
0.14876 -0.069033 1.2437 8.3898e-39 295 244 0 0 0 -0.28708 -0.013807 -0.95781 0.042886
0.15079 -0.068236 1.2424 8.2515e-39 410.5 244 0 0 0 -0.31015 0.036993 -0.94997 0.035755
0.15297 -0.068963 1.2424 8.1593e-39 312 244 0 0 0 -0.31768 -0.012708 -0.94811 0.04694
0.14148 -0.06685 1.2437 8.7586e-39 184 245 0 0 0 -0.30091 0.11293 -0.94694 0.016863
0.14585 -0.06685 1.2437 7.2835e-39 217 245 0 0 0 -0.28898 0.091057 -0.95299 0.020714
0.1473 -0.06685 1.2437 7.56e-39 218 245 0 0 0 -0.28966 0.08839 -0.95304 0.023148
0.15079 -0.066783 1.2424 8.3437e-39 220.5 245 0 0 0 -0.31443 0.070852 -0.94663 0.030353
0.15312 -0.06685 1.2437 7.7444e-39 222 245 0 0 0 -0.32394 0.063096 -0.94397 0.033517
0.18368 -0.06685 1.2437 7.9288e-39 243 245 0 0 0 0.76716 -0.0086037 -0.6414 0.024374
0.14148 -0.065395 1.2437 7.7444e-39 416 245 0 0 0 -0.31179 0.14608 -0.93886 0.014456
0.14585 -0.065395 1.2437 7.6522e-39 419 245 0 0 0 -0.29607 0.12476 -0.94698 0.015901
0.1473 -0.065395 1.2437 7.56e-39 420 245 0 0 0 -0.29258 0.11928 -0.94877 0.017702
0.15086 -0.065362 1.2431 7.6061e-39 422.5 245 0 0 0 -0.31336 0.10399 -0.94392 0.025175
0.15312 -0.065395 1.2437 7.2835e-39 424 245 0 0 0 -0.32544 0.08856 -0.94141 0.029418
0.15442 -0.065329 1.2424 7.2835e-39 425 245 0 0 0 -0.34251 0.095217 -0.93468 0.027856
0.18368 -0.065395 1.2437 7.4678e-39 151 246 0 0 0 0.76403 0.041194 -0.64386 0.02318
0.14585 -0.063212 1.2437 7.1913e-39 325.5 246 0 0 0 -0.29603 0.1737 -0.93925 0.0090366
0.1473 -0.063212 1.2437 7.4218e-39 327 246 0 0 0 -0.29775 0.1638 -0.94049 0.010614
0.15094 -0.063212 1.2437 7.2374e-39 329.5 246 0 0 0 -0.30991 0.15763 -0.93761 0.014746
0.15312 -0.063212 1.2437 6.9608e-39 331 246 0 0 0 -0.33029 0.15475 -0.93111 0.016925
0.15515 -0.063148 1.2424 7.1913e-39 332.5 246 0 0 0 -0.34082 0.15178 -0.92779 0.019472
0.15733 -0.062422 1.2424 6.6381e-39 435 246 0 0 0 -0.33112 0.16989 -0.92817 0.018711
0.18368 -0.063212 1.2437 7.9749e-39 202.5 246.5 0 0 0 0.75824 0.10749 -0.64305 0.021008
0.1473 -0.06103 1.2437 7.6522e-39 228 247 0 0 0 -0.2991 0.20572 -0.93178 0.0059417
0.15094 -0.06103 1.2437 7.1452e-39 230.5 247 0 0 0 -0.31016 0.19884 -0.92966 0.0089046
0.15515 -0.060968 1.2424 7.6983e-39 233.5 247 0 0 0 -0.33475 0.2029 -0.9202 0.011355
0.15733 -0.060968 1.2424 7.0991e-39 235 247 0 0 0 -0.32679 0.21291 -0.9208 0.01269
0.18286 -0.060999 1.2431 7.4679e-39 252.5 247 0 0 0 0.71372 0.17478 -0.67827 0.027722
0.15118 -0.05909 1.2437 6.6688e-39 369 247.33 0 0 0 -0.30986 0.22705 -0.92327 0.0060409
0.15523 -0.058818 1.2431 7.4448e-39 190.5 248 0 0 0 -0.32479 0.23435 -0.91629 0.0075791
0.15733 -0.058788 1.2424 7.6522e-39 192 248 0 0 0 -0.31603 0.25071 -0.91502 0.0090368
0.15878 -0.058061 1.2424 8.1132e-39 243 248 0 0 0 -0.30229 0.26905 -0.91446 0.01045
0.17913 -0.058788 1.2424 8.2054e-39 207 248 0 0 0 0.5774 0.25031 -0.77714 0.050073
0.18059 -0.058788 1.2424 8.021e-39 208 248 0 0 0 0.62084 0.23977 -0.74637 0.041909
0.18265 -0.05907 1.2433 7.5293e-39 192.67 248 0 0 0 0.69878 0.21376 -0.68266 0.02764
0.15458 -0.056665 1.2437 7.8366e-39 163 249 0 0 0 -0.31774 0.2478 -0.91523 0.0058772
0.15668 -0.056636 1.2431 7.514e-39 164.5 249 0 0 0 -0.30787 0.26207 -0.91462 0.0075141
0.15878 -0.056608 1.2424 7.4678e-39 166 249 0 0 0 -0.29561 0.27522 -0.9148 0.0097076
0.17931 -0.056665 1.2437 8.2054e-39 180 249 0 0 0 0.57917 0.28258 -0.76466 0.047497
0.18077 -0.056665 1.2437 8.021e-39 181 249 0 0 0 0.63257 0.26347 -0.72831 0.038653
0.15458 -0.05521 1.2437 8.3898e-39 264 249 0 0 0 -0.31047 0.24948 -0.91726 0.0053036
0.15676 -0.05521 1.2437 8.021e-39 265.5 249 0 0 0 -0.29737 0.26157 -0.91823 0.007119
0.15878 -0.055154 1.2424 8.3898e-39 267 249 0 0 0 -0.28314 0.28152 -0.91683 0.010126
0.15458 -0.053027 1.2437 7.514e-39 201 250.5 0 0 0 -0.30323 0.25667 -0.9177 0.0050027
0.15676 -0.053026 1.2437 7.4218e-39 203 250.5 0 0 0 -0.28708 0.26575 -0.92031 0.0065588
0.15878 -0.052974 1.2424 7.6522e-39 205 250.5 0 0 0 -0.266 0.28437 -0.92107 0.010248
0.16096 -0.052247 1.2424 7.8366e-39 176.5 251 0 0 0 -0.22156 0.30204 -0.92719 0.016633
0.16314 -0.052247 1.2424 7.4678e-39 178 251 0 0 0 -0.17694 0.32034 -0.93063 0.023967
0.17777 -0.053 1.2431 7.6061e-39 218 250.5 0 0 0 0.44672 0.33111 -0.83115 0.05091
0.15676 -0.050844 1.2437 9.4962e-39 270.5 251 0 0 0 -0.27637 0.26896 -0.92265 0.0063563
0.15894 -0.050844 1.2437 9.1274e-39 272 251 0 0 0 -0.24995 0.28451 -0.92552 0.010325
0.16096 -0.050793 1.2424 6.8225e-39 422.5 251 0 0 0 -0.21612 0.30077 -0.92889 0.016003
0.16314 -0.050793 1.2424 6.7303e-39 425 251 0 0 0 -0.16967 0.31552 -0.93363 0.022637
0.1646 -0.050793 1.2424 6.6381e-39 426 251 0 0 0 -0.12453 0.32372 -0.93792 0.02881
0.17705 -0.050818 1.2431 6.8686e-39 142.5 252 0 0 0 0.37003 0.35396 -0.85895 0.044595
0.15749 -0.049389 1.2437 7.9288e-39 224 252 0 0 0 -0.26231 0.2827 -0.92264 0.0076473
0.15894 -0.049389 1.2437 7.9288e-39 225 252 0 0 0 -0.24495 0.2861 -0.92636 0.0095196
0.16113 -0.049389 1.2437 8.2976e-39 226.5 252 0 0 0 -0.20449 0.29818 -0.93235 0.015429
0.16314 -0.04934 1.2424 8.3898e-39 228 252 0 0 0 -0.15594 0.31809 -0.93515 0.023116
0.1646 -0.04934 1.2424 7.9288e-39 229 252 0 0 0 -0.12525 0.32388 -0.93777 0.026523
0.17477 -0.04934 1.2424 7.0991e-39 236 252 0 0 0 0.24201 0.3701 -0.89692 0.040173
0.1764 -0.049389 1.2437 7.56e-39 237 252 0 0 0 0.33472 0.36845 -0.8673 0.044812
0.15749 -0.047934 1.2437 7.56e-39 151 253 0 0 0 -0.25746 0.28353 -0.92376 0.0076007
0.15894 -0.047934 1.2437 7.1913e-39 152 253 0 0 0 -0.23732 0.28759 -0.92789 0.010258
0.16113 -0.047207 1.2437 7.1452e-39 195 253 0 0 0 -0.19951 0.30167 -0.9323 0.01438
0.16331 -0.047206 1.2437 7.514e-39 196.5 253 0 0 0 -0.13747 0.31282 -0.93981 0.022381
0.16476 -0.047206 1.2437 7.6522e-39 197.5 253 0 0 0 -0.089127 0.3224 -0.9424 0.028054
0.16605 -0.047159 1.2424 7.7905e-39 198.5 253 0 0 0 -0.054384 0.33501 -0.94065 0.031343
0.16896 -0.046432 1.2424 7.2835e-39 242 253 0 0 0 0.061829 0.34795 -0.93547 0.035967
0.17187 -0.046432 1.2424 7.8366e-39 244 253 0 0 0 0.13026 0.36236 -0.92289 0.035319
0.17332 -0.047159 1.2424 8.3437e-39 203.5 253 0 0 0 0.17482 0.37429 -0.91068 0.033824
0.17495 -0.047206 1.2437 8.482e-39 204.5 253 0 0 0 0.25643 0.36577 -0.89468 0.037019
0.16331 -0.045024 1.2437 7.3757e-39 158 254 0 0 0 -0.12415 0.31551 -0.94077 0.023498
0.16476 -0.045024 1.2437 7.0991e-39 159 254 0 0 0 -0.082257 0.31743 -0.94471 0.027692
0.16678 -0.044979 1.2424 7.514e-39 160.5 254 0 0 0 -0.018962 0.32905 -0.94412 0.032412
0.16896 -0.044979 1.2424 8.021e-39 162 254 0 0 0 0.067136 0.33475 -0.93991 0.034645
0.17187 -0.044979 1.2424 7.6522e-39 164 254 0 0 0 0.14975 0.35281 -0.92363 0.034653
0.17349 -0.045024 1.2437 7.0991e-39 165 254 0 0 0 0.20244 0.35562 -0.91244 0.033062
0.16682 -0.042809 1.2427 7.4679e-39 202.5 254.5 0 0 0 -0.019865 0.32241 -0.94639 0.031559
0.16913 -0.042842 1.2437 7.6983e-39 204 254.5 0 0 0 0.091312 0.33108 -0.93918 0.035857
0.17041 -0.042799 1.2424 7.7905e-39 205 254.5 0 0 0 0.13334 0.33318 -0.93339 0.034942
0.17252 -0.043084 1.2437 8.144e-39 219.67 254.33 0 0 0 0.18946 0.34535 -0.91915 0.034571
0.16694 -0.040659 1.2437 8.8047e-39 247.5 255 0 0 0 0.0029589 0.3178 -0.94815 0.033024
0.16913 -0.040659 1.2437 9.0352e-39 249 255 0 0 0 0.09964 0.3131 -0.94448 0.036797
0.17058 -0.040659 1.2437 8.8508e-39 250 255 0 0 0 0.15471 0.31358 -0.93687 0.036315
0.17204 -0.040659 1.2437 8.2054e-39 251 255 0 0 0 0.1949 0.31759 -0.92798 0.034303
0.16694 -0.039204 1.2437 6.7764e-39 165.5 256 0 0 0 -0.0024645 0.32176 -0.94682 0.033992
0.1693 -0.082939 1.2449 5.9927e-39 429 239 0 0 0 0.068836 -0.76962 -0.63478 0.026249
0.17076 -0.082939 1.2449 7.0991e-39 430 239 0 0 0 0.1252 -0.76934 -0.62645 0.026294
0.17367 -0.082939 1.2449 9.6805e-39 432 239 0 0 0 0.22703 -0.75385 -0.61658 0.030462
0.17658 -0.082939 1.2449 7.7444e-39 434 239 0 0 0 0.32948 -0.71602 -0.61543 0.037205
0.13726 -0.080026 1.2449 8.2976e-39 402 240 0 0 0 -0.26228 -0.38896 -0.88313 0.049627
0.13871 -0.080026 1.2449 7.7444e-39 403 240 0 0 0 -0.254 -0.40638 -0.87769 0.051273
0.14017 -0.080026 1.2449 7.56e-39 404 240 0 0 0 -0.23552 -0.43789 -0.86763 0.053829
0.14599 -0.080026 1.2449 7.56e-39 408 240 0 0 0 -0.20051 -0.50575 -0.83906 0.060062
0.15036 -0.081482 1.2449 8.021e-39 217 240 0 0 0 -0.18455 -0.61283 -0.76836 0.053978
0.15473 -0.081482 1.2449 8.2976e-39 220 240 0 0 0 -0.19625 -0.64988 -0.73427 0.052408
0.15692 -0.081482 1.2449 7.6522e-39 221.5 240 0 0 0 -0.19188 -0.6639 -0.72279 0.050735
0.1591 -0.081482 1.2449 7.4678e-39 223 240 0 0 0 -0.19636 -0.6748 -0.7114 0.049151
0.16202 -0.081482 1.2449 8.1132e-39 225 240 0 0 0 -0.14734 -0.69929 -0.69949 0.043152
0.18095 -0.080026 1.2449 9.4961e-39 432 240 0 0 0 0.52709 -0.57139 -0.62904 0.041662
0.13289 -0.078569 1.2449 7.8366e-39 174 241 0 0 0 -0.30856 -0.28521 -0.90744 0.048246
0.13507 -0.078569 1.2449 7.7444e-39 175.5 241 0 0 0 -0.28991 -0.31198 -0.90478 0.047485
0.13726 -0.078569 1.2449 7.3757e-39 177 241 0 0 0 -0.27813 -0.3264 -0.90338 0.049223
0.13871 -0.078569 1.2449 7.0991e-39 178 241 0 0 0 -0.2688 -0.34618 -0.89884 0.052145
0.1409 -0.078569 1.2449 7.1913e-39 179.5 241 0 0 0 -0.25007 -0.37289 -0.89354 0.054998
0.14454 -0.078569 1.2449 7.3757e-39 182 241 0 0 0 -0.21235 -0.43396 -0.87555 0.062432
0.13143 -0.077113 1.2449 8.7586e-39 265 241 0 0 0 -0.33101 -0.22044 -0.91752 0.047336
0.13289 -0.077113 1.2449 9.1274e-39 266 241 0 0 0 -0.32968 -0.223 -0.91738 0.047612
0.13507 -0.077113 1.2449 8.8047e-39 333 241 0 0 0 -0.30772 -0.26003 -0.91526 0.046717
0.18241 -0.077113 1.2449 7.7444e-39 431 241 0 0 0 0.64944 -0.42657 -0.6295 0.0431
0.13289 -0.075656 1.2449 7.3757e-39 173 242 0 0 0 -0.34387 -0.1715 -0.92322 0.046846
0.13507 -0.074928 1.2449 8.5511e-39 220.5 242 0 0 0 -0.3229 -0.15544 -0.93358 0.045168
0.13434 -0.072743 1.2449 7.1913e-39 171 243 0 0 0 -0.34261 -0.065153 -0.93721 0.040469
0.13726 -0.072743 1.2449 7.56e-39 173 243 0 0 0 -0.33102 -0.072734 -0.94082 0.041241
0.13434 -0.071287 1.2449 8.482e-39 264 243 0 0 0 -0.36002 0.011809 -0.93287 0.033642
0.13726 -0.071287 1.2449 9.0352e-39 266 243 0 0 0 -0.3413 -0.023731 -0.93966 0.037471
0.13871 -0.071287 1.2449 9.1274e-39 267 243 0 0 0 -0.33492 -0.037118 -0.94152 0.039923
0.14454 -0.071287 1.2449 8.7586e-39 401 243 0 0 0 -0.28213 -0.078752 -0.95614 0.045752
0.13726 -0.069102 1.2449 7.9749e-39 219 244 0 0 0 -0.34784 0.058447 -0.93573 0.028495
0.13871 -0.069102 1.2449 8.3437e-39 220.5 244 0 0 0 -0.33354 0.055722 -0.94109 0.026817
0.14017 -0.069102 1.2449 8.2515e-39 287 244 0 0 0 -0.32169 0.039852 -0.94601 0.029468
0.14308 -0.069102 1.2449 7.8366e-39 290.5 244 0 0 0 -0.28705 0.017455 -0.95776 0.032264
0.14454 -0.069102 1.2449 7.9288e-39 291.5 244 0 0 0 -0.28654 0.012954 -0.95798 0.032771
0.18386 -0.069102 1.2449 7.2835e-39 333.5 244 0 0 0 0.77944 -0.089465 -0.62005 0.025221
0.13726 -0.066917 1.2449 7.4678e-39 177 245 0 0 0 -0.35213 0.12373 -0.92774 0.021165
0.13871 -0.066917 1.2449 7.8366e-39 178 245 0 0 0 -0.34416 0.11711 -0.93158 0.021121
0.14017 -0.066917 1.2449 8.2976e-39 179 245 0 0 0 -0.32529 0.1114 -0.93903 0.01988
0.14308 -0.066917 1.2449 7.3757e-39 215 245 0 0 0 -0.29862 0.10549 -0.94852 0.017905
0.14454 -0.066917 1.2449 7.1913e-39 216 245 0 0 0 -0.28795 0.097965 -0.95262 0.018382
0.14891 -0.066917 1.2449 8.1132e-39 219 245 0 0 0 -0.28361 0.06699 -0.9566 0.027762
0.13726 -0.065461 1.2449 7.4678e-39 413 245 0 0 0 -0.36013 0.16913 -0.91744 0.016561
0.13871 -0.064732 1.2449 7.7905e-39 316.5 245.5 0 0 0 -0.34192 0.17208 -0.92384 0.014989
0.14066 -0.06449 1.2449 8.021e-39 285.33 245.67 0 0 0 -0.32763 0.16636 -0.93004 0.014072
0.14308 -0.064732 1.2449 7.9288e-39 319.5 245.5 0 0 0 -0.30859 0.14579 -0.93996 0.014822
0.14454 -0.064732 1.2449 7.6061e-39 320.5 245.5 0 0 0 -0.29929 0.13661 -0.94433 0.014747
0.14891 -0.064732 1.2449 7.8827e-39 324 245.5 0 0 0 -0.29238 0.12315 -0.94834 0.01866
0.13871 -0.062548 1.2449 7.4678e-39 422 246 0 0 0 -0.35283 0.21475 -0.91071 0.01257
0.14163 -0.062548 1.2449 6.9147e-39 424 246 0 0 0 -0.32728 0.20151 -0.92319 0.010372
0.14308 -0.062548 1.2449 6.8225e-39 425 246 0 0 0 -0.31479 0.19662 -0.92858 0.0093301
0.14454 -0.062548 1.2449 7.0069e-39 426 246 0 0 0 -0.3057 0.189 -0.93318 0.0085507
0.14891 -0.062548 1.2449 7.1913e-39 429 246 0 0 0 -0.29577 0.16821 -0.94033 0.010842
0.13871 -0.061091 1.2449 8.1132e-39 221 247 0 0 0 -0.35876 0.23801 -0.90257 0.011821
0.14163 -0.061091 1.2449 7.0069e-39 223 247 0 0 0 -0.3326 0.22214 -0.91653 0.0094972
0.14308 -0.061091 1.2449 6.7303e-39 224 247 0 0 0 -0.32022 0.21276 -0.92314 0.0084108
0.14526 -0.061091 1.2449 7.514e-39 226.5 247 0 0 0 -0.3072 0.20533 -0.92923 0.006801
0.14891 -0.061091 1.2449 7.2835e-39 229 247 0 0 0 -0.29887 0.20583 -0.93183 0.0064381
0.15328 -0.061091 1.2449 7.9288e-39 232 247 0 0 0 -0.31997 0.1982 -0.92646 0.010252
0.14163 -0.059635 1.2449 7.0991e-39 428 247 0 0 0 -0.33573 0.23414 -0.9124 0.0092342
0.14308 -0.059635 1.2449 7.1913e-39 429 247 0 0 0 -0.32519 0.23129 -0.91693 0.0077684
0.14599 -0.058906 1.2449 7.0069e-39 332.5 247.5 0 0 0 -0.30223 0.22844 -0.92546 0.0054436
0.14745 -0.058906 1.2449 6.9147e-39 333.5 247.5 0 0 0 -0.30116 0.22918 -0.92562 0.005191
0.14891 -0.058906 1.2449 6.8225e-39 334.5 247.5 0 0 0 -0.30124 0.22902 -0.92564 0.0049567
0.15036 -0.058178 1.2449 6.7303e-39 237 248 0 0 0 -0.30425 0.23237 -0.92382 0.0049866
0.15328 -0.058906 1.2449 6.7764e-39 337.5 247.5 0 0 0 -0.31702 0.2325 -0.91948 0.0064767
0.18386 -0.058178 1.2449 7.6522e-39 260 248 0 0 0 0.73733 0.21142 -0.6416 0.020957
0.14599 -0.056722 1.2449 7.6522e-39 157 249 0 0 0 -0.30742 0.24228 -0.92021 0.0056694
0.14745 -0.056722 1.2449 7.6522e-39 158 249 0 0 0 -0.29873 0.23974 -0.92373 0.0047913
0.15109 -0.056722 1.2449 7.1452e-39 160.5 249 0 0 0 -0.30647 0.23932 -0.92131 0.0049773
0.15328 -0.056722 1.2449 7.4678e-39 162 249 0 0 0 -0.30805 0.24193 -0.9201 0.0054026
0.18314 -0.056722 1.2449 7.7905e-39 182.5 249 0 0 0 0.70432 0.24097 -0.66773 0.025675
0.14745 -0.055265 1.2449 7.4678e-39 259 249 0 0 0 -0.30023 0.24176 -0.92272 0.0050139
0.15109 -0.055265 1.2449 8.482e-39 261.5 249 0 0 0 -0.30118 0.24267 -0.92217 0.0047604
0.15328 -0.055265 1.2449 8.7586e-39 263 249 0 0 0 -0.30388 0.24708 -0.92011 0.0051024
0.17949 -0.055265 1.2449 7.4678e-39 140 250 0 0 0 0.59401 0.28093 -0.75381 0.04547
0.18095 -0.055265 1.2449 7.1913e-39 141 250 0 0 0 0.64909 0.2664 -0.71254 0.035671
0.15182 -0.05308 1.2449 7.6522e-39 199 250.5 0 0 0 -0.30267 0.25046 -0.9196 0.0048496
0.15328 -0.05308 1.2449 7.514e-39 200 250.5 0 0 0 -0.30163 0.25238 -0.91942 0.004856
0.15328 -0.050896 1.2449 8.6664e-39 268 251 0 0 0 -0.29901 0.26615 -0.91638 0.0049167
0.15473 -0.050896 1.2449 9.5883e-39 269 251 0 0 0 -0.29323 0.26528 -0.9185 0.004872
0.15328 -0.049439 1.2449 8.1132e-39 221 252 0 0 0 -0.29922 0.27068 -0.91499 0.0050586
0.15473 -0.049439 1.2449 8.3898e-39 222 252 0 0 0 -0.29209 0.27011 -0.91745 0.0048632
0.15619 -0.049439 1.2449 8.482e-39 223 252 0 0 0 -0.28184 0.2752 -0.91915 0.0057703
0.17804 -0.049439 1.2449 8.2054e-39 238 252 0 0 0 0.46551 0.34042 -0.81696 0.04482
0.15473 -0.047254 1.2449 7.6983e-39 189 253 0 0 0 -0.29227 0.28671 -0.91235 0.0055972
0.15668 -0.047012 1.2449 7.2527e-39 204.67 253 0 0 0 -0.26927 0.29119 -0.91799 0.0069932
0.1591 -0.046526 1.2449 7.0991e-39 235 253 0 0 0 -0.22825 0.29729 -0.9271 0.011113
0.17658 -0.047254 1.2449 8.3898e-39 205.5 253 0 0 0 0.3637 0.35331 -0.86191 0.042019
0.15473 -0.04507 1.2449 7.6522e-39 152 254 0 0 0 -0.29455 0.30134 -0.90688 0.0063216
0.15692 -0.04507 1.2449 6.9147e-39 153.5 254 0 0 0 -0.26663 0.30023 -0.91584 0.0081781
0.1591 -0.04507 1.2449 6.3615e-39 155 254 0 0 0 -0.22466 0.30112 -0.92674 0.011862
0.16056 -0.04507 1.2449 6.6381e-39 156 254 0 0 0 -0.20457 0.30798 -0.92914 0.013926
0.16202 -0.04507 1.2449 7.1913e-39 157 254 0 0 0 -0.16469 0.31016 -0.93631 0.019101
0.17512 -0.04507 1.2449 7.0991e-39 166 254 0 0 0 0.30842 0.34925 -0.88482 0.038136
0.15765 -0.042885 1.2449 6.8225e-39 196 254.5 0 0 0 -0.25573 0.30851 -0.9162 0.009925
0.1591 -0.043613 1.2449 7.7444e-39 237 254 0 0 0 -0.22446 0.30552 -0.92535 0.012571
0.16056 -0.042885 1.2449 7.6522e-39 198 254.5 0 0 0 -0.20776 0.30782 -0.92848 0.014497
0.16274 -0.042885 1.2449 7.6061e-39 199.5 254.5 0 0 0 -0.14063 0.31089 -0.93998 0.02205
0.16493 -0.042885 1.2449 7.4218e-39 201 254.5 0 0 0 -0.071838 0.32074 -0.94444 0.029295
0.17367 -0.042157 1.2449 6.6381e-39 167 255 0 0 0 0.2433 0.33255 -0.91116 0.033471
0.17512 -0.042885 1.2449 7.5601e-39 208 254.5 0 0 0 0.2832 0.35012 -0.89287 0.031272
0.16056 -0.0407 1.2449 7.7444e-39 243 255 0 0 0 -0.20399 0.31363 -0.92738 0.016161
0.16274 -0.0407 1.2449 8.482e-39 244.5 255 0 0 0 -0.14217 0.31639 -0.93791 0.022591
0.16493 -0.0407 1.2449 9.3118e-39 246 255 0 0 0 -0.079309 0.31606 -0.94542 0.02877
0.17367 -0.0407 1.2449 7.7444e-39 252 255 0 0 0 0.24837 0.32476 -0.9126 0.033651
0.1693 -0.039244 1.2449 6.4537e-39 167 256 0 0 0 0.10221 0.31368 -0.94401 0.037748
0.17076 -0.039244 1.2449 6.2693e-39 168 256 0 0 0 0.15945 0.3183 -0.93448 0.03677
0.17221 -0.039244 1.2449 6.2693e-39 169 256 0 0 0 0.20665 0.317 -0.92564 0.03452
0.16712 -0.037059 1.2449 7.2374e-39 209 256.5 0 0 0 0.0024586 0.32568 -0.94548 0.035569
0.1693 -0.037787 1.2449 7.56e-39 252 256 0 0 0 0.11249 0.31763 -0.94152 0.038916
0.17076 -0.037059 1.2449 6.8685e-39 211.5 256.5 0 0 0 0.17225 0.31958 -0.93177 0.036639
0.17221 -0.037787 1.2449 7.4678e-39 254 256 0 0 0 0.22043 0.32148 -0.9209 0.034903
0.16712 -0.034874 1.2449 7.9749e-39 248.5 257 0 0 0 -0.001449 0.3299 -0.94401 0.036923
0.16526 -0.084566 1.2474 7.6522e-39 235 239 0 0 0 -0.036331 -0.81932 -0.57219 0.011846
0.16672 -0.084566 1.2474 7.3757e-39 236 239 0 0 0 -0.0025619 -0.82799 -0.56074 0.012062
0.16883 -0.084523 1.2468 7.4218e-39 237.5 239 0 0 0 0.065741 -0.82274 -0.5646 0.015685
0.17093 -0.084481 1.2462 8.1132e-39 239 239 0 0 0 0.11929 -0.80948 -0.5749 0.020478
0.17239 -0.084481 1.2462 7.9288e-39 240 239 0 0 0 0.16221 -0.80152 -0.57554 0.024113
0.17402 -0.084566 1.2474 7.56e-39 241 239 0 0 0 0.20847 -0.80027 -0.56223 0.026997
0.17694 -0.084566 1.2474 7.3757e-39 243 239 0 0 0 0.30762 -0.75848 -0.57452 0.033718
0.17913 -0.084566 1.2474 7.6522e-39 244.5 239 0 0 0 0.3927 -0.72067 -0.57134 0.037971
0.15067 -0.083106 1.2474 3.4112e-39 416 239 0 0 0 -0.15279 -0.69838 -0.69923 0.043546
0.16299 -0.083064 1.2468 6.3615e-39 424.5 239 0 0 0 -0.11093 -0.77144 -0.62656 0.026049
0.1651 -0.083023 1.2462 6.2693e-39 426 239 0 0 0 -0.069772 -0.77388 -0.62948 0.024411
0.16655 -0.083023 1.2462 5.7161e-39 427 239 0 0 0 -0.013514 -0.78191 -0.62324 0.023493
0.16801 -0.083023 1.2462 5.5317e-39 428 239 0 0 0 0.036072 -0.78675 -0.61622 0.022219
0.1753 -0.083023 1.2462 9.1274e-39 433 239 0 0 0 0.28788 -0.74967 -0.59592 0.036014
0.17895 -0.083023 1.2462 6.9608e-39 435.5 239 0 0 0 0.41166 -0.69352 -0.59123 0.038909
0.18132 -0.083106 1.2474 7.0069e-39 437 239 0 0 0 0.4725 -0.66113 -0.5828 0.039878
0.1317 -0.080188 1.2474 8.021e-39 398 240 0 0 0 -0.28886 -0.3845 -0.87677 0.052012
0.13315 -0.080188 1.2474 8.1132e-39 399 240 0 0 0 -0.27389 -0.40671 -0.87154 0.052054
0.13501 -0.08062 1.2466 7.9596e-39 326.67 240 0 0 0 -0.25552 -0.43137 -0.86523 0.049626
0.1368 -0.081647 1.2474 7.2374e-39 180.5 240 0 0 0 -0.22824 -0.50429 -0.83282 0.048436
0.13885 -0.081565 1.2462 7.0069e-39 208 240 0 0 0 -0.21697 -0.52787 -0.82114 0.051557
0.14138 -0.081134 1.247 7.5293e-39 274.67 240 0 0 0 -0.18864 -0.55906 -0.80739 0.052568
0.1433 -0.080877 1.2468 7.7905e-39 308.5 240 0 0 0 -0.18446 -0.5443 -0.81836 0.05627
0.14476 -0.080877 1.2468 7.7905e-39 309.5 240 0 0 0 -0.17847 -0.56208 -0.80759 0.057589
0.14687 -0.081565 1.2462 8.1593e-39 214.5 240 0 0 0 -0.16971 -0.61313 -0.77154 0.054078
0.14906 -0.081565 1.2462 8.3898e-39 216 240 0 0 0 -0.17806 -0.62663 -0.7587 0.055648
0.15197 -0.081565 1.2462 8.1132e-39 218 240 0 0 0 -0.18217 -0.65157 -0.73639 0.052102
0.15343 -0.081565 1.2462 8.3898e-39 219 240 0 0 0 -0.18987 -0.64673 -0.73871 0.053672
0.16072 -0.081565 1.2462 8.021e-39 224 240 0 0 0 -0.16835 -0.71841 -0.67494 0.041624
0.18113 -0.081565 1.2462 7.56e-39 238 240 0 0 0 0.50928 -0.61212 -0.60494 0.042068
0.18268 -0.080877 1.2468 8.482e-39 336 240 0 0 0 0.57239 -0.56653 -0.5928 0.042743
0.12586 -0.078728 1.2474 7.7444e-39 169 241 0 0 0 -0.3861 -0.23937 -0.89086 0.052406
0.12732 -0.078728 1.2474 7.3757e-39 170 241 0 0 0 -0.36795 -0.25869 -0.89314 0.053135
0.12878 -0.078728 1.2474 7.1913e-39 171 241 0 0 0 -0.34084 -0.29681 -0.89204 0.053737
0.1309 -0.078689 1.2468 7.2835e-39 172.5 241 0 0 0 -0.31525 -0.30894 -0.89732 0.052365
0.18259 -0.078649 1.2462 7.2835e-39 235 241 0 0 0 0.62415 -0.49368 -0.60557 0.044542
0.12586 -0.077269 1.2474 8.1132e-39 261 241 0 0 0 -0.41408 -0.16319 -0.89549 0.053168
0.12732 -0.077269 1.2474 8.3898e-39 262 241 0 0 0 -0.39379 -0.1803 -0.90135 0.05423
0.12878 -0.077269 1.2474 8.482e-39 263 241 0 0 0 -0.37406 -0.19276 -0.90715 0.052213
0.1301 -0.077191 1.2462 8.482e-39 264 241 0 0 0 -0.3453 -0.21302 -0.914 0.050709
0.12586 -0.07508 1.2474 7.6983e-39 214 242 0 0 0 -0.44074 -0.056731 -0.89584 0.047889
0.12732 -0.07508 1.2474 7.6522e-39 215 242 0 0 0 -0.42476 -0.074154 -0.90226 0.050613
0.12878 -0.07508 1.2474 7.6061e-39 216 242 0 0 0 -0.40358 -0.1016 -0.90929 0.051931
0.13083 -0.075004 1.2462 7.7675e-39 217.5 242 0 0 0 -0.36726 -0.12588 -0.92156 0.047679
0.13302 -0.074275 1.2462 8.7586e-39 265 242 0 0 0 -0.35769 -0.12984 -0.92477 0.047012
0.18424 -0.07435 1.2474 7.1913e-39 431 242 0 0 0 0.74765 -0.30388 -0.59049 0.038249
0.13083 -0.072817 1.2462 7.9749e-39 168.5 243 0 0 0 -0.39755 -0.014498 -0.91746 0.042277
0.13302 -0.072817 1.2462 7.4678e-39 170 243 0 0 0 -0.36994 -0.053399 -0.92752 0.042914
0.13594 -0.072817 1.2462 7.0991e-39 172 243 0 0 0 -0.33377 -0.082031 -0.93908 0.043164
0.18405 -0.072817 1.2462 7.2835e-39 233 243 0 0 0 0.75542 -0.24724 -0.60681 0.035063
0.13097 -0.071431 1.2474 7.1913e-39 261.5 243 0 0 0 -0.41065 0.01567 -0.91166 0.041426
0.13302 -0.071359 1.2462 7.9288e-39 263 243 0 0 0 -0.38752 0.011014 -0.9218 0.037697
0.13594 -0.071359 1.2462 8.6664e-39 265 243 0 0 0 -0.35125 -0.025295 -0.93594 0.039695
0.18405 -0.071359 1.2462 7.56e-39 428 243 0 0 0 0.77226 -0.18645 -0.60734 0.032877
0.13097 -0.069242 1.2474 7.4909e-39 214.5 244 0 0 0 -0.43082 0.1046 -0.89635 0.033086
0.13302 -0.069172 1.2462 8.2054e-39 216 244 0 0 0 -0.39721 0.092641 -0.91304 0.029198
0.13521 -0.069172 1.2462 8.2054e-39 217.5 244 0 0 0 -0.37303 0.074989 -0.92478 0.030271
0.13097 -0.067052 1.2474 7.514e-39 172.5 245 0 0 0 -0.44489 0.16948 -0.8794 0.026186
0.13315 -0.067052 1.2474 8.2054e-39 174 245 0 0 0 -0.41627 0.15571 -0.89581 0.025342
0.13521 -0.066985 1.2462 7.6061e-39 175.5 245 0 0 0 -0.38079 0.13918 -0.91413 0.022336
0.13097 -0.065593 1.2474 7.7905e-39 408.5 245 0 0 0 -0.45236 0.21755 -0.86489 0.02014
0.13315 -0.064864 1.2474 7.8366e-39 312.5 245.5 0 0 0 -0.42927 0.2176 -0.87657 0.019193
0.13521 -0.064798 1.2462 7.6522e-39 314 245.5 0 0 0 -0.38968 0.19738 -0.89955 0.018221
0.13739 -0.064069 1.2462 7.56e-39 218 246 0 0 0 -0.37133 0.19721 -0.90732 0.016133
0.13315 -0.062674 1.2474 7.56e-39 418 246 0 0 0 -0.44315 0.26201 -0.8573 0.015552
0.13448 -0.062611 1.2462 7.3757e-39 419 246 0 0 0 -0.40821 0.24519 -0.87934 0.015933
0.13673 -0.062642 1.2468 7.0991e-39 420.5 246 0 0 0 -0.39109 0.23012 -0.89112 0.015906
0.14031 -0.062611 1.2462 7.2835e-39 423 246 0 0 0 -0.34418 0.21487 -0.91399 0.01163
0.13448 -0.061153 1.2462 7.7444e-39 218 247 0 0 0 -0.42173 0.26892 -0.86592 0.015004
0.13673 -0.061184 1.2468 8.1593e-39 219.5 247 0 0 0 -0.40246 0.25591 -0.87894 0.01451
0.14031 -0.061153 1.2462 7.9288e-39 222 247 0 0 0 -0.35203 0.23407 -0.90625 0.011451
0.13454 -0.058996 1.2468 7.2835e-39 324.5 247.5 0 0 0 -0.44618 0.29741 -0.84408 0.014864
0.13677 -0.05901 1.2471 7.2835e-39 326 247.5 0 0 0 -0.41801 0.28014 -0.86417 0.014562
0.13885 -0.058966 1.2462 7.0069e-39 327.5 247.5 0 0 0 -0.3815 0.26085 -0.8868 0.012926
0.1408 -0.058723 1.2462 7.2835e-39 296 247.67 0 0 0 -0.35878 0.25218 -0.89871 0.011221
0.14323 -0.058237 1.2462 8.2054e-39 232 248 0 0 0 -0.33667 0.2457 -0.909 0.0088072
0.14468 -0.058966 1.2462 7.4679e-39 331.5 247.5 0 0 0 -0.31977 0.23625 -0.91757 0.0071726
0.13461 -0.056836 1.2474 7.8366e-39 144 249 0 0 0 -0.46226 0.31085 -0.83047 0.014289
0.1368 -0.056836 1.2474 7.8827e-39 148 249 0 0 0 -0.43499 0.29727 -0.84995 0.014822
0.13885 -0.056779 1.2462 7.3757e-39 152 249 0 0 0 -0.39401 0.27452 -0.87715 0.013931
0.14111 -0.056808 1.2468 7.2374e-39 153.5 249 0 0 0 -0.37309 0.26572 -0.88893 0.012476
0.14323 -0.056779 1.2462 7.0991e-39 155 249 0 0 0 -0.34319 0.25354 -0.9044 0.0097038
0.14468 -0.056779 1.2462 7.2835e-39 156 249 0 0 0 -0.32731 0.24624 -0.91227 0.0077126
0.14906 -0.056779 1.2462 7.2835e-39 159 249 0 0 0 -0.30111 0.23925 -0.92309 0.0047029
0.13461 -0.055377 1.2474 7.0991e-39 250 249 0 0 0 -0.47346 0.31465 -0.8227 0.013644
0.1368 -0.055377 1.2474 7.053e-39 251.5 249 0 0 0 -0.44531 0.30599 -0.84147 0.014028
0.13899 -0.055377 1.2474 7.0991e-39 253 249 0 0 0 -0.41663 0.29166 -0.86102 0.014364
0.14111 -0.055349 1.2468 7.1452e-39 254.5 249 0 0 0 -0.3769 0.27405 -0.88478 0.012784
0.14323 -0.055321 1.2462 7.3757e-39 256 249 0 0 0 -0.34391 0.25756 -0.90299 0.0097749
0.14468 -0.055321 1.2462 7.3757e-39 257 249 0 0 0 -0.33437 0.25359 -0.90768 0.0088224
0.14614 -0.055321 1.2462 7.4678e-39 258 249 0 0 0 -0.31469 0.24922 -0.91589 0.0068278
0.14906 -0.055321 1.2462 7.4678e-39 260 249 0 0 0 -0.30298 0.24458 -0.92108 0.0050179
0.18259 -0.055321 1.2462 7.1913e-39 142 250 0 0 0 0.70694 0.24915 -0.66194 0.026035
0.18405 -0.055321 1.2462 7.3757e-39 143 250 0 0 0 0.74462 0.23816 -0.62356 0.018606
0.13899 -0.053917 1.2474 8.3898e-39 221 250 0 0 0 -0.42667 0.29923 -0.85347 0.01425
0.14142 -0.053431 1.2474 7.8674e-39 201.67 250.33 0 0 0 -0.39249 0.29031 -0.87274 0.013353
0.14323 -0.053134 1.2462 7.3296e-39 192.5 250.5 0 0 0 -0.35722 0.27332 -0.89313 0.011235
0.14468 -0.053134 1.2462 7.3757e-39 193.5 250.5 0 0 0 -0.33656 0.26853 -0.90256 0.0094696
0.14687 -0.053134 1.2462 7.6292e-39 195.5 250.5 0 0 0 -0.3176 0.25983 -0.91193 0.0071056
0.14906 -0.053134 1.2462 7.7444e-39 197 250.5 0 0 0 -0.30602 0.2551 -0.91721 0.0053942
0.15052 -0.053134 1.2462 7.7905e-39 198 250.5 0 0 0 -0.30562 0.25568 -0.91718 0.0052324
0.17968 -0.053134 1.2462 7.8827e-39 223 250.5 0 0 0 0.60059 0.29263 -0.74408 0.043045
0.18113 -0.053134 1.2462 7.6061e-39 234.5 250.5 0 0 0 0.6529 0.27912 -0.70414 0.033952
0.18268 -0.05316 1.2468 7.6061e-39 235.5 250.5 0 0 0 0.70684 0.26153 -0.65725 0.02491
0.18424 -0.053917 1.2474 7.0991e-39 252 250 0 0 0 0.75335 0.2428 -0.61116 0.017217
0.14191 -0.050998 1.2474 7.6522e-39 260 251 0 0 0 -0.3977 0.31113 -0.86315 0.01336
0.14337 -0.050998 1.2474 8.3898e-39 261 251 0 0 0 -0.37725 0.30433 -0.87468 0.012046
0.14483 -0.050998 1.2474 8.943e-39 262 251 0 0 0 -0.36032 0.2994 -0.88348 0.011348
0.14694 -0.050972 1.2468 8.943e-39 263.5 251 0 0 0 -0.32952 0.28372 -0.90051 0.0087649
0.14906 -0.050947 1.2462 8.1132e-39 265 251 0 0 0 -0.31298 0.27431 -0.90929 0.0066423
0.15124 -0.050947 1.2462 7.8827e-39 266.5 251 0 0 0 -0.30636 0.2692 -0.91306 0.0056369
0.17986 -0.050998 1.2474 7.2835e-39 144 252 0 0 0 0.61889 0.29123 -0.72949 0.039116
0.18132 -0.050998 1.2474 7.56e-39 145 252 0 0 0 0.66475 0.2749 -0.69465 0.032741
0.14337 -0.048809 1.2474 7.2835e-39 166 252.5 0 0 0 -0.388 0.33139 -0.86002 0.011899
0.14483 -0.048809 1.2474 7.6983e-39 167 252.5 0 0 0 -0.36928 0.32451 -0.87082 0.011318
0.14698 -0.048797 1.2471 7.5601e-39 168.5 252.5 0 0 0 -0.34039 0.3088 -0.88813 0.0099895
0.14906 -0.04876 1.2462 7.6983e-39 170 252.5 0 0 0 -0.31955 0.29052 -0.90194 0.0076699
0.15124 -0.04876 1.2462 7.6292e-39 176.75 252.5 0 0 0 -0.31211 0.28113 -0.9075 0.0062018
0.15343 -0.048031 1.2462 7.6522e-39 145 253 0 0 0 -0.30322 0.28429 -0.90952 0.0058185
0.17822 -0.048031 1.2462 7.4678e-39 165 253 0 0 0 0.49926 0.33041 -0.80098 0.044684
0.14775 -0.04662 1.2474 8.2976e-39 227 253 0 0 0 -0.3517 0.33142 -0.87548 0.010259
0.14921 -0.04662 1.2474 8.2054e-39 228 253 0 0 0 -0.33694 0.32681 -0.88299 0.0090898
0.15132 -0.046596 1.2468 8.2515e-39 229.5 253 0 0 0 -0.32087 0.31036 -0.89483 0.0075424
0.15343 -0.046573 1.2462 8.3898e-39 231 253 0 0 0 -0.30819 0.30244 -0.90197 0.0065457
0.1784 -0.04662 1.2474 8.7586e-39 248 253 0 0 0 0.51827 0.32375 -0.79157 0.043525
0.14775 -0.045161 1.2474 7.0991e-39 147 254 0 0 0 -0.36079 0.34342 -0.86712 0.010456
0.14921 -0.045161 1.2474 6.9147e-39 148 254 0 0 0 -0.34426 0.33495 -0.87709 0.0093704
0.15067 -0.045161 1.2474 7.3757e-39 149 254 0 0 0 -0.3336 0.32771 -0.88392 0.0083862
0.15278 -0.045138 1.2468 7.7444e-39 150.5 254 0 0 0 -0.31768 0.31636 -0.89386 0.0071617
0.17676 -0.045115 1.2462 7.1913e-39 167 254 0 0 0 0.39693 0.33747 -0.85356 0.041188
0.1784 -0.045161 1.2474 6.9147e-39 168 254 0 0 0 0.50361 0.32336 -0.80113 0.042208
0.14921 -0.043701 1.2474 8.3898e-39 230 254 0 0 0 -0.35041 0.34801 -0.86954 0.0096757
0.15067 -0.043701 1.2474 8.5742e-39 231 254 0 0 0 -0.34299 0.3397 -0.87577 0.008778
0.15282 -0.042961 1.2471 7.7214e-39 192.5 254.5 0 0 0 -0.32935 0.32904 -0.88502 0.0080667
0.15489 -0.042928 1.2462 7.053e-39 194 254.5 0 0 0 -0.30321 0.31657 -0.8988 0.0076526
0.15635 -0.042928 1.2462 6.8225e-39 195 254.5 0 0 0 -0.28409 0.31274 -0.90636 0.008644
0.15926 -0.042199 1.2462 6.7303e-39 157 255 0 0 0 -0.22833 0.30937 -0.92312 0.013909
0.17685 -0.04295 1.2468 7.6983e-39 209 254.5 0 0 0 0.43472 0.32226 -0.84093 0.040446
0.15359 -0.040782 1.2474 8.8508e-39 238 255 0 0 0 -0.33672 0.33909 -0.87843 0.0092746
0.15489 -0.040741 1.2462 9.0352e-39 239 255 0 0 0 -0.31571 0.3272 -0.89066 0.0090868
0.15708 -0.040741 1.2462 8.1593e-39 240.5 255 0 0 0 -0.27969 0.32325 -0.90404 0.011089
0.15926 -0.040741 1.2462 7.7444e-39 242 255 0 0 0 -0.23204 0.31594 -0.91997 0.014427
0.1753 -0.040741 1.2462 7.56e-39 253 255 0 0 0 0.31729 0.32803 -0.88979 0.034317
0.17694 -0.040782 1.2474 7.6522e-39 254 255 0 0 0 0.42553 0.31456 -0.84851 0.039943
0.15359 -0.039323 1.2474 6.2693e-39 156 256 0 0 0 -0.34664 0.34189 -0.87347 0.0096764
0.15489 -0.039283 1.2462 6.2693e-39 157 256 0 0 0 -0.32144 0.33332 -0.88633 0.0096256
0.15716 -0.039303 1.2468 6.4076e-39 158.5 256 0 0 0 -0.28193 0.32827 -0.90153 0.01164
0.15926 -0.039283 1.2462 6.3615e-39 160 256 0 0 0 -0.23993 0.32249 -0.91566 0.014662
0.16072 -0.039283 1.2462 6.5459e-39 161 256 0 0 0 -0.20868 0.31814 -0.92479 0.017425
0.16291 -0.039283 1.2462 7.0069e-39 162.5 256 0 0 0 -0.13923 0.31803 -0.9378 0.025054
0.1651 -0.039283 1.2462 7.56e-39 164 256 0 0 0 -0.071229 0.32442 -0.94323 0.031622
0.17384 -0.039283 1.2462 6.3615e-39 170 256 0 0 0 0.27183 0.31882 -0.908 0.033266
0.1753 -0.039283 1.2462 6.3615e-39 171 256 0 0 0 0.31527 0.32161 -0.89284 0.032261
0.17694 -0.039323 1.2474 6.1771e-39 172 256 0 0 0 0.43034 0.3112 -0.84733 0.03853
0.15505 -0.037863 1.2474 7.6522e-39 242 256 0 0 0 -0.33176 0.34471 -0.87813 0.010875
0.15748 -0.037377 1.2474 7.3449e-39 216 256.33 0 0 0 -0.28714 0.33815 -0.89622 0.013399
0.15934 -0.037115 1.2468 7.7444e-39 203.5 256.5 0 0 0 -0.25141 0.33275 -0.90888 0.014592
0.16072 -0.037096 1.2462 8.1593e-39 204.5 256.5 0 0 0 -0.21319 0.3269 -0.9207 0.017733
0.16291 -0.037096 1.2462 7.8366e-39 206 256.5 0 0 0 -0.14685 0.33042 -0.93234 0.025281
0.16518 -0.037115 1.2468 7.5601e-39 207.5 256.5 0 0 0 -0.077734 0.33077 -0.9405 0.032288
0.16947 -0.036367 1.2462 6.1771e-39 169 257 0 0 0 0.11429 0.32409 -0.9391 0.040563
0.17312 -0.037096 1.2462 7.053e-39 213 256.5 0 0 0 0.24811 0.32192 -0.91368 0.03462
0.17499 -0.03689 1.2474 6.9761e-39 200.33 256.67 0 0 0 0.32085 0.32066 -0.8912 0.032854
0.17694 -0.037863 1.2474 8.6664e-39 257 256 0 0 0 0.42517 0.31078 -0.85009 0.035281
0.15942 -0.034944 1.2474 8.1132e-39 243 257 0 0 0 -0.26464 0.3434 -0.90113 0.015072
0.16088 -0.034944 1.2474 7.8366e-39 244 257 0 0 0 -0.21514 0.33989 -0.91553 0.019409
0.16291 -0.034909 1.2462 8.6664e-39 245.5 257 0 0 0 -0.15205 0.33686 -0.9292 0.026096
0.16526 -0.034944 1.2474 8.5742e-39 247 257 0 0 0 -0.072967 0.3453 -0.93565 0.034567
0.16947 -0.034909 1.2462 7.8366e-39 250 257 0 0 0 0.11146 0.33015 -0.93732 0.040568
0.17093 -0.034909 1.2462 7.4678e-39 251 257 0 0 0 0.18037 0.32757 -0.92745 0.039428
0.17239 -0.034909 1.2462 7.3757e-39 252 257 0 0 0 0.23587 0.32331 -0.91643 0.036482
0.17402 -0.034944 1.2474 7.2835e-39 253 257 0 0 0 0.30516 0.33462 -0.89158 0.035319
0.16088 -0.032756 1.2474 7.3296e-39 207 258 0 0 0 -0.2231 0.35732 -0.90695 0.019849
0.16307 -0.032756 1.2474 7.076e-39 208.5 258 0 0 0 -0.15581 0.35587 -0.92146 0.027393
0.16526 -0.033485 1.2474 6.1771e-39 170 258 0 0 0 -0.074136 0.34826 -0.93446 0.035169
0.16655 -0.033451 1.2462 6.3615e-39 171 258 0 0 0 -0.037889 0.33775 -0.94047 0.035433
0.1691 -0.032987 1.247 6.7303e-39 199.33 258 0 0 0 0.099531 0.35153 -0.93087 0.043104
0.17101 -0.032738 1.2468 6.9607e-39 214 258 0 0 0 0.18782 0.35091 -0.91738 0.043331
0.17248 -0.032738 1.2468 7.2835e-39 215 258 0 0 0 0.25542 0.33671 -0.9063 0.038652
0.17402 -0.033485 1.2474 7.1913e-39 176 258 0 0 0 0.31706 0.33617 -0.88683 0.03527
0.16307 -0.030566 1.2474 6.7764e-39 172.5 259 0 0 0 -0.15464 0.36893 -0.9165 0.029738
0.16655 -0.031264 1.2462 6.9147e-39 213 258.5 0 0 0 -0.033634 0.35816 -0.93306 0.039142
0.16855 -0.031031 1.2466 7.0991e-39 201.67 258.67 0 0 0 0.057759 0.36065 -0.93091 0.042555
0.1711 -0.030566 1.2474 6.2693e-39 178 259 0 0 0 0.19384 0.36139 -0.91204 0.044352
0.17256 -0.030566 1.2474 6.1771e-39 179 259 0 0 0 0.26487 0.36412 -0.89289 0.04172
0.16307 -0.029107 1.2474 8.1593e-39 254.5 259 0 0 0 -0.16079 0.38243 -0.90989 0.030378
0.16655 -0.029077 1.2462 9.0352e-39 257 259 0 0 0 -0.038673 0.37198 -0.92744 0.0404
0.16883 -0.029092 1.2468 8.5281e-39 258.5 259 0 0 0 0.06299 0.38103 -0.92241 0.044212
0.1711 -0.029107 1.2474 7.7444e-39 260 259 0 0 0 0.20386 0.38201 -0.90139 0.045833
0.17256 -0.029107 1.2474 7.6522e-39 261 259 0 0 0 0.2674 0.37374 -0.88815 0.0422
0.16234 -0.026917 1.2474 7.56e-39 226.5 260 0 0 0 -0.21168 0.40654 -0.88877 0.024485
0.16664 -0.026903 1.2468 7.2374e-39 229.5 260 0 0 0 -0.040637 0.39923 -0.91595 0.041527
0.16867 -0.027161 1.2474 7.0683e-39 217 260 0 0 0 0.04789 0.40597 -0.91263 0.044808
0.1711 -0.027647 1.2474 7.7444e-39 191 260 0 0 0 0.19009 0.39867 -0.89718 0.048508
0.16672 -0.024728 1.2474 8.2054e-39 205 261 0 0 0 -0.030951 0.43688 -0.89899 0.04479
0.16818 -0.024728 1.2474 8.1132e-39 206 261 0 0 0 0.034492 0.4346 -0.89996 0.046801
0.16487 -0.086199 1.25 3.7339e-39 414.5 238 0 0 0 -0.034138 -0.85754 -0.51329 0.0045963
0.16706 -0.086199 1.25 3.5956e-39 416 238 0 0 0 0.0094201 -0.85805 -0.51347 0.0072379
0.16998 -0.086199 1.25 5.4395e-39 418 238 0 0 0 0.080164 -0.84955 -0.52139 0.014976
0.17145 -0.086199 1.25 5.9927e-39 419 238 0 0 0 0.11992 -0.8407 -0.52806 0.019145
0.17291 -0.086199 1.25 6.2693e-39 420 238 0 0 0 0.16199 -0.83525 -0.52547 0.023285
0.16121 -0.084737 1.25 7.7444e-39 232 239 0 0 0 -0.1152 -0.82218 -0.55745 0.011865
0.16332 -0.084694 1.2494 8.3898e-39 233.5 239 0 0 0 -0.079956 -0.83055 -0.55117 0.0098255
0.17566 -0.084651 1.2487 7.3757e-39 242 239 0 0 0 0.25407 -0.79168 -0.5556 0.029844
0.18168 -0.084737 1.25 7.6522e-39 246 239 0 0 0 0.46386 -0.6926 -0.55239 0.040465
0.13489 -0.083275 1.25 6.8225e-39 405 239 0 0 0 -0.19729 -0.59508 -0.77908 0.048017
0.13701 -0.083232 1.2494 6.9147e-39 406.5 239 0 0 0 -0.1832 -0.61032 -0.77068 0.04471
0.13913 -0.08319 1.2487 6.4537e-39 408 239 0 0 0 -0.16033 -0.6257 -0.76341 0.044333
0.14074 -0.083275 1.25 5.9005e-39 409 239 0 0 0 -0.13708 -0.66377 -0.73527 0.042853
0.14293 -0.083275 1.25 5.67e-39 410.5 239 0 0 0 -0.12609 -0.687 -0.71563 0.041267
0.14512 -0.083275 1.25 5.3473e-39 412 239 0 0 0 -0.12775 -0.70651 -0.69608 0.041248
0.14724 -0.083232 1.2494 4.6098e-39 413.5 239 0 0 0 -0.13835 -0.71082 -0.68964 0.041964
0.14936 -0.08319 1.2487 3.6878e-39 415 239 0 0 0 -0.14739 -0.71312 -0.68538 0.042072
0.15244 -0.083275 1.25 3.2268e-39 417 239 0 0 0 -0.143 -0.74486 -0.65172 0.036715
0.1552 -0.08319 1.2487 4.1488e-39 419 239 0 0 0 -0.1594 -0.74212 -0.65104 0.0376
0.15666 -0.08319 1.2487 4.3332e-39 420 239 0 0 0 -0.1555 -0.75374 -0.63851 0.033821
0.15886 -0.08319 1.2487 4.8403e-39 421.5 239 0 0 0 -0.16046 -0.76857 -0.61931 0.029917
0.16105 -0.08319 1.2487 5.6239e-39 423 239 0 0 0 -0.14038 -0.78598 -0.6021 0.023014
0.18315 -0.083275 1.25 6.9147e-39 438 239 0 0 0 0.55337 -0.60871 -0.56856 0.043133
0.12319 -0.08035 1.25 8.7586e-39 262 240 0 0 0 -0.40453 -0.29402 -0.86597 0.057505
0.12532 -0.080309 1.2494 8.6203e-39 263.5 240 0 0 0 -0.37994 -0.31662 -0.86913 0.058552
0.12704 -0.081298 1.2496 7.8674e-39 204 240 0 0 0 -0.34204 -0.39238 -0.85384 0.057757
0.12891 -0.080269 1.2487 9.1274e-39 266 240 0 0 0 -0.32817 -0.35686 -0.87462 0.058179
0.13094 -0.081298 1.2496 8.0825e-39 206.67 240 0 0 0 -0.27785 -0.44692 -0.85033 0.054686
0.13329 -0.08173 1.2487 7.3757e-39 178 240 0 0 0 -0.24278 -0.49153 -0.83633 0.049501
0.18461 -0.081081 1.25 7.7905e-39 337 240 0 0 0 0.63698 -0.51059 -0.57754 0.042674
0.12319 -0.078887 1.25 7.3757e-39 167 241 0 0 0 -0.43062 -0.22057 -0.87516 0.059592
0.12452 -0.078808 1.2487 7.7444e-39 168 241 0 0 0 -0.41674 -0.21976 -0.88206 0.056771
0.18461 -0.078887 1.25 7.56e-39 236 241 0 0 0 0.68904 -0.44674 -0.57066 0.042034
0.12172 -0.077425 1.25 7.7444e-39 258 241 0 0 0 -0.47268 -0.11288 -0.87397 0.054619
0.12319 -0.077425 1.25 7.56e-39 259 241 0 0 0 -0.45676 -0.13713 -0.87895 0.055822
0.12452 -0.077347 1.2487 7.56e-39 260 241 0 0 0 -0.43539 -0.15531 -0.88674 0.05587
0.18461 -0.077425 1.25 8.021e-39 432 241 0 0 0 0.71143 -0.41397 -0.56789 0.04235
0.12319 -0.075231 1.25 7.4679e-39 212 242 0 0 0 -0.47229 -0.048337 -0.88012 0.053558
0.12465 -0.075231 1.25 7.6061e-39 213 242 0 0 0 -0.47014 -0.052148 -0.88105 0.052807
0.18442 -0.075886 1.2487 8.1132e-39 236 242 0 0 0 0.73573 -0.35994 -0.57371 0.040558
0.18607 -0.0745 1.25 7.3757e-39 432 242 0 0 0 0.79005 -0.26706 -0.55181 0.032752
0.12319 -0.073038 1.25 7.1913e-39 163 243 0 0 0 -0.50368 0.065897 -0.86138 0.042356
0.12532 -0.073001 1.2494 7.0991e-39 164.5 243 0 0 0 -0.47865 0.033226 -0.87738 0.04484
0.12745 -0.072964 1.2487 7.1913e-39 166 243 0 0 0 -0.45845 0.012602 -0.88863 0.046111
0.12891 -0.072964 1.2487 7.6522e-39 167 243 0 0 0 -0.43978 -0.0093361 -0.89806 0.047049
0.18607 -0.073038 1.25 7.3757e-39 234 243 0 0 0 0.80857 -0.21333 -0.54836 0.029555
0.12532 -0.071539 1.2494 7.7905e-39 257.5 243 0 0 0 -0.48956 0.079546 -0.86833 0.040185
0.127 -0.070553 1.2491 7.1298e-39 195.33 243.67 0 0 0 -0.47885 0.1004 -0.87213 0.036677
0.12891 -0.070772 1.2487 7.0991e-39 212.5 243.5 0 0 0 -0.45565 0.071959 -0.88725 0.039752
0.18607 -0.071575 1.25 7.2835e-39 429 243 0 0 0 0.82298 -0.16545 -0.54345 0.024603
0.12757 -0.068651 1.25 7.3757e-39 260 244 0 0 0 -0.4904 0.1626 -0.85619 0.030029
0.12904 -0.068651 1.25 7.4678e-39 261 244 0 0 0 -0.47766 0.13843 -0.86757 0.033595
0.12757 -0.067188 1.25 7.9288e-39 170 245 0 0 0 -0.49503 0.21049 -0.84299 0.024566
0.12904 -0.067188 1.25 7.3757e-39 171 245 0 0 0 -0.4836 0.19407 -0.8535 0.026244
0.12757 -0.065726 1.25 8.2976e-39 406 245 0 0 0 -0.50267 0.25415 -0.82628 0.017269
0.12904 -0.065726 1.25 8.021e-39 407 245 0 0 0 -0.48776 0.24805 -0.837 0.01803
0.1311 -0.064198 1.2487 8.3437e-39 183.5 246 0 0 0 -0.46702 0.24795 -0.84877 0.018436
0.1311 -0.062737 1.2487 7.6522e-39 416.5 246 0 0 0 -0.47433 0.28574 -0.83269 0.014817
0.13123 -0.061339 1.25 8.2054e-39 201 247 0 0 0 -0.4902 0.31231 -0.81374 0.012592
0.13329 -0.061277 1.2487 7.7444e-39 217 247 0 0 0 -0.45991 0.29202 -0.83858 0.014301
0.13123 -0.059876 1.25 6.9147e-39 420.5 247 0 0 0 -0.49568 0.32672 -0.80471 0.011577
0.13335 -0.059115 1.2494 7.053e-39 323.5 247.5 0 0 0 -0.4776 0.31451 -0.82036 0.012913
0.13342 -0.056951 1.25 7.2835e-39 143 249 0 0 0 -0.49407 0.32604 -0.80597 0.012085
0.13342 -0.054758 1.25 7.6522e-39 217.5 249.5 0 0 0 -0.50332 0.33465 -0.79667 0.010463
0.13475 -0.053241 1.2487 7.099e-39 171 250.5 0 0 0 -0.48886 0.33255 -0.80649 0.01176
0.13698 -0.053255 1.249 7.6522e-39 188 250.5 0 0 0 -0.46664 0.3254 -0.82241 0.01317
0.13913 -0.052511 1.2487 7.4678e-39 158 251 0 0 0 -0.44232 0.31918 -0.83814 0.01368
0.14059 -0.052511 1.2487 7.0069e-39 159 251 0 0 0 -0.41631 0.30892 -0.85513 0.013791
0.18442 -0.052511 1.2487 8.2976e-39 221 251 0 0 0 0.76215 0.24241 -0.6003 0.014952
0.13489 -0.051102 1.25 7.3757e-39 255 251 0 0 0 -0.49886 0.35289 -0.79159 0.010038
0.13708 -0.051102 1.25 7.3757e-39 256.5 251 0 0 0 -0.47613 0.34538 -0.80871 0.011772
0.13913 -0.05105 1.2487 7.3757e-39 258 251 0 0 0 -0.44834 0.33415 -0.82906 0.013301
0.14059 -0.05105 1.2487 7.4678e-39 259 251 0 0 0 -0.42298 0.32612 -0.84542 0.013248
0.18296 -0.05105 1.2487 7.3757e-39 146 252 0 0 0 0.71492 0.25987 -0.64912 0.023515
0.18442 -0.05105 1.2487 7.0069e-39 152 252 0 0 0 0.75141 0.2475 -0.61166 0.016396
0.13781 -0.049639 1.25 7.9288e-39 190 252 0 0 0 -0.47472 0.35428 -0.80569 0.01157
0.13927 -0.049639 1.25 7.7444e-39 191 252 0 0 0 -0.4617 0.35575 -0.81257 0.012019
0.14066 -0.048883 1.2494 7.4678e-39 310.5 252 0 0 0 -0.44002 0.35311 -0.82565 0.012164
0.14212 -0.048883 1.2494 7.3296e-39 311.5 252 0 0 0 -0.42245 0.34671 -0.83745 0.012467
0.18077 -0.048859 1.2487 7.8366e-39 203 252.5 0 0 0 0.65434 0.28358 -0.70102 0.033792
0.18315 -0.048908 1.25 7.4678e-39 204.5 252.5 0 0 0 0.71948 0.25672 -0.64532 0.021921
0.18461 -0.049639 1.25 7.3757e-39 242 252 0 0 0 0.75703 0.24674 -0.605 0.015624
0.14286 -0.046691 1.2494 8.0671e-39 223.5 253 0 0 0 -0.42043 0.37112 -0.82795 0.011416
0.14498 -0.046667 1.2487 7.9288e-39 225 253 0 0 0 -0.38829 0.35668 -0.84971 0.011067
0.14644 -0.046667 1.2487 8.1132e-39 226 253 0 0 0 -0.37497 0.34857 -0.85901 0.01104
0.18086 -0.046691 1.2494 8.5742e-39 249.5 253 0 0 0 0.64081 0.27663 -0.71613 0.033789
0.14352 -0.045206 1.2487 7.4678e-39 144 254 0 0 0 -0.41456 0.37561 -0.82889 0.011025
0.14498 -0.045206 1.2487 7.8366e-39 145 254 0 0 0 -0.39763 0.36759 -0.84069 0.01093
0.14644 -0.045206 1.2487 7.3757e-39 146 254 0 0 0 -0.3837 0.359 -0.85082 0.011037
0.18095 -0.045252 1.25 6.4998e-39 169.5 254 0 0 0 0.64523 0.27778 -0.7117 0.032178
0.14366 -0.043058 1.25 7.7444e-39 186 254.5 0 0 0 -0.42702 0.39343 -0.81417 0.0096203
0.14505 -0.043036 1.2494 7.4679e-39 187 254.5 0 0 0 -0.41305 0.3843 -0.82565 0.010297
0.14721 -0.043025 1.249 7.4448e-39 188.5 254.5 0 0 0 -0.3899 0.37141 -0.84264 0.010777
0.14936 -0.042284 1.2487 7.56e-39 150 255 0 0 0 -0.36907 0.36125 -0.85632 0.010095
0.15082 -0.042284 1.2487 7.6522e-39 151 255 0 0 0 -0.3575 0.35274 -0.86473 0.0095695
0.17858 -0.043015 1.2487 7.6061e-39 210 254.5 0 0 0 0.52012 0.31382 -0.79435 0.040399
0.18022 -0.043058 1.25 7.2374e-39 211 254.5 0 0 0 0.61872 0.28801 -0.73092 0.030714
0.14512 -0.040865 1.25 8.482e-39 232 255 0 0 0 -0.42481 0.39567 -0.81424 0.0089734
0.14659 -0.040865 1.25 8.1132e-39 233 255 0 0 0 -0.41148 0.38838 -0.82453 0.009719
0.14871 -0.040845 1.2494 7.7444e-39 234.5 255 0 0 0 -0.38936 0.37426 -0.84162 0.010039
0.15082 -0.040824 1.2487 7.7444e-39 236 255 0 0 0 -0.369 0.35865 -0.85744 0.009505
0.15228 -0.040824 1.2487 8.021e-39 237 255 0 0 0 -0.35839 0.35124 -0.86498 0.0093858
0.17876 -0.040865 1.25 8.1132e-39 255 255 0 0 0 0.55306 0.29853 -0.77782 0.037178
0.14659 -0.039402 1.25 7.0069e-39 151 256 0 0 0 -0.41949 0.39363 -0.81797 0.0090965
0.14871 -0.039383 1.2494 6.6842e-39 152.5 256 0 0 0 -0.40203 0.3832 -0.83158 0.0094265
0.15082 -0.039363 1.2487 6.5459e-39 154 256 0 0 0 -0.38043 0.36792 -0.84847 0.0098587
0.15228 -0.039363 1.2487 6.5459e-39 155 256 0 0 0 -0.36518 0.35296 -0.86143 0.0096401
0.17876 -0.039402 1.25 6.1771e-39 173 256 0 0 0 0.53244 0.3024 -0.79061 0.033338
0.14659 -0.03794 1.25 8.021e-39 236 256 0 0 0 -0.42585 0.39874 -0.81219 0.0086711
0.14951 -0.03794 1.25 9.0352e-39 238 256 0 0 0 -0.40979 0.38326 -0.82776 0.0092772
0.15097 -0.03794 1.25 9.0352e-39 239 256 0 0 0 -0.39635 0.37516 -0.83795 0.0098719
0.15336 -0.03744 1.2496 7.4064e-39 213 256.33 0 0 0 -0.36905 0.36082 -0.85651 0.010398
0.1552 -0.036441 1.2487 6.0849e-39 159 257 0 0 0 -0.3425 0.35459 -0.87003 0.011646
0.15666 -0.036441 1.2487 6.0849e-39 160 257 0 0 0 -0.31603 0.34814 -0.88257 0.012655
0.17712 -0.036441 1.2487 6.2693e-39 174 257 0 0 0 0.46775 0.31746 -0.82488 0.035187
0.1552 -0.03498 1.2487 8.6664e-39 240 257 0 0 0 -0.35287 0.35988 -0.86369 0.011724
0.15666 -0.03498 1.2487 8.2054e-39 241 257 0 0 0 -0.32762 0.35651 -0.87497 0.012936
0.15812 -0.03498 1.2487 8.2976e-39 242 257 0 0 0 -0.2932 0.35151 -0.88909 0.015004
0.17566 -0.03498 1.2487 7.3757e-39 254 257 0 0 0 0.38289 0.33896 -0.85936 0.032709
0.17712 -0.03498 1.2487 7.6522e-39 255 257 0 0 0 0.46673 0.32724 -0.82163 0.033188
0.15536 -0.033553 1.25 7.3757e-39 163 258 0 0 0 -0.36095 0.37196 -0.85519 0.011861
0.15666 -0.032789 1.2487 7.5601e-39 204 258 0 0 0 -0.33377 0.36779 -0.86795 0.013105
0.1589 -0.032797 1.249 7.3987e-39 205.5 258 0 0 0 -0.28916 0.35942 -0.88725 0.016041
0.16543 -0.032058 1.2487 7.4678e-39 250 258 0 0 0 -0.072659 0.36893 -0.92661 0.037366
0.17523 -0.032556 1.2491 7.9903e-39 230 258 0 0 0 0.37196 0.35257 -0.85869 0.035209
0.1773 -0.032821 1.25 7.3757e-39 218 258 0 0 0 0.47802 0.3469 -0.80695 0.029984
0.15666 -0.030597 1.2487 6.2693e-39 168 259 0 0 0 -0.34136 0.37945 -0.85994 0.012737
0.15894 -0.030612 1.2494 6.2232e-39 169.5 259 0 0 0 -0.28809 0.38113 -0.87849 0.01643
0.16105 -0.030597 1.2487 6.6381e-39 171 259 0 0 0 -0.22719 0.37683 -0.89799 0.022758
0.16543 -0.030597 1.2487 6.4537e-39 174 259 0 0 0 -0.07776 0.37598 -0.92336 0.037955
0.17502 -0.030612 1.2494 6.131e-39 180.5 259 0 0 0 0.37145 0.37122 -0.85101 0.036892
0.1773 -0.030628 1.25 6.3615e-39 182 259 0 0 0 0.46266 0.36472 -0.80804 0.028285
0.15682 -0.029166 1.25 7.6522e-39 250 259 0 0 0 -0.34369 0.39279 -0.85299 0.012821
0.15894 -0.029151 1.2494 7.4678e-39 251.5 259 0 0 0 -0.29129 0.39376 -0.87184 0.016325
0.16105 -0.029136 1.2487 7.56e-39 253 259 0 0 0 -0.23449 0.39063 -0.89018 0.02232
0.16543 -0.029136 1.2487 8.943e-39 256 259 0 0 0 -0.082927 0.38854 -0.91769 0.038965
0.17502 -0.029151 1.2494 7.6522e-39 262.5 259 0 0 0 0.37681 0.38407 -0.84291 0.035893
0.1773 -0.029166 1.25 7.6522e-39 264 259 0 0 0 0.46592 0.38076 -0.79871 0.02785
0.15682 -0.026972 1.25 6.9607e-39 222.5 260 0 0 0 -0.34797 0.40509 -0.84547 0.012758
0.15921 -0.027206 1.2496 7.1605e-39 210.33 260 0 0 0 -0.28677 0.40891 -0.86635 0.016178
0.16105 -0.026944 1.2487 7.6061e-39 225.5 260 0 0 0 -0.24184 0.41156 -0.87871 0.019902
0.16397 -0.026944 1.2487 7.6983e-39 227.5 260 0 0 0 -0.14095 0.40885 -0.90165 0.034955
0.16543 -0.026944 1.2487 7.6983e-39 228.5 260 0 0 0 -0.069482 0.41988 -0.90491 0.04258
0.16981 -0.026214 1.2487 8.1132e-39 273 260 0 0 0 0.12936 0.42664 -0.89512 0.0496
0.17127 -0.026214 1.2487 7.6522e-39 398 260 0 0 0 0.21461 0.42129 -0.88117 0.049114
0.17273 -0.026944 1.2487 7.6522e-39 295.5 260 0 0 0 0.28996 0.40705 -0.86616 0.045461
0.17428 -0.026958 1.2494 7.3296e-39 296.5 260 0 0 0 0.36401 0.4084 -0.83708 0.0384
0.15975 -0.024778 1.25 8.021e-39 200 261 0 0 0 -0.27659 0.4293 -0.85977 0.01747
0.16121 -0.024778 1.25 7.56e-39 201 261 0 0 0 -0.24741 0.43281 -0.86687 0.020836
0.16324 -0.024753 1.2487 7.2835e-39 202.5 261 0 0 0 -0.19542 0.42983 -0.88151 0.027557
0.16543 -0.024753 1.2487 7.9288e-39 204 261 0 0 0 -0.084782 0.43974 -0.89411 0.040863
0.16981 -0.024753 1.2487 7.56e-39 207 261 0 0 0 0.12684 0.43946 -0.88926 0.048741
0.17127 -0.024753 1.2487 7.0991e-39 208 261 0 0 0 0.20403 0.44176 -0.87363 0.04923
0.17273 -0.024753 1.2487 7.0991e-39 209 261 0 0 0 0.29415 0.43227 -0.85242 0.045157
