# .PCD v.7 - Point Cloud Data file format
VERSION .7
FIELDS x y z rgb u v vx vy vz normal_x normal_y normal_z curvature
SIZE 4 4 4 4 4 4 4 4 4 4 4 4 4
TYPE F F F F F F F F F F F F F
COUNT 1 1 1 1 1 1 1 1 1 1 1 1 1
WIDTH 558
HEIGHT 1
VIEWPOINT 0 0 0 1 0 0 0
POINTS 558
DATA ascii
0.29539 -0.0462 1.2362 8.021e-39 410 259 0 0 0 0.67507 0.23666 -0.69876 0.0037033
0.16377 -0.044754 1.2362 9.2196e-39 431 259 0 0 0 -0.71709 0.26259 -0.64562 0.0043044
0.29568 -0.044799 1.2374 6.4537e-39 164 260 0 0 0 0.66875 0.24664 -0.70138 0.0033474
0.16394 -0.043351 1.2374 6.3615e-39 189 260 0 0 0 -0.71258 0.26755 -0.64857 0.004382
0.29568 -0.043351 1.2374 8.021e-39 423 260 0 0 0 0.66817 0.25061 -0.70053 0.0032395
0.16394 -0.041903 1.2374 8.482e-39 445 260 0 0 0 -0.71341 0.26728 -0.64777 0.0041862
0.16522 -0.040415 1.2362 6.7303e-39 207 261 0 0 0 -0.71636 0.26674 -0.64474 0.0036122
0.29105 -0.040415 1.2362 7.8366e-39 436 261 0 0 0 0.68506 0.2527 -0.68325 0.0024151
0.29322 -0.041138 1.2362 7.0529e-39 310 261 0 0 0 0.68133 0.25148 -0.68742 0.0025753
0.16539 -0.039008 1.2374 8.5742e-39 462 261 0 0 0 -0.71646 0.26274 -0.64627 0.0036049
0.29105 -0.038969 1.2362 6.4537e-39 196 262 0 0 0 0.68451 0.25409 -0.68329 0.0023276
0.29322 -0.038969 1.2362 6.4998e-39 197.5 262 0 0 0 0.67884 0.25343 -0.68917 0.0024455
0.16539 -0.03756 1.2374 8.8508e-39 239 262 0 0 0 -0.71689 0.25862 -0.64745 0.0035017
0.16667 -0.036076 1.2362 7.7444e-39 478 262 0 0 0 -0.71624 0.25826 -0.64831 0.0033556
0.2896 -0.036076 1.2362 6.2693e-39 208 263 0 0 0 0.68641 0.25186 -0.68221 0.0020319
0.29119 -0.036817 1.2368 7.2374e-39 330 262.5 0 0 0 0.68152 0.25249 -0.68686 0.002129
0.29307 -0.037052 1.2366 7.1605e-39 371.67 262.33 0 0 0 0.67784 0.25379 -0.69002 0.0022239
0.29424 -0.036112 1.2374 7.0069e-39 211 263 0 0 0 0.67229 0.25238 -0.69593 0.0022849
0.16683 -0.034664 1.2374 7.1913e-39 253 263 0 0 0 -0.71993 0.25247 -0.6465 0.0031819
0.16811 -0.03463 1.2362 7.2835e-39 254 263 0 0 0 -0.71537 0.25418 -0.65088 0.0034375
0.28989 -0.034664 1.2374 7.8366e-39 462 263 0 0 0 0.68346 0.24803 -0.68656 0.0020088
0.16828 -0.033217 1.2374 7.8366e-39 497 263 0 0 0 -0.71884 0.25009 -0.64863 0.0030907
0.28816 -0.033183 1.2362 8.021e-39 236 264 0 0 0 0.68805 0.2458 -0.68277 0.0020476
0.16956 -0.031014 1.2362 7.099e-39 208.5 264.5 0 0 0 -0.71501 0.24677 -0.65411 0.0030553
0.28685 -0.031029 1.2368 8.2515e-39 356.5 264.5 0 0 0 0.68943 0.23716 -0.68443 0.00212
0.28844 -0.031769 1.2374 7.7444e-39 474 264 0 0 0 0.68689 0.23982 -0.68606 0.0020457
0.16973 -0.028873 1.2374 8.2054e-39 368 265 0 0 0 -0.72043 0.23865 -0.65117 0.0027726
0.287 -0.028873 1.2374 7.3757e-39 482 265 0 0 0 0.69109 0.22711 -0.68616 0.00202
0.287 -0.027426 1.2374 8.3898e-39 250 266 0 0 0 0.69197 0.22148 -0.68711 0.0019435
0.17101 -0.025229 1.2362 6.7764e-39 289.5 266.5 0 0 0 -0.71935 0.23235 -0.65463 0.0032868
0.287 -0.025254 1.2374 7.8366e-39 374 266.5 0 0 0 0.69242 0.21673 -0.68817 0.0017801
0.17101 -0.023059 1.2362 8.1132e-39 410 267 0 0 0 -0.72366 0.23065 -0.65048 0.003323
0.287 -0.023082 1.2374 6.0849e-39 149 268 0 0 0 0.69514 0.21146 -0.68707 0.0016365
0.17118 -0.020911 1.2374 7.2835e-39 301.5 268 0 0 0 -0.72775 0.23351 -0.64487 0.0033332
0.17245 -0.020167 1.2362 8.3898e-39 421 268 0 0 0 -0.72275 0.2317 -0.65111 0.0039655
0.28526 -0.020167 1.2362 7.0069e-39 155 269 0 0 0 0.69893 0.20701 -0.68458 0.0016052
0.287 -0.021635 1.2374 7.3757e-39 266 268 0 0 0 0.69627 0.21042 -0.68624 0.001653
0.17318 -0.01872 1.2362 6.4998e-39 194.5 269 0 0 0 -0.72465 0.22831 -0.6502 0.0040042
0.28555 -0.018739 1.2374 9.0352e-39 273 269 0 0 0 0.70157 0.21116 -0.6806 0.0017812
0.17318 -0.017274 1.2362 8.482e-39 430.5 269 0 0 0 -0.72806 0.23062 -0.64556 0.0038756
0.28555 -0.017291 1.2374 6.6381e-39 167 270 0 0 0 0.70267 0.21228 -0.67911 0.0018571
0.17322 -0.015108 1.2365 7.5831e-39 328 270 0 0 0 -0.731 0.23859 -0.63931 0.0039204
0.28555 -0.01512 1.2374 6.8686e-39 292 270.5 0 0 0 0.70742 0.21922 -0.67194 0.00214
0.17407 -0.012948 1.2374 6.4537e-39 217 271 0 0 0 -0.73296 0.24825 -0.63336 0.0040285
0.28382 -0.012935 1.2362 7.4678e-39 409 271 0 0 0 0.70787 0.22024 -0.67113 0.0022981
0.1747 -0.010771 1.2368 7.514e-39 332 271.5 0 0 0 -0.73442 0.25935 -0.62718 0.0041198
0.28382 -0.011489 1.2362 6.4537e-39 177 272 0 0 0 0.70918 0.22273 -0.66892 0.0022628
0.2841 -0.010053 1.2374 7.4678e-39 407 272 0 0 0 0.71441 0.23653 -0.65854 0.0024334
0.17552 -0.0086048 1.2374 8.8508e-39 446 272 0 0 0 -0.7374 0.26859 -0.61976 0.0040494
0.28237 -0.0085962 1.2362 7.1913e-39 170 273 0 0 0 0.7106 0.23188 -0.66429 0.0022917
0.17552 -0.007157 1.2374 6.4537e-39 212 273 0 0 0 -0.73827 0.27126 -0.61756 0.0040487
0.28265 -0.007157 1.2374 8.3898e-39 401 273 0 0 0 0.71864 0.24483 -0.65085 0.0026357
0.17679 -0.0042572 1.2362 6.0849e-39 205 274 0 0 0 -0.73781 0.27274 -0.61746 0.0041615
0.28092 -0.0042572 1.2362 7.3757e-39 366 274 0 0 0 0.71788 0.24251 -0.65256 0.0027859
0.28265 -0.0057093 1.2374 7.4678e-39 164 274 0 0 0 0.72071 0.24803 -0.64735 0.0025242
0.17697 -0.0028138 1.2374 8.2054e-39 437 274 0 0 0 -0.74146 0.27535 -0.6119 0.0040044
0.27948 -0.0028109 1.2362 6.9147e-39 153 275 0 0 0 0.7178 0.24442 -0.65193 0.0029901
0.28092 -0.0028109 1.2362 7.3757e-39 154 275 0 0 0 0.72224 0.24784 -0.64571 0.0028414
0.17824 -0.0013646 1.2362 5.9005e-39 198 275 0 0 0 -0.74062 0.27348 -0.61375 0.004122
0.27976 -0.001366 1.2374 7.6522e-39 268 275 0 0 0 0.72643 0.25333 -0.63885 0.0029032
0.28121 -0.001366 1.2374 7.7444e-39 269 275 0 0 0 0.72751 0.25512 -0.6369 0.0027738
0.17878 0.0010464 1.2366 6.8839e-39 265.67 275.67 0 0 0 -0.74254 0.27032 -0.61283 0.0042494
0.2789 0.00080488 1.2368 7.2835e-39 375.5 275.5 0 0 0 0.72352 0.25334 -0.64213 0.0028034
0.17986 0.0029773 1.2374 9.4961e-39 413 276 0 0 0 -0.74385 0.26724 -0.61259 0.0043572
0.27803 0.0029743 1.2362 8.2976e-39 483 276 0 0 0 0.72654 0.24968 -0.64016 0.0027449
0.18122 0.0051467 1.2368 7.9749e-39 285 277 0 0 0 -0.74333 0.26081 -0.61599 0.0049114
0.27817 0.0051467 1.2368 8.021e-39 352 277 0 0 0 0.73193 0.25436 -0.63212 0.0024073
0.18258 0.0073132 1.2362 6.3615e-39 152 278 0 0 0 -0.74064 0.25144 -0.62308 0.0055804
0.18258 0.0087595 1.2362 7.0069e-39 266 278 0 0 0 -0.7412 0.2477 -0.62391 0.0056022
0.18276 0.010216 1.2374 9.1274e-39 496 278 0 0 0 -0.74556 0.24523 -0.61968 0.0048801
0.27659 0.011652 1.2362 8.5742e-39 426 279 0 0 0 0.72209 0.26718 -0.63812 0.0022215
0.18402 0.013098 1.2362 7.7444e-39 473 279 0 0 0 -0.74058 0.23681 -0.62886 0.0054514
0.27369 0.013098 1.2362 7.56e-39 171 280 0 0 0 0.71144 0.27266 -0.6477 0.0028048
0.27541 0.013112 1.2374 7.8366e-39 172 280 0 0 0 0.72112 0.27088 -0.63766 0.0022537
0.18402 0.015268 1.2362 7.2835e-39 335.5 280 0 0 0 -0.73863 0.24011 -0.6299 0.0052231
0.27397 0.014559 1.2374 8.6664e-39 399 280 0 0 0 0.7146 0.27398 -0.64364 0.0026254
0.18421 0.017455 1.2374 7.6522e-39 198 281 0 0 0 -0.74062 0.24147 -0.62704 0.0047651
0.18421 0.018903 1.2374 8.2976e-39 421 281 0 0 0 -0.73879 0.241 -0.62936 0.0047106
0.18484 0.021063 1.2368 7.9749e-39 287.5 282 0 0 0 -0.73323 0.24446 -0.63451 0.0050687
0.27239 0.021064 1.2368 7.2835e-39 356 282 0 0 0 0.70894 0.27835 -0.64802 0.0025602
0.18547 0.023223 1.2362 6.3615e-39 155 283 0 0 0 -0.73004 0.24831 -0.63669 0.0053065
0.2708 0.023223 1.2362 7.2835e-39 237 283 0 0 0 0.70136 0.27607 -0.65717 0.0034995
0.18547 0.024669 1.2362 7.7444e-39 400 283 0 0 0 -0.72863 0.24959 -0.63782 0.0053166
0.26935 0.024669 1.2362 8.021e-39 458 283 0 0 0 0.7015 0.26873 -0.66006 0.0043958
0.27107 0.024694 1.2374 8.021e-39 459 283 0 0 0 0.71009 0.27139 -0.64971 0.0031056
0.18565 0.026865 1.2374 7.4218e-39 202 284 0 0 0 -0.7301 0.25073 -0.63567 0.0053593
0.18691 0.027561 1.2362 8.021e-39 262 284 0 0 0 -0.72574 0.25546 -0.63878 0.0054053
0.26962 0.026141 1.2374 7.56e-39 224 284 0 0 0 0.70778 0.26505 -0.65482 0.0040679
0.18691 0.029008 1.2362 8.2054e-39 479 284 0 0 0 -0.72369 0.26024 -0.63918 0.0053623
0.18836 0.029008 1.2362 8.5742e-39 480 284 0 0 0 -0.71585 0.26122 -0.64755 0.0058247
0.1871 0.030485 1.2374 6.8225e-39 228 285 0 0 0 -0.72307 0.26029 -0.63986 0.0053288
0.18918 0.031193 1.2368 6.4076e-39 331.5 285 0 0 0 -0.70857 0.27248 -0.65091 0.0055613
0.26791 0.031177 1.2362 8.2976e-39 449.5 285 0 0 0 0.70691 0.25439 -0.65997 0.0047777
0.19 0.03338 1.2374 7.3757e-39 166 286 0 0 0 -0.70197 0.28639 -0.65208 0.0052373
0.19125 0.033347 1.2362 7.3757e-39 167 286 0 0 0 -0.69177 0.29098 -0.6609 0.0050423
0.26646 0.033347 1.2362 6.4537e-39 246 286 0 0 0 0.70514 0.2567 -0.66097 0.0051619
0.26818 0.03338 1.2374 6.2693e-39 247 286 0 0 0 0.71474 0.25867 -0.6498 0.0040167
0.19145 0.034828 1.2374 6.1771e-39 277 286 0 0 0 -0.69209 0.29861 -0.65715 0.0049448
0.1927 0.034793 1.2362 9.0352e-39 392 286 0 0 0 -0.68483 0.30226 -0.66306 0.0049495
0.26646 0.034793 1.2362 7.8366e-39 443 286 0 0 0 0.7086 0.25826 -0.65665 0.0051161
0.26818 0.034828 1.2374 7.56e-39 444 286 0 0 0 0.71518 0.26104 -0.64837 0.0042458
0.19289 0.037 1.2374 7.9288e-39 355 286.5 0 0 0 -0.6855 0.31075 -0.65843 0.0049011
0.19415 0.036963 1.2362 7.7444e-39 356 286.5 0 0 0 -0.67825 0.31426 -0.66425 0.0050009
0.26502 0.036963 1.2362 6.7303e-39 222.5 287 0 0 0 0.71232 0.25922 -0.65223 0.0054812
0.26673 0.036276 1.2374 7.9288e-39 169 287 0 0 0 0.71342 0.26438 -0.64895 0.0045085
0.19497 0.039151 1.2368 8.6664e-39 420.5 287 0 0 0 -0.67406 0.32908 -0.66132 0.0051324
0.26528 0.039171 1.2374 8.6664e-39 481 287 0 0 0 0.71789 0.25869 -0.64631 0.0049101
0.19434 0.040619 1.2374 5.9005e-39 140 288 0 0 0 -0.6744 0.33692 -0.65701 0.0050314
0.19763 -0.10582 1.2399 4.5176e-39 412 232 0 0 0 0.072474 0.67409 -0.73509 0.12495
0.19908 -0.10582 1.2399 4.7942e-39 412 233 0 0 0 0.048965 0.68889 -0.72321 0.11903
0.20125 -0.10509 1.2399 4.6559e-39 412.5 233.5 0 0 0 0.043618 0.66394 -0.74652 0.12413
0.19473 -0.10292 1.2399 8.5742e-39 415 234 0 0 0 -0.1898 0.12901 -0.97331 0.18494
0.20343 -0.10292 1.2399 4.8864e-39 413 235 0 0 0 0.14706 0.48772 -0.86052 0.17718
0.20489 -0.10292 1.2399 5.8083e-39 414 235 0 0 0 0.14943 0.49544 -0.85569 0.17132
0.19473 -0.10146 1.2399 6.6381e-39 405 236 0 0 0 -0.32941 -0.1896 -0.92496 0.18366
0.27452 -0.088408 1.2399 6.7303e-39 408 240 0 0 0 0.0047952 -0.90846 -0.41795 0.037201
0.15831 -0.086871 1.2387 7.0069e-39 412 240 0 0 0 -0.4248 -0.4176 -0.80322 0.084875
0.27424 -0.086871 1.2387 6.8225e-39 211 241 0 0 0 -0.0018993 -0.89537 -0.44532 0.041873
0.15915 -0.08476 1.2396 6.4998e-39 221.5 241.5 0 0 0 -0.43591 -0.4617 -0.77254 0.08151
0.16128 -0.084739 1.2393 6.592e-39 223 241.5 0 0 0 -0.37507 -0.57968 -0.72339 0.076087
0.16862 -0.084056 1.2399 6.4537e-39 215 242 0 0 0 -0.22898 -0.7676 -0.59863 0.051076
0.17071 -0.085464 1.2393 7.3757e-39 242.5 241 0 0 0 -0.17303 -0.79631 -0.57961 0.040501
0.17297 -0.084781 1.2399 7.4218e-39 231 241.5 0 0 0 -0.14214 -0.79561 -0.5889 0.032455
0.17442 -0.084056 1.2399 6.4537e-39 221 242 0 0 0 -0.12647 -0.79505 -0.59322 0.023739
0.19111 -0.084056 1.2399 6.4537e-39 232.5 242 0 0 0 -0.023022 -0.72807 -0.68511 0.061002
0.19328 -0.084056 1.2399 6.3615e-39 234 242 0 0 0 -0.0081331 -0.72682 -0.68678 0.068713
0.22062 -0.085421 1.2387 5.4395e-39 417 241 0 0 0 -0.10569 -0.93481 -0.33905 0.0086921
0.23535 -0.085507 1.2399 7.56e-39 425 241 0 0 0 -0.0031614 -0.88057 -0.47391 0.0089872
0.2397 -0.085507 1.2399 7.3757e-39 428 241 0 0 0 -0.016105 -0.87086 -0.49127 0.0089627
0.2432 -0.085464 1.2393 8.3898e-39 430.5 241 0 0 0 -0.041014 -0.87189 -0.48799 0.0083283
0.24695 -0.085507 1.2399 4.0566e-39 510 241 0 0 0 -0.05272 -0.87552 -0.4803 0.0074716
0.24889 -0.085421 1.2387 4.7942e-39 511.5 241 0 0 0 -0.047145 -0.87839 -0.47561 0.0078697
0.25105 -0.085421 1.2387 5.3473e-39 513 241 0 0 0 -0.047911 -0.8855 -0.46216 0.0078257
0.25856 -0.085507 1.2399 6.1771e-39 156 242 0 0 0 0.0038464 -0.89873 -0.43849 0.011713
0.26555 -0.085421 1.2387 6.1771e-39 161 242 0 0 0 0.033393 -0.89648 -0.44181 0.022703
0.27162 -0.085507 1.2399 5.6239e-39 165 242 0 0 0 0.037253 -0.8981 -0.4382 0.033673
0.27307 -0.085507 1.2399 5.7161e-39 166 242 0 0 0 0.024994 -0.89875 -0.43775 0.034493
0.27424 -0.085421 1.2387 6.0849e-39 167 242 0 0 0 0.017418 -0.89614 -0.44344 0.043045
0.30063 -0.084056 1.2399 6.3615e-39 515 242 0 0 0 0.60192 -0.031205 -0.79795 0.024366
0.16572 -0.082606 1.2399 5.9005e-39 164 243 0 0 0 -0.29672 -0.69049 -0.65968 0.062467
0.1699 -0.083972 1.2387 6.3615e-39 216 242 0 0 0 -0.2103 -0.78077 -0.58836 0.044322
0.17098 -0.083061 1.2395 6.2386e-39 184 242.67 0 0 0 -0.19786 -0.78528 -0.58667 0.041071
0.17297 -0.082606 1.2399 6.4537e-39 169 243 0 0 0 -0.16265 -0.78926 -0.59213 0.034177
0.17506 -0.083289 1.2393 6.131e-39 196 242.5 0 0 0 -0.12115 -0.79289 -0.5972 0.022515
0.18077 -0.082523 1.2387 7.2835e-39 174.5 243 0 0 0 -0.051183 -0.80539 -0.59053 0.0089844
0.18294 -0.082523 1.2387 7.7444e-39 176 243 0 0 0 -0.040464 -0.80111 -0.59715 0.0079943
0.18439 -0.082523 1.2387 7.6522e-39 177 243 0 0 0 -0.045514 -0.78788 -0.61415 0.014526
0.18666 -0.082565 1.2393 8.021e-39 178.5 243 0 0 0 -0.04321 -0.76708 -0.6401 0.026724
0.18874 -0.083972 1.2387 6.7303e-39 231 242 0 0 0 -0.043194 -0.74264 -0.66829 0.043815
0.19473 -0.082606 1.2399 8.1132e-39 206 243 0 0 0 0.0080796 -0.75922 -0.65078 0.053147
0.19681 -0.082565 1.2393 7.3296e-39 207.5 243 0 0 0 0.029507 -0.77118 -0.63593 0.055424
0.21627 -0.083972 1.2387 8.6664e-39 250 242 0 0 0 -0.12442 -0.93284 -0.33811 0.0065702
0.23801 -0.083972 1.2387 7.56e-39 408 242 0 0 0 -0.0090995 -0.8724 -0.4887 0.0088166
0.27424 -0.083972 1.2387 6.7303e-39 429 242 0 0 0 0.006161 -0.88898 -0.45791 0.043288
0.29918 -0.082606 1.2399 7.1913e-39 418 243 0 0 0 0.60821 -0.032761 -0.7931 0.020367
0.3012 -0.082565 1.2393 7.1913e-39 419.5 243 0 0 0 0.59138 -0.025125 -0.806 0.021149
0.15992 -0.081155 1.2399 5.9005e-39 430 243 0 0 0 -0.48509 -0.44794 -0.75103 0.074337
0.16555 -0.081074 1.2387 9.7727e-39 434 243 0 0 0 -0.33752 -0.64166 -0.68873 0.062952
0.16926 -0.081115 1.2393 4.4715e-39 506.5 243 0 0 0 -0.26077 -0.73179 -0.62967 0.050938
0.17135 -0.081074 1.2387 5.3473e-39 508 243 0 0 0 -0.2157 -0.76388 -0.60824 0.040774
0.1728 -0.081074 1.2387 5.6239e-39 509 243 0 0 0 -0.18247 -0.77247 -0.60828 0.035214
0.17715 -0.081074 1.2387 5.4395e-39 512 243 0 0 0 -0.10356 -0.79501 -0.59769 0.020097
0.17859 -0.081074 1.2387 5.6239e-39 513 243 0 0 0 -0.08066 -0.79719 -0.59832 0.016331
0.20106 -0.081074 1.2387 5.8544e-39 163.5 244 0 0 0 0.024995 -0.83118 -0.55545 0.034841
0.20468 -0.081074 1.2387 5.9927e-39 166 244 0 0 0 0.0045519 -0.86263 -0.50581 0.034089
0.20696 -0.081115 1.2393 6.592e-39 167.5 244 0 0 0 -0.030201 -0.89986 -0.43513 0.019198
0.20924 -0.081155 1.2399 6.5459e-39 169 244 0 0 0 -0.064527 -0.91851 -0.39009 0.013855
0.21131 -0.081115 1.2393 6.131e-39 170.5 244 0 0 0 -0.098233 -0.92677 -0.36257 0.0099997
0.29918 -0.081155 1.2399 8.6664e-39 250 244 0 0 0 0.60479 -0.033147 -0.7957 0.01849
0.30208 -0.081155 1.2399 9.1274e-39 252 244 0 0 0 0.58619 -0.025053 -0.80979 0.020775
0.15992 -0.078979 1.2399 7.5601e-39 322 244.5 0 0 0 -0.53996 -0.36939 -0.75631 0.069305
0.16265 -0.078175 1.2387 7.1913e-39 241 245 0 0 0 -0.49162 -0.45303 -0.74369 0.066452
0.16555 -0.079625 1.2387 7.6522e-39 409 244 0 0 0 -0.37056 -0.60618 -0.70373 0.06475
0.167 -0.078175 1.2387 7.2835e-39 244 245 0 0 0 -0.3712 -0.60723 -0.70248 0.060853
0.29888 -0.079625 1.2387 6.5459e-39 227 245 0 0 0 0.61702 -0.037671 -0.78605 0.018024
0.30091 -0.078685 1.2391 8.1747e-39 212.33 245.67 0 0 0 0.60361 -0.02815 -0.79678 0.016613
0.30208 -0.079704 1.2399 6.4537e-39 229 245 0 0 0 0.58882 -0.020029 -0.80802 0.018854
0.15992 -0.076803 1.2399 6.6381e-39 215 246 0 0 0 -0.57297 -0.32887 -0.7507 0.067723
0.30178 -0.076726 1.2387 7.56e-39 516 246 0 0 0 0.60578 -0.015958 -0.79547 0.016715
0.15992 -0.075352 1.2399 6.9147e-39 163 247 0 0 0 -0.60464 -0.28864 -0.74236 0.06135
0.16137 -0.075352 1.2399 6.8225e-39 164 247 0 0 0 -0.57614 -0.32823 -0.74855 0.064608
0.30106 -0.075277 1.2387 7.9288e-39 424.5 247 0 0 0 0.6176 -0.011736 -0.7864 0.016012
0.15889 -0.073394 1.2395 6.4844e-39 372.33 247.33 0 0 0 -0.65152 -0.22106 -0.72571 0.047301
0.1612 -0.073828 1.2387 4.7942e-39 436 247 0 0 0 -0.60438 -0.29407 -0.74044 0.058488
0.29888 -0.072378 1.2387 7.0069e-39 164 249 0 0 0 0.63509 -0.0017765 -0.77244 0.015284
0.30106 -0.073103 1.2387 6.7534e-39 201.5 248.5 0 0 0 0.61779 0.0019071 -0.78634 0.015606
0.30338 -0.07314 1.2393 7.0991e-39 203 248.5 0 0 0 0.60807 0.010987 -0.79381 0.015177
0.30498 -0.072451 1.2399 6.7303e-39 168 249 0 0 0 0.58819 0.027159 -0.80827 0.016059
0.30716 -0.072451 1.2399 6.4076e-39 169.5 249 0 0 0 0.55917 0.026443 -0.82863 0.014352
0.15831 -0.070929 1.2387 7.1913e-39 179 249 0 0 0 -0.68281 -0.1675 -0.71114 0.038114
0.29888 -0.070929 1.2387 7.1913e-39 437 249 0 0 0 0.64302 0.00072403 -0.76585 0.014933
0.30063 -0.071001 1.2399 6.9147e-39 438 249 0 0 0 0.61647 0.017459 -0.78718 0.014385
0.30281 -0.071001 1.2399 6.9147e-39 439.5 249 0 0 0 0.61351 0.02474 -0.7893 0.014767
0.30498 -0.071001 1.2399 6.1771e-39 441 249 0 0 0 0.60341 0.01998 -0.79718 0.015211
0.15694 -0.06879 1.2393 7.2374e-39 382 249.5 0 0 0 -0.71273 -0.10924 -0.69288 0.031231
0.29888 -0.068756 1.2387 6.9608e-39 212 250.5 0 0 0 0.65173 0.023141 -0.75809 0.014559
0.30033 -0.068756 1.2387 7.2835e-39 213 250.5 0 0 0 0.63457 0.028835 -0.77233 0.014094
0.30281 -0.068824 1.2399 7.6522e-39 214.5 250.5 0 0 0 0.61647 0.034116 -0.78664 0.013896
0.15686 -0.066582 1.2387 8.3898e-39 197 251 0 0 0 -0.73222 -0.078457 -0.67653 0.025367
0.29888 -0.066582 1.2387 8.8508e-39 433 251 0 0 0 0.65313 0.032695 -0.75654 0.013905
0.30033 -0.066582 1.2387 9.1274e-39 434 251 0 0 0 0.64372 0.037323 -0.76435 0.013369
0.30208 -0.066649 1.2399 8.2976e-39 435 251 0 0 0 0.62196 0.048194 -0.78156 0.013588
0.15686 -0.065132 1.2387 4.5176e-39 449 251 0 0 0 -0.74485 -0.055559 -0.66492 0.02228
0.30033 -0.065132 1.2387 6.9147e-39 241 252 0 0 0 0.64464 0.040425 -0.76342 0.012634
0.30208 -0.065198 1.2399 6.5459e-39 242 252 0 0 0 0.62802 0.053994 -0.77632 0.013489
0.15686 -0.062959 1.2387 7.514e-39 213 252.5 0 0 0 -0.76314 -0.020638 -0.64591 0.019374
0.30208 -0.063022 1.2399 8.2054e-39 465 252.5 0 0 0 0.63508 0.068819 -0.76938 0.012768
0.15701 -0.060846 1.2399 8.7586e-39 429 253 0 0 0 -0.77652 0.026957 -0.62951 0.015921
0.15831 -0.060785 1.2387 8.3898e-39 430 253 0 0 0 -0.77033 0.018942 -0.63737 0.015629
0.30208 -0.060846 1.2399 6.5459e-39 188 254 0 0 0 0.63938 0.10057 -0.76228 0.011302
0.15701 -0.059395 1.2399 8.2976e-39 200 254 0 0 0 -0.78008 0.051527 -0.62356 0.014006
0.15831 -0.059336 1.2387 7.9288e-39 201 254 0 0 0 -0.77497 0.048757 -0.63011 0.013886
0.30033 -0.059336 1.2387 8.7586e-39 441 254 0 0 0 0.64691 0.11378 -0.75403 0.010801
0.15846 -0.057219 1.2399 5.5318e-39 345 254.5 0 0 0 -0.77586 0.0898 -0.62448 0.012342
0.29888 -0.057162 1.2387 5.8083e-39 332 255 0 0 0 0.65728 0.13538 -0.74139 0.010131
0.30048 -0.05719 1.2393 5.8544e-39 333 255 0 0 0 0.64666 0.13765 -0.75025 0.010014
0.15846 -0.055043 1.2399 4.6098e-39 478 255 0 0 0 -0.76825 0.13168 -0.62646 0.0099184
0.29888 -0.054988 1.2387 6.5459e-39 236 256 0 0 0 0.66231 0.15576 -0.73286 0.008524
0.30063 -0.055043 1.2399 6.8225e-39 237 256 0 0 0 0.65006 0.16189 -0.74244 0.0088514
0.15911 -0.052841 1.2393 7.3757e-39 373.5 256 0 0 0 -0.75632 0.16755 -0.63238 0.0078611
0.29888 -0.052814 1.2387 5.8544e-39 365.5 256.5 0 0 0 0.6643 0.17278 -0.72722 0.0075633
0.30063 -0.052868 1.2399 6.4537e-39 366.5 256.5 0 0 0 0.65215 0.17357 -0.73795 0.0077081
0.15992 -0.050691 1.2399 9.0352e-39 269 257 0 0 0 -0.74608 0.20033 -0.63501 0.0070035
0.29888 -0.05064 1.2387 8.1132e-39 495 257 0 0 0 0.66389 0.19601 -0.72168 0.0062231
0.15992 -0.049241 1.2399 7.56e-39 511 257 0 0 0 -0.74141 0.21597 -0.63535 0.0068171
0.1612 -0.049191 1.2387 7.7444e-39 512 257 0 0 0 -0.73672 0.22178 -0.6388 0.0061514
0.29743 -0.049191 1.2387 8.482e-39 268 258 0 0 0 0.66764 0.20992 -0.71427 0.0054207
0.29918 -0.049241 1.2399 8.7586e-39 269 258 0 0 0 0.65751 0.20356 -0.72542 0.0056969
0.1612 -0.047017 1.2387 7.3296e-39 292 258.5 0 0 0 -0.72666 0.24511 -0.64178 0.0057763
0.16265 -0.046293 1.2387 6.2693e-39 170 259 0 0 0 -0.72289 0.2515 -0.64356 0.0052625
0.29758 -0.04704 1.2393 8.1593e-39 461 258.5 0 0 0 0.66173 0.22585 -0.71492 0.0048156
0.29918 -0.047064 1.2399 8.5281e-39 462 258.5 0 0 0 0.65527 0.22093 -0.72237 0.0051356
0.16137 -0.044889 1.2399 9.1274e-39 429 259 0 0 0 -0.72302 0.25544 -0.64186 0.005596
0.16265 -0.044844 1.2387 9.3118e-39 430 259 0 0 0 -0.71994 0.25829 -0.64418 0.0051711
0.29773 -0.044889 1.2399 6.3615e-39 165 260 0 0 0 0.6541 0.24361 -0.7161 0.0042637
0.16137 -0.043438 1.2399 6.8225e-39 187 260 0 0 0 -0.71849 0.26028 -0.645 0.005208
0.16265 -0.043394 1.2387 6.4537e-39 188 260 0 0 0 -0.71622 0.26515 -0.64555 0.004827
0.29773 -0.043438 1.2399 8.2976e-39 424 260 0 0 0 0.65356 0.2452 -0.71606 0.0039253
0.16137 -0.041262 1.2399 7.7444e-39 323.5 260.5 0 0 0 -0.71434 0.26483 -0.64776 0.0047475
0.16274 -0.041241 1.2393 7.8366e-39 324.5 260.5 0 0 0 -0.71353 0.26624 -0.64807 0.0044188
0.1641 -0.040496 1.2387 7.0991e-39 206 261 0 0 0 -0.71435 0.26616 -0.64719 0.0042204
0.29598 -0.041221 1.2387 7.6522e-39 311.5 261 0 0 0 0.66017 0.25087 -0.70799 0.0031984
0.16137 -0.039086 1.2399 9.3118e-39 459 261 0 0 0 -0.71176 0.26107 -0.6521 0.0045819
0.16282 -0.039086 1.2399 9.2196e-39 460 261 0 0 0 -0.71272 0.26278 -0.65037 0.0043118
0.1641 -0.039047 1.2387 8.8508e-39 461 261 0 0 0 -0.71385 0.26508 -0.64819 0.0040305
0.29628 -0.039086 1.2399 6.8225e-39 199 262 0 0 0 0.65388 0.25466 -0.71246 0.0030521
0.16282 -0.03691 1.2399 8.2976e-39 356 262 0 0 0 -0.71209 0.2616 -0.65153 0.0040442
0.1647 -0.036656 1.2395 8.2054e-39 397 262 0 0 0 -0.71477 0.2592 -0.64956 0.0039359
0.29628 -0.037635 1.2399 7.6522e-39 454 262 0 0 0 0.65381 0.25444 -0.7126 0.0029402
0.16491 -0.034717 1.2393 7.3296e-39 251.5 263 0 0 0 -0.7175 0.2522 -0.64929 0.0034973
0.29163 -0.034699 1.2387 7.6522e-39 463 263 0 0 0 0.6748 0.24931 -0.69462 0.0021462
0.29308 -0.034699 1.2387 7.56e-39 464 263 0 0 0 0.67249 0.25016 -0.69655 0.0021549
0.29453 -0.034699 1.2387 7.56e-39 465 263 0 0 0 0.66868 0.24957 -0.70042 0.0022902
0.16572 -0.033283 1.2399 8.482e-39 490 263 0 0 0 -0.72074 0.24999 -0.64656 0.0031272
0.167 -0.03325 1.2387 8.5742e-39 491 263 0 0 0 -0.72098 0.24916 -0.64661 0.0029763
0.29105 -0.033266 1.2393 8.5742e-39 237.5 264 0 0 0 0.6765 0.24615 -0.69409 0.0021473
0.29338 -0.033283 1.2399 8.5742e-39 239 264 0 0 0 0.66912 0.24528 -0.70151 0.002208
0.29483 -0.033283 1.2399 8.3898e-39 240 264 0 0 0 0.66406 0.24515 -0.70635 0.0023397
0.16717 -0.031108 1.2399 7.7444e-39 390.5 264 0 0 0 -0.72135 0.24639 -0.64727 0.0028268
0.16845 -0.031076 1.2387 7.8366e-39 391.5 264 0 0 0 -0.72106 0.24544 -0.64794 0.0027213
0.28873 -0.030351 1.2387 8.6664e-39 243 265 0 0 0 0.68675 0.23293 -0.68856 0.0020038
0.29086 -0.031339 1.2395 8.2361e-39 398.33 264.33 0 0 0 0.68007 0.23739 -0.69365 0.0020409
0.16862 -0.028931 1.2399 9.0352e-39 367 265 0 0 0 -0.72314 0.24236 -0.64678 0.0025648
0.28873 -0.028902 1.2387 7.9288e-39 483 265 0 0 0 0.68769 0.22733 -0.6895 0.0019528
0.29047 -0.028931 1.2399 8.021e-39 484 265 0 0 0 0.68005 0.22896 -0.6965 0.0019931
0.16926 -0.026742 1.2393 7.2143e-39 283 266 0 0 0 -0.72586 0.23673 -0.64582 0.0026344
0.28873 -0.026728 1.2387 7.9288e-39 378.5 266 0 0 0 0.68765 0.22162 -0.69139 0.0018798
0.29047 -0.026756 1.2399 8.1132e-39 379.5 266 0 0 0 0.68185 0.22328 -0.69658 0.0019922
0.16926 -0.024567 1.2393 6.0849e-39 173.5 267 0 0 0 -0.72822 0.23466 -0.64392 0.0026934
0.28873 -0.024555 1.2387 7.8366e-39 258 267 0 0 0 0.68995 0.21701 -0.69056 0.0018117
0.29047 -0.024579 1.2399 7.3757e-39 259 267 0 0 0 0.68592 0.22096 -0.69332 0.001904
0.16926 -0.023117 1.2393 7.514e-39 408.5 267 0 0 0 -0.72971 0.23534 -0.64197 0.0028575
0.28873 -0.023105 1.2387 5.9927e-39 150 268 0 0 0 0.6908 0.21436 -0.69054 0.0017581
0.29047 -0.023129 1.2399 5.9927e-39 151 268 0 0 0 0.68525 0.21868 -0.69471 0.0019693
0.17007 -0.020953 1.2399 7.0991e-39 300.5 268 0 0 0 -0.73167 0.23724 -0.63904 0.0032082
0.28728 -0.020207 1.2387 6.5459e-39 156 269 0 0 0 0.69951 0.21381 -0.68189 0.0017608
0.28887 -0.020941 1.2393 6.592e-39 212 268.5 0 0 0 0.69398 0.21576 -0.68691 0.0018453
0.29047 -0.021678 1.2399 6.9147e-39 268 268 0 0 0 0.68929 0.2193 -0.6905 0.0020535
0.17135 -0.018758 1.2387 5.9927e-39 193 269 0 0 0 -0.73294 0.23448 -0.63861 0.0033067
0.28728 -0.018758 1.2387 7.9288e-39 366 269 0 0 0 0.70183 0.21751 -0.67832 0.0019353
0.28902 -0.018777 1.2399 8.2976e-39 367 269 0 0 0 0.69774 0.2226 -0.68089 0.0020856
0.17135 -0.017309 1.2387 8.3898e-39 429 269 0 0 0 -0.73456 0.23857 -0.63522 0.0033642
0.28728 -0.017309 1.2387 6.3615e-39 168 270 0 0 0 0.70469 0.21769 -0.6753 0.0019784
0.28902 -0.017326 1.2399 6.4537e-39 169 270 0 0 0 0.69987 0.22452 -0.67806 0.0022497
0.17143 -0.015142 1.2393 7.0068e-39 326.5 270 0 0 0 -0.73669 0.24664 -0.62964 0.0036159
0.28757 -0.01515 1.2399 6.7303e-39 293 270.5 0 0 0 0.71007 0.23003 -0.6655 0.0022605
0.28902 -0.015875 1.2399 7.7444e-39 409 270 0 0 0 0.70352 0.23016 -0.67237 0.0024256
0.17152 -0.012974 1.2399 6.7303e-39 215 271 0 0 0 -0.73876 0.25275 -0.62478 0.0036753
0.1728 -0.012961 1.2387 7.1913e-39 216 271 0 0 0 -0.73696 0.25283 -0.62688 0.0038166
0.28584 -0.012961 1.2387 7.8366e-39 410 271 0 0 0 0.71122 0.2286 -0.66476 0.0022516
0.28757 -0.012974 1.2399 8.2054e-39 411 271 0 0 0 0.71393 0.23898 -0.65818 0.0026157
0.17152 -0.011523 1.2399 8.6664e-39 446 271 0 0 0 -0.73924 0.25949 -0.62144 0.0037595
0.17289 -0.010792 1.2393 7.1913e-39 330.5 271.5 0 0 0 -0.73754 0.26376 -0.62166 0.004013
0.17425 -0.010063 1.2387 6.2693e-39 215 272 0 0 0 -0.73559 0.26746 -0.62239 0.0038897
0.28584 -0.011512 1.2387 5.9005e-39 178 272 0 0 0 0.71619 0.23881 -0.65577 0.0025278
0.28612 -0.010073 1.2399 7.2835e-39 408 272 0 0 0 0.7221 0.25039 -0.64489 0.0026644
0.17297 -0.008622 1.2399 8.8508e-39 444 272 0 0 0 -0.73576 0.27319 -0.61969 0.0038643
0.17442 -0.008622 1.2399 9.2196e-39 445 272 0 0 0 -0.73586 0.27417 -0.61915 0.0039104
0.28439 -0.0086134 1.2387 6.9147e-39 171 273 0 0 0 0.71948 0.25002 -0.64795 0.0024603
0.17442 -0.0071714 1.2399 6.0849e-39 211 273 0 0 0 -0.73669 0.27599 -0.61734 0.0038837
0.28467 -0.0071714 1.2399 8.943e-39 402 273 0 0 0 0.72821 0.26236 -0.63315 0.0025734
0.17579 -0.0049926 1.2393 7.1452e-39 322.5 273.5 0 0 0 -0.7385 0.27847 -0.61407 0.0039947
0.28294 -0.0042658 1.2387 7.6522e-39 367 274 0 0 0 0.72972 0.25895 -0.63282 0.0026604
0.28467 -0.0057207 1.2399 7.3757e-39 165 274 0 0 0 0.73188 0.26323 -0.62854 0.0026562
0.28322 -0.0028194 1.2399 7.2835e-39 155 275 0 0 0 0.73934 0.26842 -0.61752 0.0028184
0.17715 -0.0013674 1.2387 5.8083e-39 197 275 0 0 0 -0.74222 0.27502 -0.61112 0.004254
0.17724 0.00080722 1.2393 7.514e-39 304.5 275.5 0 0 0 -0.74312 0.27541 -0.60986 0.0043218
0.2811 0.0010485 1.2391 7.4986e-39 337 275.67 0 0 0 0.73685 0.26317 -0.62273 0.002834
0.17859 0.0029803 1.2387 8.943e-39 412 276 0 0 0 -0.74676 0.26745 -0.60895 0.004307
0.28104 0.0029832 1.2399 8.4359e-39 484.5 276 0 0 0 0.74193 0.2661 -0.61542 0.0025637
0.17877 0.0044339 1.2399 7.9288e-39 168 277 0 0 0 -0.74716 0.2612 -0.61117 0.0045568
0.18013 0.005157 1.2393 8.1132e-39 284 277 0 0 0 -0.74748 0.25703 -0.61254 0.0045803
0.28032 0.0044339 1.2399 8.482e-39 238 277 0 0 0 0.74458 0.2622 -0.61388 0.0025805
0.18149 0.0073279 1.2387 6.3615e-39 151 278 0 0 0 -0.74784 0.25172 -0.6143 0.0046868
0.27859 0.0073279 1.2387 6.0849e-39 218 278 0 0 0 0.74096 0.25884 -0.61966 0.0022404
0.18149 0.0087771 1.2387 7.3757e-39 265 278 0 0 0 -0.74727 0.24747 -0.61673 0.0046756
0.27887 0.0087859 1.2399 7.3757e-39 447 278 0 0 0 0.74711 0.25977 -0.61184 0.002262
0.18158 0.010956 1.2393 8.6664e-39 370.5 278.5 0 0 0 -0.74769 0.24181 -0.61846 0.004681
0.18294 0.011675 1.2387 7.9288e-39 247 279 0 0 0 -0.74991 0.23814 -0.61719 0.0046093
0.27887 0.010237 1.2399 6.9147e-39 200 279 0 0 0 0.74638 0.25939 -0.61289 0.0021364
0.18167 0.013138 1.2399 8.482e-39 471 279 0 0 0 -0.74758 0.23503 -0.6212 0.0045243
0.18294 0.013125 1.2387 7.9288e-39 472 279 0 0 0 -0.74844 0.2368 -0.61949 0.0044799
0.27714 0.013125 1.2387 8.1132e-39 173 280 0 0 0 0.73115 0.26945 -0.62675 0.0020154
0.18167 0.014589 1.2399 7.56e-39 222 280 0 0 0 -0.74816 0.23398 -0.62089 0.0043808
0.18294 0.014574 1.2387 7.6522e-39 223 280 0 0 0 -0.74699 0.23527 -0.62181 0.0043889
0.27569 0.014574 1.2387 8.5742e-39 400 280 0 0 0 0.72417 0.2712 -0.63406 0.0021665
0.27742 0.014589 1.2399 8.6664e-39 401 280 0 0 0 0.73413 0.26832 -0.62375 0.0020715
0.18167 0.016764 1.2399 7.6522e-39 320.5 280.5 0 0 0 -0.74595 0.23507 -0.62313 0.0043876
0.18294 0.016748 1.2387 7.4218e-39 321.5 280.5 0 0 0 -0.74489 0.23682 -0.62374 0.0043731
0.2751 0.016756 1.2393 6.7994e-39 202.5 281 0 0 0 0.72123 0.27299 -0.63663 0.0023413
0.18167 0.018941 1.2399 8.2976e-39 419 281 0 0 0 -0.74378 0.23466 -0.62588 0.0044819
0.18313 0.018941 1.2399 8.5742e-39 420 281 0 0 0 -0.74326 0.23678 -0.6257 0.0044315
0.27525 0.018941 1.2399 8.4359e-39 483.5 281 0 0 0 0.72115 0.27414 -0.63624 0.0022274
0.18167 0.020391 1.2399 7.9288e-39 165 282 0 0 0 -0.74313 0.23367 -0.62702 0.0046385
0.18313 0.021116 1.2399 8.2515e-39 286 282 0 0 0 -0.74069 0.23552 -0.62921 0.0047878
0.18439 0.02182 1.2387 8.6664e-39 407 282 0 0 0 -0.73621 0.24216 -0.63194 0.0049296
0.18313 0.023293 1.2399 6.0849e-39 153 283 0 0 0 -0.73857 0.24072 -0.62974 0.0050999
0.18439 0.023269 1.2387 5.9927e-39 154 283 0 0 0 -0.73365 0.24464 -0.63397 0.0050983
0.27307 0.023293 1.2399 6.7303e-39 238 283 0 0 0 0.71522 0.27619 -0.64201 0.002048
0.18313 0.024743 1.2399 8.6664e-39 398 283 0 0 0 -0.73637 0.24542 -0.6305 0.0053264
0.18458 0.024743 1.2399 8.021e-39 399 283 0 0 0 -0.73494 0.24628 -0.63184 0.0052671
0.18458 0.026194 1.2399 6.0849e-39 142 284 0 0 0 -0.73499 0.24657 -0.63166 0.0053195
0.26989 0.027617 1.2387 5.7161e-39 435 284 0 0 0 0.71359 0.26264 -0.64947 0.0034352
0.27134 0.026892 1.2387 6.3615e-39 330.5 284 0 0 0 0.72038 0.2664 -0.64038 0.0026156
0.18584 0.029066 1.2387 8.021e-39 478 284 0 0 0 -0.73033 0.25209 -0.63488 0.0053537
0.2709 0.029095 1.2399 7.8827e-39 170.5 285 0 0 0 0.72455 0.25879 -0.63879 0.0025874
0.18584 0.030515 1.2387 7.0991e-39 227 285 0 0 0 -0.72874 0.25556 -0.63531 0.0053584
0.18666 0.03198 1.2393 7.3296e-39 431.5 285 0 0 0 -0.7267 0.26261 -0.63477 0.0053094
0.18874 0.031964 1.2387 6.5459e-39 433 285 0 0 0 -0.71814 0.26855 -0.642 0.0055715
0.27017 0.030546 1.2399 9.2196e-39 401 285 0 0 0 0.72313 0.25786 -0.64077 0.0028381
0.18748 0.033447 1.2399 7.2835e-39 164 286 0 0 0 -0.72415 0.27128 -0.63404 0.0054437
0.18893 0.033447 1.2399 7.1913e-39 165 286 0 0 0 -0.71898 0.27309 -0.63914 0.0055247
0.19019 0.034863 1.2387 6.1771e-39 276 286 0 0 0 -0.70236 0.29329 -0.6486 0.0052837
0.19101 0.037055 1.2393 8.0441e-39 353.5 286.5 0 0 0 -0.69871 0.30014 -0.6494 0.0053599
0.267 0.037761 1.2387 9.0352e-39 392 287 0 0 0 0.7187 0.25969 -0.645 0.0041814
0.26871 0.037074 1.2399 8.5742e-39 281.5 287 0 0 0 0.72625 0.25491 -0.63842 0.0035258
0.19183 0.03925 1.2399 8.5742e-39 418 287 0 0 0 -0.69166 0.31067 -0.65199 0.0055542
0.19309 0.03921 1.2387 8.3898e-39 419 287 0 0 0 -0.68404 0.32367 -0.6537 0.0049719
0.267 0.03921 1.2387 8.2976e-39 482 287 0 0 0 0.72329 0.2567 -0.64106 0.0040784
0.19183 0.0407 1.2399 8.2054e-39 501 287 0 0 0 -0.6896 0.32067 -0.64932 0.0055799
0.19328 0.0407 1.2399 8.021e-39 502 287 0 0 0 -0.68403 0.32757 -0.65177 0.005305
0.26555 0.04066 1.2387 6.8225e-39 218 288 0 0 0 0.72604 0.25183 -0.63988 0.0044682
0.26726 0.0407 1.2399 7.4678e-39 219 288 0 0 0 0.72881 0.24599 -0.63901 0.0040435
0.26555 0.042109 1.2387 7.2835e-39 267 288 0 0 0 0.72738 0.25453 -0.63728 0.0046294
0.26726 0.042151 1.2399 7.3757e-39 268 288 0 0 0 0.73191 0.24428 -0.63611 0.0041495
0.19711 -0.10447 1.2412 5.7161e-39 411.5 233.5 0 0 0 0.076415 0.51807 -0.85192 0.16534
0.19928 -0.10447 1.2412 5.4395e-39 410 234 0 0 0 0.018207 0.54203 -0.84016 0.16125
0.20074 -0.10447 1.2412 5.2552e-39 411 234 0 0 0 0.093038 0.60763 -0.78876 0.16078
0.19638 -0.10302 1.2412 6.1771e-39 408 235 0 0 0 0.024938 0.32774 -0.94444 0.1988
0.19928 -0.10302 1.2412 5.4395e-39 410 235 0 0 0 0.10878 0.41807 -0.90188 0.19835
0.20219 -0.10302 1.2412 4.8864e-39 412 235 0 0 0 0.024107 0.46476 -0.88511 0.1913
0.19493 -0.10011 1.2412 1.0049e-38 417 236 0 0 0 -0.08607 -0.08542 -0.99262 0.19768
0.19638 -0.10084 1.2412 9.2196e-39 412 236 0 0 0 -0.044068 0.046105 -0.99796 0.20175
0.19928 -0.10157 1.2412 6.1771e-39 408 236 0 0 0 0.022443 0.20127 -0.97928 0.21108
0.23123 -0.087045 1.2412 5.5317e-39 158 241 0 0 0 -0.041558 -0.90417 -0.42515 0.010528
0.23268 -0.087045 1.2412 5.8083e-39 159 241 0 0 0 -0.032169 -0.90007 -0.43456 0.010171
0.25084 -0.087045 1.2412 7.8366e-39 172.5 241 0 0 0 -0.032128 -0.89217 -0.45055 0.0088154
0.25301 -0.087045 1.2412 8.2054e-39 174 241 0 0 0 -0.021635 -0.89793 -0.43961 0.0087659
0.25446 -0.087045 1.2412 8.2976e-39 175 241 0 0 0 -0.0098957 -0.90114 -0.43342 0.0088625
0.25737 -0.087045 1.2412 7.8366e-39 201 241 0 0 0 -0.0014389 -0.90411 -0.42729 0.01098
0.14846 -0.084867 1.2412 7.7905e-39 216.5 241.5 0 0 0 -0.52432 0.019105 -0.85131 0.061304
0.16734 -0.084867 1.2412 6.6381e-39 227 241.5 0 0 0 -0.22834 -0.76334 -0.6043 0.057009
0.16879 -0.085593 1.2412 6.6381e-39 241 241 0 0 0 -0.20001 -0.78872 -0.5813 0.049115
0.17605 -0.085593 1.2412 8.943e-39 246 241 0 0 0 -0.083178 -0.79279 -0.60379 0.019038
0.18041 -0.084141 1.2412 6.6381e-39 225 242 0 0 0 -0.054826 -0.78396 -0.61838 0.01398
0.18767 -0.084141 1.2412 6.9147e-39 230 242 0 0 0 -0.037274 -0.73117 -0.68118 0.046966
0.21526 -0.084141 1.2412 8.5742e-39 249 242 0 0 0 -0.12744 -0.92685 -0.35313 0.015764
0.21961 -0.085593 1.2412 5.7161e-39 416 241 0 0 0 -0.12043 -0.93671 -0.32873 0.007146
0.23704 -0.085593 1.2412 7.7444e-39 426 241 0 0 0 -0.014018 -0.87728 -0.47977 0.0097667
0.24139 -0.085593 1.2412 7.6522e-39 429 241 0 0 0 -0.033863 -0.87616 -0.48082 0.0083612
0.26027 -0.085593 1.2412 5.8083e-39 157 242 0 0 0 0.017091 -0.90548 -0.42405 0.013796
0.27044 -0.085593 1.2412 5.6239e-39 164 242 0 0 0 0.044512 -0.90354 -0.4262 0.029943
0.15862 -0.082689 1.2412 5.8083e-39 159 243 0 0 0 -0.4904 -0.38073 -0.78393 0.079344
0.16081 -0.082689 1.2412 6.0849e-39 160.5 243 0 0 0 -0.42235 -0.50632 -0.75183 0.080297
0.16879 -0.082689 1.2412 5.8083e-39 166 243 0 0 0 -0.2472 -0.76123 -0.59952 0.052959
0.1775 -0.082689 1.2412 6.0849e-39 172 243 0 0 0 -0.078461 -0.79972 -0.59522 0.017622
0.17895 -0.082689 1.2412 6.6381e-39 173 243 0 0 0 -0.074508 -0.80112 -0.59385 0.012646
0.19928 -0.082689 1.2412 6.5459e-39 209 243 0 0 0 0.05043 -0.75855 -0.64966 0.069269
0.15862 -0.081237 1.2412 4.9786e-39 429 243 0 0 0 -0.52462 -0.36015 -0.7714 0.074877
0.16153 -0.081237 1.2412 7.1913e-39 431 243 0 0 0 -0.44794 -0.49053 -0.74748 0.077157
0.16734 -0.081237 1.2412 1.0326e-38 435 243 0 0 0 -0.28678 -0.71236 -0.64055 0.061428
0.30093 -0.081237 1.2412 8.943e-39 251 244 0 0 0 0.5774 -0.026343 -0.81604 0.01987
0.15862 -0.079058 1.2412 7.8827e-39 253 244.5 0 0 0 -0.56317 -0.32262 -0.76076 0.071406
0.16153 -0.079058 1.2412 7.7444e-39 323 244.5 0 0 0 -0.48883 -0.44059 -0.75295 0.076225
0.16734 -0.079785 1.2412 8.2054e-39 410 244 0 0 0 -0.31436 -0.68135 -0.66102 0.064622
0.15862 -0.07688 1.2412 7.1913e-39 214 246 0 0 0 -0.59961 -0.27192 -0.75268 0.065671
0.16153 -0.07688 1.2412 6.5459e-39 216 246 0 0 0 -0.5396 -0.36344 -0.75944 0.072339
0.15862 -0.075428 1.2412 6.1771e-39 160 247 0 0 0 -0.61951 -0.24113 -0.74704 0.055145
0.15717 -0.071072 1.2412 7.0991e-39 178 249 0 0 0 -0.68155 -0.14861 -0.71652 0.040933
0.30674 -0.071072 1.2412 5.8083e-39 442 249 0 0 0 0.55366 0.042623 -0.83165 0.014221
0.30891 -0.071072 1.2412 5.0707e-39 443.5 249 0 0 0 0.52909 0.056167 -0.84671 0.013121
0.15572 -0.068168 1.2412 8.2976e-39 266 250 0 0 0 -0.72374 -0.079475 -0.68548 0.029577
0.30529 -0.068894 1.2412 7.6061e-39 216 250.5 0 0 0 0.59621 0.047098 -0.80145 0.015008
0.30674 -0.068894 1.2412 7.6061e-39 217 250.5 0 0 0 0.5657 0.056882 -0.82265 0.014352
0.30867 -0.069136 1.2412 7.8366e-39 231 250.33 0 0 0 0.52766 0.072041 -0.8464 0.012678
0.15572 -0.066715 1.2412 8.2054e-39 196 251 0 0 0 -0.73605 -0.061522 -0.67412 0.027955
0.30384 -0.066715 1.2412 7.8366e-39 436 251 0 0 0 0.62142 0.050167 -0.78187 0.014154
0.30529 -0.066715 1.2412 7.8366e-39 437 251 0 0 0 0.60196 0.054046 -0.7967 0.014703
0.30819 -0.066715 1.2412 8.482e-39 439 251 0 0 0 0.56616 0.074167 -0.82095 0.013911
0.15572 -0.065263 1.2412 5.163e-39 448 251 0 0 0 -0.74516 -0.039233 -0.66573 0.02454
0.30384 -0.065263 1.2412 6.3615e-39 243 252 0 0 0 0.62559 0.057865 -0.778 0.013988
0.30529 -0.065263 1.2412 6.7303e-39 244 252 0 0 0 0.60797 0.065485 -0.79125 0.014127
0.30819 -0.065263 1.2412 7.3757e-39 246 252 0 0 0 0.57034 0.089753 -0.81649 0.014015
0.15572 -0.063085 1.2412 7.4218e-39 212 252.5 0 0 0 -0.76554 -0.00095644 -0.64338 0.019635
0.30384 -0.063085 1.2412 8.5281e-39 466 252.5 0 0 0 0.62886 0.08075 -0.77332 0.012978
0.30529 -0.063811 1.2412 6.1771e-39 155 253 0 0 0 0.61829 0.079363 -0.78193 0.013908
0.15572 -0.060907 1.2412 8.482e-39 428 253 0 0 0 -0.77636 0.037852 -0.62915 0.016657
0.30384 -0.060907 1.2412 6.8225e-39 189 254 0 0 0 0.63063 0.11026 -0.76821 0.011733
0.15717 -0.058003 1.2412 4.702e-39 454 254 0 0 0 -0.78265 0.080372 -0.61725 0.012688
0.30238 -0.058729 1.2412 8.5742e-39 323.5 254.5 0 0 0 0.63968 0.13338 -0.75698 0.010616
0.15717 -0.056551 1.2412 6.8225e-39 234 255 0 0 0 -0.77832 0.10156 -0.61959 0.011876
0.15717 -0.055099 1.2412 4.3332e-39 477 255 0 0 0 -0.77203 0.12937 -0.62228 0.01071
0.15717 -0.053646 1.2412 7.0991e-39 251 256 0 0 0 -0.76833 0.14306 -0.62386 0.010199
0.15862 -0.052194 1.2412 8.021e-39 494 256 0 0 0 -0.75817 0.17464 -0.62823 0.0084324
0.15862 -0.050742 1.2412 8.5742e-39 268 257 0 0 0 -0.75164 0.19588 -0.62982 0.0075352
0.30093 -0.050742 1.2412 7.8366e-39 496 257 0 0 0 0.64743 0.1981 -0.73592 0.0060955
0.30093 -0.04929 1.2412 9.2196e-39 270 258 0 0 0 0.64934 0.20568 -0.73216 0.006028
0.16008 -0.047112 1.2412 7.4218e-39 291 258.5 0 0 0 -0.73413 0.23495 -0.63707 0.0065596
0.16008 -0.044934 1.2412 8.7586e-39 428 259 0 0 0 -0.72546 0.24911 -0.64161 0.0060764
0.29948 -0.044934 1.2412 6.7303e-39 168 260 0 0 0 0.64491 0.23772 -0.72634 0.0045181
0.29875 -0.042755 1.2412 7.9288e-39 305 260.5 0 0 0 0.64514 0.24669 -0.72314 0.003945
0.29803 -0.040577 1.2412 8.7586e-39 440 261 0 0 0 0.64369 0.24909 -0.72361 0.0035939
0.16153 -0.036947 1.2412 8.1593e-39 355 262 0 0 0 -0.70867 0.25639 -0.6573 0.0045264
0.29657 -0.036221 1.2412 7.6522e-39 212 263 0 0 0 0.64557 0.25024 -0.72154 0.0030742
0.16153 -0.034769 1.2412 7.9288e-39 249 263 0 0 0 -0.70814 0.25495 -0.65844 0.0043874
0.16298 -0.034769 1.2412 7.1913e-39 250 263 0 0 0 -0.70946 0.25659 -0.65637 0.0043183
0.16298 -0.033317 1.2412 7.9288e-39 488 263 0 0 0 -0.70979 0.25447 -0.65684 0.0042666
0.16443 -0.033317 1.2412 8.2054e-39 489 263 0 0 0 -0.71296 0.25194 -0.65438 0.0039632
0.1654 -0.031381 1.2412 7.6522e-39 347.33 264 0 0 0 -0.71744 0.24813 -0.65093 0.0032672
0.29319 -0.030897 1.2412 8.482e-39 322.67 264.67 0 0 0 0.6663 0.23592 -0.70738 0.0023963
0.29512 -0.031865 1.2412 7.56e-39 478 264 0 0 0 0.65984 0.24141 -0.71157 0.0024029
0.16734 -0.02896 1.2412 9.2196e-39 366 265 0 0 0 -0.7234 0.24325 -0.64615 0.0026414
0.29222 -0.02896 1.2412 7.6522e-39 485 265 0 0 0 0.67019 0.23114 -0.70528 0.0022711
0.16734 -0.026782 1.2412 7.053e-39 268 266 0 0 0 -0.72551 0.24382 -0.64357 0.0025402
0.29222 -0.027508 1.2412 7.9288e-39 253 266 0 0 0 0.67322 0.22681 -0.7038 0.0022578
0.16734 -0.024604 1.2412 6.4537e-39 172 267 0 0 0 -0.72894 0.24011 -0.64108 0.002586
0.16879 -0.020974 1.2412 6.9607e-39 299.5 268 0 0 0 -0.73223 0.24083 -0.63705 0.0031728
0.29077 -0.020248 1.2412 6.3615e-39 158 269 0 0 0 0.6876 0.22764 -0.68948 0.0025691
0.16879 -0.018796 1.2412 5.8083e-39 189 269 0 0 0 -0.73558 0.24193 -0.63276 0.003262
0.17024 -0.018796 1.2412 5.9005e-39 190 269 0 0 0 -0.73362 0.24201 -0.635 0.0033456
0.29077 -0.018796 1.2412 8.8508e-39 368 269 0 0 0 0.69129 0.23035 -0.68488 0.0025946
0.16879 -0.017343 1.2412 7.6522e-39 427 269 0 0 0 -0.73506 0.24689 -0.63145 0.0034733
0.17024 -0.017343 1.2412 7.9288e-39 428 269 0 0 0 -0.7346 0.24629 -0.63223 0.003547
0.17024 -0.015165 1.2412 6.8224e-39 325.5 270 0 0 0 -0.73637 0.25127 -0.62819 0.0037281
0.28931 -0.014439 1.2412 6.3615e-39 179 271 0 0 0 0.70558 0.24206 -0.66601 0.0028947
0.17024 -0.012987 1.2412 6.4537e-39 214 271 0 0 0 -0.73597 0.25744 -0.62616 0.0037572
0.28931 -0.012987 1.2412 7.8366e-39 412 271 0 0 0 0.70943 0.25315 -0.65775 0.0031679
0.17169 -0.010083 1.2412 6.7303e-39 213 272 0 0 0 -0.73742 0.26718 -0.62034 0.003943
0.28786 -0.010809 1.2412 6.5459e-39 294 272 0 0 0 0.71773 0.25912 -0.64632 0.0030942
0.28931 -0.011535 1.2412 5.8083e-39 180 272 0 0 0 0.71093 0.25651 -0.65482 0.0029404
0.17169 -0.0086307 1.2412 8.2054e-39 443 272 0 0 0 -0.73653 0.27555 -0.61773 0.003812
0.28641 -0.0086307 1.2412 6.3615e-39 172 273 0 0 0 0.72498 0.26793 -0.63452 0.0027037
0.17314 -0.0071786 1.2412 5.9927e-39 210 273 0 0 0 -0.73645 0.27744 -0.61699 0.0039092
0.28641 -0.0071786 1.2412 8.5742e-39 403 273 0 0 0 0.72979 0.2706 -0.62784 0.0026289
0.1746 -0.0057265 1.2412 8.5742e-39 440 273 0 0 0 -0.73664 0.28166 -0.61485 0.0040335
0.28496 -0.0042744 1.2412 8.3898e-39 368 274 0 0 0 0.73906 0.27049 -0.61695 0.0028846
0.17605 -0.0028222 1.2412 7.6522e-39 436 274 0 0 0 -0.73973 0.27723 -0.61314 0.0042953
0.17605 -0.0013701 1.2412 5.8083e-39 196 275 0 0 0 -0.74061 0.27798 -0.61174 0.0043574
0.28351 -0.0013701 1.2412 7.7444e-39 270 275 0 0 0 0.74325 0.27274 -0.6109 0.003086
0.28351 8.2005e-05 1.2412 5.9005e-39 141 276 0 0 0 0.74602 0.27603 -0.60602 0.0029722
0.1775 0.0029862 1.2412 8.6664e-39 411 276 0 0 0 -0.74306 0.26561 -0.61426 0.0048356
0.17895 0.0058905 1.2412 8.7586e-39 398 277 0 0 0 -0.74739 0.25595 -0.6131 0.0047514
0.2806 0.0058905 1.2412 7.8366e-39 468 277 0 0 0 0.75448 0.26346 -0.60112 0.0025317
0.28205 0.0051645 1.2412 8.482e-39 354 277 0 0 0 0.75551 0.2685 -0.59759 0.0025196
0.17895 0.0073426 1.2412 6.4537e-39 149 278 0 0 0 -0.7496 0.249 -0.61328 0.0049277
0.18041 0.0073426 1.2412 6.4537e-39 150 278 0 0 0 -0.74938 0.24898 -0.61355 0.0046643
0.18041 0.0087947 1.2412 7.3757e-39 264 278 0 0 0 -0.74879 0.24548 -0.61567 0.0047481
0.18041 0.010247 1.2412 9.4961e-39 494 278 0 0 0 -0.74842 0.24061 -0.61804 0.0046305
0.27915 0.011699 1.2412 7.9288e-39 427 279 0 0 0 0.75241 0.25867 -0.60578 0.002414
0.2777 0.016781 1.2412 6.6381e-39 204 281 0 0 0 0.73698 0.26756 -0.6207 0.0022843
0.18186 0.021864 1.2412 8.2054e-39 405 282 0 0 0 -0.74152 0.23337 -0.62903 0.0049426
0.27479 0.020412 1.2412 7.0991e-39 245 282 0 0 0 0.72238 0.2729 -0.63537 0.0020969
0.27625 0.020412 1.2412 7.56e-39 246 282 0 0 0 0.72663 0.27115 -0.63126 0.0021823
0.18186 0.023316 1.2412 6.3615e-39 152 283 0 0 0 -0.73871 0.23995 -0.62987 0.0053043
0.18186 0.024768 1.2412 8.943e-39 397 283 0 0 0 -0.73556 0.243 -0.63237 0.005549
0.27334 0.024768 1.2412 8.3898e-39 460 283 0 0 0 0.71532 0.27482 -0.64249 0.0020487
0.18331 0.026946 1.2412 7.2374e-39 200 284 0 0 0 -0.7338 0.24529 -0.63354 0.0056309
0.18476 0.027672 1.2412 8.5742e-39 260 284 0 0 0 -0.73405 0.24709 -0.63254 0.0054072
0.18331 0.029124 1.2412 8.021e-39 476 284 0 0 0 -0.73269 0.24939 -0.63322 0.0055986
0.18476 0.029124 1.2412 7.9288e-39 477 284 0 0 0 -0.73284 0.24946 -0.63302 0.0056176
0.18331 0.030577 1.2412 7.56e-39 225 285 0 0 0 -0.7318 0.25056 -0.63378 0.0057265
0.18476 0.030577 1.2412 7.2835e-39 226 285 0 0 0 -0.73128 0.25232 -0.6337 0.0056495
0.27189 0.030577 1.2412 9.3118e-39 402 285 0 0 0 0.72386 0.2602 -0.63901 0.0026518
0.18621 0.033481 1.2412 7.2835e-39 163 286 0 0 0 -0.72649 0.26432 -0.63431 0.005541
0.27092 0.032513 1.2412 7.5908e-39 416.33 285.33 0 0 0 0.72708 0.25682 -0.63671 0.0029033
0.18694 0.034933 1.2412 6.4076e-39 273.5 286 0 0 0 -0.72476 0.26965 -0.63405 0.0056969
0.18912 0.034933 1.2412 6.2693e-39 275 286 0 0 0 -0.7219 0.27615 -0.63451 0.0058193
0.27044 0.034933 1.2412 7.4678e-39 445 286 0 0 0 0.72746 0.25784 -0.63586 0.0032325
0.18767 0.036385 1.2412 8.8508e-39 479 286 0 0 0 -0.72101 0.27688 -0.63521 0.0060973
0.18912 0.036385 1.2412 9.1274e-39 480 286 0 0 0 -0.71754 0.28056 -0.63751 0.0058346
0.19057 0.039289 1.2412 9.2196e-39 417 287 0 0 0 -0.70221 0.30126 -0.6451 0.0063565
0.26898 0.039289 1.2412 8.1132e-39 483 287 0 0 0 0.73257 0.24819 -0.63383 0.0037303
0.19057 0.040741 1.2412 8.1132e-39 500 287 0 0 0 -0.69565 0.31457 -0.64585 0.0064331
0.19367 -0.10312 1.2424 5.9005e-39 414 234 0 0 0 0.016663 0.27616 -0.96097 0.18025
0.19803 -0.10312 1.2424 5.9005e-39 409 235 0 0 0 0.1777 0.4384 -0.88104 0.19802
0.20094 -0.10312 1.2424 5.2552e-39 411 235 0 0 0 0.13542 0.47179 -0.87125 0.19381
0.19367 -0.10094 1.2424 7.6522e-39 410 236 0 0 0 -0.15666 -0.12049 -0.98028 0.19007
0.19851 -0.1007 1.2424 7.4986e-39 396.33 236.33 0 0 0 0.13348 0.15533 -0.9788 0.21573
0.20104 -0.10099 1.2431 7.053e-39 337 236.5 0 0 0 0.10955 0.18626 -0.97637 0.21583
0.20322 -0.10172 1.2431 5.4856e-39 410.5 236 0 0 0 -0.067077 0.35375 -0.93293 0.20268
0.2053 -0.10167 1.2424 4.8864e-39 412 236 0 0 0 -0.17568 0.39618 -0.90121 0.18041
0.19386 -0.098861 1.2437 4.8864e-39 412 237 0 0 0 0.012465 -0.10497 -0.9944 0.19631
0.19512 -0.098761 1.2424 4.3332e-39 413 237 0 0 0 -0.029232 -0.14234 -0.98939 0.19896
0.19658 -0.098761 1.2424 4.4254e-39 414 237 0 0 0 -0.0075985 -0.18232 -0.98321 0.211
0.25352 -0.093041 1.2437 7.1913e-39 234 239 0 0 0 -0.0031042 -0.90741 -0.42023 0.011005
0.25061 -0.088676 1.2437 8.7586e-39 260 240 0 0 0 -0.018578 -0.90088 -0.43367 0.0093841
0.2528 -0.088676 1.2437 8.9891e-39 261.5 240 0 0 0 -0.0054781 -0.90405 -0.4274 0.01058
0.27362 -0.088586 1.2424 7.1913e-39 407 240 0 0 0 0.025798 -0.91408 -0.40472 0.035084
0.15749 -0.08722 1.2437 6.8225e-39 411 240 0 0 0 -0.41451 -0.24253 -0.87713 0.091186
0.17495 -0.08722 1.2437 4.6098e-39 416 240 0 0 0 -0.08405 -0.7873 -0.61081 0.020752
0.1764 -0.08722 1.2437 4.3332e-39 417 240 0 0 0 -0.071093 -0.75848 -0.64781 0.019062
0.23461 -0.08722 1.2437 6.0849e-39 160 241 0 0 0 -0.040651 -0.89924 -0.43555 0.010274
0.23679 -0.08722 1.2437 5.9927e-39 161.5 241 0 0 0 -0.03459 -0.89032 -0.45402 0.0099059
0.24103 -0.087177 1.2431 5.67e-39 164.5 241 0 0 0 -0.039598 -0.88167 -0.4702 0.0081917
0.24334 -0.08722 1.2437 5.7161e-39 166 241 0 0 0 -0.043507 -0.88042 -0.4722 0.0084513
0.24527 -0.087133 1.2424 6.4537e-39 167.5 241 0 0 0 -0.045372 -0.88109 -0.47076 0.0082283
0.2477 -0.08722 1.2437 6.9147e-39 170 241 0 0 0 -0.022049 -0.89659 -0.44231 0.0096345
0.24891 -0.087133 1.2424 7.2835e-39 171 241 0 0 0 -0.026492 -0.89444 -0.4464 0.0089587
0.25617 -0.087133 1.2424 7.9288e-39 176 241 0 0 0 0.0042178 -0.90419 -0.4271 0.0092113
0.27303 -0.087177 1.2431 6.4076e-39 209.5 241 0 0 0 0.020596 -0.91203 -0.4096 0.034996
0.14722 -0.084995 1.2431 7.4679e-39 215.5 241.5 0 0 0 -0.55123 0.06493 -0.83182 0.052027
0.15006 -0.084226 1.2424 8.2054e-39 204 242 0 0 0 -0.53819 -0.055362 -0.841 0.064485
0.15749 -0.085037 1.2437 6.8225e-39 220 241.5 0 0 0 -0.4568 -0.26712 -0.84852 0.08724
0.17477 -0.085679 1.2424 9.0352e-39 245 241 0 0 0 -0.10022 -0.80026 -0.59122 0.021624
0.17768 -0.084226 1.2424 5.9927e-39 223 242 0 0 0 -0.067275 -0.78861 -0.6112 0.015887
0.17922 -0.084995 1.2431 7.4218e-39 236 241.5 0 0 0 -0.05743 -0.7643 -0.6423 0.019754
0.18277 -0.084226 1.2424 6.5459e-39 226.5 242 0 0 0 -0.051695 -0.74554 -0.66445 0.031258
0.18495 -0.084226 1.2424 6.4537e-39 228 242 0 0 0 -0.04821 -0.73805 -0.67302 0.040133
0.18659 -0.08431 1.2437 6.6381e-39 229 242 0 0 0 -0.028571 -0.7267 -0.68636 0.049758
0.18931 -0.085679 1.2424 8.8508e-39 255 241 0 0 0 -0.016323 -0.70921 -0.70481 0.0716
0.19076 -0.085679 1.2424 8.8508e-39 256 241 0 0 0 -0.026772 -0.69948 -0.71415 0.081948
0.19295 -0.085679 1.2424 8.5742e-39 262.5 241 0 0 0 -0.029728 -0.68811 -0.725 0.090633
0.19532 -0.08431 1.2437 6.5459e-39 235 242 0 0 0 0.039523 -0.70056 -0.7125 0.087681
0.19677 -0.08431 1.2437 6.8225e-39 236 242 0 0 0 0.039501 -0.69399 -0.7189 0.093043
0.19885 -0.084268 1.2431 6.4076e-39 237.5 242 0 0 0 0.054797 -0.70367 -0.70841 0.10116
0.23873 -0.085679 1.2424 7.2835e-39 427 241 0 0 0 -0.017482 -0.87788 -0.47856 0.0090105
0.26199 -0.085679 1.2424 5.7161e-39 158 242 0 0 0 0.034092 -0.9077 -0.41824 0.015686
0.26489 -0.085679 1.2424 6.0849e-39 160 242 0 0 0 0.049447 -0.90512 -0.42226 0.021301
