# .PCD v.7 - Point Cloud Data file format
VERSION .7
FIELDS x y z rgb u v vx vy vz normal_x normal_y normal_z curvature
SIZE 4 4 4 4 4 4 4 4 4 4 4 4 4
TYPE F F F F F F F F F F F F F
COUNT 1 1 1 1 1 1 1 1 1 1 1 1 1
WIDTH 549
HEIGHT 1
VIEWPOINT 0 0 0 1 0 0 0
POINTS 549
DATA ascii
0.0049337 0.030931 0.99554 6.3154e-39 300 270.5 0 0 0 -0.13697 0.43726 -0.88885 0.0072751
0.0084178 0.030894 0.99434 6.1771e-39 304 270.5 0 0 0 -0.072448 0.43942 -0.89536 0.0085258
0.017724 0.030894 0.99434 6.6381e-39 308 270.5 0 0 0 0.15554 0.43938 -0.88473 0.012397
0.018888 0.030894 0.99434 6.8686e-39 309 270.5 0 0 0 0.17731 0.43779 -0.88142 0.011946
0.021232 0.030919 0.99514 6.8686e-39 324.5 270.5 0 0 0 0.2475 0.42783 -0.86931 0.010682
0.022978 0.030919 0.99514 6.8456e-39 326 270.5 0 0 0 0.28389 0.42579 -0.85913 0.010641
0.0066779 0.033248 0.99514 6.8224e-39 348 271.5 0 0 0 -0.102 0.43658 -0.89387 0.0083025
0.0088149 0.033451 0.99541 6.2078e-39 317.33 271.67 0 0 0 -0.064716 0.43999 -0.89567 0.0090502
0.013071 0.033802 0.99434 5.9927e-39 254 272 0 0 0 0.033728 0.44311 -0.89583 0.01019
0.014822 0.033234 0.99474 6.7995e-39 353 271.5 0 0 0 0.083538 0.44611 -0.89107 0.011616
0.017346 0.033432 0.99487 6.423e-39 322.67 271.67 0 0 0 0.14538 0.44448 -0.88391 0.011706
0.018911 0.033261 0.99554 6.3615e-39 356.5 271.5 0 0 0 0.18104 0.44344 -0.87783 0.011272
0.02065 0.033248 0.99514 6.8455e-39 358 271.5 0 0 0 0.23496 0.4402 -0.86661 0.010005
0.022997 0.032692 0.99594 7.0991e-39 458.5 271 0 0 0 0.28714 0.43261 -0.85463 0.010197
0.0072661 0.035022 0.99594 6.1771e-39 481 272 0 0 0 -0.091998 0.43272 -0.89682 0.0087502
0.013092 0.035022 0.99594 4.6098e-39 486 272 0 0 0 0.040392 0.44634 -0.89395 0.010587
0.016588 0.035022 0.99594 4.8864e-39 489 272 0 0 0 0.11974 0.4486 -0.88568 0.011936
0.035288 0.011737 0.99755 7.56e-39 196 261 0 0 0 0.57423 0.32537 -0.75126 0.010628
-0.019565 0.012904 0.99755 8.7586e-39 265 261 0 0 0 -0.57281 0.26602 -0.77532 0.0068064
-0.018398 0.014071 0.99755 5.5317e-39 152 262 0 0 0 -0.55447 0.26976 -0.78727 0.0084814
-0.017217 0.015226 0.99675 7.0069e-39 270 262 0 0 0 -0.52147 0.27721 -0.80699 0.011394
0.034093 0.01406 0.99675 7.6522e-39 198 262 0 0 0 0.55974 0.32514 -0.76222 0.010196
0.032927 0.016975 0.99675 6.5459e-39 344.5 263 0 0 0 0.54099 0.33213 -0.77267 0.010278
-0.016057 0.019315 0.99715 7.0069e-39 343 264 0 0 0 -0.49005 0.32184 -0.81011 0.011684
0.032927 0.01989 0.99675 6.8225e-39 185 265 0 0 0 0.53381 0.33812 -0.77506 0.010145
0.034121 0.019906 0.99755 7.1913e-39 186 265 0 0 0 0.5483 0.33819 -0.76485 0.00853
-0.016064 0.021074 0.99755 6.9147e-39 274 265 0 0 0 -0.48479 0.33162 -0.80933 0.011578
-0.014885 0.021057 0.99675 7.56e-39 275 265 0 0 0 -0.46351 0.33366 -0.82087 0.011952
0.032927 0.021057 0.99675 6.9147e-39 441 265 0 0 0 0.52982 0.34041 -0.77679 0.0096363
-0.014897 0.022241 0.99755 7.3757e-39 188 266 0 0 0 -0.46367 0.33744 -0.81923 0.011413
-0.01373 0.023408 0.99755 7.4678e-39 449 266 0 0 0 -0.44236 0.35207 -0.82484 0.011167
0.031178 0.023389 0.99675 3.7339e-39 562.5 266 0 0 0 0.50569 0.35139 -0.78791 0.011193
0.032954 0.022241 0.99755 7.0069e-39 257 266 0 0 0 0.53221 0.34723 -0.77213 0.0090532
-0.013147 0.024575 0.99755 8.8507e-39 261.5 267 0 0 0 -0.42663 0.35985 -0.82976 0.011119
-0.011386 0.024555 0.99675 1.0879e-38 263 267 0 0 0 -0.39514 0.3667 -0.84225 0.010641
0.029429 0.025138 0.99675 7.0068e-39 321 267.5 0 0 0 0.47335 0.3643 -0.80201 0.012549
0.03062 0.025159 0.99755 6.9608e-39 322 267.5 0 0 0 0.49972 0.36393 -0.78603 0.010647
-0.01022 0.026887 0.99675 6.7303e-39 426 268 0 0 0 -0.36858 0.37894 -0.84885 0.0096691
-0.0090541 0.026887 0.99675 6.7303e-39 427 268 0 0 0 -0.35335 0.38533 -0.85245 0.0093744
-0.0078943 0.026909 0.99755 6.8225e-39 428 268 0 0 0 -0.33576 0.39031 -0.85728 0.0089604
-0.010229 0.028076 0.99755 6.9147e-39 233 269 0 0 0 -0.36749 0.3812 -0.84831 0.0093894
-0.0067272 0.029243 0.99755 7.3757e-39 472 269 0 0 0 -0.3133 0.39781 -0.86232 0.0079675
-0.0049748 0.029231 0.99715 7.053e-39 473.5 269 0 0 0 -0.28973 0.40441 -0.86747 0.007605
-0.0032234 0.02922 0.99675 6.9147e-39 475 269 0 0 0 -0.26243 0.41468 -0.87131 0.0074395
0.024764 0.02922 0.99675 5.9927e-39 564 269 0 0 0 0.35296 0.41121 -0.84043 0.012342
0.028275 0.028648 0.99715 7.6983e-39 418 269 0 0 0 0.44011 0.38441 -0.8115 0.011077
-0.0020589 0.03041 0.99755 6.2693e-39 404 270 0 0 0 -0.23865 0.41719 -0.87692 0.0068537
-0.00089177 0.031577 0.99755 6.0849e-39 185 271 0 0 0 -0.21506 0.42136 -0.88103 0.0065272
0.00085851 0.030981 0.99715 5.6931e-39 296.5 270.5 0 0 0 -0.19291 0.42566 -0.88408 0.0066366
0.025562 0.030799 0.99755 6.9147e-39 360.67 270.33 0 0 0 0.37253 0.41147 -0.83182 0.010881
0.027118 0.030993 0.99755 7.0991e-39 329.5 270.5 0 0 0 0.40447 0.40604 -0.81947 0.010072
0.0031917 0.033315 0.99715 6.6842e-39 345 271.5 0 0 0 -0.15576 0.42913 -0.88971 0.007341
0.0049417 0.033315 0.99715 6.9607e-39 346.5 271.5 0 0 0 -0.1314 0.43348 -0.89153 0.0076088
0.023015 0.033884 0.99675 6.4076e-39 262.5 272 0 0 0 0.28958 0.4355 -0.85234 0.010335
0.0061058 0.03505 0.99675 6.4537e-39 480 272 0 0 0 -0.10463 0.42933 -0.89707 0.0085369
0.0090212 0.03505 0.99675 6.0388e-39 482.5 272 0 0 0 -0.059289 0.43493 -0.89851 0.0094787
0.011358 0.035064 0.99715 5.5317e-39 484.5 272 0 0 0 0.00065416 0.44029 -0.89786 0.010324
0.014852 0.03505 0.99675 4.1949e-39 487.5 272 0 0 0 0.086629 0.44644 -0.89061 0.011527
0.017767 0.03505 0.99675 4.9786e-39 490 272 0 0 0 0.15975 0.44407 -0.88164 0.011958
0.018933 0.03505 0.99675 4.6098e-39 491 272 0 0 0 0.18868 0.4451 -0.87538 0.011824
0.020683 0.03505 0.99675 5.624e-39 492.5 272 0 0 0 0.23279 0.44461 -0.86495 0.011012
0.023033 0.035079 0.99755 6.0388e-39 494.5 272 0 0 0 0.28965 0.44046 -0.84976 0.010989
0.0072779 0.036246 0.99755 6.2693e-39 411 273 0 0 0 -0.083641 0.43272 -0.89764 0.0093989
0.009612 0.036246 0.99755 6.2693e-39 413 273 0 0 0 -0.042262 0.44125 -0.89639 0.009977
0.013108 0.036814 0.99715 6.4076e-39 302.5 273.5 0 0 0 0.049298 0.44491 -0.89422 0.011153
0.014864 0.036246 0.99755 6.6381e-39 417.5 273 0 0 0 0.094387 0.44669 -0.8897 0.011947
0.016999 0.036625 0.99728 5.9005e-39 343.67 273.33 0 0 0 0.14503 0.44596 -0.88323 0.012283
0.020116 0.036246 0.99755 6.1771e-39 425 273 0 0 0 0.22187 0.44331 -0.86848 0.012117
0.043493 0.0059061 0.99836 6.2693e-39 154 258 0 0 0 0.60627 0.3499 -0.71415 0.017309
0.044697 0.0059109 0.99917 6.1771e-39 155 258 0 0 0 0.60622 0.35139 -0.71346 0.019145
0.043528 0.0070799 0.99917 6.3615e-39 433 258 0 0 0 0.61417 0.34201 -0.71122 0.01578
0.044733 0.0070856 0.99998 6.4537e-39 434 258 0 0 0 0.61608 0.34524 -0.70799 0.018072
0.040589 0.009414 0.99876 5.9005e-39 149.5 260 0 0 0 0.60671 0.33282 -0.7219 0.010686
0.04297 0.0088389 0.99978 6.131e-39 199.5 259.5 0 0 0 0.62143 0.33575 -0.70788 0.013653
0.044733 0.0082556 0.99998 6.5459e-39 249 259 0 0 0 0.62148 0.34286 -0.70442 0.016242
-0.021953 0.011765 0.99998 4.6098e-39 468 260 0 0 0 -0.60951 0.25115 -0.75194 0.0052924
0.036514 0.011756 0.99917 7.56e-39 197 261 0 0 0 0.58495 0.32574 -0.74279 0.010038
0.040638 0.010595 0.99998 6.4998e-39 417.5 260 0 0 0 0.61225 0.33389 -0.71671 0.010064
-0.021359 0.01293 0.99958 8.7125e-39 263.5 261 0 0 0 -0.59955 0.26812 -0.75409 0.0060537
0.035345 0.012925 0.99917 6.8225e-39 430 261 0 0 0 0.57679 0.32878 -0.74781 0.0098346
0.036544 0.012935 0.99998 6.8225e-39 445 261 0 0 0 0.58441 0.32821 -0.74213 0.0094214
-0.020774 0.014685 0.99958 6.638e-39 208.5 262 0 0 0 -0.58815 0.28629 -0.75639 0.0063702
-0.019208 0.014873 0.99917 6.7917e-39 229.33 262 0 0 0 -0.56638 0.28309 -0.774 0.0084911
0.034149 0.01525 0.99836 6.1771e-39 422 262 0 0 0 0.56591 0.329 -0.75598 0.0093851
-0.018828 0.016831 0.99971 7.4986e-39 504 262.33 0 0 0 -0.55736 0.30054 -0.77397 0.0088765
-0.017245 0.017002 0.99836 7.5601e-39 470.5 262.5 0 0 0 -0.52613 0.29078 -0.79915 0.010955
0.034585 0.01722 0.99971 6.761e-39 385 263 0 0 0 0.56928 0.33164 -0.75228 0.0081798
-0.018828 0.01917 0.99971 7.2527e-39 293 264 0 0 0 -0.55076 0.31153 -0.77434 0.0091985
-0.017252 0.019347 0.99876 7.053e-39 342 264 0 0 0 -0.51793 0.31204 -0.79648 0.010777
0.034937 0.019149 0.99863 7.1606e-39 242.67 264.33 0 0 0 0.56342 0.33676 -0.75442 0.0076466
0.036544 0.01937 0.99998 6.7303e-39 230 264.5 0 0 0 0.57769 0.33298 -0.74525 0.00723
-0.018443 0.021125 0.99998 6.4537e-39 272 265 0 0 0 -0.54168 0.3224 -0.7763 0.0092006
-0.017259 0.021108 0.99917 6.0849e-39 273 265 0 0 0 -0.51727 0.3255 -0.79151 0.010322
0.034733 0.021091 0.99836 6.4998e-39 443.5 265 0 0 0 0.5543 0.34076 -0.75936 0.0077052
0.036544 0.021125 0.99998 6.6381e-39 445 265 0 0 0 0.57424 0.33893 -0.74524 0.0067096
-0.018443 0.022295 0.99998 7.1913e-39 185 266 0 0 0 -0.53872 0.33049 -0.77495 0.0093019
-0.016678 0.022866 0.99937 7.03e-39 316.5 266 0 0 0 -0.50313 0.33928 -0.79482 0.01053
-0.014909 0.023427 0.99836 7.3757e-39 448 266 0 0 0 -0.46008 0.34652 -0.81746 0.010921
0.032981 0.023427 0.99836 3.9644e-39 564 266 0 0 0 0.53518 0.35248 -0.76769 0.0086126
0.034761 0.022862 0.99917 6.0158e-39 412 266 0 0 0 0.55471 0.34818 -0.75569 0.0072217
0.036544 0.022295 0.99998 7.1913e-39 260 266 0 0 0 0.57165 0.34181 -0.74591 0.0064056
-0.016688 0.024635 0.99998 6.8686e-39 258.5 267 0 0 0 -0.49998 0.34473 -0.79447 0.010209
-0.014927 0.025209 0.99958 5.2551e-39 410.5 267 0 0 0 -0.46721 0.35064 -0.81164 0.010815
-0.013163 0.025773 0.99876 4.0105e-39 562.5 267 0 0 0 -0.43081 0.36197 -0.82666 0.010903
-0.011405 0.025763 0.99836 4.6098e-39 564 267 0 0 0 -0.39791 0.36969 -0.83964 0.010394
0.031812 0.025179 0.99836 7.1452e-39 323 267.5 0 0 0 0.52091 0.3623 -0.77292 0.009287
0.033007 0.025199 0.99917 7.3296e-39 324 267.5 0 0 0 0.53498 0.35788 -0.76532 0.0078906
0.034204 0.02522 0.99998 7.4679e-39 325 267.5 0 0 0 0.54841 0.3519 -0.75856 0.0067913
-0.013168 0.026953 0.99917 6.7303e-39 423.5 268 0 0 0 -0.43044 0.36447 -0.82576 0.010612
-0.011414 0.026953 0.99917 6.6381e-39 425 268 0 0 0 -0.40078 0.37052 -0.83791 0.010197
0.029476 0.026931 0.99836 6.8225e-39 461 268 0 0 0 0.48096 0.37274 -0.79356 0.011013
0.031254 0.026953 0.99917 7.3757e-39 462.5 268 0 0 0 0.51466 0.36534 -0.77566 0.0086581
0.033034 0.026974 0.99998 7.7444e-39 464 268 0 0 0 0.5358 0.35848 -0.76447 0.0072044
-0.013178 0.028144 0.99998 7.6983e-39 230.5 269 0 0 0 -0.43135 0.3706 -0.82255 0.010304
-0.010834 0.028717 0.99958 7.1452e-39 350.5 269 0 0 0 -0.38712 0.37983 -0.84016 0.009474
-0.0090724 0.028695 0.99876 6.9608e-39 352 269 0 0 0 -0.35495 0.38734 -0.85087 0.0090381
-0.0079039 0.028695 0.99876 7.0991e-39 353 269 0 0 0 -0.33728 0.39027 -0.8567 0.008634
0.0295 0.028707 0.99917 7.9288e-39 419 269 0 0 0 0.48081 0.37636 -0.79194 0.0099143
0.031084 0.028534 0.99998 8.3283e-39 370.67 269 0 0 0 0.50912 0.3707 -0.77678 0.0086287
-0.010253 0.030484 0.99998 7.6522e-39 278 270 0 0 0 -0.37647 0.38937 -0.84063 0.0090915
-0.0090834 0.030484 0.99998 6.5459e-39 366 270 0 0 0 -0.36016 0.39128 -0.84686 0.0089439
-0.0067409 0.031057 0.99958 6.4998e-39 255.5 270.5 0 0 0 -0.31368 0.40058 -0.86089 0.0078842
-0.0049849 0.031044 0.99917 6.615e-39 274.25 270.5 0 0 0 -0.29293 0.40381 -0.86668 0.0077853
-0.0028401 0.031222 0.99863 6.3308e-39 256.67 270.67 0 0 0 -0.25306 0.4143 -0.87425 0.0071863
0.024804 0.031603 0.99836 7.4678e-39 230 271 0 0 0 0.35797 0.41928 -0.8343 0.010551
0.028922 0.03105 0.99937 7.2835e-39 331 270.5 0 0 0 0.45665 0.39548 -0.79691 0.0089252
-0.0067436 0.032824 0.99998 7.0069e-39 434 271 0 0 0 -0.31862 0.40254 -0.85816 0.008072
-0.0047937 0.033214 0.99998 7.1913e-39 370.67 271.33 0 0 0 -0.28855 0.4046 -0.86778 0.0078476
-0.002648 0.033395 0.99958 7.4448e-39 340 271.5 0 0 0 -0.2485 0.41213 -0.87658 0.0073039
-0.00089249 0.033355 0.99836 7.4218e-39 341.5 271.5 0 0 0 -0.21348 0.4172 -0.88338 0.006817
0.00085984 0.033362 0.99856 7.076e-39 343 271.5 0 0 0 -0.18934 0.42076 -0.8872 0.0071387
0.025393 0.033362 0.99856 6.9608e-39 362.5 271.5 0 0 0 0.36394 0.42504 -0.82879 0.0096606
0.027151 0.033368 0.99876 7.2374e-39 364 271.5 0 0 0 0.40633 0.41762 -0.81271 0.00925
0.028343 0.033395 0.99958 7.6522e-39 365 271.5 0 0 0 0.42684 0.41649 -0.80271 0.0087214
-0.0020639 0.035164 0.99998 6.9147e-39 473 272 0 0 0 -0.2379 0.41148 -0.87982 0.0075133
-0.00089322 0.035135 0.99917 6.8225e-39 474 272 0 0 0 -0.21322 0.41512 -0.88443 0.0074308
0.00086083 0.035149 0.99958 6.9147e-39 475.5 272 0 0 0 -0.19077 0.41796 -0.88821 0.0075234
0.0031956 0.035107 0.99836 7.2374e-39 477.5 272 0 0 0 -0.15098 0.42168 -0.89409 0.0076655
0.0049477 0.035107 0.99836 6.6381e-39 479 272 0 0 0 -0.13162 0.4259 -0.89515 0.0079039
0.025419 0.035149 0.99958 3.1807e-39 539.5 272 0 0 0 0.36513 0.43305 -0.82411 0.0092472
0.027162 0.035135 0.99917 3.0425e-39 541 272 0 0 0 0.39587 0.43 -0.81141 0.0087538
-0.00089394 0.036334 0.99998 6.0849e-39 404 273 0 0 0 -0.21834 0.413 -0.88417 0.0077558
0.00066596 0.036724 0.99998 6.4844e-39 459.33 273 0 0 0 -0.19355 0.41238 -0.89022 0.0078094
0.0031982 0.036889 0.99917 7.1682e-39 488.5 273 0 0 0 -0.14918 0.41887 -0.89571 0.0080103
0.0049537 0.036904 0.99958 5.9466e-39 274.5 273.5 0 0 0 -0.12271 0.4222 -0.89816 0.0083134
0.006505 0.037054 0.99836 6.1464e-39 259 273.67 0 0 0 -0.095289 0.42692 -0.89925 0.0088687
0.008846 0.037074 0.9989 5.839e-39 261 273.67 0 0 0 -0.051068 0.43538 -0.8988 0.0099631
0.011377 0.036874 0.99876 6.0619e-39 301 273.5 0 0 0 0.0079265 0.44287 -0.89655 0.011397
0.014882 0.037458 0.99876 6.0849e-39 190.5 274 0 0 0 0.099876 0.44315 -0.89087 0.012729
0.017796 0.037443 0.99836 5.4395e-39 193 274 0 0 0 0.16316 0.44446 -0.88081 0.01291
0.018971 0.036874 0.99876 5.8544e-39 307.5 273.5 0 0 0 0.19313 0.44538 -0.87426 0.012984
0.020916 0.037064 0.99863 5.7776e-39 272.67 273.67 0 0 0 0.24649 0.44482 -0.86103 0.011687
0.023061 0.036874 0.99876 7.0069e-39 328.5 273.5 0 0 0 0.29784 0.44293 -0.84564 0.011545
0.026599 0.036334 0.99998 7.2835e-39 430.5 273 0 0 0 0.38833 0.43521 -0.81228 0.0086032
0.0033958 0.039064 0.99998 7.5293e-39 373.33 274.33 0 0 0 -0.14283 0.4119 -0.89997 0.00841
0.0067037 0.039219 0.99897 7.1221e-39 343.5 274.5 0 0 0 -0.087634 0.4227 -0.90202 0.0090684
0.0090468 0.039243 0.99958 7.3987e-39 345.5 274.5 0 0 0 -0.042591 0.4269 -0.9033 0.010081
0.011192 0.039053 0.99971 7.4064e-39 382.33 274.33 0 0 0 0.0092661 0.43517 -0.9003 0.011068
0.01313 0.039211 0.99876 7.6983e-39 349 274.5 0 0 0 0.055832 0.44034 -0.8961 0.011742
0.014888 0.039227 0.99917 7.8827e-39 350.5 274.5 0 0 0 0.10351 0.44184 -0.8911 0.013126
0.017226 0.039227 0.99917 7.7675e-39 352.5 274.5 0 0 0 0.15901 0.44422 -0.88169 0.01364
0.018995 0.039259 0.99998 7.2835e-39 354 274.5 0 0 0 0.20418 0.44765 -0.87058 0.013571
0.02075 0.038674 0.99998 7.4678e-39 460.5 274 0 0 0 0.25466 0.44686 -0.85759 0.012725
0.022505 0.038674 0.99998 7.4678e-39 462 274 0 0 0 0.28689 0.44749 -0.84702 0.012367
0.0067105 0.041013 0.99998 7.3757e-39 466.5 275 0 0 0 -0.084076 0.41849 -0.90432 0.0086411
0.0084655 0.041013 0.99998 7.56e-39 468 275 0 0 0 -0.047881 0.425 -0.90393 0.0095975
0.013145 0.041013 0.99998 7.4678e-39 472 275 0 0 0 0.068113 0.44023 -0.8953 0.012079
0.014315 0.041013 0.99998 7.3757e-39 473 275 0 0 0 0.088829 0.44113 -0.89304 0.012632
0.04594 0.0059205 1.0008 5.8083e-39 156 258 0 0 0 0.59758 0.34175 -0.72533 0.020964
0.045978 0.0070971 1.0016 6.3615e-39 435 258 0 0 0 0.60452 0.33977 -0.7205 0.019133
0.045575 0.0090476 1.0013 5.9927e-39 185.67 259.67 0 0 0 0.61849 0.33377 -0.71138 0.015286
-0.024332 0.011199 1.0016 5.9466e-39 351.5 260 0 0 0 -0.63987 0.24972 -0.72678 0.0053899
-0.023141 0.011775 1.0008 4.8864e-39 467 260 0 0 0 -0.62939 0.25007 -0.73575 0.0055599
0.037744 0.011775 1.0008 7.6522e-39 198 261 0 0 0 0.60022 0.33086 -0.72819 0.009066
0.038931 0.011194 1.0012 7.7444e-39 283.5 260.5 0 0 0 0.60916 0.33549 -0.71859 0.0094635
0.040672 0.011775 1.0008 6.7764e-39 210.5 261 0 0 0 0.61866 0.33365 -0.71129 0.010024
0.04283 0.010997 1.0011 6.5766e-39 353.67 260.33 0 0 0 0.62574 0.33636 -0.70378 0.011888
0.044769 0.010604 1.0008 6.4537e-39 421 260 0 0 0 0.62379 0.32844 -0.70923 0.012698
-0.02316 0.012956 1.0016 8.6664e-39 262 261 0 0 0 -0.63255 0.25889 -0.72997 0.0054304
0.037775 0.012956 1.0016 6.8225e-39 446 261 0 0 0 0.60196 0.33188 -0.72629 0.0084583
-0.02316 0.014128 1.0016 5.5317e-39 148 262 0 0 0 -0.6284 0.27617 -0.72721 0.0057759
-0.02197 0.014702 1.0008 6.8685e-39 207.5 262 0 0 0 -0.60708 0.28342 -0.74238 0.0064759
0.035416 0.014709 1.0012 6.9608e-39 311 262 0 0 0 0.57929 0.32688 -0.74671 0.0089268
0.036588 0.014709 1.0012 6.3154e-39 323 262 0 0 0 0.58903 0.32879 -0.7382 0.0083337
-0.021394 0.017051 1.0012 7.4217e-39 422.5 262.5 0 0 0 -0.59902 0.3027 -0.74131 0.0071507
-0.019629 0.017629 1.0008 8.1132e-39 276 263 0 0 0 -0.57649 0.30822 -0.75674 0.0081672
0.035431 0.016472 1.0016 6.0849e-39 229 263 0 0 0 0.58227 0.33076 -0.74267 0.0080232
0.036603 0.017058 1.0016 6.5459e-39 347.5 263 0 0 0 0.5883 0.33207 -0.73731 0.0074169
-0.021394 0.019393 1.0012 7.56e-39 326.5 264 0 0 0 -0.58997 0.31492 -0.74348 0.0073504
-0.019629 0.019971 1.0008 7.6522e-39 459 264 0 0 0 -0.56683 0.31842 -0.75981 0.0080864
0.037759 0.019393 1.0012 6.7303e-39 231 264.5 0 0 0 0.59047 0.33324 -0.73505 0.0066351
0.038947 0.019987 1.0016 7.6522e-39 190 265 0 0 0 0.60357 0.32985 -0.72588 0.0060578
-0.021394 0.02115 1.0012 7.7905e-39 269.5 265 0 0 0 -0.58856 0.3188 -0.74294 0.0075038
-0.019629 0.021142 1.0008 6.8225e-39 271 265 0 0 0 -0.56541 0.3225 -0.75915 0.0084525
0.037744 0.021142 1.0008 6.5459e-39 446 265 0 0 0 0.58719 0.33788 -0.73556 0.0060994
-0.020816 0.022331 1.0016 5.8083e-39 183 266 0 0 0 -0.58399 0.32368 -0.74444 0.0076908
-0.019244 0.0231 1.0011 6.5152e-39 357.67 266 0 0 0 -0.55708 0.33213 -0.76115 0.0084075
0.037364 0.0231 1.0011 7.3449e-39 465.33 266 0 0 0 0.58066 0.34157 -0.73903 0.0052527
-0.018859 0.025058 1.0013 5.501e-39 357 267 0 0 0 -0.54636 0.34222 -0.76444 0.0084429
-0.016702 0.025825 1.0008 3.1808e-39 559.5 267 0 0 0 -0.5037 0.35352 -0.78823 0.0098339
0.035402 0.025239 1.0008 7.1913e-39 326 267.5 0 0 0 0.5604 0.35026 -0.75051 0.0058331
0.036984 0.025058 1.0013 6.6688e-39 359 267.33 0 0 0 0.57684 0.34531 -0.74028 0.005079
-0.016709 0.027007 1.0012 7.3757e-39 420.5 268 0 0 0 -0.50454 0.35387 -0.78753 0.00972
-0.014945 0.026996 1.0008 6.7303e-39 422 268 0 0 0 -0.47212 0.35852 -0.80534 0.0098424
0.034832 0.027007 1.0012 7.6983e-39 465.5 268 0 0 0 0.55567 0.35545 -0.75159 0.005861
0.036603 0.027018 1.0016 7.4678e-39 467 268 0 0 0 0.56829 0.34921 -0.74505 0.0050286
-0.016715 0.02819 1.0016 7.3757e-39 227.5 269 0 0 0 -0.50853 0.36119 -0.78163 0.0092858
-0.014957 0.028776 1.0016 7.6522e-39 347 269 0 0 0 -0.47312 0.3676 -0.80064 0.0092778
-0.013188 0.029338 1.0008 7.1452e-39 466.5 269 0 0 0 -0.4369 0.37603 -0.81714 0.0098968
-0.011433 0.029338 1.0008 7.0069e-39 468 269 0 0 0 -0.40468 0.38209 -0.83081 0.0096671
0.03189 0.029338 1.0008 5.3473e-39 141 270 0 0 0 0.52318 0.3662 -0.76953 0.007405
0.033074 0.028765 1.0012 7.0069e-39 207.5 269.5 0 0 0 0.5368 0.35958 -0.76325 0.0065578
0.034845 0.02819 1.0016 7.8827e-39 274.5 269 0 0 0 0.55347 0.35413 -0.75383 0.0056275
-0.013004 0.030924 1.0016 7.4371e-39 373.33 270 0 0 0 -0.43724 0.38417 -0.81316 0.0093662
-0.011049 0.031306 1.0013 6.6996e-39 329 270.33 0 0 0 -0.39577 0.39311 -0.82996 0.0088184
-0.0090908 0.03168 1.0008 5.163e-39 141 271 0 0 0 -0.35666 0.39842 -0.84502 0.0087898
-0.0079199 0.031094 1.0008 6.0389e-39 254.5 270.5 0 0 0 -0.34595 0.39562 -0.85076 0.0086002
0.031318 0.031107 1.0012 7.7214e-39 333 270.5 0 0 0 0.50701 0.3784 -0.77444 0.0074098
0.033088 0.030534 1.0016 7.1913e-39 432 270 0 0 0 0.53021 0.36694 -0.76435 0.0067049
-0.010262 0.032851 1.0008 7.6522e-39 431 271 0 0 0 -0.37852 0.39864 -0.83535 0.0088634
-0.0090908 0.032851 1.0008 7.1913e-39 432 271 0 0 0 -0.35698 0.3996 -0.84432 0.0084956
-0.0079263 0.032877 1.0016 7.0069e-39 433 271 0 0 0 -0.34327 0.40134 -0.84917 0.0087033
0.029548 0.032851 1.0008 7.56e-39 464 271 0 0 0 0.4666 0.40363 -0.787 0.0084695
0.030744 0.032877 1.0016 7.3757e-39 465 271 0 0 0 0.4899 0.39493 -0.77719 0.0074996
-0.01027 0.034635 1.0016 7.3757e-39 351 272 0 0 0 -0.38342 0.40526 -0.82991 0.0088433
-0.0090982 0.034635 1.0016 7.4218e-39 352 272 0 0 0 -0.36302 0.40573 -0.83881 0.0087631
-0.0071414 0.034421 1.0011 7.7137e-39 315.33 272 0 0 0 -0.32591 0.40817 -0.85275 0.0082252
-0.0051879 0.034802 1.0008 7.4986e-39 393.67 272 0 0 0 -0.29825 0.40578 -0.86394 0.008023
-0.0032364 0.035192 1.0008 7.1913e-39 472 272 0 0 0 -0.25924 0.41061 -0.87418 0.0078844
0.028974 0.034621 1.0012 5.7622e-39 405 272 0 0 0 0.44161 0.42089 -0.79236 0.0075451
0.030744 0.034049 1.0016 8.6664e-39 269 272 0 0 0 0.4789 0.4045 -0.77912 0.0077079
-0.01027 0.036393 1.0016 7.6522e-39 275 273 0 0 0 -0.37695 0.40573 -0.83264 0.0089935
-0.0067545 0.036979 1.0016 6.3615e-39 457 273 0 0 0 -0.32308 0.40998 -0.85295 0.0087128
-0.0049968 0.036979 1.0016 7.1221e-39 465.5 273 0 0 0 -0.29507 0.41322 -0.8615 0.0085896
-0.0026516 0.036956 1.001 6.6611e-39 475.5 273 0 0 0 -0.25299 0.4142 -0.87432 0.0080646
-0.00089466 0.037534 1.0008 6.8225e-39 566 273 0 0 0 -0.21654 0.41373 -0.88427 0.0080871
0.0014471 0.037534 1.0008 7.7444e-39 568 273 0 0 0 -0.1767 0.41555 -0.89224 0.0083071
0.024875 0.036964 1.0012 7.3757e-39 330 273.5 0 0 0 0.35766 0.43932 -0.82406 0.0098151
0.02662 0.037534 1.0008 7.4218e-39 237.5 274 0 0 0 0.39141 0.43736 -0.80964 0.0083578
0.0284 0.036979 1.0016 7.0069e-39 335.5 273.5 0 0 0 0.42664 0.43023 -0.79554 0.0074384
-0.0055827 0.038736 1.0016 7.4678e-39 438 274 0 0 0 -0.29965 0.40798 -0.86242 0.0088684
-0.0026531 0.039322 1.0016 6.1541e-39 317 274.5 0 0 0 -0.2526 0.40925 -0.87676 0.0084161
-0.00089539 0.039322 1.0016 5.9928e-39 318.5 274.5 0 0 0 -0.21853 0.40971 -0.88566 0.0083574
0.00086195 0.039298 1.001 6.2463e-39 320 274.5 0 0 0 -0.18302 0.41158 -0.89281 0.0081749
0.002618 0.039876 1.0008 5.4395e-39 198 275 0 0 0 -0.15514 0.40876 -0.89936 0.0080494
0.0049597 0.03929 1.0008 7.2835e-39 338.5 274.5 0 0 0 -0.1184 0.41437 -0.90237 0.0082111
0.011985 0.039876 1.0008 7.4678e-39 243 275 0 0 0 0.035993 0.43545 -0.89949 0.011521
0.020767 0.039876 1.0008 6.2232e-39 253 275 0 0 0 0.2539 0.44756 -0.85745 0.013
0.02331 0.039496 1.0011 6.5766e-39 325 274.67 0 0 0 0.31648 0.4459 -0.83726 0.011705
0.026642 0.038736 1.0016 7.4218e-39 465.5 274 0 0 0 0.39682 0.43876 -0.80624 0.0083483
-0.0026531 0.04108 1.0016 7.8366e-39 458.5 275 0 0 0 -0.24676 0.40727 -0.87934 0.0083456
0.00086225 0.041064 1.0012 7.56e-39 461.5 275 0 0 0 -0.18317 0.4101 -0.89346 0.0080947
0.0032034 0.041047 1.0008 7.56e-39 463.5 275 0 0 0 -0.14238 0.41091 -0.90049 0.0078278
0.0049637 0.04108 1.0016 7.3757e-39 465 275 0 0 0 -0.11643 0.417 -0.90142 0.0078252
0.0096432 0.041047 1.0008 8.021e-39 469 275 0 0 0 -0.016279 0.42989 -0.90273 0.010388
0.0114 0.041047 1.0008 8.1593e-39 470.5 275 0 0 0 0.026811 0.43383 -0.9006 0.011318
0.015498 0.041047 1.0008 7.56e-39 474 275 0 0 0 0.12147 0.44625 -0.88663 0.013142
0.017253 0.041047 1.0008 7.8366e-39 475.5 275 0 0 0 0.167 0.44765 -0.87848 0.01399
0.01901 0.041047 1.0008 8.021e-39 477 275 0 0 0 0.21143 0.44991 -0.86768 0.013973
0.020783 0.04108 1.0016 7.514e-39 478.5 275 0 0 0 0.2579 0.45072 -0.8546 0.013231
0.022541 0.04108 1.0016 7.0991e-39 480 275 0 0 0 0.29498 0.44776 -0.8441 0.012563
0.00066705 0.042643 1.0016 7.2835e-39 327.67 276 0 0 0 -0.18949 0.41026 -0.89206 0.0078779
0.003206 0.042838 1.0016 6.9377e-39 368.5 276 0 0 0 -0.13802 0.41578 -0.89893 0.0077039
0.0049637 0.042252 1.0016 5.9927e-39 260 276 0 0 0 -0.11164 0.41658 -0.90222 0.0077421
0.0067161 0.042803 1.0008 7.0069e-39 371.5 276 0 0 0 -0.07473 0.42561 -0.90182 0.0083993
0.0090597 0.042812 1.001 6.8456e-39 373.5 276 0 0 0 -0.027881 0.43129 -0.90178 0.0095562
0.011208 0.042619 1.0011 6.3e-39 338.67 276 0 0 0 0.028014 0.43988 -0.89762 0.010521
0.013161 0.042821 1.0012 6.4998e-39 377 276 0 0 0 0.077951 0.44522 -0.89202 0.011701
0.014721 0.042619 1.0011 6.6996e-39 341.67 276 0 0 0 0.10741 0.44864 -0.88723 0.012573
0.017264 0.042829 1.0014 6.6842e-39 380.5 276 0 0 0 0.17317 0.45278 -0.87464 0.013429
0.019026 0.042838 1.0016 6.2693e-39 382 276 0 0 0 0.21933 0.45555 -0.86277 0.013166
0.020197 0.042838 1.0016 5.9927e-39 383 276 0 0 0 0.24456 0.45439 -0.85657 0.012948
0.022541 0.042252 1.0016 7.56e-39 275 276 0 0 0 0.2984 0.45283 -0.84018 0.011922
0.00027643 0.045181 1.0016 6.8685e-39 372.5 277 0 0 0 -0.19028 0.41883 -0.8879 0.0081366
0.003206 0.045181 1.0016 6.9147e-39 375 277 0 0 0 -0.13385 0.42301 -0.89619 0.0077849
0.0067215 0.045181 1.0016 7.076e-39 378 277 0 0 0 -0.062806 0.43535 -0.89807 0.008684
0.0088698 0.044986 1.0016 7.4371e-39 344.33 277 0 0 0 -0.025534 0.44027 -0.8975 0.0093007
0.010823 0.045181 1.0016 7.6983e-39 381.5 277 0 0 0 0.024582 0.44779 -0.8938 0.010276
0.013166 0.044595 1.0016 6.5459e-39 367 277 0 0 0 0.084505 0.45239 -0.88781 0.011581
0.014332 0.045163 1.0012 6.8686e-39 429.5 277 0 0 0 0.10367 0.45546 -0.8842 0.011448
0.017268 0.044595 1.0016 7.0991e-39 370.5 277 0 0 0 0.17708 0.46025 -0.86995 0.012481
0.019026 0.044595 1.0016 6.7303e-39 372 277 0 0 0 0.21775 0.45962 -0.86101 0.012448
0.047226 0.0059349 1.0032 5.7161e-39 157 258 0 0 0 0.61088 0.34431 -0.71293 0.028468
0.047226 0.0071087 1.0032 6.4537e-39 436 258 0 0 0 0.62797 0.33856 -0.70073 0.024816
0.047207 0.0088654 1.0028 6.0388e-39 203 259.5 0 0 0 0.63402 0.33024 -0.69926 0.020577
-0.026741 0.011226 1.004 5.8083e-39 349.5 260 0 0 0 -0.65116 0.26879 -0.70975 0.0089231
-0.025524 0.011208 1.0024 5.7622e-39 350.5 260 0 0 0 -0.64572 0.25901 -0.7183 0.0071274
0.043669 0.011794 1.0024 6.0849e-39 223 261 0 0 0 0.62475 0.32938 -0.70795 0.010936
0.044842 0.011794 1.0024 5.7161e-39 227 261 0 0 0 0.64258 0.32346 -0.6946 0.014639
0.046639 0.011217 1.0032 6.0388e-39 325.5 260.5 0 0 0 0.65561 0.3143 -0.68658 0.017851
-0.026741 0.012988 1.004 9.0352e-39 259 261 0 0 0 -0.64932 0.28165 -0.70644 0.0083315
-0.024938 0.012967 1.0024 8.5742e-39 260.5 261 0 0 0 -0.64043 0.27093 -0.71865 0.0067297
0.038978 0.012967 1.0024 6.9147e-39 447 261 0 0 0 0.6191 0.33166 -0.71184 0.0090666
0.040754 0.012972 1.0028 7.0991e-39 448.5 261 0 0 0 0.62583 0.33305 -0.70528 0.0093311
0.043118 0.012977 1.0032 7.2374e-39 450.5 261 0 0 0 0.63962 0.31917 -0.6993 0.012111
0.044879 0.012977 1.0032 6.7303e-39 452 261 0 0 0 0.6436 0.31886 -0.69578 0.013287
0.04609 0.012988 1.004 6.9147e-39 453 261 0 0 0 0.6576 0.30791 -0.68757 0.015068
-0.026741 0.014163 1.004 7.8366e-39 576 261 0 0 0 -0.64864 0.29119 -0.70319 0.0081781
-0.024958 0.014738 1.0032 7.2835e-39 205 262 0 0 0 -0.64395 0.28376 -0.7105 0.0066619
-0.023179 0.015312 1.0024 8.8508e-39 265 262 0 0 0 -0.62763 0.28457 -0.72463 0.00612
0.037805 0.014726 1.0024 6.6842e-39 324 262 0 0 0 0.60833 0.32892 -0.72232 0.0080375
0.038978 0.014726 1.0024 6.5459e-39 326.5 262 0 0 0 0.61715 0.32704 -0.71566 0.0081368
0.040762 0.014735 1.003 6.4307e-39 328 262 0 0 0 0.62308 0.3229 -0.71239 0.0082382
0.043136 0.014744 1.0036 6.4306e-39 330 262 0 0 0 0.63902 0.31292 -0.70267 0.010829
0.044915 0.01475 1.004 6.6381e-39 338.5 262 0 0 0 0.6548 0.3044 -0.69179 0.012735
0.046481 0.014946 1.004 6.6996e-39 375.33 262 0 0 0 0.65669 0.29918 -0.69228 0.013271
-0.024974 0.017096 1.0038 7.8366e-39 374.5 262.5 0 0 0 -0.64012 0.30208 -0.70639 0.0066622
-0.023179 0.017072 1.0024 6.8685e-39 421 262.5 0 0 0 -0.62325 0.30311 -0.7209 0.0062287
0.037805 0.017072 1.0024 6.6842e-39 348.5 263 0 0 0 0.60585 0.33303 -0.72252 0.0071504
0.038978 0.017072 1.0024 6.8685e-39 349.5 263 0 0 0 0.61254 0.32911 -0.71867 0.0074714
0.040779 0.017089 1.0034 6.4076e-39 351 263 0 0 0 0.6209 0.31984 -0.71567 0.0068223
0.043153 0.016512 1.004 5.9466e-39 235.5 263 0 0 0 0.64062 0.31006 -0.70247 0.0095742
-0.024391 0.018861 1.004 8.021e-39 193 264 0 0 0 -0.63466 0.30573 -0.70975 0.0065756
-0.023179 0.018831 1.0024 7.6522e-39 194 264 0 0 0 -0.61643 0.309 -0.72425 0.0065514
0.038978 0.018831 1.0024 6.4537e-39 274 264 0 0 0 0.60502 0.32648 -0.7262 0.0062124
0.040787 0.018854 1.0036 7.7444e-39 275.5 264 0 0 0 0.6169 0.32188 -0.71821 0.006161
-0.024391 0.020624 1.004 8.2054e-39 361 264.5 0 0 0 -0.63077 0.31345 -0.70984 0.0062068
-0.023179 0.02059 1.0024 8.2054e-39 362 264.5 0 0 0 -0.61334 0.31484 -0.72436 0.0069357
0.038978 0.021176 1.0024 6.8225e-39 447 265 0 0 0 0.60199 0.32907 -0.72754 0.0054284
0.040787 0.020615 1.0036 7.6061e-39 320.75 265 0 0 0 0.61395 0.32354 -0.71999 0.0058275
-0.022602 0.022945 1.0028 5.9005e-39 304 266 0 0 0 -0.60387 0.32336 -0.72854 0.0071909
-0.020833 0.023522 1.0024 6.3615e-39 443 266 0 0 0 -0.58359 0.32878 -0.74252 0.0077947
0.038978 0.022936 1.0024 8.482e-39 416 266 0 0 0 0.59687 0.3346 -0.72924 0.004907
0.040586 0.022764 1.0035 9.2504e-39 366 266 0 0 0 0.60587 0.32574 -0.72582 0.0048949
-0.022428 0.02512 1.0037 5.2552e-39 354 267 0 0 0 -0.59875 0.33139 -0.72916 0.0071395
-0.020842 0.025291 1.0028 4.7481e-39 405.5 267 0 0 0 -0.57936 0.33576 -0.74271 0.0073249
-0.019661 0.025867 1.0024 2.9503e-39 557 267 0 0 0 -0.56458 0.34194 -0.75122 0.0079638
0.037805 0.025867 1.0024 6.3615e-39 233 268 0 0 0 0.58104 0.3422 -0.73844 0.004653
0.039026 0.025312 1.0036 6.3615e-39 329 267.5 0 0 0 0.59147 0.33745 -0.73231 0.0044063
0.040216 0.024735 1.004 6.5459e-39 425 267 0 0 0 0.59909 0.33107 -0.72903 0.004742
-0.020867 0.027084 1.004 6.5459e-39 417 268 0 0 0 -0.58332 0.3423 -0.73659 0.0074109
-0.019082 0.027051 1.0028 6.9608e-39 418.5 268 0 0 0 -0.5524 0.34837 -0.75729 0.0083242
0.037836 0.027062 1.0032 7.4678e-39 468 268 0 0 0 0.57917 0.34298 -0.73955 0.0043119
-0.020867 0.028259 1.004 7.8366e-39 224 269 0 0 0 -0.57899 0.34517 -0.73867 0.0074817
-0.01909 0.028823 1.0032 7.1913e-39 343.5 269 0 0 0 -0.54844 0.35331 -0.75788 0.0083251
-0.016728 0.029386 1.0024 7.56e-39 463.5 269 0 0 0 -0.50695 0.36569 -0.78056 0.0091971
0.034874 0.029386 1.0024 5.8083e-39 143.5 270 0 0 0 0.55158 0.35559 -0.75453 0.0054106
0.037249 0.028823 1.0032 6.4537e-39 220 269.5 0 0 0 0.57102 0.34701 -0.74399 0.0044365
-0.018503 0.03117 1.0032 7.3296e-39 417.5 270 0 0 0 -0.53276 0.36225 -0.76482 0.0081441
-0.016735 0.031158 1.0028 7.5831e-39 419 270 0 0 0 -0.50266 0.37245 -0.78014 0.0090269
-0.014969 0.031144 1.0024 7.6061e-39 420.5 270 0 0 0 -0.47347 0.37861 -0.79528 0.0089023
-0.013797 0.031731 1.0024 7.6522e-39 568 270 0 0 0 -0.45218 0.38639 -0.80389 0.0093624
0.033114 0.031731 1.0024 7.7444e-39 237 271 0 0 0 0.52425 0.37458 -0.76475 0.0064617
0.034888 0.031158 1.0028 7.1913e-39 336 270.5 0 0 0 0.54658 0.36041 -0.75588 0.0053601
0.037074 0.030991 1.0037 7.0376e-39 370.33 270.33 0 0 0 0.56533 0.34885 -0.74747 0.0045436
-0.018518 0.032957 1.004 6.5459e-39 422 271 0 0 0 -0.52843 0.3682 -0.76498 0.0086311
-0.016742 0.032931 1.0032 6.592e-39 425.5 271 0 0 0 -0.50123 0.37629 -0.77921 0.0087598
-0.014982 0.032931 1.0032 6.8225e-39 427 271 0 0 0 -0.47296 0.38472 -0.79265 0.0087575
-0.01321 0.032904 1.0024 7.0069e-39 428.5 271 0 0 0 -0.4373 0.39222 -0.80928 0.0091494
-0.011451 0.032904 1.0024 7.6522e-39 430 271 0 0 0 -0.40437 0.39881 -0.82306 0.00872
0.031942 0.032904 1.0024 6.9147e-39 466 271 0 0 0 0.51057 0.38789 -0.76738 0.0066323
0.033114 0.032904 1.0024 6.7303e-39 467 271 0 0 0 0.5204 0.38075 -0.76434 0.0060439
0.034902 0.032931 1.0032 7.1452e-39 468.5 271 0 0 0 0.54031 0.37224 -0.75465 0.0048281
-0.018518 0.034132 1.004 7.0069e-39 229 272 0 0 0 -0.52066 0.37266 -0.76814 0.008263
-0.016752 0.034713 1.0038 7.4679e-39 345.5 272 0 0 0 -0.49581 0.38187 -0.77997 0.008586
-0.014988 0.034706 1.0036 7.2835e-39 347 272 0 0 0 -0.47065 0.38944 -0.79172 0.008724
-0.01321 0.034663 1.0024 7.3987e-39 348.5 272 0 0 0 -0.43277 0.39662 -0.80957 0.0091719
-0.011456 0.034677 1.0028 7.4679e-39 350 272 0 0 0 -0.40327 0.40311 -0.82151 0.0088683
-0.0079328 0.035249 1.0024 7.1913e-39 468 272 0 0 0 -0.34934 0.40846 -0.84328 0.0088028
0.029596 0.035249 1.0024 3.5034e-39 543 272 0 0 0 0.45674 0.41848 -0.78503 0.0075622
0.03156 0.034868 1.0027 5.5932e-39 453 272 0 0 0 0.49465 0.40324 -0.76988 0.0061205
0.033168 0.03472 1.004 7.0991e-39 414.5 272 0 0 0 0.51785 0.39102 -0.76088 0.0053239
0.034931 0.034132 1.004 8.2515e-39 272.5 272 0 0 0 0.53657 0.37444 -0.75623 0.0047429
-0.016168 0.036481 1.004 8.482e-39 270 273 0 0 0 -0.48436 0.38643 -0.7849 0.0084332
-0.014994 0.036481 1.004 8.1132e-39 271 273 0 0 0 -0.46545 0.39215 -0.79346 0.0085262
-0.013221 0.037039 1.0032 5.8775e-39 407 273 0 0 0 -0.42876 0.401 -0.80954 0.0089545
-0.011066 0.037224 1.0029 5.9927e-39 453.67 273 0 0 0 -0.40094 0.4017 -0.82333 0.0086979
-0.0091055 0.037009 1.0024 6.8686e-39 410.5 273 0 0 0 -0.36683 0.40649 -0.83678 0.0089783
-0.007936 0.037024 1.0028 6.2693e-39 456 273 0 0 0 -0.34743 0.4084 -0.8441 0.0090715
0.029608 0.037024 1.0028 6.7764e-39 336.5 273.5 0 0 0 0.45098 0.42511 -0.78479 0.0065488
0.031388 0.037046 1.0034 6.9608e-39 338 273.5 0 0 0 0.47791 0.41496 -0.77422 0.0056982
-0.013232 0.038831 1.004 6.8225e-39 431.5 274 0 0 0 -0.43214 0.39678 -0.80983 0.0088455
-0.010678 0.039191 1.0032 6.1156e-39 351.33 274.33 0 0 0 -0.39408 0.39911 -0.8279 0.0086775
-0.0091129 0.039386 1.0032 6.2693e-39 311.5 274.5 0 0 0 -0.36771 0.40226 -0.83844 0.0089431
-0.0073496 0.03937 1.0028 6.4076e-39 313 274.5 0 0 0 -0.32783 0.40343 -0.85427 0.0090678
-0.0048053 0.03955 1.0024 6.1156e-39 274 274.67 0 0 0 -0.28447 0.40952 -0.86681 0.0087822
0.024905 0.039355 1.0024 6.7303e-39 361 274.5 0 0 0 0.36866 0.44203 -0.81774 0.0090609
0.026664 0.039941 1.0024 5.9466e-39 259.5 275 0 0 0 0.39913 0.43962 -0.80463 0.0079493
0.028838 0.039191 1.0032 7.1913e-39 399 274.33 0 0 0 0.43286 0.42977 -0.79242 0.006618
0.030819 0.038831 1.004 8.021e-39 470 274 0 0 0 0.46241 0.42033 -0.78071 0.00581
-0.012644 0.040006 1.004 5.9005e-39 185 275 0 0 0 -0.42134 0.39648 -0.81565 0.008484
-0.011076 0.040778 1.0037 6.6995e-39 361.67 275 0 0 0 -0.40231 0.39755 -0.82468 0.0086092
-0.0091129 0.041147 1.0032 7.7444e-39 451 275 0 0 0 -0.36731 0.39969 -0.83984 0.0086896
-0.0073496 0.04113 1.0028 7.4679e-39 452.5 275 0 0 0 -0.32849 0.40007 -0.85559 0.0089515
-0.0050008 0.041113 1.0024 7.3757e-39 454.5 275 0 0 0 -0.28847 0.40491 -0.86766 0.0086371
-0.00089612 0.041113 1.0024 7.56e-39 460 275 0 0 0 -0.22102 0.40829 -0.88569 0.0080603
0.023732 0.041113 1.0024 7.2835e-39 481 275 0 0 0 0.33366 0.44736 -0.82978 0.011094
0.024925 0.041147 1.0032 7.2835e-39 482 275 0 0 0 0.36482 0.44508 -0.81781 0.0089993
0.026686 0.041147 1.0032 6.7764e-39 483.5 275 0 0 0 0.39819 0.43663 -0.80672 0.0079273
0.028469 0.04118 1.004 7.0069e-39 485 275 0 0 0 0.42338 0.42899 -0.79795 0.0068069
-0.010684 0.042735 1.0037 7.4371e-39 315.33 276 0 0 0 -0.39131 0.39859 -0.82946 0.0083381
-0.0091166 0.042925 1.0036 7.4679e-39 354.5 276 0 0 0 -0.36512 0.40322 -0.83911 0.0082844
-0.0073556 0.042925 1.0036 7.7214e-39 356 276 0 0 0 -0.33105 0.40241 -0.85351 0.0088477
-0.0050038 0.042899 1.003 7.5831e-39 358 276 0 0 0 -0.28763 0.40479 -0.86799 0.0084391
-0.0026553 0.042872 1.0024 7.537e-39 360 276 0 0 0 -0.2498 0.40837 -0.87797 0.0081116
-0.00089612 0.042872 1.0024 7.7444e-39 361.5 276 0 0 0 -0.21782 0.41126 -0.88511 0.007972
0.0014494 0.043459 1.0024 8.2054e-39 477 276 0 0 0 -0.17399 0.41539 -0.89285 0.0082487
0.0049678 0.043459 1.0024 7.3757e-39 480 276 0 0 0 -0.10803 0.42545 -0.89851 0.0077162
0.012004 0.043459 1.0024 7.0991e-39 486 276 0 0 0 0.047869 0.44539 -0.89406 0.01118
0.015523 0.043459 1.0024 6.5459e-39 489 276 0 0 0 0.13644 0.45634 -0.87928 0.012701
0.021387 0.042872 1.0024 5.8544e-39 384 276 0 0 0 0.2767 0.45472 -0.84656 0.012178
0.023347 0.04308 1.0027 5.1937e-39 452.67 276 0 0 0 0.32194 0.45 -0.83298 0.010878
0.024945 0.042943 1.004 6.0389e-39 432.5 276 0 0 0 0.36274 0.44562 -0.81844 0.0086152
0.026697 0.042925 1.0036 6.4306e-39 434 276 0 0 0 0.39147 0.43852 -0.80898 0.0075061
-0.010295 0.044704 1.004 7.1913e-39 256 277 0 0 0 -0.38237 0.40308 -0.83146 0.0080409
-0.0091203 0.045291 1.004 7.1913e-39 364.5 277 0 0 0 -0.3619 0.40626 -0.83903 0.00798
-0.0071607 0.045084 1.0037 6.3922e-39 330.67 277 0 0 0 -0.32594 0.40982 -0.85195 0.0087436
-0.0050049 0.045255 1.0032 7.1451e-39 368 277 0 0 0 -0.2861 0.41292 -0.86466 0.0084548
-0.0026553 0.045218 1.0024 7.3987e-39 370 277 0 0 0 -0.24285 0.41391 -0.87732 0.0083904
-0.00089648 0.045237 1.0028 7.1452e-39 371.5 277 0 0 0 -0.21181 0.42033 -0.88231 0.0084193
0.0014494 0.045218 1.0024 6.638e-39 373.5 277 0 0 0 -0.17164 0.42331 -0.88958 0.0082619
0.0049678 0.045218 1.0024 7.0991e-39 376.5 277 0 0 0 -0.10518 0.43003 -0.89667 0.0080471
0.0096589 0.045804 1.0024 7.56e-39 487 277 0 0 0 -0.00031536 0.45048 -0.89279 0.009834
0.012395 0.045413 1.0024 7.0069e-39 448.33 277 0 0 0 0.068157 0.45846 -0.8861 0.011284
0.015523 0.045218 1.0024 6.8685e-39 430.5 277 0 0 0 0.14179 0.46307 -0.87491 0.011803
0.017282 0.045804 1.0024 5.4395e-39 493.5 277 0 0 0 0.17823 0.46605 -0.86662 0.01253
0.019041 0.045804 1.0024 4.702e-39 495 277 0 0 0 0.21659 0.46409 -0.8589 0.012379
0.020809 0.045236 1.0028 5.6931e-39 449 277 0 0 0 0.26365 0.46204 -0.84676 0.01179
0.02316 0.045246 1.003 5.7162e-39 451 277 0 0 0 0.31693 0.45449 -0.83246 0.010467
0.02612 0.044704 1.004 7.0991e-39 406 277 0 0 0 0.37054 0.44007 -0.81795 0.0079869
-0.0050067 0.047035 1.0036 7.5139e-39 255.5 278 0 0 0 -0.28255 0.41801 -0.86338 0.0087501
-0.0026566 0.046996 1.0028 7.4679e-39 257.5 278 0 0 0 -0.24 0.42476 -0.87291 0.0088922
-0.00089684 0.047015 1.0032 6.7303e-39 259 278 0 0 0 -0.20538 0.42944 -0.87943 0.0087194
0.00086303 0.046977 1.0024 6.4537e-39 260.5 278 0 0 0 -0.17459 0.42948 -0.88604 0.0082599
0.0032086 0.046977 1.0024 6.3154e-39 262.5 278 0 0 0 -0.13122 0.43678 -0.88995 0.0082044
0.0049678 0.046977 1.0024 5.8083e-39 264 278 0 0 0 -0.094156 0.43925 -0.89342 0.0083098
0.0067269 0.046977 1.0024 5.67e-39 265.5 278 0 0 0 -0.056 0.44707 -0.89274 0.0088933
0.0090725 0.046977 1.0024 5.7161e-39 267.5 278 0 0 0 -0.006744 0.45668 -0.8896 0.0096465
0.010832 0.046977 1.0024 6.1771e-39 269 278 0 0 0 0.031213 0.46368 -0.88545 0.010215
0.012595 0.046996 1.0028 6.3154e-39 270.5 278 0 0 0 0.0746 0.4684 -0.88036 0.010774
0.014942 0.046996 1.0028 6.7764e-39 272.5 278 0 0 0 0.12427 0.47303 -0.87224 0.01076
0.017296 0.047015 1.0032 7.2835e-39 274.5 278 0 0 0 0.17933 0.47203 -0.86315 0.01193
0.019041 0.046977 1.0024 6.2693e-39 365 278 0 0 0 0.21824 0.47196 -0.85418 0.011489
0.020826 0.047035 1.0036 6.3615e-39 366.5 278 0 0 0 0.26139 0.46463 -0.84605 0.011148
0.022578 0.047015 1.0032 7.0069e-39 368 278 0 0 0 0.29357 0.45984 -0.83807 0.010605
-0.0050089 0.048228 1.004 7.9288e-39 461.5 278 0 0 0 -0.28044 0.42639 -0.85996 0.0090222
-0.0026581 0.048786 1.0034 7.0069e-39 316.5 278.5 0 0 0 -0.23434 0.43488 -0.86946 0.0092194
-0.0008972 0.048796 1.0036 6.7303e-39 327 278.5 0 0 0 -0.20406 0.43951 -0.87475 0.0088732
0.00086363 0.048756 1.0028 6.5228e-39 328.5 278.5 0 0 0 -0.17214 0.43884 -0.88192 0.008498
0.0032091 0.048746 1.0026 6.6381e-39 330.75 278.5 0 0 0 -0.12735 0.44473 -0.88656 0.0082887
0.0049718 0.048776 1.0032 6.9146e-39 332.5 278.5 0 0 0 -0.093988 0.45271 -0.88669 0.0084678
0.0067296 0.048756 1.0028 6.8916e-39 334.5 278.5 0 0 0 -0.05356 0.45847 -0.88709 0.0091923
0.0090781 0.048766 1.003 6.7072e-39 337.75 278.5 0 0 0 -0.0035947 0.46711 -0.88419 0.009328
0.01084 0.048776 1.0032 6.5919e-39 340.5 278.5 0 0 0 0.035177 0.47161 -0.88111 0.010367
0.012606 0.048796 1.0036 7.1452e-39 345 278.5 0 0 0 0.078242 0.47745 -0.87517 0.010362
0.014952 0.048786 1.0034 7.8136e-39 350 278.5 0 0 0 0.12821 0.47742 -0.86927 0.010079
0.01731 0.048815 1.004 7.3756e-39 356 278.5 0 0 0 0.17893 0.4768 -0.86061 0.010816
0.019065 0.048796 1.0036 6.8225e-39 361 278.5 0 0 0 0.22099 0.47377 -0.85247 0.010829
0.020638 0.04862 1.004 6.9761e-39 402.67 278.33 0 0 0 0.25563 0.47056 -0.84453 0.01063
0.022596 0.048228 1.004 7.1913e-39 485 278 0 0 0 0.29459 0.46295 -0.836 0.010061
-0.0026596 0.050578 1.004 6.7764e-39 431.5 279 0 0 0 -0.23305 0.4473 -0.86348 0.0094409
-0.00089757 0.050578 1.004 7.0069e-39 433 279 0 0 0 -0.20201 0.45225 -0.86871 0.0094737
0.00086434 0.051144 1.0036 6.2923e-39 480.5 279 0 0 0 -0.16684 0.4575 -0.87342 0.0087751
0.0032117 0.051134 1.0034 6.5689e-39 482.5 279 0 0 0 -0.11984 0.46173 -0.87889 0.00849
0.0049738 0.051145 1.0036 6.7764e-39 484 279 0 0 0 -0.084887 0.46801 -0.87964 0.0083657
0.0067336 0.051134 1.0034 6.8456e-39 485.5 279 0 0 0 -0.042237 0.4727 -0.88021 0.0086439
0.0090835 0.051145 1.0036 7.4218e-39 487.5 279 0 0 0 0.0055444 0.47959 -0.87747 0.0088199
0.010844 0.051145 1.0036 7.514e-39 489 279 0 0 0 0.038916 0.48384 -0.87429 0.0091301
0.012612 0.051165 1.004 7.0991e-39 490.5 279 0 0 0 0.084957 0.48446 -0.87068 0.0092237
0.014362 0.051123 1.0032 6.7764e-39 492 279 0 0 0 0.11919 0.48548 -0.86609 0.009314
0.016723 0.050578 1.004 6.4537e-39 448 279 0 0 0 0.16545 0.48521 -0.8586 0.0095875
0.019072 0.051165 1.004 7.4218e-39 496 279 0 0 0 0.21681 0.47939 -0.8504 0.0102
0.00027711 0.052927 1.004 7.4678e-39 369 280 0 0 0 -0.17464 0.4645 -0.86818 0.0093463
0.0038012 0.052927 1.004 6.5459e-39 372 280 0 0 0 -0.1055 0.47402 -0.87417 0.008328
0.0049758 0.052927 1.004 7.4678e-39 398 280 0 0 0 -0.074975 0.47625 -0.87611 0.0082931
0.0067378 0.052927 1.004 7.0991e-39 399.5 280 0 0 0 -0.038312 0.48111 -0.87582 0.0083106
0.0090872 0.052927 1.004 7.1452e-39 401.5 280 0 0 0 0.008204 0.48688 -0.87343 0.0085225
0.010849 0.052927 1.004 6.9147e-39 403 280 0 0 0 0.042879 0.48919 -0.87112 0.0086851
0.013199 0.052927 1.004 6.6381e-39 405 280 0 0 0 0.095587 0.48864 -0.86724 0.0087635
0.014373 0.052927 1.004 6.6381e-39 406 280 0 0 0 0.12145 0.48843 -0.86411 0.0086817
0.048478 0.0059446 1.0049 5.8083e-39 158 258 0 0 0 0.63348 0.34675 -0.69172 0.031735
0.048478 0.0071202 1.0049 6.7303e-39 437 258 0 0 0 0.65009 0.33544 -0.68181 0.028079
-0.029137 0.0088909 1.0057 7.6522e-39 447 258.5 0 0 0 -0.6695 0.23217 -0.7056 0.014899
-0.027554 0.0090819 1.0052 8.0825e-39 441 258.67 0 0 0 -0.66486 0.2219 -0.71325 0.014025
0.049076 0.0088854 1.0051 6.108e-39 217 259.5 0 0 0 0.6648 0.32176 -0.67417 0.026799
0.050871 0.0094792 1.0057 5.9927e-39 190 260 0 0 0 0.69348 0.29586 -0.65693 0.030869
-0.029137 0.011244 1.0057 6.3154e-39 347.5 260 0 0 0 -0.66954 0.26195 -0.69505 0.013835
-0.027938 0.011235 1.0049 5.9927e-39 348.5 260 0 0 0 -0.66602 0.25435 -0.70123 0.012705
0.049086 0.011239 1.0053 6.615e-39 327.5 260.5 0 0 0 0.67934 0.29347 -0.67258 0.023473
0.050871 0.010656 1.0057 7.4678e-39 426 260 0 0 0 0.69206 0.28319 -0.66397 0.028886
-0.029137 0.013009 1.0057 9.404e-39 257 261 0 0 0 -0.67021 0.27607 -0.68892 0.012821
-0.027938 0.012998 1.0049 9.404e-39 258 261 0 0 0 -0.66378 0.26926 -0.69777 0.011759
0.047303 0.012998 1.0049 6.8225e-39 454 261 0 0 0 0.66055 0.30308 -0.68689 0.015959
0.048518 0.013009 1.0057 6.8225e-39 455 261 0 0 0 0.67517 0.28671 -0.67967 0.019669
-0.029137 0.014186 1.0057 7.8366e-39 574 261 0 0 0 -0.67002 0.28673 -0.68473 0.01179
-0.027554 0.014962 1.0052 8.3591e-39 366 261.67 0 0 0 -0.65379 0.29706 -0.69592 0.0083347
0.047303 0.014174 1.0049 5.8083e-39 234 262 0 0 0 0.65956 0.29747 -0.69029 0.014492
0.04891 0.01497 1.0057 6.8839e-39 377.33 262 0 0 0 0.66748 0.28208 -0.68913 0.016615
-0.027162 0.016922 1.0052 9.0047e-39 407 262.33 0 0 0 -0.65186 0.30278 -0.69527 0.0076906
0.043188 0.017701 1.0049 5.7622e-39 470.5 263 0 0 0 0.64335 0.30307 -0.70303 0.0094848
0.04497 0.01712 1.0053 5.6701e-39 354.5 263 0 0 0 0.65142 0.29634 -0.69845 0.011122
0.046734 0.01712 1.0053 6.108e-39 356 263 0 0 0 0.65101 0.28806 -0.70229 0.011729
-0.026784 0.018892 1.0057 8.1132e-39 191 264 0 0 0 -0.6493 0.31093 -0.69407 0.0073635
-0.025587 0.018877 1.0049 8.021e-39 192 264 0 0 0 -0.64387 0.3092 -0.69988 0.0067174
0.043206 0.018884 1.0053 7.4218e-39 365.5 264 0 0 0 0.64058 0.30228 -0.70589 0.0089071
-0.026762 0.02064 1.0049 8.2054e-39 359 264.5 0 0 0 -0.64359 0.311 -0.69934 0.0064384
-0.025587 0.02064 1.0049 8.1132e-39 360 264.5 0 0 0 -0.64016 0.31151 -0.70225 0.0065931
0.043004 0.02045 1.0052 7.6215e-39 280 265 0 0 0 0.62884 0.30744 -0.71417 0.0068443
-0.026773 0.023001 1.0053 6.4997e-39 293 266 0 0 0 -0.63947 0.31514 -0.70126 0.0060041
-0.025009 0.023001 1.0053 6.2463e-39 294.5 266 0 0 0 -0.635 0.31408 -0.70579 0.0060354
0.041425 0.023579 1.0049 5.3473e-39 142 267 0 0 0 0.60634 0.32015 -0.72791 0.0051611
0.042635 0.022422 1.0057 9.6805e-39 265 266 0 0 0 0.62 0.30611 -0.72242 0.0061572
-0.023235 0.02593 1.0049 7.8366e-39 485 267 0 0 0 -0.6122 0.32791 -0.7195 0.0063708
0.040854 0.025353 1.0053 6.2232e-39 330.5 267.5 0 0 0 0.59624 0.32433 -0.73437 0.0044582
-0.022657 0.027117 1.0053 6.5459e-39 415.5 268 0 0 0 -0.60019 0.33522 -0.72623 0.0064685
0.039073 0.027106 1.0049 7.1913e-39 469 268 0 0 0 0.58742 0.33339 -0.73742 0.0042428
0.040282 0.027128 1.0057 7.0991e-39 470 268 0 0 0 0.58972 0.32896 -0.73757 0.0045163
-0.02247 0.028697 1.0057 7.3756e-39 301.33 269 0 0 0 -0.59619 0.3392 -0.72767 0.0063922
-0.020884 0.029457 1.0049 6.7303e-39 460 269 0 0 0 -0.58162 0.34611 -0.73616 0.0070421
0.039089 0.028881 1.0053 6.9607e-39 230.5 269.5 0 0 0 0.57912 0.33582 -0.74286 0.0041936
0.040282 0.028305 1.0057 6.6381e-39 366 269 0 0 0 0.58524 0.32783 -0.74163 0.0043458
-0.020893 0.031234 1.0053 7.1452e-39 415.5 270 0 0 0 -0.57469 0.34914 -0.74015 0.0074039
-0.019709 0.031221 1.0049 7.2374e-39 416.5 270 0 0 0 -0.5651 0.35333 -0.74553 0.007565
0.037898 0.031809 1.0049 6.4537e-39 241 271 0 0 0 0.5653 0.3474 -0.74816 0.0041686
-0.020901 0.033011 1.0057 6.9147e-39 420 271 0 0 0 -0.57276 0.35064 -0.74095 0.0074378
-0.019725 0.033011 1.0057 6.9147e-39 421 271 0 0 0 -0.55742 0.35679 -0.74966 0.0081333
0.037326 0.032998 1.0053 7.56e-39 470.5 271 0 0 0 0.5602 0.35733 -0.74732 0.0040196
-0.018533 0.035336 1.0049 7.3757e-39 459 272 0 0 0 -0.52329 0.37411 -0.76565 0.0076642
0.034959 0.035336 1.0049 6.3615e-39 562.5 272 0 0 0 0.53226 0.38121 -0.75589 0.0041347
0.036752 0.034188 1.0057 7.7444e-39 274 272 0 0 0 0.55093 0.36527 -0.75037 0.0039157
-0.018548 0.036541 1.0057 8.021e-39 268 273 0 0 0 -0.52593 0.37563 -0.76308 0.0073054
-0.01697 0.037305 1.0052 4.9786e-39 448.67 273 0 0 0 -0.49326 0.38335 -0.78085 0.0081244
-0.015006 0.037687 1.0049 3.5956e-39 540 273 0 0 0 -0.46774 0.39292 -0.79172 0.0081981
0.033209 0.037114 1.0053 7.3757e-39 339.5 273.5 0 0 0 0.50727 0.39991 -0.76338 0.0046876
0.034987 0.036541 1.0057 7.514e-39 437.5 273 0 0 0 0.528 0.38532 -0.7568 0.0039157
-0.016195 0.038894 1.0057 7.2835e-39 429 274 0 0 0 -0.48281 0.388 -0.78508 0.0076122
-0.015006 0.038862 1.0049 7.3757e-39 430 274 0 0 0 -0.46384 0.39139 -0.79478 0.0081424
0.03202 0.038862 1.0049 7.6522e-39 471 274 0 0 0 0.48211 0.4099 -0.77431 0.0051603
-0.016195 0.040071 1.0057 5.7161e-39 140 275 0 0 0 -0.48518 0.38605 -0.78458 0.0075761
-0.015018 0.040659 1.0057 6.6381e-39 314.5 275 0 0 0 -0.469 0.39037 -0.79224 0.0076797
-0.013438 0.040822 1.0049 6.6996e-39 359.67 275 0 0 0 -0.44021 0.3922 -0.80771 0.0083497
0.02968 0.040642 1.0053 6.9147e-39 374 275 0 0 0 0.44495 0.42112 -0.79036 0.0062853
0.030856 0.040642 1.0053 6.7303e-39 375 275 0 0 0 0.4584 0.41658 -0.78507 0.0057379
0.032046 0.040071 1.0057 6.3615e-39 264 275 0 0 0 0.48013 0.40917 -0.77592 0.0048838
-0.013051 0.042793 1.0052 6.1771e-39 287.33 276 0 0 0 -0.43093 0.39363 -0.81201 0.007988
-0.011479 0.043565 1.0049 7.56e-39 466 276 0 0 0 -0.41147 0.39707 -0.82038 0.0081176
0.028893 0.042793 1.0052 6.3001e-39 414.33 276 0 0 0 0.42279 0.42511 -0.80033 0.0063661
-0.012665 0.044777 1.0057 7.2835e-39 252 277 0 0 0 -0.42762 0.39765 -0.8118 0.0079386
-0.01109 0.045537 1.0052 7.9288e-39 398 277 0 0 0 -0.40155 0.40488 -0.82148 0.0078671
-0.0079521 0.045916 1.0049 7.56e-39 472 277 0 0 0 -0.34586 0.41076 -0.8436 0.0083426
0.024966 0.045328 1.0049 5.9928e-39 452.5 277 0 0 0 0.358 0.44642 -0.82009 0.0083876
0.026932 0.045537 1.0052 6.5766e-39 470 277 0 0 0 0.38636 0.43297 -0.81441 0.0072206
0.028516 0.045365 1.0057 7.053e-39 455.5 277 0 0 0 0.40884 0.4265 -0.80681 0.0065484
-0.010312 0.04713 1.0057 7.2835e-39 248 278 0 0 0 -0.39015 0.41068 -0.82409 0.0081675
-0.0091278 0.047092 1.0049 7.2835e-39 249 278 0 0 0 -0.36569 0.41307 -0.83405 0.0081034
-0.0073643 0.047092 1.0049 7.3757e-39 253 278 0 0 0 -0.33215 0.41746 -0.84582 0.0088406
0.02379 0.047092 1.0049 7.6522e-39 369 278 0 0 0 0.32212 0.45312 -0.83122 0.009551
0.024986 0.04713 1.0057 7.2835e-39 370 278 0 0 0 0.3534 0.44587 -0.82238 0.0083378
0.026163 0.04713 1.0057 6.9147e-39 371 278 0 0 0 0.36807 0.43738 -0.8205 0.0080826
