# .PCD v.7 - Point Cloud Data file format
VERSION .7
FIELDS x y z rgb u v vx vy vz normal_x normal_y normal_z curvature
SIZE 4 4 4 4 4 4 4 4 4 4 4 4 4
TYPE F F F F F F F F F F F F F
COUNT 1 1 1 1 1 1 1 1 1 1 1 1 1
WIDTH 562
HEIGHT 1
VIEWPOINT 0 0 0 1 0 0 0
POINTS 562
DATA ascii
0.24861 -0.023698 1.1289 5.8083e-39 234 267 0 0 0 -0.80519 -0.20263 -0.55733 0.038414
0.3128 -0.023048 1.1294 7.3526e-39 289.75 267.5 0 0 0 0.42015 -0.050568 -0.90605 0.041371
0.31493 -0.023059 1.1299 7.6983e-39 312.5 267.5 0 0 0 0.41161 -0.019034 -0.91116 0.035959
0.24728 -0.021057 1.1289 6.5459e-39 416 268 0 0 0 -0.83299 -0.094401 -0.54518 0.024515
0.30936 -0.021057 1.1289 7.7444e-39 464 268 0 0 0 0.45166 -0.018025 -0.89201 0.036578
0.31068 -0.021057 1.1289 7.7444e-39 465 268 0 0 0 0.44606 0.0059808 -0.89498 0.03381
0.31229 -0.021076 1.1299 7.6522e-39 466 268 0 0 0 0.43172 0.026623 -0.90161 0.031155
0.24728 -0.019075 1.1289 6.2693e-39 356.5 269 0 0 0 -0.84724 -0.032523 -0.53022 0.015999
0.30936 -0.019075 1.1289 7.053e-39 314 269.5 0 0 0 0.46749 0.063648 -0.8817 0.026462
0.31068 -0.019075 1.1289 6.7303e-39 315 269.5 0 0 0 0.458 0.071783 -0.88605 0.025195
0.31229 -0.019093 1.1299 6.8685e-39 316 269.5 0 0 0 0.44598 0.076782 -0.89174 0.024915
0.24728 -0.017095 1.1289 6.8225e-39 426 270 0 0 0 -0.85115 -0.0037228 -0.5249 0.012574
0.30936 -0.017095 1.1289 6.6381e-39 475 270 0 0 0 0.47772 0.13232 -0.86849 0.017835
0.31068 -0.017095 1.1289 6.7303e-39 476 270 0 0 0 0.46769 0.14391 -0.8721 0.016921
0.31229 -0.01711 1.1299 7.0991e-39 477 270 0 0 0 0.45427 0.15752 -0.87683 0.01515
0.24751 -0.015127 1.1299 4.9325e-39 396 271 0 0 0 -0.85477 0.025606 -0.51838 0.0094064
0.24861 -0.014453 1.1289 3.4112e-39 544 271 0 0 0 -0.85398 0.035812 -0.51908 0.0087229
0.30884 -0.01512 1.1294 7.0068e-39 327 271.5 0 0 0 0.48626 0.18878 -0.85318 0.012811
0.31096 -0.015127 1.1299 6.8225e-39 328.5 271.5 0 0 0 0.4728 0.20697 -0.85652 0.010079
0.31229 -0.015788 1.1299 6.4537e-39 418 271 0 0 0 0.46167 0.19514 -0.86532 0.011382
0.24861 -0.013133 1.1289 8.021e-39 439 272 0 0 0 -0.85201 0.055212 -0.5206 0.0067707
0.30672 -0.013133 1.1289 5.9927e-39 483 272 0 0 0 0.49841 0.24276 -0.83226 0.007216
0.30832 -0.013145 1.1299 5.7161e-39 484 272 0 0 0 0.49076 0.24944 -0.83483 0.0063612
0.24751 -0.011162 1.1299 5.3935e-39 401.5 273 0 0 0 -0.85571 0.07117 -0.51255 0.0054401
0.24861 -0.011812 1.1289 6.4537e-39 261 273 0 0 0 -0.8525 0.068376 -0.51824 0.0059703
0.3054 -0.010491 1.1289 6.3615e-39 249 274 0 0 0 0.4994 0.28328 -0.81875 0.0045885
0.30686 -0.011156 1.1294 6.6842e-39 340 273.5 0 0 0 0.49388 0.2808 -0.82294 0.0048976
0.24728 -0.0091704 1.1289 7.56e-39 455 274 0 0 0 -0.85033 0.090865 -0.51834 0.0049464
0.30568 -0.0091788 1.1299 3.2268e-39 531 274 0 0 0 0.49584 0.28904 -0.8189 0.004708
0.24728 -0.0071894 1.1289 7.6061e-39 421 275 0 0 0 -0.84611 0.10511 -0.52254 0.005359
0.30422 -0.0071923 1.1294 7.2374e-39 357 275.5 0 0 0 0.49031 0.30359 -0.81696 0.0047666
0.24751 -0.005213 1.1299 7.6522e-39 479 276 0 0 0 -0.84837 0.11521 -0.51672 0.0051971
0.30435 -0.005213 1.1299 7.56e-39 546 276 0 0 0 0.4804 0.32241 -0.81564 0.0049459
0.24751 -0.0032301 1.1299 6.0849e-39 303 277.5 0 0 0 -0.84007 0.12614 -0.52761 0.0053195
0.24861 -0.0025668 1.1289 6.5459e-39 189 278 0 0 0 -0.83008 0.13747 -0.54043 0.0061803
0.30275 -0.0025668 1.1289 7.0069e-39 273 278 0 0 0 0.47574 0.34158 -0.81055 0.0048495
0.24861 -0.0012461 1.1289 8.3898e-39 470 278 0 0 0 -0.82517 0.14296 -0.54649 0.0065802
0.30077 -0.0012461 1.1289 4.241e-39 509.5 278 0 0 0 0.46928 0.35613 -0.80805 0.0047245
0.30303 -0.0012473 1.1299 4.3332e-39 511 278 0 0 0 0.47013 0.34936 -0.81051 0.0047948
0.24883 0.00073563 1.1299 5.5778e-39 380.5 279 0 0 0 -0.82743 0.14606 -0.54224 0.0066923
0.29907 0.0013966 1.1299 7.2835e-39 537 279 0 0 0 0.4566 0.37565 -0.80648 0.0049596
0.30105 7.4653e-05 1.1299 6.8225e-39 414.5 279 0 0 0 0.46337 0.36239 -0.80868 0.0048437
0.24883 0.0027185 1.1299 7.0991e-39 401 280 0 0 0 -0.82469 0.15254 -0.54462 0.007508
0.29747 0.002716 1.1289 6.3615e-39 438 280 0 0 0 0.44916 0.38489 -0.8063 0.0048312
0.24861 0.004697 1.1289 6.6842e-39 481.5 280.5 0 0 0 -0.81203 0.15905 -0.56152 0.0074387
0.29496 0.0046995 1.1294 6.3154e-39 339 281 0 0 0 0.44911 0.3894 -0.80415 0.0048935
0.29677 0.0044798 1.1296 6.3e-39 298 281 0 0 0 0.44399 0.38788 -0.80773 0.0050087
0.24956 0.0071204 1.1292 6.3922e-39 301.33 282 0 0 0 -0.80291 0.16872 -0.57172 0.0082868
0.28955 0.0079989 1.1289 6.0849e-39 507 282 0 0 0 0.44449 0.39034 -0.80627 0.0049775
0.29087 0.0066781 1.1289 7.1913e-39 268 282 0 0 0 0.44618 0.3935 -0.80379 0.0046764
0.29298 0.0066812 1.1294 6.4076e-39 269.5 282 0 0 0 0.44951 0.39007 -0.80361 0.0049761
0.2492 0.0088846 1.1296 5.9313e-39 343 282.67 0 0 0 -0.81543 0.17339 -0.55227 0.007162
0.25125 0.0093196 1.1289 6.1771e-39 365 283 0 0 0 -0.7807 0.17764 -0.59913 0.010074
0.28902 0.0093239 1.1294 7.4218e-39 421.5 283 0 0 0 0.44638 0.38336 -0.80856 0.0055321
0.29113 0.0080062 1.1299 5.9005e-39 508 282 0 0 0 0.44601 0.38739 -0.80685 0.0052497
0.29246 0.0080062 1.1299 6.6381e-39 509 282 0 0 0 0.44564 0.38705 -0.80722 0.0053836
0.25076 0.011308 1.1296 7.6983e-39 480.5 283.5 0 0 0 -0.79354 0.18569 -0.57949 0.0087112
0.25257 0.011961 1.1289 7.1913e-39 439 284 0 0 0 -0.76164 0.19584 -0.6177 0.012385
0.28559 0.011961 1.1289 6.2693e-39 467 284 0 0 0 0.46489 0.36122 -0.80833 0.0065225
0.28704 0.011306 1.1294 5.9927e-39 332.5 284 0 0 0 0.45597 0.36837 -0.81018 0.0063914
0.28884 0.011087 1.1296 6.3922e-39 288.67 284 0 0 0 0.4493 0.37366 -0.81148 0.0060425
0.25148 0.013294 1.1299 6.5459e-39 217 285 0 0 0 -0.78042 0.19708 -0.59339 0.010454
0.25257 0.013282 1.1289 6.4537e-39 218 285 0 0 0 -0.75777 0.20639 -0.61902 0.012842
0.28585 0.013294 1.1299 7.8366e-39 243 285 0 0 0 0.46681 0.34919 -0.8125 0.0067492
0.28849 0.013294 1.1299 8.021e-39 261 285 0 0 0 0.45229 0.35189 -0.81952 0.0068024
0.25148 0.015277 1.1299 6.7764e-39 372 285.5 0 0 0 -0.77432 0.21346 -0.59571 0.010974
0.25257 0.015263 1.1289 6.8225e-39 373 285.5 0 0 0 -0.74753 0.22172 -0.62613 0.01291
0.28294 0.015923 1.1289 7.9288e-39 409 286 0 0 0 0.48231 0.32874 -0.81197 0.0060331
0.28439 0.01527 1.1294 7.8366e-39 455.5 285.5 0 0 0 0.47776 0.33396 -0.81254 0.0068859
0.25257 0.017244 1.1289 8.2976e-39 512 286 0 0 0 -0.73685 0.2404 -0.63187 0.013184
0.2832 0.01726 1.1299 8.6664e-39 535 286 0 0 0 0.48205 0.31953 -0.8158 0.0064863
0.25257 0.019225 1.1289 7.1913e-39 284.5 287.5 0 0 0 -0.73009 0.2627 -0.63084 0.013742
0.2832 0.018582 1.1299 7.6522e-39 445 287 0 0 0 0.47939 0.3154 -0.81897 0.0063861
0.2528 0.021225 1.1299 7.8366e-39 451 288 0 0 0 -0.72841 0.29026 -0.62062 0.014328
0.28162 0.021206 1.1289 7.56e-39 473 288 0 0 0 0.474 0.31348 -0.82283 0.0066034
0.25389 0.022527 1.1289 6.5459e-39 226 289 0 0 0 -0.68772 0.30604 -0.65832 0.017644
0.25412 0.023869 1.1299 7.3757e-39 480 289 0 0 0 -0.6917 0.32629 -0.64428 0.018651
0.27898 0.023847 1.1289 6.6381e-39 504 289 0 0 0 0.4451 0.33992 -0.82846 0.0085619
0.28091 0.022981 1.1296 7.6215e-39 337.33 289 0 0 0 0.46189 0.31816 -0.82791 0.0072516
0.25412 0.025191 1.1299 7.56e-39 260 290 0 0 0 -0.68311 0.33644 -0.64821 0.019969
0.25521 0.02781 1.1289 7.6522e-39 400 291 0 0 0 -0.62819 0.36368 -0.68783 0.02441
0.25653 0.02781 1.1289 7.6522e-39 401 291 0 0 0 -0.59025 0.37751 -0.71351 0.030688
0.25544 0.029157 1.1299 7.9288e-39 526 291 0 0 0 -0.62903 0.37749 -0.67958 0.027382
0.25676 0.029157 1.1299 7.6522e-39 527 291 0 0 0 -0.59001 0.38536 -0.70949 0.031786
0.27713 0.029144 1.1294 8.2054e-39 544.5 291 0 0 0 0.37297 0.38544 -0.844 0.015416
0.2573 0.030465 1.1294 7.3296e-39 406.5 292 0 0 0 -0.54818 0.4109 -0.72846 0.03669
0.25809 0.031801 1.1299 8.3898e-39 539 292 0 0 0 -0.52692 0.41948 -0.73918 0.040526
0.27725 0.03114 1.1299 6.1771e-39 282 292.5 0 0 0 0.35861 0.38759 -0.84922 0.016059
0.25863 0.033108 1.1294 7.053e-39 415.5 293 0 0 0 -0.47583 0.43139 -0.76648 0.041475
0.27502 0.033092 1.1289 7.1913e-39 428 293 0 0 0 0.29374 0.42118 -0.85809 0.023133
0.25941 0.034445 1.1299 7.7444e-39 554 293 0 0 0 -0.44378 0.43756 -0.78205 0.045251
0.26061 0.03509 1.1294 7.5601e-39 495.5 293.5 0 0 0 -0.39597 0.44979 -0.80056 0.044847
0.26259 0.035751 1.1294 7.7905e-39 425.5 294 0 0 0 -0.28391 0.46864 -0.83652 0.049792
0.26511 0.035734 1.1289 7.4679e-39 427.5 294 0 0 0 -0.13376 0.47611 -0.86916 0.0522
0.26908 0.035734 1.1289 6.7764e-39 430.5 294 0 0 0 0.080982 0.46668 -0.88071 0.041363
0.27106 0.035734 1.1289 6.8225e-39 432 294 0 0 0 0.14378 0.46126 -0.87554 0.036407
0.27395 0.035767 1.1299 6.9147e-39 434 294 0 0 0 0.25022 0.43068 -0.86713 0.026094
0.27527 0.034445 1.1299 7.6522e-39 170 294 0 0 0 0.29192 0.41894 -0.85981 0.022509
0.26337 0.037088 1.1299 5.5317e-39 149 295 0 0 0 -0.21914 0.46391 -0.85835 0.047751
0.2647 0.037088 1.1299 5.6239e-39 150 295 0 0 0 -0.15144 0.46256 -0.87356 0.051612
0.26656 0.037071 1.1294 5.9927e-39 151.5 295 0 0 0 -0.050667 0.46699 -0.88281 0.048007
0.26932 0.037088 1.1299 7.053e-39 169.5 295 0 0 0 0.084861 0.45558 -0.88614 0.039974
0.27131 0.037088 1.1299 7.0991e-39 171 295 0 0 0 0.15405 0.444 -0.88268 0.035146
0.27329 0.037088 1.1299 7.1452e-39 199.5 295 0 0 0 0.23301 0.43138 -0.87156 0.026364
0.26734 0.039071 1.1299 6.7303e-39 316.5 295.5 0 0 0 -0.0043357 0.4503 -0.89287 0.043244
0.26734 0.041054 1.1299 7.1913e-39 436 296 0 0 0 -0.003976 0.43331 -0.90124 0.04182
0.26121 -0.038331 1.132 7.1913e-39 431 259 0 0 0 -0.20606 -0.88984 -0.40709 0.027811
0.26307 -0.038314 1.1314 6.592e-39 432.5 259 0 0 0 -0.15962 -0.90916 -0.38463 0.023416
0.26518 -0.038331 1.132 6.5459e-39 436 259 0 0 0 -0.069394 -0.93537 -0.34681 0.014607
0.26651 -0.038331 1.132 6.9147e-39 445 259 0 0 0 -0.03117 -0.94039 -0.33866 0.012027
0.257 -0.036973 1.1309 8.1132e-39 267 260 0 0 0 -0.37459 -0.80583 -0.4586 0.03932
0.25832 -0.036973 1.1309 7.56e-39 268 260 0 0 0 -0.32854 -0.82769 -0.45495 0.039058
0.27512 -0.037007 1.132 6.3615e-39 421.5 260 0 0 0 0.10172 -0.94825 -0.30079 0.00129
0.25128 -0.034358 1.132 5.67e-39 167 262 0 0 0 -0.5566 -0.61799 -0.55524 0.053369
0.25303 -0.034327 1.1309 5.6239e-39 182 262 0 0 0 -0.53865 -0.65997 -0.52373 0.050636
0.25513 -0.035666 1.1314 6.592e-39 238.5 261 0 0 0 -0.43663 -0.75463 -0.48978 0.047612
0.27975 -0.035682 1.132 9.404e-39 257 261 0 0 0 0.11782 -0.94418 -0.30763 0.0010775
0.28107 -0.035682 1.132 9.404e-39 258 261 0 0 0 0.11774 -0.94375 -0.30899 0.0011672
0.28306 -0.035682 1.132 8.8047e-39 259.5 261 0 0 0 0.11337 -0.94023 -0.3211 0.0018573
0.29405 -0.034327 1.1309 6.7303e-39 238 262 0 0 0 0.16696 -0.84439 -0.50904 0.033044
0.29895 -0.034358 1.132 6.2693e-39 241.5 262 0 0 0 0.17803 -0.79916 -0.57415 0.044699
0.30147 -0.034342 1.1314 6.2693e-39 243.5 262 0 0 0 0.19285 -0.76708 -0.61189 0.053189
0.30359 -0.034358 1.132 6.4537e-39 245 262 0 0 0 0.20375 -0.74704 -0.63279 0.056573
0.30491 -0.034358 1.132 6.8225e-39 246 262 0 0 0 0.20935 -0.72488 -0.65629 0.0595
0.30756 -0.034358 1.132 7.0069e-39 248 262 0 0 0 0.21197 -0.67766 -0.70416 0.06679
0.30926 -0.034327 1.1309 6.5459e-39 249.5 262 0 0 0 0.23217 -0.62449 -0.74573 0.070907
0.31153 -0.034358 1.132 6.3615e-39 251 262 0 0 0 0.22374 -0.58572 -0.77902 0.072931
0.31311 -0.034779 1.1313 6.5459e-39 308.33 261.67 0 0 0 0.21365 -0.57327 -0.79102 0.072918
0.31497 -0.03523 1.1316 6.3308e-39 365.67 261.33 0 0 0 0.19446 -0.56842 -0.79943 0.070429
0.31708 -0.034779 1.1313 7.1605e-39 311.33 261.67 0 0 0 0.21566 -0.47097 -0.85538 0.068905
0.31933 -0.035005 1.1314 8.0671e-39 341 261.5 0 0 0 0.25725 -0.43273 -0.86404 0.063441
0.3208 -0.03502 1.132 8.3898e-39 342 261.5 0 0 0 0.25284 -0.4212 -0.87101 0.061144
0.24796 -0.033034 1.132 7.6522e-39 450 262 0 0 0 -0.64008 -0.51768 -0.56772 0.050851
0.24929 -0.033034 1.132 7.2835e-39 451 262 0 0 0 -0.61018 -0.55407 -0.56629 0.053028
0.25104 -0.033004 1.1309 6.8686e-39 452.5 262 0 0 0 -0.59745 -0.58989 -0.54321 0.054159
0.31522 -0.033004 1.1309 6.6381e-39 189 263 0 0 0 0.264 -0.43195 -0.86239 0.068474
0.3172 -0.033004 1.1309 7.6061e-39 190.5 263 0 0 0 0.2765 -0.37678 -0.88408 0.062561
0.31919 -0.033004 1.1309 8.1132e-39 192 263 0 0 0 0.27918 -0.3512 -0.89371 0.058923
0.24532 -0.030385 1.132 5.7161e-39 183 264 0 0 0 -0.72554 -0.36605 -0.58275 0.047107
0.24719 -0.031032 1.1314 7.2835e-39 222.5 263.5 0 0 0 -0.69434 -0.42347 -0.58186 0.050951
0.24532 -0.029061 1.132 6.4537e-39 436 264 0 0 0 -0.7428 -0.33706 -0.57848 0.046228
0.24664 -0.029061 1.132 6.9147e-39 437 264 0 0 0 -0.735 -0.35006 -0.58071 0.047967
0.24532 -0.026412 1.132 4.8864e-39 476 265 0 0 0 -0.78054 -0.24796 -0.57383 0.041847
0.24719 -0.027062 1.1314 6.0849e-39 359.5 265 0 0 0 -0.76304 -0.3063 -0.56917 0.046323
0.31654 -0.026388 1.1309 7.8366e-39 223 266 0 0 0 0.35979 -0.12958 -0.92399 0.046602
0.31815 -0.026412 1.132 7.8366e-39 224 266 0 0 0 0.35086 -0.13269 -0.92698 0.045619
0.24532 -0.025088 1.132 6.7303e-39 415 266 0 0 0 -0.79708 -0.2022 -0.56901 0.037304
0.24719 -0.025076 1.1314 6.5459e-39 416.5 266 0 0 0 -0.79182 -0.22747 -0.56682 0.039873
0.31654 -0.025065 1.1309 8.021e-39 465 266 0 0 0 0.372 -0.078621 -0.9249 0.039656
0.31815 -0.025088 1.132 7.9288e-39 466 266 0 0 0 0.35993 -0.078604 -0.92966 0.040678
0.24532 -0.023101 1.132 6.9608e-39 352.5 267 0 0 0 -0.8147 -0.13689 -0.56349 0.029872
0.24652 -0.023091 1.1314 6.4998e-39 353.5 267 0 0 0 -0.81636 -0.1508 -0.5575 0.031218
0.31654 -0.02308 1.1309 7.4679e-39 313.5 267.5 0 0 0 0.39583 -0.016123 -0.91818 0.035884
0.24532 -0.021115 1.132 7.0991e-39 413 268 0 0 0 -0.83381 -0.080321 -0.54618 0.023446
0.24641 -0.021095 1.1309 6.5459e-39 415 268 0 0 0 -0.83127 -0.096332 -0.54746 0.025069
0.31389 -0.021095 1.1309 7.4678e-39 467 268 0 0 0 0.42 0.03391 -0.90689 0.030509
0.31522 -0.021095 1.1309 7.4678e-39 468 268 0 0 0 0.41332 0.045868 -0.90943 0.027689
0.31683 -0.021115 1.132 7.1913e-39 469 268 0 0 0 0.40402 0.051655 -0.91329 0.027282
0.24532 -0.019128 1.132 7.0529e-39 354.5 269 0 0 0 -0.84265 -0.034115 -0.53738 0.016934
0.24641 -0.019111 1.1309 6.5459e-39 355.5 269 0 0 0 -0.84502 -0.040384 -0.53321 0.018328
0.31389 -0.019111 1.1309 7.0069e-39 317 269.5 0 0 0 0.43305 0.09031 -0.89683 0.023352
0.31522 -0.019111 1.1309 7.053e-39 318 269.5 0 0 0 0.42568 0.10427 -0.89885 0.02095
0.31683 -0.019128 1.132 6.9608e-39 319 269.5 0 0 0 0.41488 0.12486 -0.90127 0.017798
0.24532 -0.017142 1.132 6.5459e-39 424 270 0 0 0 -0.85028 0.0088594 -0.52626 0.012339
0.24641 -0.017126 1.1309 6.5459e-39 425 270 0 0 0 -0.8481 0.00061265 -0.52984 0.012807
0.31389 -0.017126 1.1309 6.7303e-39 478 270 0 0 0 0.44575 0.16973 -0.87892 0.013753
0.31522 -0.017126 1.1309 6.2693e-39 479 270 0 0 0 0.43922 0.17998 -0.88017 0.012087
0.31683 -0.017142 1.132 6.3615e-39 480 270 0 0 0 0.42773 0.19513 -0.8826 0.0093386
0.24532 -0.015817 1.132 6.0849e-39 247 271 0 0 0 -0.8539 0.030369 -0.51955 0.0094201
0.24641 -0.015142 1.1309 6.131e-39 371 271 0 0 0 -0.85437 0.031221 -0.51873 0.0088351
0.31257 -0.01448 1.1309 7.1913e-39 241 272 0 0 0 0.46028 0.23455 -0.85623 0.0067228
0.31477 -0.015151 1.1317 6.7303e-39 331 271.5 0 0 0 0.44673 0.22505 -0.8659 0.0075785
0.31683 -0.015155 1.132 6.7764e-39 332.5 271.5 0 0 0 0.43824 0.23632 -0.86724 0.0062193
0.24719 -0.013163 1.1314 7.8366e-39 437.5 272 0 0 0 -0.85749 0.054399 -0.51162 0.0067483
0.30992 -0.013157 1.1309 5.3473e-39 485 272 0 0 0 0.47718 0.25781 -0.84014 0.0056392
0.31125 -0.013157 1.1309 4.6098e-39 486 272 0 0 0 0.4692 0.25926 -0.84418 0.005193
0.31286 -0.013169 1.132 4.0566e-39 487 272 0 0 0 0.46014 0.26293 -0.84802 0.0045584
0.24652 -0.011177 1.1314 5.0246e-39 400.5 273 0 0 0 -0.85902 0.073303 -0.50667 0.005599
0.3086 -0.011172 1.1309 6.592e-39 341 273.5 0 0 0 0.48334 0.2787 -0.82989 0.004824
0.31087 -0.011182 1.132 6.3615e-39 342.5 273.5 0 0 0 0.46681 0.27741 -0.83972 0.0042547
0.31286 -0.011844 1.132 6.5459e-39 433 273 0 0 0 0.45961 0.27468 -0.84457 0.0040267
0.24641 -0.0091872 1.1309 7.4678e-39 454 274 0 0 0 -0.85932 0.088507 -0.50372 0.0049665
0.30728 -0.0091872 1.1309 3.319e-39 532 274 0 0 0 0.48343 0.28718 -0.82693 0.0049126
0.30888 -0.0091956 1.132 3.319e-39 533 274 0 0 0 0.47977 0.28337 -0.83037 0.0047841
0.24641 -0.0072025 1.1309 7.2374e-39 420 275 0 0 0 -0.85846 0.10091 -0.50286 0.004848
0.30596 -0.0078641 1.1309 7.1913e-39 444 275 0 0 0 0.48841 0.29585 -0.82093 0.0048952
0.30712 -0.0069884 1.132 7.4986e-39 330 275.67 0 0 0 0.47497 0.30231 -0.82645 0.0046657
0.30888 -0.0078713 1.132 7.3757e-39 446 275 0 0 0 0.47596 0.29098 -0.82993 0.0047748
0.24664 -0.0052226 1.132 8.1132e-39 478 276 0 0 0 -0.86266 0.11706 -0.49204 0.0050363
0.30624 -0.0052226 1.132 7.3757e-39 547 276 0 0 0 0.47567 0.31504 -0.82127 0.0048218
0.24664 -0.0032361 1.132 6.0388e-39 302 277.5 0 0 0 -0.8602 0.12675 -0.49395 0.0051089
0.30463 -0.0032331 1.1309 7.3757e-39 368.5 277.5 0 0 0 0.47407 0.3323 -0.81537 0.0049207
0.30624 -0.0038982 1.132 7.56e-39 464 277 0 0 0 0.47049 0.3235 -0.82097 0.0049117
0.24774 -0.0012484 1.1309 7.8366e-39 469 278 0 0 0 -0.84705 0.13736 -0.51345 0.0057976
0.30491 -0.0012496 1.132 4.702e-39 512 278 0 0 0 0.46505 0.34355 -0.81591 0.0046965
0.24774 0.00073631 1.1309 5.6701e-39 379.5 279 0 0 0 -0.84243 0.14492 -0.51895 0.0060636
0.30133 0.0013979 1.1309 7.3296e-39 538.5 279 0 0 0 0.45823 0.3658 -0.81007 0.005035
0.30345 0.00073691 1.1314 7.053e-39 478 279 0 0 0 0.4602 0.35691 -0.81292 0.0048015
0.24774 0.002721 1.1309 7.0991e-39 400 280 0 0 0 -0.83922 0.14986 -0.52274 0.0066351
0.29934 0.002721 1.1309 6.7303e-39 439 280 0 0 0 0.45114 0.37642 -0.80918 0.0051424
0.30094 0.0027235 1.132 7.2835e-39 440 280 0 0 0 0.45196 0.36996 -0.8117 0.0052769
0.30226 0.0027235 1.132 7.6522e-39 441 280 0 0 0 0.4518 0.36677 -0.81324 0.00517
0.24774 0.0047056 1.1309 6.7303e-39 480.5 280.5 0 0 0 -0.83891 0.15352 -0.52217 0.0067394
0.29882 0.0047075 1.1314 6.638e-39 344.5 281 0 0 0 0.44338 0.37963 -0.81197 0.0052119
0.30094 0.0040478 1.132 6.1771e-39 217 281 0 0 0 0.44813 0.37188 -0.81295 0.0053071
0.24774 0.0066904 1.1309 5.7161e-39 206 282 0 0 0 -0.83685 0.16472 -0.52206 0.0066981
0.29537 0.0066904 1.1309 6.0849e-39 271 282 0 0 0 0.44432 0.38399 -0.8094 0.0054202
0.29669 0.0066904 1.1309 5.9927e-39 272 282 0 0 0 0.44141 0.38283 -0.81154 0.0054153
0.29829 0.0066965 1.132 5.4395e-39 273 282 0 0 0 0.43598 0.37913 -0.8162 0.0055456
0.24796 0.0086831 1.132 6.3154e-39 375 282.5 0 0 0 -0.84289 0.1735 -0.50936 0.0059503
0.2914 0.0093366 1.1309 6.9147e-39 423 283 0 0 0 0.44346 0.37925 -0.8121 0.005865
0.29272 0.0093366 1.1309 7.0069e-39 424 283 0 0 0 0.44332 0.37785 -0.81283 0.0057326
0.29484 0.0086791 1.1314 8.6663e-39 468 282.5 0 0 0 0.441 0.37454 -0.81562 0.0058342
0.29697 0.0080209 1.132 1.2078e-38 512 282 0 0 0 0.43725 0.37398 -0.8179 0.005794
0.24796 0.011332 1.132 7.2374e-39 478 283.5 0 0 0 -0.83745 0.18336 -0.51484 0.005766
0.24906 0.011321 1.1309 7.3757e-39 479 283.5 0 0 0 -0.82514 0.18324 -0.53439 0.0068695
0.29114 0.011549 1.1316 6.3922e-39 380.33 284 0 0 0 0.44115 0.36343 -0.82055 0.00656
0.29285 0.011327 1.1314 6.4076e-39 339 284 0 0 0 0.43843 0.36449 -0.82154 0.0063709
0.29432 0.011332 1.132 6.6381e-39 340 284 0 0 0 0.43669 0.356 -0.82617 0.006349
0.24906 0.013306 1.1309 5.9927e-39 215 285 0 0 0 -0.82096 0.19248 -0.53756 0.0064006
0.25038 0.013306 1.1309 6.1771e-39 216 285 0 0 0 -0.80985 0.19459 -0.55342 0.0076396
0.28743 0.013306 1.1309 7.56e-39 244 285 0 0 0 0.45403 0.34678 -0.82073 0.0069272
0.29101 0.013318 1.132 7.9288e-39 262.5 285 0 0 0 0.44048 0.3469 -0.82803 0.0070185
0.29299 0.013318 1.132 7.4678e-39 264 285 0 0 0 0.43208 0.34467 -0.83337 0.0069425
0.24929 0.015305 1.132 7.2835e-39 370 285.5 0 0 0 -0.8244 0.20371 -0.52807 0.0059222
0.25038 0.015291 1.1309 7.0069e-39 371 285.5 0 0 0 -0.80273 0.20928 -0.55842 0.007926
0.28684 0.015294 1.1312 7.537e-39 457 285.5 0 0 0 0.45939 0.33413 -0.82299 0.0072926
0.28888 0.015298 1.1314 7.1913e-39 458.5 285.5 0 0 0 0.44764 0.33393 -0.82952 0.0073038
0.29034 0.014643 1.132 8.1132e-39 505 285 0 0 0 0.44249 0.33376 -0.83235 0.0074015
0.24929 0.017291 1.132 7.4678e-39 509 286 0 0 0 -0.82055 0.21787 -0.52842 0.0060461
0.25116 0.017283 1.1314 7.9288e-39 510.5 286 0 0 0 -0.79637 0.22957 -0.55955 0.0086044
0.28479 0.017275 1.1309 8.943e-39 536 286 0 0 0 0.47321 0.31999 -0.82078 0.0073029
0.28637 0.017291 1.132 8.8508e-39 537 286 0 0 0 0.45854 0.31704 -0.8302 0.0076547
0.25116 0.019269 1.1314 7.4909e-39 283 287.5 0 0 0 -0.78188 0.25416 -0.56927 0.010217
0.28346 0.019922 1.1309 6.9147e-39 220 288 0 0 0 0.47573 0.30886 -0.82358 0.0070296
0.28505 0.019278 1.132 7.2835e-39 333.5 287.5 0 0 0 0.46431 0.30372 -0.83197 0.0078743
0.28637 0.018616 1.132 8.2976e-39 447 287 0 0 0 0.45571 0.30402 -0.8366 0.0077633
0.25171 0.021245 1.1309 7.7444e-39 450 288 0 0 0 -0.75808 0.27954 -0.58922 0.012496
0.28346 0.021245 1.1309 7.56e-39 474 288 0 0 0 0.46981 0.30539 -0.82826 0.007249
0.28505 0.021264 1.132 7.1913e-39 475 288 0 0 0 0.45896 0.29445 -0.83825 0.0077448
0.25194 0.023251 1.132 7.1452e-39 351 289 0 0 0 -0.75608 0.29855 -0.58241 0.013473
0.25303 0.02323 1.1309 7.3296e-39 352 289 0 0 0 -0.72654 0.30969 -0.61338 0.015553
0.28319 0.023464 1.1316 7.3449e-39 422.67 289 0 0 0 0.45891 0.30313 -0.83518 0.0079003
0.28505 0.023251 1.132 7.3757e-39 382 289 0 0 0 0.45118 0.29044 -0.84385 0.0077616
0.25194 0.025237 1.132 7.4678e-39 258 290 0 0 0 -0.74721 0.31495 -0.58522 0.014853
0.25303 0.025214 1.1309 7.6522e-39 259 290 0 0 0 -0.71581 0.32667 -0.61718 0.016941
0.27949 0.025214 1.1309 6.5459e-39 397 290 0 0 0 0.44149 0.3381 -0.83113 0.0088857
0.28082 0.025214 1.1309 6.5459e-39 398 290 0 0 0 0.44514 0.325 -0.8344 0.0083386
0.28214 0.025214 1.1309 7.2835e-39 399 290 0 0 0 0.44943 0.3166 -0.83533 0.0081258
0.25194 0.026562 1.132 7.0991e-39 508 290 0 0 0 -0.7407 0.32478 -0.58812 0.016069
0.25303 0.027199 1.1309 6.8686e-39 453.5 290.5 0 0 0 -0.70341 0.34419 -0.62189 0.018841
0.25435 0.027199 1.1309 7.3296e-39 454.5 290.5 0 0 0 -0.68205 0.35218 -0.64091 0.021417
0.27962 0.027211 1.1314 8.0671e-39 474.5 290.5 0 0 0 0.42399 0.34352 -0.83799 0.0099957
0.28107 0.026562 1.132 8.2054e-39 532 290 0 0 0 0.43499 0.32828 -0.83846 0.0088551
0.2824 0.027224 1.132 7.3757e-39 476.5 290.5 0 0 0 0.43304 0.31972 -0.84276 0.0088135
0.25326 0.02921 1.132 7.0991e-39 520 291 0 0 0 -0.6975 0.35209 -0.62412 0.021172
0.25435 0.029184 1.1309 7.7444e-39 523 291 0 0 0 -0.66878 0.36033 -0.6503 0.023743
0.25513 0.031183 1.1314 7.4218e-39 470.5 292 0 0 0 -0.63527 0.37738 -0.67381 0.028713
0.257 0.03183 1.1309 8.482e-39 538 292 0 0 0 -0.57626 0.40799 -0.70814 0.036256
0.25591 0.033183 1.132 7.7444e-39 413 293 0 0 0 -0.60916 0.38823 -0.69152 0.034889
0.257 0.033153 1.1309 7.6522e-39 414 293 0 0 0 -0.57255 0.404 -0.71342 0.036725
0.27685 0.033153 1.1309 6.7303e-39 429 293 0 0 0 0.33048 0.39708 -0.85622 0.017901
0.27817 0.033153 1.1309 6.6381e-39 430 293 0 0 0 0.35846 0.38531 -0.85032 0.014153
0.25591 0.034508 1.132 8.482e-39 546 293 0 0 0 -0.59743 0.38399 -0.70401 0.037665
0.25724 0.034508 1.132 8.5742e-39 547 293 0 0 0 -0.55715 0.39961 -0.72794 0.040569
0.25884 0.035369 1.1313 7.4064e-39 466 293.67 0 0 0 -0.47335 0.42378 -0.77224 0.047278
0.27552 0.035799 1.1309 7.0991e-39 435 294 0 0 0 0.28308 0.41835 -0.86305 0.021316
0.2771 0.03517 1.132 7.2835e-39 303.5 294 0 0 0 0.32758 0.40091 -0.85555 0.015809
0.27842 0.03517 1.132 7.6983e-39 317.5 294 0 0 0 0.34582 0.39034 -0.85326 0.013342
0.25988 0.037156 1.132 5.7161e-39 146 295 0 0 0 -0.43339 0.42636 -0.79397 0.049319
0.26121 0.037156 1.132 5.5317e-39 147 295 0 0 0 -0.37283 0.43722 -0.81844 0.053784
0.26229 0.037122 1.1309 5.5317e-39 148 295 0 0 0 -0.30209 0.45593 -0.83718 0.051453
0.27552 0.037122 1.1309 7.1913e-39 201 295 0 0 0 0.27856 0.41812 -0.86463 0.020147
0.27842 0.037156 1.132 8.021e-39 204 295 0 0 0 0.3333 0.39653 -0.85538 0.012877
0.26121 0.038481 1.132 7.4678e-39 427 295 0 0 0 -0.34479 0.42863 -0.8351 0.052167
0.26307 0.039125 1.1314 6.569e-39 299.5 295.5 0 0 0 -0.25772 0.44054 -0.85994 0.050762
0.26494 0.039108 1.1309 7.1452e-39 314.5 295.5 0 0 0 -0.14004 0.43662 -0.88868 0.049186
0.26626 0.039108 1.1309 6.9147e-39 315.5 295.5 0 0 0 -0.082326 0.43752 -0.89543 0.049996
0.26891 0.039108 1.1309 7.1913e-39 317.5 295.5 0 0 0 0.055775 0.44209 -0.89523 0.040467
0.27101 0.039125 1.1314 7.4218e-39 319.5 295.5 0 0 0 0.14969 0.42401 -0.8932 0.033823
0.27301 0.039126 1.1314 7.4679e-39 321 295.5 0 0 0 0.20523 0.42207 -0.88303 0.027893
0.27512 0.039143 1.132 7.6292e-39 322.5 295.5 0 0 0 0.26835 0.41309 -0.87025 0.019927
0.26319 0.041129 1.132 7.053e-39 432.5 296 0 0 0 -0.21639 0.42221 -0.88029 0.049204
0.26494 0.041092 1.1309 7.0991e-39 434 296 0 0 0 -0.12669 0.42452 -0.89651 0.04669
0.26626 0.041092 1.1309 7.0069e-39 435 296 0 0 0 -0.049986 0.43071 -0.9011 0.044327
0.26891 0.041092 1.1309 7.56e-39 437 296 0 0 0 0.072178 0.41996 -0.90467 0.037717
0.2718 0.041129 1.132 7.2835e-39 439 296 0 0 0 0.17277 0.40689 -0.89699 0.029743
0.27313 0.041129 1.132 6.9147e-39 440 296 0 0 0 0.21155 0.40957 -0.88741 0.02565
0.27445 0.041129 1.132 6.8225e-39 441 296 0 0 0 0.24969 0.40595 -0.87912 0.021425
0.26518 0.043116 1.132 7.3296e-39 318.5 297 0 0 0 -0.094669 0.39046 -0.91574 0.04466
0.26711 0.043106 1.1317 7.3296e-39 320 297 0 0 0 0.004224 0.39311 -0.91948 0.039192
0.26915 0.043116 1.132 7.6522e-39 321.5 297 0 0 0 0.073416 0.39595 -0.91533 0.038247
0.2718 0.042454 1.132 7.0069e-39 208 297 0 0 0 0.18055 0.39948 -0.89879 0.028372
0.26783 0.045102 1.132 7.4678e-39 194 298 0 0 0 0.028546 0.37294 -0.92742 0.037709
0.25692 -0.038384 1.1335 7.1452e-39 427.5 259 0 0 0 -0.31888 -0.83286 -0.45239 0.033755
0.25903 -0.038402 1.134 7.1913e-39 429 259 0 0 0 -0.23685 -0.86901 -0.43442 0.031475
0.26012 -0.038366 1.133 7.2835e-39 430 259 0 0 0 -0.21627 -0.88458 -0.41321 0.028797
0.26301 -0.039728 1.134 6.4537e-39 452 258 0 0 0 -0.10418 -0.92017 -0.37739 0.017834
0.27073 -0.038366 1.133 6.9147e-39 448 259 0 0 0 0.058818 -0.94764 -0.31389 0.0055402
0.25505 -0.037075 1.134 8.482e-39 265 260 0 0 0 -0.38874 -0.77624 -0.49632 0.040724
0.25615 -0.037041 1.133 8.482e-39 266 260 0 0 0 -0.37314 -0.79468 -0.4788 0.040644
0.27735 -0.037041 1.133 6.4537e-39 423 260 0 0 0 0.10843 -0.94765 -0.30034 0.00091009
0.27894 -0.037075 1.134 6.6381e-39 424 260 0 0 0 0.10947 -0.94678 -0.30269 0.00099202
0.24577 -0.034421 1.134 5.5317e-39 149 262 0 0 0 -0.6194 -0.51968 -0.58845 0.048616
0.24687 -0.03439 1.133 5.6239e-39 150 262 0 0 0 -0.61549 -0.53865 -0.57535 0.049226
0.24885 -0.03439 1.133 5.5317e-39 151.5 262 0 0 0 -0.58645 -0.57707 -0.56839 0.051352
0.25107 -0.035748 1.134 5.9005e-39 235 261 0 0 0 -0.50216 -0.66876 -0.54827 0.048027
0.25295 -0.035732 1.1335 6.4076e-39 236.5 261 0 0 0 -0.47019 -0.71101 -0.52286 0.047385
0.28557 -0.035748 1.134 8.5742e-39 261 261 0 0 0 0.092606 -0.93879 -0.33182 0.002066
0.28729 -0.035715 1.133 8.6664e-39 262.5 261 0 0 0 0.087745 -0.9365 -0.33952 0.0022992
0.28928 -0.035715 1.133 8.7586e-39 264 261 0 0 0 0.077769 -0.9321 -0.35376 0.003062
0.29088 -0.035748 1.134 8.7586e-39 265 261 0 0 0 0.060554 -0.93187 -0.3577 0.0022446
0.29286 -0.035748 1.134 8.1132e-39 266.5 261 0 0 0 0.081708 -0.91173 -0.40258 0.0097962
0.29685 -0.035748 1.134 7.053e-39 269.5 261 0 0 0 0.12337 -0.86643 -0.48381 0.026077
0.30282 -0.035748 1.134 8.5742e-39 274 261 0 0 0 0.14232 -0.80906 -0.57023 0.04211
0.30652 -0.03439 1.133 6.9147e-39 247 262 0 0 0 0.20259 -0.71012 -0.67431 0.063272
0.30865 -0.035732 1.1335 6.9146e-39 392.5 261 0 0 0 0.16104 -0.71605 -0.67922 0.062753
0.31116 -0.035715 1.133 6.7764e-39 418.5 261 0 0 0 0.18158 -0.67717 -0.71307 0.070284
0.31845 -0.035715 1.133 6.4537e-39 424 261 0 0 0 0.19131 -0.51881 -0.83321 0.067603
0.32309 -0.035715 1.133 7.053e-39 427.5 261 0 0 0 0.27199 -0.43223 -0.85977 0.062272
0.32522 -0.035069 1.1335 7.8366e-39 344 261.5 0 0 0 0.31125 -0.37986 -0.87111 0.055889
0.3267 -0.035085 1.134 7.6983e-39 345 261.5 0 0 0 0.31741 -0.38738 -0.86556 0.058853
0.32869 -0.035748 1.134 6.8225e-39 445.5 261 0 0 0 0.34494 -0.37451 -0.86068 0.055101
0.24499 -0.033079 1.1335 7.053e-39 447.5 262 0 0 0 -0.66362 -0.45537 -0.5935 0.046959
0.24687 -0.033064 1.133 7.6522e-39 449 262 0 0 0 -0.64381 -0.49561 -0.58299 0.050815
0.24311 -0.031105 1.134 6.8224e-39 219 263.5 0 0 0 -0.70427 -0.38086 -0.59912 0.043862
0.24466 -0.031297 1.133 7.7137e-39 233 263.33 0 0 0 -0.70136 -0.40837 -0.58423 0.046294
0.24687 -0.031739 1.133 8.482e-39 260 263 0 0 0 -0.6798 -0.45191 -0.57763 0.05049
0.24311 -0.029114 1.134 7.0991e-39 430 264 0 0 0 -0.74893 -0.29836 -0.59168 0.041386
0.24422 -0.029087 1.133 6.4537e-39 434 264 0 0 0 -0.74999 -0.30542 -0.58672 0.044576
0.24311 -0.027124 1.134 5.9927e-39 356 265 0 0 0 -0.77411 -0.2465 -0.58309 0.038809
0.24466 -0.02732 1.133 5.9313e-39 318 265 0 0 0 -0.7675 -0.27849 -0.57739 0.043473
0.31977 -0.027099 1.133 6.9147e-39 297 265.5 0 0 0 0.34192 -0.13771 -0.92958 0.04526
0.3211 -0.027099 1.133 6.592e-39 298 265.5 0 0 0 0.35386 -0.12116 -0.92742 0.0414
0.32272 -0.027124 1.134 6.9147e-39 314.5 265.5 0 0 0 0.35839 -0.11162 -0.92687 0.03793
0.32405 -0.027124 1.134 6.7764e-39 315.5 265.5 0 0 0 0.3785 -0.094194 -0.92079 0.034519
0.24311 -0.025134 1.134 7.56e-39 412 266 0 0 0 -0.80637 -0.16585 -0.56769 0.031747
0.24422 -0.025111 1.133 7.4678e-39 413 266 0 0 0 -0.79967 -0.18882 -0.56999 0.034435
0.31977 -0.025111 1.133 7.9288e-39 467 266 0 0 0 0.37111 -0.07995 -0.92514 0.040638
0.3211 -0.025111 1.133 7.9288e-39 468 266 0 0 0 0.36789 -0.06434 -0.92764 0.036648
0.32272 -0.025134 1.134 7.56e-39 469 266 0 0 0 0.382 -0.045628 -0.92303 0.033367
0.32405 -0.025134 1.134 7.4678e-39 470 266 0 0 0 0.38875 -0.034582 -0.92069 0.029933
0.24311 -0.023144 1.134 7.053e-39 350.5 267 0 0 0 -0.82512 -0.11303 -0.55354 0.027128
0.24444 -0.023144 1.134 7.0991e-39 351.5 267 0 0 0 -0.81982 -0.13229 -0.55713 0.029136
0.31889 -0.023343 1.133 6.9454e-39 344.67 267.33 0 0 0 0.38178 -0.00073388 -0.92425 0.032054
0.32085 -0.022915 1.1337 7.0991e-39 286.33 267.67 0 0 0 0.38829 0.031771 -0.92099 0.027187
0.32272 -0.023807 1.134 6.4537e-39 407 267 0 0 0 0.38789 0.018234 -0.92153 0.026526
0.32405 -0.023807 1.134 6.5459e-39 408 267 0 0 0 0.39875 0.038641 -0.91624 0.02232
0.24311 -0.021153 1.134 7.56e-39 411 268 0 0 0 -0.83941 -0.064368 -0.53968 0.022185
0.24444 -0.021153 1.134 7.3757e-39 412 268 0 0 0 -0.83192 -0.077947 -0.54939 0.023647
0.31845 -0.021134 1.133 7.0991e-39 470 268 0 0 0 0.39575 0.056964 -0.91659 0.024965
0.32073 -0.021153 1.134 7.2374e-39 471.5 268 0 0 0 0.40623 0.091617 -0.90917 0.020369
0.24311 -0.019164 1.134 7.2374e-39 352.5 269 0 0 0 -0.84859 -0.013427 -0.52889 0.016133
0.24444 -0.019164 1.134 7.2835e-39 353.5 269 0 0 0 -0.8454 -0.02326 -0.53362 0.017521
0.31845 -0.019146 1.133 6.7764e-39 320 269.5 0 0 0 0.4071 0.14156 -0.90235 0.015003
0.32073 -0.019164 1.134 7.053e-39 321.5 269.5 0 0 0 0.41471 0.16548 -0.89478 0.011195
0.24311 -0.017173 1.134 6.8225e-39 422 270 0 0 0 -0.85564 0.028214 -0.5168 0.011301
0.24444 -0.017173 1.134 6.5459e-39 423 270 0 0 0 -0.85623 0.021803 -0.51614 0.012039
0.31845 -0.017157 1.133 6.2693e-39 481 270 0 0 0 0.41905 0.20973 -0.88341 0.0074678
0.32073 -0.017173 1.134 5.3934e-39 482.5 270 0 0 0 0.42582 0.22525 -0.87632 0.0062466
0.24311 -0.015846 1.134 6.6381e-39 245 271 0 0 0 -0.86174 0.048578 -0.50503 0.009297
0.24481 -0.014957 1.1337 6.0234e-39 410.33 271 0 0 0 -0.86051 0.048872 -0.50709 0.0088121
0.31859 -0.015176 1.1335 6.6842e-39 333.5 271.5 0 0 0 0.4304 0.25377 -0.86623 0.0045732
0.32007 -0.015846 1.134 6.5459e-39 425 271 0 0 0 0.42785 0.2477 -0.86925 0.0047938
0.24554 -0.013181 1.133 7.1913e-39 436 272 0 0 0 -0.86279 0.064588 -0.50142 0.0070166
0.31514 -0.013181 1.133 4.6098e-39 488.5 272 0 0 0 0.45014 0.26644 -0.85228 0.0041441
0.31712 -0.013181 1.133 4.9786e-39 490 272 0 0 0 0.44288 0.27223 -0.85425 0.0038985
0.31874 -0.013193 1.134 4.6098e-39 491 272 0 0 0 0.43681 0.27758 -0.85566 0.0037021
0.24554 -0.011192 1.133 4.7942e-39 399.5 273 0 0 0 -0.86685 0.082895 -0.49164 0.0061869
0.31314 -0.01053 1.133 6.0849e-39 255 274 0 0 0 0.45795 0.27517 -0.84532 0.0038993
0.31476 -0.011202 1.134 6.4998e-39 345 273.5 0 0 0 0.45017 0.27602 -0.84921 0.003754
0.31675 -0.011202 1.134 6.4306e-39 346.5 273.5 0 0 0 0.44414 0.27827 -0.85165 0.0037122
0.24554 -0.0092041 1.133 7.4678e-39 453 274 0 0 0 -0.86886 0.095063 -0.48585 0.0057983
0.31116 -0.0092041 1.133 3.0886e-39 534.5 274 0 0 0 0.45829 0.28188 -0.84292 0.0040192
0.31314 -0.0092041 1.133 3.319e-39 536 274 0 0 0 0.45533 0.28031 -0.84505 0.0038552
0.24566 -0.0072188 1.1335 7.1452e-39 419 275 0 0 0 -0.87303 0.10631 -0.47594 0.0057502
0.30917 -0.0065529 1.133 7.3757e-39 274 276 0 0 0 0.46614 0.29957 -0.83245 0.0045183
0.31064 -0.0072188 1.1335 7.3296e-39 361 275.5 0 0 0 0.46234 0.28977 -0.83802 0.0041375
0.31277 -0.0072223 1.134 6.9378e-39 408 275.5 0 0 0 0.45733 0.29065 -0.84046 0.0036812
0.24577 -0.0052322 1.134 8.2054e-39 477 276 0 0 0 -0.87532 0.11879 -0.46873 0.0055205
0.30784 -0.0052274 1.133 7.1913e-39 548 276 0 0 0 0.46895 0.31192 -0.82631 0.0046055
0.30917 -0.0052274 1.133 7.3757e-39 549 276 0 0 0 0.46481 0.30783 -0.83017 0.0042656
0.31078 -0.0052322 1.134 7.6522e-39 550 276 0 0 0 0.45352 0.3073 -0.83659 0.0036529
0.31211 -0.0052322 1.134 7.56e-39 563 276 0 0 0 0.45705 0.30485 -0.83557 0.0034134
0.24577 -0.0039054 1.134 6.6381e-39 416 277 0 0 0 -0.876 0.12289 -0.46639 0.0054133
0.30718 -0.0032391 1.133 7.4678e-39 370 277.5 0 0 0 0.46404 0.32638 -0.8235 0.0045744
0.30892 -0.0030197 1.1337 6.6688e-39 399 277.67 0 0 0 0.46133 0.32077 -0.82721 0.004183
0.31078 -0.003242 1.134 7.0068e-39 417 277.5 0 0 0 0.45601 0.31739 -0.83146 0.003668
0.24687 -0.0012507 1.133 7.3757e-39 468 278 0 0 0 -0.86416 0.13596 -0.4845 0.0052699
0.3068 -0.0012518 1.134 5.5317e-39 513 278 0 0 0 0.45671 0.33681 -0.82339 0.0042486
0.30879 -0.0012518 1.134 5.7622e-39 514.5 278 0 0 0 0.45418 0.33366 -0.82607 0.0037691
0.24687 0.00073763 1.133 6.2233e-39 378.5 279 0 0 0 -0.86276 0.14129 -0.48547 0.0055242
0.30519 0.00073763 1.133 7.0069e-39 479 279 0 0 0 0.45641 0.35079 -0.8177 0.0045741
0.3068 7.4927e-05 1.134 6.1771e-39 418 279 0 0 0 0.45265 0.3445 -0.82245 0.0042031
0.24687 0.002726 1.133 7.0991e-39 399 280 0 0 0 -0.8621 0.14516 -0.48551 0.0055558
0.30387 0.002726 1.133 7.7444e-39 442 280 0 0 0 0.44993 0.36022 -0.81719 0.0048738
0.30547 0.0027285 1.134 7.6522e-39 443 280 0 0 0 0.44886 0.3542 -0.82041 0.0043389
0.24687 0.0047143 1.133 6.9608e-39 479.5 280.5 0 0 0 -0.86145 0.15136 -0.48476 0.0052645
0.29989 0.0053771 1.133 7.4678e-39 475 281 0 0 0 0.442 0.37353 -0.81555 0.0055365
0.30121 0.0053771 1.133 7.1913e-39 476 281 0 0 0 0.44075 0.37036 -0.81766 0.0052601
0.30298 0.0044934 1.133 6.3615e-39 304.67 281 0 0 0 0.44345 0.36374 -0.81917 0.005052
0.3048 0.0047187 1.134 6.5459e-39 349 281 0 0 0 0.44371 0.35607 -0.82239 0.0044427
0.24687 0.0067027 1.133 6.3615e-39 199 282 0 0 0 -0.8584 0.16121 -0.48698 0.0050361
0.29989 0.0067027 1.133 5.0708e-39 274 282 0 0 0 0.43633 0.37145 -0.81954 0.0056196
0.30149 0.0067088 1.134 4.9786e-39 275 282 0 0 0 0.43702 0.36563 -0.82178 0.0052603
0.30282 0.0067088 1.134 5.2552e-39 276 282 0 0 0 0.4375 0.36272 -0.82282 0.0049407
0.24687 0.008691 1.133 6.4537e-39 374 282.5 0 0 0 -0.85509 0.17146 -0.48931 0.0049242
0.29724 0.0093538 1.133 6.7303e-39 427 283 0 0 0 0.43406 0.36424 -0.82397 0.0061413
0.29856 0.008691 1.133 9.2195e-39 470.5 282.5 0 0 0 0.43289 0.36562 -0.82397 0.0058424
0.30082 0.008699 1.134 7.9057e-39 472 282.5 0 0 0 0.43388 0.36124 -0.82538 0.0057808
0.30282 0.008699 1.134 7.3296e-39 473.5 282.5 0 0 0 0.43705 0.35688 -0.8256 0.0052928
0.24687 0.010679 1.133 7.56e-39 520 283 0 0 0 -0.85178 0.17964 -0.49214 0.0048416
0.29591 0.010679 1.133 5.9005e-39 209 284 0 0 0 0.43342 0.35638 -0.82773 0.006149
0.29724 0.010679 1.133 6.1771e-39 210 284 0 0 0 0.43081 0.35623 -0.82916 0.0060829
0.29884 0.010689 1.134 6.6381e-39 211 284 0 0 0 0.42841 0.35227 -0.83209 0.0062139
0.24698 0.012674 1.1335 6.8225e-39 323.5 284.5 0 0 0 -0.85105 0.18504 -0.49141 0.0048657
0.24819 0.01333 1.133 6.1771e-39 214 285 0 0 0 -0.84524 0.18911 -0.49981 0.004919
0.29547 0.012888 1.133 7.56e-39 335 284.67 0 0 0 0.43272 0.34037 -0.83481 0.0067408
0.29751 0.01268 1.134 7.4679e-39 371 284.5 0 0 0 0.43008 0.33898 -0.83673 0.006674
0.29884 0.012016 1.134 7.0069e-39 476 284 0 0 0 0.42932 0.34453 -0.83486 0.0067845
0.24709 0.015332 1.134 7.053e-39 368 285.5 0 0 0 -0.85234 0.19632 -0.48474 0.0042068
0.24819 0.015319 1.133 7.2374e-39 369 285.5 0 0 0 -0.84148 0.20044 -0.50173 0.0047467
0.2915 0.01554 1.133 7.4679e-39 445 285.67 0 0 0 0.4337 0.32083 -0.842 0.0072552
0.29326 0.015319 1.133 8.0671e-39 461.5 285.5 0 0 0 0.42828 0.32369 -0.84369 0.0071549
0.29459 0.015319 1.133 7.9749e-39 462.5 285.5 0 0 0 0.42896 0.32532 -0.84271 0.0069138
0.29662 0.015111 1.134 8.0517e-39 479 285.33 0 0 0 0.43011 0.3198 -0.84423 0.0069925
0.24842 0.017323 1.134 7.3757e-39 508 286 0 0 0 -0.83955 0.21469 -0.49906 0.0045679
0.28796 0.017307 1.133 7.9288e-39 568 286 0 0 0 0.44523 0.31044 -0.83988 0.0075634
0.28928 0.017307 1.133 5.9927e-39 140 287 0 0 0 0.43919 0.30822 -0.84387 0.0073441
0.29061 0.017307 1.133 5.9927e-39 141 287 0 0 0 0.43817 0.30796 -0.84449 0.0071263
0.29286 0.017323 1.134 6.9607e-39 142.5 287 0 0 0 0.42864 0.30358 -0.85095 0.0068344
0.29486 0.017323 1.134 7.9288e-39 144 287 0 0 0 0.42739 0.30629 -0.8506 0.0067974
0.29618 0.017323 1.134 7.56e-39 145 287 0 0 0 0.42611 0.30218 -0.85271 0.0066184
0.24915 0.01908 1.1333 7.4986e-39 327 287.33 0 0 0 -0.82443 0.233 -0.51578 0.0056447
0.28729 0.019296 1.133 7.4679e-39 335 287.5 0 0 0 0.44677 0.29601 -0.84426 0.0074581
0.28902 0.019529 1.1337 7.1298e-39 298.67 287.67 0 0 0 0.43405 0.29064 -0.85272 0.0066629
0.29088 0.019313 1.134 7.0529e-39 337.5 287.5 0 0 0 0.43452 0.28761 -0.85351 0.0066183
0.2922 0.019313 1.134 6.8685e-39 338.5 287.5 0 0 0 0.4293 0.29105 -0.85498 0.0064142
0.24975 0.021303 1.134 7.7444e-39 448 288 0 0 0 -0.81547 0.25798 -0.51813 0.0065219
0.25084 0.021284 1.133 7.6522e-39 449 288 0 0 0 -0.79457 0.26704 -0.54529 0.008771
0.28663 0.021284 1.133 6.9147e-39 476 288 0 0 0 0.44239 0.28867 -0.8491 0.0074656
0.28888 0.021303 1.134 7.0991e-39 477.5 288 0 0 0 0.43019 0.28347 -0.85708 0.0065299
0.29088 0.021303 1.134 7.3757e-39 479 288 0 0 0 0.42942 0.27761 -0.85938 0.0064884
0.2922 0.021303 1.134 7.2835e-39 480 288 0 0 0 0.42643 0.27908 -0.86039 0.0060339
0.24975 0.023293 1.134 6.9608e-39 349 289 0 0 0 -0.8042 0.2792 -0.52469 0.0079347
0.25084 0.023272 1.133 6.9147e-39 350 289 0 0 0 -0.78272 0.286 -0.55277 0.010513
0.28663 0.023272 1.133 7.4218e-39 384 289 0 0 0 0.44365 0.28455 -0.84983 0.007259
0.28888 0.023293 1.134 7.6752e-39 385.5 289 0 0 0 0.43207 0.27852 -0.85776 0.0065727
0.29088 0.023293 1.134 7.5601e-39 387 289 0 0 0 0.42967 0.27823 -0.85905 0.0061206
0.2922 0.023293 1.134 7.2835e-39 389.5 289 0 0 0 0.42445 0.27691 -0.86207 0.0060168
0.25107 0.025284 1.134 7.6522e-39 257 290 0 0 0 -0.77765 0.30354 -0.55056 0.0112
0.28398 0.02526 1.133 7.7444e-39 400 290 0 0 0 0.44168 0.29747 -0.84642 0.0081081
0.28531 0.02526 1.133 7.9288e-39 401 290 0 0 0 0.43931 0.2933 -0.8491 0.0076393
0.2869 0.025284 1.134 7.7444e-39 402 290 0 0 0 0.43092 0.28608 -0.85584 0.006968
0.28888 0.025284 1.134 7.053e-39 403.5 290 0 0 0 0.42812 0.28099 -0.85893 0.0064117
0.29088 0.025284 1.134 6.6381e-39 405 290 0 0 0 0.42543 0.27815 -0.86119 0.0062366
0.2922 0.025284 1.134 6.9147e-39 406 290 0 0 0 0.42643 0.27904 -0.8604 0.0062309
0.25217 0.027912 1.133 6.5459e-39 397 291 0 0 0 -0.74046 0.32891 -0.58613 0.016982
0.28133 0.027912 1.133 7.0069e-39 419 291 0 0 0 0.42276 0.32893 -0.84444 0.0091288
0.28398 0.027249 1.133 7.3296e-39 477.5 290.5 0 0 0 0.43059 0.30703 -0.84872 0.0081977
0.28531 0.027249 1.133 7.3757e-39 478.5 290.5 0 0 0 0.42839 0.29944 -0.85253 0.007735
0.2869 0.027274 1.134 7.5601e-39 479.5 290.5 0 0 0 0.42263 0.29273 -0.85773 0.0070149
0.29088 0.02661 1.134 8.1132e-39 544 290 0 0 0 0.42151 0.28117 -0.86213 0.0062864
0.2922 0.02661 1.134 8.2976e-39 545 290 0 0 0 0.42482 0.27965 -0.861 0.0062906
0.2524 0.029264 1.134 7.1913e-39 519 291 0 0 0 -0.7442 0.33075 -0.58032 0.017345
0.28067 0.029237 1.133 8.6664e-39 546.5 291 0 0 0 0.40947 0.33983 -0.84667 0.0094551
0.28266 0.029237 1.133 7.8366e-39 553 291 0 0 0 0.41848 0.32519 -0.84801 0.0087421
0.28491 0.029264 1.134 7.7905e-39 560 291 0 0 0 0.41728 0.31073 -0.85401 0.0077715
0.2869 0.029264 1.134 7.8366e-39 567 291 0 0 0 0.41801 0.30603 -0.85534 0.0072865
0.25349 0.031226 1.133 7.1913e-39 469 292 0 0 0 -0.6955 0.35231 -0.62622 0.023295
0.2808 0.03124 1.1335 6.4768e-39 285 292.5 0 0 0 0.3948 0.34806 -0.85029 0.0096121
0.28292 0.031255 1.134 6.7764e-39 286.5 292.5 0 0 0 0.40328 0.33559 -0.85132 0.0084351
0.28468 0.031033 1.134 7.4678e-39 334 292.33 0 0 0 0.40901 0.32386 -0.85313 0.0077834
0.25373 0.033244 1.134 6.8225e-39 411 293 0 0 0 -0.6931 0.34698 -0.63184 0.026461
0.25482 0.033214 1.133 7.2835e-39 412 293 0 0 0 -0.64647 0.37041 -0.66698 0.030704
0.28026 0.033244 1.134 6.9147e-39 431 293 0 0 0 0.37563 0.36155 -0.85334 0.0099643
0.28292 0.033244 1.134 7.0069e-39 433 293 0 0 0 0.3959 0.3476 -0.84996 0.0082734
0.25373 0.034571 1.134 7.8366e-39 544 293 0 0 0 -0.67951 0.34988 -0.64487 0.028418
0.25493 0.035218 1.1335 7.514e-39 482 293.5 0 0 0 -0.63875 0.36315 -0.67832 0.032944
0.25681 0.035865 1.133 6.9608e-39 420.5 294 0 0 0 -0.58151 0.38165 -0.71846 0.040458
0.28026 0.035234 1.134 7.6983e-39 318.5 294 0 0 0 0.37014 0.37478 -0.85002 0.0096914
0.25705 0.037225 1.134 5.7161e-39 143.5 295 0 0 0 -0.5668 0.37732 -0.73238 0.041033
0.2588 0.037191 1.133 5.6239e-39 145 295 0 0 0 -0.47857 0.40084 -0.78122 0.049958
0.27735 0.037191 1.133 7.6522e-39 202 295 0 0 0 0.32265 0.40044 -0.85764 0.013554
0.28026 0.037225 1.134 8.021e-39 205 295 0 0 0 0.35748 0.38825 -0.84939 0.0093336
0.25727 0.038993 1.134 6.9761e-39 332 295.33 0 0 0 -0.5463 0.36288 -0.7549 0.044031
0.25903 0.039214 1.134 6.6381e-39 287.5 295.5 0 0 0 -0.47073 0.39071 -0.79105 0.050674
0.26056 0.0394 1.133 6.6381e-39 243 295.67 0 0 0 -0.38718 0.41728 -0.82217 0.053661
0.27748 0.039197 1.1335 7.0069e-39 324 295.5 0 0 0 0.32088 0.40462 -0.85634 0.012707
0.27881 0.039197 1.1335 7.0069e-39 325 295.5 0 0 0 0.33902 0.40052 -0.85126 0.010927
0.25903 0.041205 1.134 7.0069e-39 429 296 0 0 0 -0.4495 0.36812 -0.81391 0.051553
0.26078 0.041167 1.133 6.9147e-39 430.5 296 0 0 0 -0.35191 0.3918 -0.85009 0.052663
0.27073 0.041167 1.133 7.8366e-39 438 296 0 0 0 0.1345 0.40284 -0.90533 0.033655
0.27682 0.041186 1.1335 6.8686e-39 442.5 296 0 0 0 0.30417 0.4045 -0.86248 0.01481
0.27894 0.041205 1.134 7.0069e-39 444 296 0 0 0 0.33772 0.40315 -0.85054 0.010437
0.26103 0.043196 1.134 6.9378e-39 315 297 0 0 0 -0.34364 0.36594 -0.86487 0.051951
0.26277 0.043155 1.133 6.7764e-39 316.5 297 0 0 0 -0.23733 0.38673 -0.89113 0.048686
0.2641 0.043155 1.133 7.053e-39 317.5 297 0 0 0 -0.17511 0.38718 -0.90522 0.048088
0.27086 0.043176 1.1335 7.6522e-39 322.5 297 0 0 0 0.14461 0.38478 -0.91161 0.032735
0.27294 0.043376 1.133 6.9147e-39 362.67 297 0 0 0 0.21372 0.38674 -0.89708 0.024924
0.27483 0.043176 1.1335 6.6842e-39 325.5 297 0 0 0 0.27194 0.39646 -0.87685 0.019276
0.27615 0.043176 1.1335 6.6381e-39 326.5 297 0 0 0 0.29474 0.39856 -0.86849 0.016436
0.26103 0.045185 1.134 5.7161e-39 172 298 0 0 0 -0.30038 0.3412 -0.8907 0.048515
0.26277 0.045144 1.133 6.9147e-39 190 298 0 0 0 -0.21861 0.35235 -0.90998 0.046713
0.26488 0.045164 1.1335 7.2374e-39 191.5 298 0 0 0 -0.11655 0.35903 -0.92602 0.04575
0.26675 0.045144 1.133 7.56e-39 193 298 0 0 0 -0.0090462 0.36603 -0.93056 0.041745
0.2694 0.045144 1.133 7.7444e-39 197 298 0 0 0 0.090887 0.36966 -0.92471 0.035989
0.27098 0.045185 1.134 7.7444e-39 198 298 0 0 0 0.16024 0.37179 -0.91438 0.031877
0.27297 0.045185 1.134 7.3296e-39 199.5 298 0 0 0 0.234 0.38165 -0.8942 0.024688
0.27496 0.045185 1.134 7.0991e-39 201 298 0 0 0 0.28622 0.38831 -0.87595 0.018722
0.26103 0.046512 1.134 6.8225e-39 415.5 298 0 0 0 -0.30212 0.32707 -0.8954 0.049754
0.26301 0.047176 1.134 7.3296e-39 484 298 0 0 0 -0.18714 0.33195 -0.92455 0.047378
0.26494 0.047165 1.1337 7.6753e-39 485.5 298 0 0 0 -0.11784 0.34052 -0.93283 0.046632
0.26699 0.047176 1.134 7.4678e-39 487 298 0 0 0 0.0013511 0.3448 -0.93867 0.042611
0.26886 0.047154 1.1335 7.2374e-39 488.5 298 0 0 0 0.088444 0.34979 -0.93264 0.036053
0.2723 0.046512 1.134 7.0991e-39 424 298 0 0 0 0.21883 0.37059 -0.90265 0.02617
0.26301 0.049166 1.134 6.9147e-39 281 299 0 0 0 -0.18529 0.31354 -0.93132 0.045331
0.26567 0.049166 1.134 6.6381e-39 387 299 0 0 0 -0.059036 0.32063 -0.94536 0.041453
0.26832 0.049166 1.134 6.1771e-39 389 299 0 0 0 0.071506 0.32761 -0.9421 0.03675
0.25529 -0.038437 1.1351 7.2835e-39 425 259 0 0 0 -0.3371 -0.81468 -0.47188 0.034042
0.25794 -0.039765 1.1351 6.9147e-39 448 258 0 0 0 -0.22802 -0.87063 -0.43591 0.025821
0.26126 -0.039765 1.1351 6.8225e-39 450.5 258 0 0 0 -0.13675 -0.90656 -0.39931 0.020873
0.26525 -0.039765 1.1351 6.4076e-39 453.5 258 0 0 0 -0.030983 -0.93519 -0.3528 0.012187
0.26857 -0.039765 1.1351 6.4537e-39 456 258 0 0 0 0.036701 -0.94257 -0.33199 0.0079954
0.27255 -0.038437 1.1351 7.2835e-39 449 259 0 0 0 0.084222 -0.94523 -0.31534 0.0035022
0.25396 -0.037109 1.1351 8.482e-39 264 260 0 0 0 -0.39225 -0.76868 -0.50524 0.041434
0.31372 -0.037109 1.1351 6.0849e-39 463 260 0 0 0 0.10089 -0.73182 -0.67399 0.060213
0.31505 -0.037109 1.1351 5.8083e-39 464 260 0 0 0 0.10469 -0.7033 -0.70314 0.062824
0.31704 -0.037109 1.1351 5.4395e-39 465.5 260 0 0 0 0.11891 -0.68328 -0.72041 0.064843
0.32103 -0.037109 1.1351 4.8403e-39 468.5 260 0 0 0 0.18248 -0.60286 -0.7767 0.06904
0.32567 -0.037109 1.1351 9.9571e-39 472 260 0 0 0 0.2671 -0.50336 -0.82176 0.064486
0.327 -0.037109 1.1351 1.0142e-38 473 260 0 0 0 0.28031 -0.49716 -0.82113 0.062965
0.24334 -0.034453 1.1351 5.6239e-39 147 262 0 0 0 -0.64327 -0.46802 -0.60595 0.042482
0.24532 -0.035117 1.1351 5.9927e-39 189.5 261.5 0 0 0 -0.59308 -0.55005 -0.58797 0.045609
0.24732 -0.035781 1.1351 6.6381e-39 232 261 0 0 0 -0.55713 -0.59724 -0.57699 0.046843
0.24931 -0.035781 1.1351 6.2232e-39 233.5 261 0 0 0 -0.52853 -0.62822 -0.57096 0.048221
0.29513 -0.035781 1.1351 7.3757e-39 268 261 0 0 0 0.077528 -0.89841 -0.43225 0.01372
0.29911 -0.035781 1.1351 7.0991e-39 271 261 0 0 0 0.11199 -0.86089 -0.49631 0.027279
0.30111 -0.035781 1.1351 7.6522e-39 272.5 261 0 0 0 0.11129 -0.83987 -0.53125 0.034952
0.30575 -0.035781 1.1351 7.8366e-39 366 261 0 0 0 0.13947 -0.79396 -0.59176 0.047427
0.30708 -0.035781 1.1351 7.6522e-39 367 261 0 0 0 0.13975 -0.7805 -0.60934 0.049728
0.24334 -0.033125 1.1351 6.8225e-39 446 262 0 0 0 -0.66767 -0.43153 -0.60663 0.042903
0.24201 -0.030469 1.1351 5.3473e-39 152 264 0 0 0 -0.72945 -0.33531 -0.59621 0.042056
0.24201 -0.029141 1.1351 7.2835e-39 429 264 0 0 0 -0.75229 -0.2797 -0.59651 0.038674
0.24201 -0.027149 1.1351 6.2693e-39 355 265 0 0 0 -0.78724 -0.21896 -0.57647 0.035248
0.32567 -0.027149 1.1351 6.5459e-39 318 265.5 0 0 0 0.39157 -0.090551 -0.91568 0.035654
0.327 -0.027149 1.1351 6.6381e-39 319 265.5 0 0 0 0.40387 -0.080995 -0.91122 0.03186
0.24201 -0.025157 1.1351 7.56e-39 411 266 0 0 0 -0.81043 -0.15404 -0.56521 0.030144
0.32567 -0.025157 1.1351 7.56e-39 471 266 0 0 0 0.40836 -0.023061 -0.91253 0.031304
0.24201 -0.023165 1.1351 7.0991e-39 349.5 267 0 0 0 -0.8325 -0.099893 -0.54494 0.024795
0.32302 -0.022501 1.1351 7.56e-39 228 268 0 0 0 0.398 0.06906 -0.91478 0.022425
0.32523 -0.022944 1.1351 7.3449e-39 289.33 267.67 0 0 0 0.42197 0.074884 -0.90351 0.019998
0.24201 -0.021173 1.1351 7.3757e-39 410 268 0 0 0 -0.84614 -0.051054 -0.5305 0.019815
0.32302 -0.021173 1.1351 7.0069e-39 473 268 0 0 0 0.41414 0.11282 -0.9032 0.016855
0.32434 -0.021173 1.1351 7.0069e-39 474 268 0 0 0 0.4189 0.11496 -0.90073 0.01771
0.24201 -0.019181 1.1351 7.1913e-39 351.5 269 0 0 0 -0.8555 -0.00058725 -0.51781 0.014692
0.32302 -0.019181 1.1351 7.3757e-39 323 269.5 0 0 0 0.42442 0.18185 -0.88702 0.0097125
0.32434 -0.019181 1.1351 7.4218e-39 324 269.5 0 0 0 0.4295 0.18662 -0.88357 0.0091469
0.24068 -0.017189 1.1351 7.2835e-39 420 270 0 0 0 -0.86429 0.045742 -0.50091 0.010065
0.24201 -0.017189 1.1351 7.0991e-39 421 270 0 0 0 -0.86155 0.03666 -0.50634 0.011063
0.32302 -0.017189 1.1351 4.5176e-39 484 270 0 0 0 0.43135 0.24424 -0.86849 0.0054842
0.32434 -0.017189 1.1351 4.7942e-39 485 270 0 0 0 0.43915 0.24384 -0.86469 0.0056696
