# .PCD v.7 - Point Cloud Data file format
VERSION .7
FIELDS x y z rgb u v vx vy vz normal_x normal_y normal_z curvature
SIZE 4 4 4 4 4 4 4 4 4 4 4 4 4
TYPE F F F F F F F F F F F F F
COUNT 1 1 1 1 1 1 1 1 1 1 1 1 1
WIDTH 550
HEIGHT 1
VIEWPOINT 0 0 0 1 0 0 0
POINTS 550
DATA ascii
-0.028763 0.014584 0.99274 7.514e-39 243 268.5 0 0 0 -0.64068 0.21562 -0.73692 0.011085
-0.027601 0.014584 0.99274 7.8366e-39 244 268.5 0 0 0 -0.6244 0.24374 -0.7421 0.009735
0.031633 0.015165 0.99274 5.8083e-39 375 269 0 0 0 0.61366 0.23122 -0.75495 0.015506
-0.028774 0.016914 0.99314 6.7764e-39 396 269.5 0 0 0 -0.62856 0.2515 -0.73597 0.0094277
0.031646 0.016913 0.99314 7.1452e-39 320.5 270 0 0 0 0.61143 0.23914 -0.7543 0.014295
-0.028786 0.019245 0.99354 6.8224e-39 286.5 271 0 0 0 -0.61426 0.28367 -0.73635 0.0083784
-0.027601 0.01981 0.99274 8.3898e-39 388 271 0 0 0 -0.59561 0.29728 -0.74624 0.0084333
0.031255 0.019428 0.99301 6.3308e-39 373 271 0 0 0 0.60567 0.2454 -0.75693 0.013512
-0.027601 0.020972 0.99274 6.4537e-39 255 272 0 0 0 -0.59015 0.30397 -0.74788 0.0082998
0.029311 0.020972 0.99274 8.482e-39 390 272 0 0 0 0.57846 0.24353 -0.77851 0.014348
0.031078 0.020989 0.99354 8.2515e-39 391.5 272 0 0 0 0.60449 0.24939 -0.75656 0.012573
-0.027221 0.022914 0.99301 7.3142e-39 420.33 272.67 0 0 0 -0.57637 0.31774 -0.75289 0.0078594
0.029311 0.022714 0.99274 6.131e-39 313 273.5 0 0 0 0.57692 0.24431 -0.77941 0.013528
0.031078 0.022732 0.99354 6.5689e-39 314.5 273.5 0 0 0 0.59963 0.25588 -0.75827 0.012056
-0.026461 0.024476 0.99354 8.5742e-39 389 274 0 0 0 -0.5602 0.33794 -0.75629 0.0072863
-0.024898 0.025237 0.99301 6.4229e-39 373 274.67 0 0 0 -0.53571 0.35071 -0.76813 0.0073036
0.029334 0.025057 0.99354 6.6842e-39 295 275 0 0 0 0.57835 0.26267 -0.77234 0.012
-0.024136 0.026801 0.99354 6.5459e-39 227 276 0 0 0 -0.52622 0.35915 -0.77078 0.0064571
-0.022955 0.027941 0.99274 5.8083e-39 426 276 0 0 0 -0.50199 0.36395 -0.78457 0.0064264
0.028149 0.02736 0.99274 7.4679e-39 309 276.5 0 0 0 0.54624 0.28629 -0.78719 0.010882
-0.022974 0.029126 0.99354 7.0069e-39 392 277 0 0 0 -0.50662 0.36798 -0.7797 0.0056806
-0.021794 0.029102 0.99274 7.0069e-39 393 277 0 0 0 -0.49282 0.3628 -0.79089 0.0068628
0.026988 0.029102 0.99274 5.9927e-39 437 277 0 0 0 0.51985 0.30627 -0.79747 0.0095321
0.028172 0.029126 0.99354 6.2693e-39 438 277 0 0 0 0.54389 0.30262 -0.78269 0.0093702
-0.022974 0.030288 0.99354 7.0991e-39 359 278 0 0 0 -0.50584 0.36995 -0.77927 0.0053863
-0.021418 0.031055 0.99327 5.624e-39 239.67 278.67 0 0 0 -0.50052 0.36599 -0.78456 0.0065001
-0.019471 0.031425 0.99274 5.0708e-39 181 279 0 0 0 -0.48105 0.35174 -0.80304 0.010195
0.025266 0.030288 0.99354 8.1132e-39 400.5 278 0 0 0 0.49195 0.31958 -0.80985 0.0086744
0.027009 0.030288 0.99354 8.3898e-39 402 278 0 0 0 0.51609 0.31779 -0.7954 0.0084468
-0.018707 0.032992 0.99327 6.3615e-39 404 279.33 0 0 0 -0.48173 0.35624 -0.80064 0.011054
-0.017148 0.033748 0.99274 8.021e-39 380 280 0 0 0 -0.46928 0.35122 -0.8102 0.015106
-0.015999 0.033775 0.99354 8.1132e-39 381 280 0 0 0 -0.46145 0.34807 -0.81604 0.016471
0.023116 0.033361 0.99274 5.7776e-39 337 280 0 0 0 0.45146 0.33607 -0.82658 0.0071208
-0.017162 0.034938 0.99354 6.1771e-39 213 281 0 0 0 -0.47664 0.36005 -0.80199 0.013576
-0.015412 0.034924 0.99314 5.9005e-39 214.5 281 0 0 0 -0.46223 0.34856 -0.81538 0.018163
0.02118 0.034909 0.99274 9.2196e-39 369 281 0 0 0 0.44013 0.33248 -0.83411 0.0082878
0.022932 0.034924 0.99314 8.8047e-39 370.5 281 0 0 0 0.4539 0.34049 -0.82343 0.0069661
-0.014837 0.0361 0.99354 6.6381e-39 424 281 0 0 0 -0.46933 0.34996 -0.81071 0.01986
-0.013664 0.037232 0.99274 6.9147e-39 385 282 0 0 0 -0.47609 0.32938 -0.81538 0.030326
0.018857 0.037232 0.99274 6.2693e-39 413 282 0 0 0 0.44414 0.33021 -0.83288 0.011192
0.020799 0.036855 0.99301 5.8698e-39 337 282 0 0 0 0.45049 0.33827 -0.82622 0.0083717
0.02236 0.036681 0.99354 5.8083e-39 300.5 282 0 0 0 0.4631 0.3465 -0.81577 0.0068867
-0.012896 0.038802 0.99327 6.9454e-39 326.33 283 0 0 0 -0.47653 0.33478 -0.81292 0.030956
-0.011341 0.038975 0.99274 7.4218e-39 357.5 283 0 0 0 -0.475 0.29181 -0.83019 0.047565
0.017696 0.038975 0.99274 6.9607e-39 302 283.5 0 0 0 0.44573 0.33408 -0.83049 0.012874
0.018873 0.039006 0.99354 7.4218e-39 320 283.5 0 0 0 0.44821 0.34623 -0.82415 0.010173
0.020035 0.039006 0.99354 7.2374e-39 321 283.5 0 0 0 0.45431 0.35284 -0.81799 0.0081309
-0.010569 0.041115 0.99301 6.6688e-39 390.33 284.33 0 0 0 -0.48627 0.3056 -0.81862 0.050736
0.015373 0.041878 0.99274 7.4678e-39 386 285 0 0 0 0.46675 0.33654 -0.81785 0.020138
0.017313 0.041502 0.99301 8.2976e-39 402 284.67 0 0 0 0.46528 0.34938 -0.81329 0.013604
0.018873 0.04075 0.99354 9.5883e-39 432 284 0 0 0 0.4677 0.35531 -0.80933 0.010779
-0.010187 0.043074 0.99354 6.6381e-39 169 286 0 0 0 -0.49487 0.33668 -0.80109 0.050916
0.015385 0.043074 0.99354 5.8083e-39 222 286 0 0 0 0.48112 0.34691 -0.80509 0.017539
0.011889 0.045363 0.99274 6.4537e-39 259 287 0 0 0 0.49561 0.31902 -0.80783 0.036036
0.01305 0.045363 0.99274 6.5459e-39 260 287 0 0 0 0.5059 0.32797 -0.79781 0.029198
0.014217 0.0448 0.99314 8.021e-39 336 286.5 0 0 0 0.50673 0.33871 -0.79278 0.023257
0.0095657 0.047686 0.99274 6.1771e-39 258 288 0 0 0 0.48137 0.32392 -0.81447 0.055489
0.010736 0.046562 0.99354 9.4961e-39 420 287 0 0 0 0.46908 0.33598 -0.81675 0.040016
-0.0066948 0.11737 0.99274 1.1063e-38 403 307 0 0 0 -0.016908 0.70049 -0.71346 0.0056972
0.0037584 0.1197 0.99274 1.0602e-38 186 308 0 0 0 -0.0095714 0.70095 -0.71314 0.0072312
0.0049198 0.11853 0.99274 9.2196e-39 155 308 0 0 0 -0.00045763 0.69552 -0.71851 0.006586
0.00085474 0.12086 0.99274 8.8968e-39 213.5 308 0 0 0 -0.010818 0.70068 -0.7134 0.0070237
0.0025969 0.12086 0.99274 7.9288e-39 215 308 0 0 0 -0.0099491 0.69782 -0.71621 0.0071924
0.043318 0.0070457 0.99434 5.7161e-39 384 264 0 0 0 0.68821 0.33634 -0.64283 0.020163
-0.029972 0.014608 0.99434 7.0068e-39 242 268.5 0 0 0 -0.65207 0.20714 -0.72931 0.010838
0.032887 0.014625 0.99554 7.053e-39 394 268.5 0 0 0 0.63312 0.23789 -0.73659 0.014583
-0.029996 0.016948 0.99514 6.5919e-39 394.5 269.5 0 0 0 -0.64074 0.2414 -0.72882 0.0090805
0.032887 0.016955 0.99554 7.3296e-39 321.5 270 0 0 0 0.62695 0.2445 -0.7397 0.013159
-0.030021 0.019292 0.99594 6.7764e-39 285.5 271 0 0 0 -0.63624 0.26148 -0.72583 0.0084385
0.032848 0.01926 0.99434 6.592e-39 346.5 271 0 0 0 0.62026 0.24937 -0.7437 0.012277
-0.030021 0.02104 0.99594 6.8225e-39 238 272 0 0 0 -0.62712 0.27643 -0.72822 0.0083264
-0.028809 0.021006 0.99434 6.0849e-39 252 272 0 0 0 -0.60876 0.29349 -0.73707 0.0078837
0.032874 0.021023 0.99514 7.7444e-39 393 272 0 0 0 0.62238 0.25253 -0.74086 0.011491
-0.028832 0.022769 0.99514 7.0068e-39 425.5 272.5 0 0 0 -0.60485 0.30515 -0.73556 0.007454
0.032874 0.022769 0.99514 6.4998e-39 316 273.5 0 0 0 0.61997 0.25982 -0.74036 0.010733
-0.027273 0.025285 0.99487 6.9761e-39 371 274.67 0 0 0 -0.57408 0.33734 -0.74608 0.0062499
0.031115 0.025088 0.99474 6.7533e-39 298 275 0 0 0 0.60388 0.25887 -0.75387 0.010256
0.032901 0.025117 0.99594 6.6381e-39 300 275 0 0 0 0.62465 0.26394 -0.73495 0.0089946
-0.026525 0.026866 0.99594 5.8083e-39 190 276 0 0 0 -0.56645 0.35225 -0.74502 0.0057584
-0.024737 0.027404 0.99434 5.9466e-39 317 276 0 0 0 -0.5345 0.35948 -0.7649 0.0061888
0.029358 0.026822 0.99434 8.3898e-39 381 276 0 0 0 0.57775 0.27378 -0.76892 0.011178
0.031153 0.026866 0.99594 8.3437e-39 382.5 276 0 0 0 0.60954 0.26946 -0.74556 0.0095043
-0.024757 0.02859 0.99514 6.592e-39 407.5 276.5 0 0 0 -0.53417 0.36695 -0.76158 0.0055257
0.029393 0.028602 0.99554 6.3615e-39 349.5 277 0 0 0 0.58006 0.28728 -0.76224 0.0099093
-0.024195 0.030361 0.99594 7.4678e-39 271 278 0 0 0 -0.53331 0.37143 -0.76001 0.0048273
-0.023011 0.031501 0.99514 5.8083e-39 177 279 0 0 0 -0.51895 0.37319 -0.76904 0.0049291
0.025286 0.031476 0.99434 7.0991e-39 366.5 279 0 0 0 0.50027 0.33101 -0.8001 0.0072572
0.027031 0.031476 0.99434 8.1132e-39 368 279 0 0 0 0.52209 0.32698 -0.78772 0.0073039
0.028229 0.030931 0.99554 8.7125e-39 386 278.5 0 0 0 0.55428 0.31361 -0.77098 0.0082422
-0.021264 0.033248 0.99514 7.1913e-39 395.5 279.5 0 0 0 -0.51286 0.37094 -0.7742 0.0056975
-0.019518 0.03383 0.99514 8.021e-39 378 280 0 0 0 -0.50107 0.36961 -0.78251 0.0076625
0.025311 0.033255 0.99534 5.693e-39 300 280 0 0 0 0.5046 0.3393 -0.79389 0.0065306
0.027053 0.032665 0.99514 5.8083e-39 185 280 0 0 0 0.52459 0.33498 -0.78268 0.0066016
-0.018936 0.034994 0.99514 6.4537e-39 211.5 281 0 0 0 -0.49706 0.37389 -0.78303 0.0078651
-0.018361 0.036755 0.99554 7.2374e-39 401 281.5 0 0 0 -0.50174 0.38009 -0.77704 0.007815
-0.016601 0.036725 0.99474 7.0068e-39 402.5 281.5 0 0 0 -0.48571 0.3709 -0.79153 0.011843
-0.014849 0.037292 0.99434 7.1913e-39 384 282 0 0 0 -0.48171 0.35779 -0.79996 0.017579
0.02355 0.036725 0.99474 5.8083e-39 301.5 282 0 0 0 0.47568 0.35558 -0.80454 0.0060253
-0.016621 0.038518 0.99594 5.6239e-39 263.5 283 0 0 0 -0.49899 0.3796 -0.77905 0.0097354
-0.014867 0.039085 0.99554 7.6061e-39 352.5 283 0 0 0 -0.4889 0.36889 -0.7905 0.012254
-0.013686 0.039619 0.99434 9.1274e-39 445 283 0 0 0 -0.50181 0.34838 -0.79172 0.024932
0.021214 0.039037 0.99434 7.053e-39 322 283.5 0 0 0 0.46428 0.36086 -0.80884 0.0069182
0.022784 0.038875 0.99514 7.0376e-39 343.33 283.33 0 0 0 0.47671 0.36705 -0.79876 0.0059643
-0.012921 0.041203 0.99514 6.9454e-39 388.33 284.33 0 0 0 -0.50883 0.35111 -0.78601 0.023978
-0.011359 0.041946 0.99434 8.2976e-39 363 285 0 0 0 -0.49431 0.33666 -0.80145 0.036101
0.018903 0.041979 0.99514 8.021e-39 389 285 0 0 0 0.46912 0.36787 -0.80287 0.0081896
0.02045 0.041192 0.99487 8.82e-39 420 284.33 0 0 0 0.4711 0.3696 -0.80091 0.0071215
0.022414 0.040848 0.99594 9.1274e-39 438 284 0 0 0 0.48409 0.37865 -0.78885 0.0054964
-0.012542 0.043179 0.99594 6.1771e-39 167 286 0 0 0 -0.50676 0.36034 -0.78317 0.019085
-0.011359 0.043109 0.99434 6.2693e-39 168 286 0 0 0 -0.50828 0.34375 -0.78961 0.033561
0.01715 0.043127 0.99474 6.1771e-39 223.5 286 0 0 0 0.47522 0.36408 -0.801 0.011002
0.015404 0.044872 0.99474 7.6061e-39 337 286.5 0 0 0 0.48206 0.35937 -0.79904 0.013749
0.016574 0.044308 0.99514 9.1274e-39 413 286 0 0 0 0.47585 0.36462 -0.80039 0.010877
0.011523 0.047387 0.99461 7.3449e-39 313.33 287.67 0 0 0 0.51582 0.3374 -0.78746 0.02589
0.013082 0.047219 0.99514 7.6522e-39 341.5 287.5 0 0 0 0.50178 0.3525 -0.78991 0.016376
0.014257 0.046674 0.99594 8.8508e-39 423 287 0 0 0 0.48887 0.36272 -0.79337 0.012943
0.0049278 0.11989 0.99434 9.9571e-39 187 308 0 0 0 -0.015552 0.69328 -0.7205 0.0078278
0.0037644 0.12105 0.99434 8.6664e-39 216 308 0 0 0 -0.012435 0.68686 -0.72668 0.0080712
0.043458 0.0082355 0.99755 6.4537e-39 254 265 0 0 0 0.71642 0.2931 -0.63312 0.019352
0.035288 0.011737 0.99755 8.8508e-39 267 267 0 0 0 0.66487 0.23839 -0.70789 0.015208
0.034093 0.012893 0.99675 5.3473e-39 188 268 0 0 0 0.65358 0.23675 -0.71887 0.014829
-0.032403 0.017572 0.99755 6.0849e-39 371 270 0 0 0 -0.66131 0.22967 -0.71409 0.010861
-0.031224 0.016982 0.99715 7.0069e-39 392 269.5 0 0 0 -0.65487 0.22745 -0.7207 0.009952
0.034121 0.017572 0.99755 8.1132e-39 410 270 0 0 0 0.6469 0.25072 -0.72018 0.012016
-0.031236 0.018739 0.99755 5.9005e-39 184 271 0 0 0 -0.65037 0.2483 -0.71789 0.0095273
0.034093 0.019307 0.99675 6.3154e-39 351 271 0 0 0 0.64133 0.254 -0.72401 0.011273
0.03469 0.021065 0.99715 8.021e-39 394.5 272 0 0 0 0.64581 0.25911 -0.71818 0.01068
-0.030057 0.022815 0.99715 6.592e-39 424.5 272.5 0 0 0 -0.62754 0.29504 -0.72052 0.0076813
0.034676 0.022806 0.99675 6.154e-39 317.5 273.5 0 0 0 0.64047 0.2636 -0.72133 0.010173
0.036455 0.022824 0.99755 5.8544e-39 319 273.5 0 0 0 0.65887 0.26619 -0.70359 0.01001
-0.028879 0.024555 0.99675 8.943e-39 387 274 0 0 0 -0.60567 0.31931 -0.72884 0.0068535
0.034501 0.024957 0.99728 5.8698e-39 262.67 275 0 0 0 0.64406 0.269 -0.71612 0.0086046
-0.027712 0.026887 0.99675 6.0849e-39 189 276 0 0 0 -0.58368 0.34594 -0.73461 0.0058207
0.032927 0.026887 0.99675 8.1132e-39 384 276 0 0 0 0.62904 0.27072 -0.72871 0.0087347
-0.026557 0.028648 0.99715 6.7303e-39 406 276.5 0 0 0 -0.56774 0.35992 -0.74036 0.0051999
-0.02538 0.02922 0.99675 7.4678e-39 390 277 0 0 0 -0.54876 0.36876 -0.75025 0.0049636
0.030992 0.02845 0.99702 6.6996e-39 321 277 0 0 0 0.6128 0.28306 -0.7378 0.0087231
-0.024807 0.030981 0.99715 6.6842e-39 223 278.5 0 0 0 -0.54726 0.37227 -0.74962 0.004395
0.029453 0.03041 0.99755 8.1132e-39 404 278 0 0 0 0.58981 0.30255 -0.74872 0.0080587
-0.023057 0.033315 0.99715 7.514e-39 394 279.5 0 0 0 -0.52718 0.37888 -0.76061 0.004298
0.027097 0.033884 0.99675 5.9005e-39 418 280 0 0 0 0.53521 0.34354 -0.7717 0.00615
0.028275 0.033315 0.99715 5.8544e-39 302.5 280 0 0 0 0.55498 0.33391 -0.76191 0.006568
-0.021308 0.035064 0.99715 6.2232e-39 209.5 281 0 0 0 -0.52248 0.38103 -0.76278 0.0047151
0.025347 0.03505 0.99675 8.4359e-39 372.5 281 0 0 0 0.51172 0.34956 -0.78482 0.006102
0.027118 0.035079 0.99755 8.5742e-39 374 281 0 0 0 0.54323 0.34828 -0.76394 0.0057065
-0.021116 0.036625 0.99728 6.7917e-39 405.33 281.33 0 0 0 -0.5232 0.38659 -0.75948 0.0046738
-0.019557 0.036814 0.99715 7.2835e-39 400 281.5 0 0 0 -0.51571 0.38317 -0.76631 0.006022
0.025357 0.036814 0.99715 6.2232e-39 314 282 0 0 0 0.51793 0.3637 -0.77425 0.005448
0.027118 0.036246 0.99755 6.5459e-39 211 282 0 0 0 0.53849 0.35904 -0.76231 0.0053123
-0.018383 0.038549 0.99675 5.7161e-39 262 283 0 0 0 -0.51102 0.38525 -0.7684 0.006592
-0.016641 0.039731 0.99715 9.1274e-39 438.5 283 0 0 0 -0.50928 0.38131 -0.77152 0.0076343
0.023617 0.039747 0.99755 5.7161e-39 264 284 0 0 0 0.50252 0.37983 -0.77666 0.0050224
-0.016064 0.040914 0.99755 6.0849e-39 399 284 0 0 0 -0.51783 0.3776 -0.76763 0.0084516
-0.014885 0.040881 0.99675 5.9005e-39 400 284 0 0 0 -0.50543 0.37095 -0.77906 0.010873
-0.014897 0.042081 0.99755 8.6664e-39 360 285 0 0 0 -0.51415 0.37152 -0.77306 0.0093182
-0.013725 0.042648 0.99715 7.514e-39 263.5 285.5 0 0 0 -0.51197 0.3686 -0.7759 0.010813
0.018933 0.043213 0.99675 5.9005e-39 225 286 0 0 0 0.47627 0.37331 -0.79612 0.0065809
0.020691 0.042648 0.99715 6.7764e-39 308.5 285.5 0 0 0 0.48978 0.37817 -0.78556 0.0056816
0.022432 0.042047 0.99675 7.7444e-39 392 285 0 0 0 0.4903 0.38258 -0.7831 0.0051936
0.017378 0.045157 0.99675 6.6996e-39 313.67 286.67 0 0 0 0.48109 0.37259 -0.79355 0.0075871
0.018949 0.044415 0.99755 9.2196e-39 415 286 0 0 0 0.48244 0.37763 -0.79035 0.0060499
0.014852 0.047295 0.99675 7.5601e-39 343 287.5 0 0 0 0.4891 0.36859 -0.79052 0.0097105
0.017198 0.04675 0.99755 9.45e-39 425.5 287 0 0 0 0.48952 0.37845 -0.78559 0.0062843
0.011937 0.049044 0.99675 9.2196e-39 415 288 0 0 0 0.5059 0.36281 -0.78258 0.01525
0.013103 0.049044 0.99675 9.4961e-39 416 288 0 0 0 0.4975 0.36716 -0.78593 0.011883
0.011358 0.050814 0.99715 7.3526e-39 309.5 289 0 0 0 0.50457 0.37237 -0.77895 0.012387
0.013113 0.050834 0.99755 7.4218e-39 311 289 0 0 0 0.49764 0.38124 -0.77911 0.0087758
0.009612 0.052585 0.99755 5.7161e-39 199 290 0 0 0 0.50291 0.38101 -0.77583 0.010361
0.011168 0.052974 0.99755 6.7303e-39 265 290 0 0 0 0.50905 0.38654 -0.76907 0.0088148
0.041223 0.0094255 0.99998 6.0849e-39 458 265 0 0 0 0.73018 0.25414 -0.63423 0.015971
0.042749 0.0090285 0.99917 6.1156e-39 298.67 265.33 0 0 0 0.73169 0.26237 -0.62912 0.018386
0.044697 0.0082489 0.99917 6.7303e-39 255 265 0 0 0 0.73334 0.29578 -0.61215 0.020827
0.037114 0.011761 0.99958 7.7905e-39 361.5 267 0 0 0 0.70181 0.24559 -0.66869 0.013664
0.038852 0.010587 0.99917 7.6522e-39 405 266 0 0 0 0.70969 0.24525 -0.66045 0.014192
0.040053 0.010595 0.99998 7.4678e-39 406 266 0 0 0 0.72422 0.24666 -0.64394 0.014397
0.035345 0.012925 0.99917 5.4395e-39 189 268 0 0 0 0.673 0.24088 -0.69932 0.014446
0.036544 0.012935 0.99998 5.4395e-39 190 268 0 0 0 0.69347 0.24027 -0.67924 0.013889
-0.034794 0.014678 0.99917 6.7303e-39 240.5 268.5 0 0 0 -0.69124 0.18224 -0.69927 0.017137
-0.033597 0.01525 0.99836 6.2693e-39 221 269 0 0 0 -0.67749 0.19485 -0.70925 0.014014
0.034566 0.014483 0.99917 6.9454e-39 402.67 268.33 0 0 0 0.6675 0.24514 -0.7031 0.013409
-0.034794 0.017017 0.99917 7.053e-39 389.5 269.5 0 0 0 -0.68043 0.21966 -0.69912 0.013236
-0.033597 0.017002 0.99836 7.1913e-39 390.5 269.5 0 0 0 -0.67226 0.21914 -0.70713 0.011697
0.034965 0.016826 0.99944 7.4986e-39 294 270 0 0 0 0.6678 0.24746 -0.702 0.012112
0.036544 0.017615 0.99998 8.1132e-39 412 270 0 0 0 0.68517 0.25338 -0.68289 0.011195
-0.034808 0.019362 0.99958 5.9005e-39 280 271 0 0 0 -0.67985 0.24389 -0.69161 0.011973
-0.03302 0.019343 0.99856 6.108e-39 282.25 271 0 0 0 -0.66363 0.24889 -0.70544 0.010306
-0.031261 0.019923 0.99836 7.2835e-39 385 271 0 0 0 -0.65014 0.2564 -0.71524 0.0093926
0.035317 0.019339 0.99836 6.8224e-39 352 271 0 0 0 0.66083 0.25499 -0.70589 0.010878
0.037107 0.019358 0.99937 7.1451e-39 353.5 271 0 0 0 0.68195 0.25842 -0.68423 0.010603
-0.034822 0.021125 0.99998 6.5459e-39 234 272 0 0 0 -0.6757 0.26589 -0.68756 0.010329
-0.033027 0.0211 0.99876 7.3296e-39 235.5 272 0 0 0 -0.65873 0.26851 -0.70284 0.0089558
-0.031261 0.021091 0.99836 6.9147e-39 237 272 0 0 0 -0.64681 0.272 -0.7125 0.0088911
0.0371 0.021108 0.99917 8.0671e-39 396.5 272 0 0 0 0.67993 0.26408 -0.68407 0.0098863
-0.032863 0.022679 0.99971 5.7469e-39 427.33 272.33 0 0 0 -0.66021 0.28437 -0.69516 0.0085243
-0.031274 0.022852 0.99876 5.9466e-39 422.5 272.5 0 0 0 -0.64293 0.29282 -0.70774 0.0076222
0.037698 0.022871 0.99958 6.3154e-39 320 273.5 0 0 0 0.68429 0.27074 -0.67709 0.009108
-0.030524 0.025018 0.99971 8.6664e-39 377 274.33 0 0 0 -0.63878 0.31222 -0.70319 0.0067803
-0.028925 0.025763 0.99836 7.56e-39 361 275 0 0 0 -0.6108 0.32901 -0.72019 0.0063698
0.035317 0.025763 0.99836 6.5459e-39 418 275 0 0 0 0.65784 0.27439 -0.7014 0.0080703
0.036904 0.025005 0.99917 5.7468e-39 264.67 275 0 0 0 0.67691 0.27753 -0.68174 0.0081824
-0.028949 0.026953 0.99917 6.0849e-39 188 276 0 0 0 -0.60944 0.34013 -0.71616 0.0057324
0.034747 0.026942 0.99876 8.0671e-39 385.5 276 0 0 0 0.65631 0.27384 -0.70304 0.0076752
0.036544 0.026974 0.99998 8.2054e-39 387 276 0 0 0 0.679 0.27366 -0.68122 0.0068433
-0.028972 0.028144 0.99998 5.9005e-39 421 276 0 0 0 -0.61007 0.34799 -0.71184 0.005193
-0.027769 0.028695 0.99876 6.9146e-39 405 276.5 0 0 0 -0.5853 0.35821 -0.7274 0.0047729
0.031812 0.029267 0.99836 6.4537e-39 441 277 0 0 0 0.62478 0.28887 -0.7254 0.0080755
0.032994 0.028695 0.99876 6.7764e-39 352.5 277 0 0 0 0.64245 0.28062 -0.7131 0.0075649
0.034789 0.028144 0.99998 6.2693e-39 264.5 277 0 0 0 0.66442 0.2797 -0.69304 0.006898
-0.027196 0.031044 0.99917 7.3757e-39 358 278 0 0 0 -0.57876 0.36814 -0.72767 0.0041136
-0.025421 0.031603 0.99836 9.1274e-39 449 278 0 0 0 -0.55803 0.37353 -0.741 0.0042209
0.029476 0.031603 0.99836 8.943e-39 370 279 0 0 0 0.59033 0.31445 -0.74339 0.0074301
0.03126 0.03105 0.99937 8.2284e-39 388.5 278.5 0 0 0 0.62283 0.29933 -0.72283 0.0075342
0.033034 0.030484 0.99998 7.9288e-39 407 278 0 0 0 0.6463 0.28996 -0.70585 0.0072559
-0.026632 0.032824 0.99998 6.0849e-39 410 279 0 0 0 -0.57575 0.37674 -0.72566 0.0036105
-0.024852 0.033375 0.99897 7.4448e-39 392.5 279.5 0 0 0 -0.55395 0.37975 -0.7409 0.0039539
0.029512 0.033395 0.99958 5.9005e-39 303.5 280 0 0 0 0.58855 0.32891 -0.73853 0.0062036
0.030694 0.032824 0.99998 6.1771e-39 209 280 0 0 0 0.6142 0.3149 -0.7236 0.0069596
-0.024868 0.035149 0.99958 5.67e-39 184.5 281 0 0 0 -0.55597 0.38798 -0.7351 0.0035647
-0.023085 0.035107 0.99836 5.6239e-39 186 281 0 0 0 -0.5389 0.38559 -0.74894 0.0037608
0.028916 0.035136 0.99917 8.6664e-39 375.5 281 0 0 0 0.57243 0.34856 -0.74218 0.005216
-0.024292 0.036919 0.99998 7.2835e-39 396 281.5 0 0 0 -0.55536 0.39169 -0.73359 0.0035051
-0.023104 0.036889 0.99917 7.053e-39 397 281.5 0 0 0 -0.54446 0.39006 -0.74258 0.0038552
-0.021917 0.037443 0.99836 8.021e-39 378 282 0 0 0 -0.53382 0.39023 -0.75017 0.0042317
0.02714 0.037443 0.99836 7.0069e-39 420 282 0 0 0 0.54247 0.36778 -0.75529 0.004704
0.028343 0.036904 0.99958 6.7764e-39 316.5 282 0 0 0 0.56267 0.36604 -0.74123 0.0044752
-0.023123 0.038674 0.99998 6.0849e-39 219 283 0 0 0 -0.54584 0.395 -0.73894 0.00355
-0.021351 0.039227 0.99917 7.8366e-39 338 283 0 0 0 -0.53555 0.39341 -0.74727 0.0041961
-0.019197 0.0394 0.99863 8.0518e-39 378 283 0 0 0 -0.52615 0.38962 -0.75588 0.0056659
0.025403 0.039219 0.99897 6.615e-39 325.5 283.5 0 0 0 0.52909 0.3827 -0.75737 0.0044832
0.027162 0.039227 0.99917 6.8225e-39 327 283.5 0 0 0 0.54649 0.38298 -0.74476 0.0041743
-0.020783 0.041013 0.99998 7.8366e-39 395 284 0 0 0 -0.53739 0.39365 -0.74582 0.0040391
-0.01902 0.040996 0.99958 7.2374e-39 396.5 284 0 0 0 -0.53425 0.38934 -0.75033 0.0049919
-0.017245 0.040947 0.99836 6.3615e-39 398 284 0 0 0 -0.52036 0.38382 -0.76283 0.0065154
0.023636 0.040947 0.99836 9.0352e-39 439 284 0 0 0 0.51394 0.38403 -0.76706 0.005035
0.025419 0.040996 0.99958 9.1274e-39 443 284 0 0 0 0.53503 0.38979 -0.74954 0.0042156
0.027184 0.041013 0.99998 9.0352e-39 447 284 0 0 0 0.55032 0.39026 -0.73813 0.0038505
-0.018443 0.042768 0.99998 5.3934e-39 215.5 285.5 0 0 0 -0.53733 0.39014 -0.74771 0.0052087
-0.016675 0.042734 0.99917 6.2463e-39 238.25 285.5 0 0 0 -0.52859 0.38291 -0.75761 0.0059746
-0.014909 0.043283 0.99836 5.9927e-39 165 286 0 0 0 -0.52684 0.37535 -0.7626 0.0083013
0.0213 0.043283 0.99836 6.2693e-39 241 286 0 0 0 0.49865 0.38283 -0.77768 0.0050592
0.023061 0.042716 0.99876 7.1452e-39 317.5 285.5 0 0 0 0.51775 0.38809 -0.76244 0.0044725
0.026014 0.042183 0.99998 6.8225e-39 395 285 0 0 0 0.54134 0.39395 -0.7428 0.0039857
-0.018443 0.044523 0.99998 7.9288e-39 388 286 0 0 0 -0.54496 0.39222 -0.74107 0.0045621
-0.016489 0.044901 0.99971 7.5293e-39 331.67 286.33 0 0 0 -0.53945 0.38346 -0.74963 0.0055408
-0.014915 0.045053 0.99876 7.2835e-39 304 286.5 0 0 0 -0.53291 0.3802 -0.75595 0.0068982
-0.013747 0.045053 0.99876 6.9147e-39 305 286.5 0 0 0 -0.53784 0.37123 -0.75691 0.0082028
0.018964 0.045619 0.99836 4.9786e-39 265 287 0 0 0 0.49231 0.37885 -0.78365 0.0054235
0.020729 0.045062 0.99897 7.3526e-39 341.5 286.5 0 0 0 0.50868 0.38384 -0.77066 0.0043734
0.022486 0.045071 0.99917 7.4679e-39 343 286.5 0 0 0 0.51852 0.38857 -0.76168 0.0040658
-0.016103 0.046863 0.99998 8.5742e-39 404 287 0 0 0 -0.54564 0.38836 -0.7426 0.0052686
0.01546 0.047955 0.99836 5.5317e-39 263 288 0 0 0 0.48669 0.3798 -0.78669 0.0068055
0.017219 0.047974 0.99876 5.0708e-39 264.5 288 0 0 0 0.49499 0.3838 -0.77954 0.0048744
0.018979 0.047409 0.99917 7.0069e-39 346.5 287.5 0 0 0 0.50584 0.385 -0.77195 0.0044128
0.020741 0.046844 0.99958 8.8508e-39 428.5 287 0 0 0 0.51535 0.38565 -0.76531 0.0040632
0.022505 0.046863 0.99998 9.2196e-39 430 287 0 0 0 0.52672 0.38979 -0.7554 0.003864
0.014882 0.049143 0.99876 9.404e-39 417.5 288 0 0 0 0.49086 0.38485 -0.78163 0.0065718
0.017233 0.049183 0.99958 9.2657e-39 419.5 288 0 0 0 0.50095 0.39037 -0.77244 0.0041937
0.018995 0.049203 0.99998 9.1274e-39 421 288 0 0 0 0.51503 0.39095 -0.76282 0.0039761
0.020165 0.048618 0.99998 6.7764e-39 344.5 288 0 0 0 0.51691 0.38925 -0.76242 0.0037959
0.022505 0.048033 0.99998 5.0708e-39 269 288 0 0 0 0.52855 0.38856 -0.75475 0.0037132
0.014891 0.050927 0.99937 7.5601e-39 312.5 289 0 0 0 0.49026 0.39573 -0.77656 0.0043604
0.017825 0.050958 0.99998 7.9749e-39 316 289 0 0 0 0.50695 0.39623 -0.76551 0.0038485
0.018995 0.050373 0.99998 6.0849e-39 235 289 0 0 0 0.51073 0.39384 -0.76423 0.003758
0.020165 0.050373 0.99998 6.4537e-39 238 289 0 0 0 0.51909 0.39384 -0.75858 0.0035699
0.011956 0.053796 0.99836 8.5742e-39 379 290 0 0 0 0.50873 0.39644 -0.76422 0.0070863
0.013124 0.053212 0.99836 7.053e-39 295 290 0 0 0 0.50026 0.39747 -0.76926 0.0058179
0.014315 0.053298 0.99998 7.1451e-39 296 290 0 0 0 0.49038 0.40665 -0.77082 0.0038833
0.017825 0.052713 0.99998 6.7303e-39 214 290 0 0 0 0.5092 0.40134 -0.76134 0.0036029
0.011372 0.054964 0.99836 6.2693e-39 160.5 291 0 0 0 0.50651 0.40233 -0.76262 0.0059228
0.013135 0.055008 0.99917 6.8225e-39 162 291 0 0 0 0.4951 0.40499 -0.76868 0.004445
0.011382 0.056761 0.99917 7.3526e-39 333.5 291 0 0 0 0.48796 0.41088 -0.77011 0.0048102
0.013145 0.056223 0.99998 6.4537e-39 256 291 0 0 0 0.49151 0.41262 -0.76692 0.0041223
0.011585 0.058952 0.99998 6.7303e-39 262.33 292 0 0 0 0.47324 0.4202 -0.77426 0.0047605
0.045373 0.008851 1.0012 6.2693e-39 220.5 265.5 0 0 0 0.75886 0.27048 -0.59244 0.02219
0.038915 0.011775 1.0008 7.6522e-39 363 267 0 0 0 0.72266 0.24328 -0.64697 0.01349
0.043599 0.010604 1.0008 7.6522e-39 409 266 0 0 0 0.74633 0.25569 -0.61451 0.016016
-0.03605 0.012956 1.0016 8.482e-39 402 267 0 0 0 -0.71203 0.13066 -0.68989 0.024936
0.037744 0.012946 1.0008 6.0849e-39 219 268 0 0 0 0.712 0.25049 -0.65598 0.012672
-0.036021 0.014702 1.0008 6.4537e-39 239.5 268.5 0 0 0 -0.70455 0.15699 -0.69207 0.021079
0.035402 0.015287 1.0008 5.8083e-39 378 269 0 0 0 0.6874 0.24787 -0.68267 0.012208
0.036974 0.014511 1.0011 7.099e-39 404.67 268.33 0 0 0 0.7052 0.24544 -0.66517 0.011686
-0.036021 0.017043 1.0008 6.8686e-39 388.5 269.5 0 0 0 -0.70005 0.19953 -0.68565 0.018045
0.037159 0.017043 1.0008 7.3757e-39 327.5 270 0 0 0 0.69671 0.2497 -0.6725 0.01123
-0.036036 0.019393 1.0012 5.9927e-39 415.5 270.5 0 0 0 -0.69383 0.23673 -0.68012 0.014181
-0.03605 0.021159 1.0016 6.6381e-39 233 272 0 0 0 -0.68604 0.26086 -0.6792 0.011661
-0.034864 0.022908 1.0012 6.2232e-39 419.5 272.5 0 0 0 -0.67526 0.28111 -0.68191 0.0094893
-0.033679 0.023484 1.0008 7.0991e-39 402 273 0 0 0 -0.66553 0.29305 -0.68643 0.0080571
-0.034878 0.024674 1.0016 8.943e-39 382 274 0 0 0 -0.67119 0.2963 -0.67949 0.007665
-0.032916 0.025058 1.0013 8.482e-39 346 274.33 0 0 0 -0.66047 0.30288 -0.68706 0.0073281
-0.031337 0.025825 1.0008 8.482e-39 359 275 0 0 0 -0.64376 0.31452 -0.69761 0.006517
0.037744 0.025825 1.0008 5.9005e-39 420 275 0 0 0 0.69082 0.27505 -0.66867 0.0072352
-0.030765 0.027007 1.0012 5.3934e-39 186.5 276 0 0 0 -0.6385 0.32613 -0.69711 0.0058116
0.037775 0.027018 1.0016 8.2054e-39 388 276 0 0 0 0.70021 0.27462 -0.65901 0.0062901
-0.030566 0.028565 1.0011 6.5459e-39 408.33 276.33 0 0 0 -0.62791 0.34 -0.70009 0.0051578
-0.028996 0.029338 1.0008 8.021e-39 387 277 0 0 0 -0.61027 0.35296 -0.70922 0.0047759
0.034817 0.029338 1.0008 7.1913e-39 443.5 277 0 0 0 0.66696 0.28193 -0.68969 0.0065113
0.036588 0.028765 1.0012 6.7764e-39 355.5 277 0 0 0 0.6868 0.28042 -0.67057 0.0060213
-0.030191 0.031119 1.0016 7.3296e-39 355.5 278 0 0 0 -0.61468 0.36207 -0.70076 0.0042085
-0.029008 0.031107 1.0012 7.2835e-39 356.5 278 0 0 0 -0.60459 0.36655 -0.70719 0.0041044
0.033061 0.03168 1.0008 8.1132e-39 373 279 0 0 0 0.64963 0.29948 -0.69878 0.006825
0.034641 0.030916 1.0013 7.7444e-39 397 278.33 0 0 0 0.66775 0.28696 -0.68685 0.0062634
-0.029019 0.032877 1.0016 6.7303e-39 408 279 0 0 0 -0.59988 0.37459 -0.70699 0.0039642
-0.027825 0.032851 1.0008 6.0849e-39 409 279 0 0 0 -0.59164 0.37716 -0.71254 0.0036899
0.03189 0.032851 1.0008 6.2693e-39 210 280 0 0 0 0.63001 0.31479 -0.70993 0.0063641
0.033088 0.032877 1.0016 6.0849e-39 211 280 0 0 0 0.64806 0.30998 -0.69565 0.0062518
-0.02725 0.034621 1.0012 6.9838e-39 277 280.5 0 0 0 -0.58671 0.38332 -0.71333 0.0035698
0.031311 0.034614 1.001 6.9608e-39 399.5 280.5 0 0 0 0.61661 0.33422 -0.7128 0.0055763
-0.026676 0.036979 1.0016 7.4218e-39 394 281.5 0 0 0 -0.57721 0.38748 -0.71881 0.0032767
-0.025483 0.036948 1.0008 7.3757e-39 395 281.5 0 0 0 -0.5699 0.38922 -0.72369 0.0035205
0.029548 0.036948 1.0008 6.7303e-39 317.5 282 0 0 0 0.58354 0.3667 -0.72457 0.0039766
0.031126 0.036774 1.0013 6.4229e-39 284 282 0 0 0 0.60206 0.35845 -0.71346 0.004074
-0.024716 0.039116 1.0013 7.6523e-39 288.67 283 0 0 0 -0.56413 0.39292 -0.72621 0.0031704
-0.023141 0.039876 1.0008 9.5883e-39 432 283 0 0 0 -0.55414 0.39556 -0.73243 0.0031429
0.028783 0.039116 1.0013 7.1605e-39 348.33 283.33 0 0 0 0.57183 0.38334 -0.7253 0.0034637
-0.024332 0.04108 1.0016 7.56e-39 392 284 0 0 0 -0.56172 0.3938 -0.7276 0.0028492
-0.02316 0.04108 1.0016 7.9288e-39 393 284 0 0 0 -0.5566 0.39567 -0.73051 0.0029985
-0.02197 0.041047 1.0008 7.9288e-39 394 284 0 0 0 -0.54993 0.3948 -0.73601 0.0033039
0.0284 0.04108 1.0016 9.2196e-39 448 284 0 0 0 0.56684 0.39012 -0.7256 0.0033896
-0.021394 0.04282 1.0012 6.9608e-39 354.5 285 0 0 0 -0.54916 0.39676 -0.73553 0.0035961
-0.019629 0.042803 1.0008 5.5318e-39 214.5 285.5 0 0 0 -0.54254 0.39587 -0.7409 0.0038377
0.023694 0.043388 1.0008 6.5459e-39 243 286 0 0 0 0.534 0.39059 -0.74985 0.0041783
0.024875 0.042821 1.0012 6.6842e-39 319 285.5 0 0 0 0.54048 0.39072 -0.74513 0.0040573
0.026823 0.04301 1.0011 6.1156e-39 302.33 285.67 0 0 0 0.55048 0.39192 -0.73713 0.0037665
-0.020808 0.045163 1.0012 7.2374e-39 299 286.5 0 0 0 -0.5506 0.39857 -0.73348 0.0035113
-0.019249 0.045364 1.0013 7.1298e-39 271.33 286.67 0 0 0 -0.54816 0.39759 -0.73583 0.0036639
-0.017287 0.04573 1.0008 6.5459e-39 215 287 0 0 0 -0.54427 0.39361 -0.74084 0.0046808
0.023704 0.045163 1.0012 7.2374e-39 344 286.5 0 0 0 0.53828 0.3867 -0.74881 0.0041383
0.026057 0.045181 1.0016 8.8508e-39 390.5 286.5 0 0 0 0.55115 0.38746 -0.73899 0.0039488
-0.018473 0.046939 1.0016 8.3898e-39 402 287 0 0 0 -0.54893 0.39554 -0.73636 0.003749
-0.017287 0.046901 1.0008 8.5742e-39 403 287 0 0 0 -0.55195 0.39026 -0.73692 0.0045398
0.023713 0.046939 1.0016 9.2196e-39 431 287 0 0 0 0.54076 0.38581 -0.74748 0.0038026
0.026057 0.046939 1.0016 9.2196e-39 433 287 0 0 0 0.55123 0.38755 -0.73888 0.0037349
-0.018473 0.048697 1.0016 7.7905e-39 313 288 0 0 0 -0.55209 0.39245 -0.73565 0.0036799
-0.017287 0.048072 1.0008 6.3615e-39 224 288 0 0 0 -0.55512 0.38923 -0.73508 0.0044287
0.021361 0.048678 1.0012 6.7764e-39 345.5 288 0 0 0 0.52823 0.38969 -0.7544 0.0036523
0.023118 0.048677 1.0012 6.6842e-39 347 288 0 0 0 0.53134 0.38961 -0.75225 0.0034639
0.016668 0.050999 1.0008 7.7905e-39 314 289 0 0 0 0.50563 0.39773 -0.7656 0.0039239
0.01901 0.051585 1.0008 9.6805e-39 401 289 0 0 0 0.51038 0.39907 -0.76174 0.0033068
0.020973 0.051222 1.0013 8.6049e-39 348 289 0 0 0 0.52294 0.3959 -0.75485 0.0033739
0.022541 0.051041 1.0016 7.8827e-39 322 289 0 0 0 0.53161 0.39341 -0.75008 0.0034444
0.015498 0.05334 1.0008 7.053e-39 297 290 0 0 0 0.49692 0.40736 -0.76624 0.0036897
0.01726 0.053362 1.0012 6.9147e-39 298.5 290 0 0 0 0.50514 0.40539 -0.7619 0.0032839
0.019018 0.053362 1.0012 6.592e-39 300 290 0 0 0 0.50858 0.40321 -0.76077 0.0031394
0.020189 0.053362 1.0012 6.4998e-39 301 290 0 0 0 0.51881 0.39854 -0.7563 0.0033304
0.014919 0.055119 1.0012 6.592e-39 163.5 291 0 0 0 0.48897 0.41087 -0.76948 0.0034125
0.017854 0.055142 1.0016 6.9147e-39 168 291 0 0 0 0.50489 0.40731 -0.76104 0.0032206
0.013156 0.057439 1.0008 8.3898e-39 414 291 0 0 0 0.48098 0.41683 -0.77131 0.0038946
0.014338 0.056314 1.0016 5.9927e-39 257 291 0 0 0 0.48705 0.41496 -0.7685 0.0036064
0.010814 0.059781 1.0008 7.8366e-39 368 292 0 0 0 0.46094 0.42268 -0.7803 0.0044259
0.013161 0.05922 1.0012 7.3296e-39 290.5 292 0 0 0 0.47588 0.41744 -0.77413 0.0039836
0.0114 0.060952 1.0008 6.4537e-39 152.5 293 0 0 0 0.45325 0.42786 -0.78199 0.0045788
0.013166 0.061001 1.0016 5.9005e-39 154 293 0 0 0 0.46432 0.42158 -0.7789 0.0041392
0.011985 0.062122 1.0008 6.1771e-39 230 293 0 0 0 0.44392 0.42997 -0.78617 0.0045456
0.013166 0.062173 1.0016 6.5459e-39 231 293 0 0 0 0.45804 0.42698 -0.77967 0.0044719
-0.051388 -0.0052174 1.0036 5.9466e-39 286.5 254 0 0 0 0.92911 -0.34733 -0.12699 0.074685
0.047188 0.0071029 1.0024 5.6239e-39 385 264 0 0 0 0.75425 0.31569 -0.57572 0.029201
0.046835 0.0090649 1.0032 6.0234e-39 210 265.67 0 0 0 0.77583 0.26746 -0.57144 0.025287
-0.037313 0.011813 1.004 6.4537e-39 451 266 0 0 0 -0.7356 0.12262 -0.66623 0.033892
0.040944 0.011406 1.0027 8.0518e-39 378.67 266.67 0 0 0 0.75617 0.24504 -0.60676 0.015576
0.042899 0.011406 1.0027 8.021e-39 380.33 266.67 0 0 0 0.75962 0.24862 -0.60097 0.016196
0.044897 0.011222 1.0036 7.4679e-39 389 266.5 0 0 0 0.77975 0.24159 -0.5776 0.019317
0.04609 0.010638 1.004 8.1132e-39 411 266 0 0 0 0.78315 0.24533 -0.5714 0.021771
-0.037282 0.012977 1.0032 8.5742e-39 401 267 0 0 0 -0.72991 0.1242 -0.67216 0.029539
0.038978 0.012967 1.0024 6.3615e-39 220 268 0 0 0 0.73342 0.24704 -0.6333 0.012128
0.040787 0.012983 1.0036 6.4537e-39 221.5 268 0 0 0 0.75874 0.24179 -0.60486 0.013483
0.043136 0.012983 1.0036 7.053e-39 223.5 268 0 0 0 0.76429 0.24178 -0.59783 0.014169
-0.038487 0.015337 1.004 5.2552e-39 189 269 0 0 0 -0.73699 0.16486 -0.65549 0.027061
-0.037282 0.014738 1.0032 6.0849e-39 224.5 268.5 0 0 0 -0.72868 0.15109 -0.66798 0.02705
0.037805 0.015312 1.0024 5.9005e-39 380 269 0 0 0 0.72066 0.24458 -0.64871 0.01111
0.03901 0.014738 1.0032 7.053e-39 400 268.5 0 0 0 0.73763 0.24646 -0.62861 0.010923
0.040216 0.014163 1.004 8.2976e-39 420 268 0 0 0 0.75494 0.23899 -0.6107 0.012329
0.04374 0.014163 1.004 6.7303e-39 439 268 0 0 0 0.772 0.23206 -0.59175 0.013655
-0.039074 0.017099 1.004 7.1451e-39 386 269.5 0 0 0 -0.73223 0.19101 -0.65372 0.023436
-0.037282 0.017085 1.0032 6.8224e-39 387.5 269.5 0 0 0 -0.72076 0.19688 -0.66463 0.021953
0.037805 0.016485 1.0024 6.6381e-39 238 270 0 0 0 0.71855 0.25108 -0.64857 0.010339
0.03901 0.017085 1.0032 6.9608e-39 335.5 270 0 0 0 0.73564 0.24922 -0.62986 0.0099025
-0.039074 0.018861 1.004 6.4998e-39 447.5 270 0 0 0 -0.72348 0.21432 -0.65623 0.020637
-0.037282 0.018846 1.0032 6.7303e-39 449 270 0 0 0 -0.71554 0.22082 -0.66275 0.017858
0.03901 0.018846 1.0032 8.6664e-39 268 271 0 0 0 0.72877 0.25889 -0.63394 0.0088061
-0.038487 0.020036 1.004 5.9927e-39 379 271 0 0 0 -0.71829 0.22796 -0.65734 0.017954
-0.037298 0.020615 1.0036 6.3154e-39 306 271.5 0 0 0 -0.71192 0.24049 -0.6598 0.016254
0.038994 0.020598 1.0028 6.9608e-39 421 271.5 0 0 0 0.72037 0.26224 -0.6421 0.0086357
-0.036094 0.022945 1.0028 6.3154e-39 418.5 272.5 0 0 0 -0.68926 0.27571 -0.67 0.010622
0.038978 0.022936 1.0024 7.1452e-39 321 273.5 0 0 0 0.71797 0.27053 -0.64135 0.0077293
-0.036138 0.024735 1.004 8.482e-39 381 274 0 0 0 -0.68224 0.28689 -0.67249 0.0090695
-0.034907 0.025867 1.0024 8.2054e-39 269 275 0 0 0 -0.67052 0.30126 -0.67797 0.0073655
-0.033734 0.025867 1.0024 8.2054e-39 270 275 0 0 0 -0.66792 0.29958 -0.68127 0.0074819
0.039026 0.025312 1.0036 5.9927e-39 305 275 0 0 0 0.72013 0.27317 -0.6378 0.006621
-0.034935 0.027062 1.0032 5.6239e-39 183 276 0 0 0 -0.66779 0.30546 -0.67878 0.0069674
-0.033161 0.027051 1.0028 5.4395e-39 184.5 276 0 0 0 -0.66176 0.31357 -0.68099 0.0063526
0.039042 0.027084 1.004 7.9288e-39 389 276 0 0 0 0.72011 0.27107 -0.63872 0.0058677
-0.034935 0.028823 1.0032 7.514e-39 399 276.5 0 0 0 -0.65648 0.31615 -0.6849 0.0065039
-0.033174 0.028823 1.0032 7.0991e-39 400.5 276.5 0 0 0 -0.65291 0.32248 -0.68536 0.0057501
-0.031388 0.029386 1.0024 7.7444e-39 385 277 0 0 0 -0.63492 0.33922 -0.69413 0.0050798
0.037851 0.028834 1.0036 6.7764e-39 356.5 277 0 0 0 0.70893 0.27548 -0.64925 0.0056794
-0.034963 0.031195 1.004 7.3296e-39 351.5 278 0 0 0 -0.64113 0.32045 -0.69733 0.0073008
-0.033188 0.031183 1.0036 7.3987e-39 353 278 0 0 0 -0.63503 0.33733 -0.69494 0.0056225
-0.031388 0.031144 1.0024 7.3296e-39 354.5 278 0 0 0 -0.62439 0.35155 -0.69753 0.0047605
0.03546 0.031731 1.0024 8.482e-39 375 279 0 0 0 0.67614 0.28865 -0.67788 0.0059697
0.037054 0.030974 1.0032 7.3757e-39 399 278.33 0 0 0 0.69534 0.28003 -0.66188 0.0057229
-0.033202 0.032957 1.004 7.8827e-39 404.5 279 0 0 0 -0.62043 0.34239 -0.70557 0.0067267
-0.030814 0.032917 1.0028 7.2374e-39 406.5 279 0 0 0 -0.61135 0.36351 -0.70293 0.0048235
0.034888 0.032917 1.0028 6.0849e-39 212.5 280 0 0 0 0.66869 0.30214 -0.67938 0.0058593
0.036692 0.032957 1.004 5.9005e-39 214 280 0 0 0 0.69012 0.29286 -0.66179 0.0058494
-0.030833 0.034698 1.0034 7.2143e-39 274 280.5 0 0 0 -0.6017 0.36608 -0.70989 0.0054737
-0.029043 0.034663 1.0024 7.2835e-39 275.5 280.5 0 0 0 -0.59604 0.37783 -0.7085 0.0041171
0.033114 0.034663 1.0024 6.7764e-39 401 280.5 0 0 0 0.64185 0.32352 -0.69524 0.0055738
0.034909 0.034698 1.0034 7.0299e-39 402.5 280.5 0 0 0 0.65994 0.31593 -0.68167 0.0056011
-0.030252 0.037054 1.0036 7.4218e-39 391 281.5 0 0 0 -0.59029 0.36961 -0.7176 0.0052659
-0.029078 0.037054 1.0036 7.2835e-39 392 281.5 0 0 0 -0.58972 0.37113 -0.71728 0.0050202
-0.027881 0.037024 1.0028 7.4679e-39 393 281.5 0 0 0 -0.58469 0.38013 -0.71669 0.0041874
0.031942 0.037595 1.0024 8.021e-39 424 282 0 0 0 0.61005 0.36137 -0.70516 0.0038035
0.033141 0.037039 1.0032 7.514e-39 320.5 282 0 0 0 0.63003 0.34703 -0.69472 0.0044011
0.034343 0.037069 1.004 7.8366e-39 323 282 0 0 0 0.64163 0.33718 -0.68893 0.0045706
-0.02711 0.039191 1.0032 7.1605e-39 286.67 283 0 0 0 -0.57535 0.38344 -0.72245 0.0037468
-0.025524 0.039941 1.0024 9.0352e-39 430 283 0 0 0 -0.5689 0.39021 -0.72394 0.0030467
0.029596 0.039941 1.0024 5.2552e-39 269 284 0 0 0 0.58132 0.38399 -0.71737 0.0032795
0.031362 0.039362 1.0026 6.3384e-39 330.5 283.5 0 0 0 0.59835 0.37611 -0.70747 0.0033945
-0.026741 0.04118 1.004 7.7444e-39 390 284 0 0 0 -0.56682 0.38349 -0.72915 0.0039506
-0.025545 0.041147 1.0032 7.4678e-39 391 284 0 0 0 -0.56969 0.38944 -0.72373 0.0029537
0.029596 0.041113 1.0024 5.8083e-39 160 285 0 0 0 0.5773 0.38748 -0.71874 0.0031828
0.031394 0.041164 1.0036 6.131e-39 167.5 285 0 0 0 0.59377 0.37903 -0.70977 0.0032457
-0.026741 0.042355 1.004 5.6239e-39 265 285 0 0 0 -0.56059 0.38718 -0.732 0.0037468
-0.024964 0.042916 1.0034 7.537e-39 350.75 285 0 0 0 -0.56305 0.39185 -0.72762 0.0027367
-0.023179 0.042872 1.0024 7.2835e-39 353 285 0 0 0 -0.5569 0.39646 -0.72985 0.0027519
0.029033 0.042908 1.0032 6.3154e-39 328.5 285.5 0 0 0 0.572 0.38832 -0.72251 0.0032189
0.030807 0.042925 1.0036 6.1771e-39 330 285.5 0 0 0 0.58484 0.3814 -0.71589 0.0030622
-0.024381 0.045273 1.0036 6.592e-39 280 286.5 0 0 0 -0.55709 0.39549 -0.73024 0.0027203
-0.022607 0.045246 1.003 6.592e-39 281.5 286.5 0 0 0 -0.55585 0.39741 -0.73013 0.0028005
0.024905 0.045218 1.0024 7.1913e-39 345 286.5 0 0 0 0.54884 0.38768 -0.7406 0.0039677
0.02725 0.045218 1.0024 8.7586e-39 391.5 286.5 0 0 0 0.55697 0.38697 -0.73487 0.0037174
0.028853 0.045084 1.0037 8.7279e-39 403 286.33 0 0 0 0.56788 0.3845 -0.72779 0.0033411
-0.02262 0.047035 1.0036 6.3154e-39 398.5 287 0 0 0 -0.55583 0.39337 -0.73233 0.0027618
-0.020833 0.046977 1.0024 7.2835e-39 400 287 0 0 0 -0.55413 0.39581 -0.73231 0.0030668
-0.019661 0.046977 1.0024 7.8366e-39 401 287 0 0 0 -0.55383 0.39564 -0.73262 0.0034997
0.024905 0.046977 1.0024 9.3118e-39 432 287 0 0 0 0.54847 0.3859 -0.74179 0.0037856
0.02725 0.046977 1.0024 9.2196e-39 437 287 0 0 0 0.55596 0.38614 -0.73608 0.0036643
0.028469 0.047054 1.004 9.0352e-39 438 287 0 0 0 0.56415 0.3807 -0.73267 0.0033444
-0.022033 0.048796 1.0036 7.6522e-39 310 288 0 0 0 -0.55597 0.3916 -0.73318 0.00301
-0.020833 0.048736 1.0024 7.6061e-39 311 288 0 0 0 -0.55547 0.39355 -0.73251 0.0030949
-0.019669 0.048756 1.0028 7.6522e-39 312 288 0 0 0 -0.56073 0.39093 -0.7299 0.0034526
0.023732 0.049323 1.0024 8.943e-39 425 288 0 0 0 0.53938 0.39001 -0.7463 0.0035344
0.024925 0.048776 1.0032 8.8047e-39 393 288 0 0 0 0.54891 0.38671 -0.74104 0.0035864
0.026686 0.048776 1.0032 8.7817e-39 394.5 288 0 0 0 0.55424 0.38395 -0.73851 0.0036027
-0.022042 0.050578 1.004 5.7161e-39 209 289 0 0 0 -0.55637 0.39006 -0.73369 0.0031948
-0.020859 0.051145 1.0036 7.0991e-39 295 289 0 0 0 -0.55418 0.39103 -0.73483 0.0033702
-0.01909 0.051123 1.0032 7.2143e-39 296.5 289 0 0 0 -0.55566 0.38936 -0.7346 0.0034808
0.023732 0.051082 1.0024 7.6522e-39 323 289 0 0 0 0.53527 0.39106 -0.74871 0.0033717
0.024935 0.051145 1.0036 7.6522e-39 324 289 0 0 0 0.54468 0.38567 -0.7447 0.0035957
0.026505 0.050956 1.0037 7.0376e-39 298 289 0 0 0 0.54887 0.38163 -0.74371 0.003582
-0.018503 0.052884 1.0032 6.6381e-39 168 290 0 0 0 -0.548 0.39319 -0.73831 0.0038376
-0.017315 0.052841 1.0024 5.3473e-39 173 290 0 0 0 -0.54877 0.39682 -0.73579 0.0041764
0.021387 0.052841 1.0024 6.2693e-39 217 290 0 0 0 0.52597 0.39545 -0.75298 0.0033282
0.023155 0.052863 1.0028 6.4998e-39 218.5 290 0 0 0 0.53065 0.39272 -0.75112 0.0033414
0.024945 0.052927 1.004 6.1771e-39 220 290 0 0 0 0.53985 0.38645 -0.74781 0.0034738
-0.018518 0.054102 1.004 8.1132e-39 366 290 0 0 0 -0.54449 0.39548 -0.73968 0.0040993
0.016696 0.0546 1.0024 6.9608e-39 275 290.5 0 0 0 0.50285 0.4081 -0.76197 0.003242
0.019041 0.055187 1.0024 6.8225e-39 169 291 0 0 0 0.50801 0.40483 -0.76029 0.0032381
0.021013 0.05484 1.0032 5.9005e-39 244 290.67 0 0 0 0.52077 0.39617 -0.75621 0.0033815
0.022982 0.054479 1.0037 7.0069e-39 317 290.33 0 0 0 0.52699 0.39224 -0.75394 0.0033896
0.015132 0.057141 1.0024 7.7444e-39 363 291 0 0 0 0.48755 0.41731 -0.76691 0.0035659
0.017292 0.056981 1.003 6.8225e-39 338.5 291 0 0 0 0.49488 0.41185 -0.76516 0.0032603
0.019057 0.056992 1.0032 6.6381e-39 340 291 0 0 0 0.50023 0.40765 -0.76393 0.0032409
0.020239 0.057016 1.0036 6.4998e-39 341 291 0 0 0 0.50683 0.40197 -0.76259 0.0033653
0.01494 0.059303 1.0026 7.3526e-39 292 292 0 0 0 0.48061 0.41714 -0.77137 0.0037446
0.017303 0.059363 1.0036 7.2143e-39 294 292 0 0 0 0.48519 0.41326 -0.77059 0.0034118
0.019065 0.059363 1.0036 7.5601e-39 295.5 292 0 0 0 0.48716 0.41003 -0.77107 0.0034122
0.020247 0.059387 1.004 7.7444e-39 296.5 292 0 0 0 0.49527 0.40432 -0.76891 0.0033901
0.014949 0.0611 1.0032 5.7622e-39 155.5 293 0 0 0 0.47428 0.41935 -0.77408 0.0039732
0.017303 0.061125 1.0036 5.7161e-39 157.5 293 0 0 0 0.47988 0.41463 -0.77318 0.0035761
0.019072 0.06115 1.004 6.0849e-39 159 293 0 0 0 0.4803 0.41103 -0.77483 0.0035819
0.013177 0.063396 1.0024 9.0352e-39 388 293 0 0 0 0.45006 0.42906 -0.78317 0.0045201
0.014954 0.062887 1.0036 7.8597e-39 311.5 293 0 0 0 0.46511 0.42215 -0.77812 0.0042221
0.017897 0.062324 1.004 5.9927e-39 237 293 0 0 0 0.47439 0.41666 -0.77547 0.0038695
0.013188 0.064621 1.0032 7.0069e-39 163 294 0 0 0 0.44251 0.43288 -0.78536 0.0044892
0.014373 0.064674 1.004 6.5459e-39 164 294 0 0 0 0.44728 0.43015 -0.78416 0.0042441
-0.051493 -0.0034633 1.0057 6.9147e-39 236 256 0 0 0 0.83685 -0.52093 -0.16825 0.1506
-0.03855 0.011832 1.0057 6.5459e-39 450 266 0 0 0 -0.75345 0.15205 -0.63968 0.039574
-0.037343 0.010647 1.0049 6.4537e-39 234 266 0 0 0 -0.74715 0.14209 -0.64929 0.040873
0.046715 0.011235 1.0049 7.2374e-39 390.5 266.5 0 0 0 0.79129 0.23825 -0.56311 0.021834
-0.039123 0.013004 1.0053 8.3437e-39 399.5 267 0 0 0 -0.75308 0.15237 -0.64004 0.036896
0.044952 0.012998 1.0049 6.3615e-39 225 268 0 0 0 0.78355 0.23264 -0.57613 0.016944
0.046165 0.013009 1.0057 5.9005e-39 226 268 0 0 0 0.79314 0.22745 -0.56497 0.018907
-0.04208 0.015362 1.0057 5.3473e-39 186 269 0 0 0 -0.76505 0.18052 -0.61816 0.035418
-0.039302 0.014566 1.0049 6.5152e-39 234.33 268.33 0 0 0 -0.74865 0.15927 -0.64355 0.031616
0.041033 0.014958 1.0049 6.5766e-39 396.33 268.67 0 0 0 0.76137 0.24104 -0.60184 0.011852
0.042992 0.014958 1.0049 6.4229e-39 399 268.67 0 0 0 0.77175 0.23631 -0.59039 0.012745
0.044988 0.014186 1.0057 6.3615e-39 440 268 0 0 0 0.78665 0.22424 -0.57524 0.016019
0.046165 0.014186 1.0057 5.9005e-39 441 268 0 0 0 0.7946 0.21861 -0.56641 0.017584
-0.042046 0.017113 1.0049 7.9288e-39 383.5 269.5 0 0 0 -0.75605 0.18039 -0.62917 0.03017
-0.040903 0.017127 1.0057 7.6522e-39 384.5 269.5 0 0 0 -0.75591 0.17948 -0.62959 0.029711
0.040663 0.016926 1.0054 6.9454e-39 309.33 270 0 0 0 0.75822 0.24535 -0.60408 0.010756
0.043224 0.016539 1.0057 6.6842e-39 257.5 270 0 0 0 0.77174 0.23672 -0.59024 0.011643
-0.042046 0.018877 1.0049 6.6381e-39 445 270 0 0 0 -0.74685 0.20149 -0.63373 0.024114
-0.040903 0.018892 1.0057 6.2693e-39 446 270 0 0 0 -0.74849 0.19921 -0.63251 0.025073
0.040282 0.018892 1.0057 8.5742e-39 269 271 0 0 0 0.75094 0.25293 -0.61001 0.0086869
-0.04208 0.020069 1.0057 6.3615e-39 376 271 0 0 0 -0.74411 0.20735 -0.63506 0.022678
-0.040903 0.020069 1.0057 6.3615e-39 377 271 0 0 0 -0.74213 0.21015 -0.63646 0.021769
-0.039302 0.020836 1.0049 6.6381e-39 279.67 271.67 0 0 0 -0.72219 0.23377 -0.651 0.0178
0.040282 0.021245 1.0057 6.9147e-39 399 272 0 0 0 0.74883 0.25473 -0.61186 0.0080137
-0.039138 0.022422 1.0057 6.0849e-39 428.5 272 0 0 0 -0.72182 0.23728 -0.65014 0.017431
-0.037358 0.023001 1.0053 6.6381e-39 414.5 272.5 0 0 0 -0.7088 0.25264 -0.65862 0.014849
0.040249 0.022992 1.0049 7.6061e-39 322 273.5 0 0 0 0.74058 0.26234 -0.61865 0.0072042
-0.036167 0.02593 1.0049 7.0991e-39 268 275 0 0 0 -0.67934 0.28554 -0.67599 0.0095845
0.040282 0.025364 1.0057 5.7622e-39 315.5 275 0 0 0 0.73161 0.26838 -0.62667 0.0063262
-0.036167 0.027106 1.0049 5.3473e-39 182 276 0 0 0 -0.668 0.28977 -0.68543 0.0091196
0.040282 0.027128 1.0057 7.6522e-39 390 276 0 0 0 0.72759 0.26652 -0.63212 0.0057276
-0.036197 0.028893 1.0057 7.7905e-39 398 276.5 0 0 0 -0.65462 0.29072 -0.69783 0.0092781
0.039089 0.028881 1.0053 7.1452e-39 357.5 277 0 0 0 0.72129 0.26625 -0.63941 0.0054518
-0.036197 0.030658 1.0057 6.5459e-39 261 278 0 0 0 -0.64354 0.30604 -0.70156 0.0080589
0.037898 0.031809 1.0049 8.021e-39 377 279 0 0 0 0.70561 0.27965 -0.65108 0.0057761
-0.034992 0.032984 1.0049 8.2976e-39 403 279 0 0 0 -0.6287 0.3299 -0.70421 0.0073389
-0.03502 0.034776 1.0057 6.5919e-39 270.5 280.5 0 0 0 -0.61951 0.33376 -0.7105 0.0075805
-0.033229 0.034748 1.0049 6.7764e-39 272 280.5 0 0 0 -0.61028 0.34944 -0.71095 0.0068617
0.036737 0.034762 1.0053 6.8685e-39 404 280.5 0 0 0 0.68534 0.29851 -0.66423 0.0054014
-0.033256 0.036541 1.0057 5.7622e-39 408.5 281 0 0 0 -0.60282 0.34842 -0.71778 0.0071979
-0.031478 0.037114 1.0053 7.5601e-39 390 281.5 0 0 0 -0.5932 0.35787 -0.72114 0.006433
0.03556 0.037114 1.0053 7.7905e-39 324 282 0 0 0 0.65945 0.32548 -0.67763 0.0051437
-0.030314 0.038894 1.0057 6.2693e-39 213 283 0 0 0 -0.58372 0.36343 -0.72607 0.0059462
-0.029114 0.038862 1.0049 5.9927e-39 214 283 0 0 0 -0.58061 0.3705 -0.72499 0.0051395
0.033195 0.038862 1.0049 7.56e-39 392 283 0 0 0 0.62449 0.35531 -0.69554 0.00397
0.034987 0.038894 1.0057 7.6983e-39 393.5 283 0 0 0 0.64369 0.34166 -0.68479 0.0044864
-0.029137 0.040071 1.0057 8.8508e-39 423 283 0 0 0 -0.57831 0.37019 -0.72699 0.0050456
-0.02795 0.040642 1.0053 8.4359e-39 406.5 283.5 0 0 0 -0.57262 0.37519 -0.72893 0.0045318
0.033222 0.040659 1.0057 5.7161e-39 220.5 284.5 0 0 0 0.61715 0.3602 -0.69956 0.0033945
-0.026762 0.043565 1.0049 9.5883e-39 432 285 0 0 0 -0.5602 0.38398 -0.73399 0.0038159
0.032033 0.042994 1.0053 6.2232e-39 331 285.5 0 0 0 0.59423 0.3712 -0.71351 0.0030229
-0.026784 0.044777 1.0057 7.8366e-39 381 286 0 0 0 -0.55305 0.38648 -0.73809 0.0038427
-0.025597 0.045348 1.0053 6.6841e-39 279 286.5 0 0 0 -0.55242 0.38961 -0.73691 0.0034624
0.029668 0.045916 1.0049 8.2976e-39 363 287 0 0 0 0.57242 0.37665 -0.72833 0.0031576
0.030844 0.045328 1.0049 8.7586e-39 394.5 286.5 0 0 0 0.57889 0.37528 -0.72391 0.0030221
0.032046 0.045365 1.0057 8.7125e-39 395.5 286.5 0 0 0 0.58686 0.36779 -0.72134 0.0028421
-0.024411 0.047092 1.0049 5.9005e-39 397 287 0 0 0 -0.55377 0.39039 -0.73548 0.0027481
0.029668 0.047092 1.0049 9.0352e-39 439 287 0 0 0 0.56951 0.37518 -0.73137 0.0031618
0.030844 0.047092 1.0049 5.9927e-39 153 288 0 0 0 0.57537 0.37137 -0.72872 0.0029797
0.032046 0.04713 1.0057 5.9927e-39 154 288 0 0 0 0.58112 0.36683 -0.72645 0.0029224
-0.024421 0.048876 1.0053 7.2835e-39 308 288 0 0 0 -0.55124 0.39072 -0.7372 0.003036
-0.023245 0.048876 1.0053 7.6061e-39 309 288 0 0 0 -0.55452 0.38925 -0.73552 0.0028941
0.0289 0.048686 1.0054 8.5742e-39 385.33 288 0 0 0 0.56355 0.37405 -0.73654 0.0032948
0.030869 0.048307 1.0057 8.021e-39 365 288 0 0 0 0.57405 0.36772 -0.7316 0.0030256
-0.022657 0.051227 1.0053 7.0529e-39 293.5 289 0 0 0 -0.55304 0.39047 -0.73599 0.0032834
0.027317 0.051794 1.0049 9.5883e-39 408 289 0 0 0 0.55114 0.37817 -0.7438 0.0034778
-0.022078 0.053013 1.0057 6.3615e-39 164 290 0 0 0 -0.55477 0.38993 -0.73498 0.0035976
-0.020884 0.05297 1.0049 6.3615e-39 165 290 0 0 0 -0.55179 0.3907 -0.73681 0.0036683
-0.019709 0.05297 1.0049 6.4537e-39 167 290 0 0 0 -0.55165 0.39134 -0.73657 0.003758
0.026141 0.05297 1.0049 5.5317e-39 221 290 0 0 0 0.54415 0.38131 -0.74733 0.0035106
-0.022078 0.05419 1.0057 8.1132e-39 363 290 0 0 0 -0.55354 0.38911 -0.73633 0.0037116
-0.020893 0.054756 1.0053 8.5281e-39 396.5 290 0 0 0 -0.55151 0.39089 -0.73691 0.0038986
-0.019129 0.054756 1.0053 8.6664e-39 398 290 0 0 0 -0.54431 0.3972 -0.73889 0.0042619
0.02379 0.055321 1.0049 5.9005e-39 175 291 0 0 0 0.53051 0.38719 -0.75408 0.0034281
