# .PCD v.7 - Point Cloud Data file format
VERSION .7
FIELDS x y z rgb u v vx vy vz normal_x normal_y normal_z curvature
SIZE 4 4 4 4 4 4 4 4 4 4 4 4 4
TYPE F F F F F F F F F F F F F
COUNT 1 1 1 1 1 1 1 1 1 1 1 1 1
WIDTH 551
HEIGHT 1
VIEWPOINT 0 0 0 1 0 0 0
POINTS 551
DATA ascii
0.15656 0.14301 0.81732 7.9749e-39 293.5 320 0 0 0 -0.71524 0.27096 -0.64421 0.0014584
0.26761 0.1433 0.81624 7.2835e-39 226 321 0 0 0 0.70022 0.30053 -0.64759 0.0031894
0.26875 0.14244 0.81678 7.56e-39 358 320 0 0 0 0.70689 0.30053 -0.6403 0.003149
0.15737 0.14476 0.81732 7.0069e-39 253.33 321.33 0 0 0 -0.71455 0.27281 -0.6442 0.0013099
0.15837 0.14531 0.81678 6.4537e-39 208.5 322 0 0 0 -0.71357 0.27526 -0.64425 0.0012615
0.26701 0.1454 0.81732 7.0069e-39 371 322 0 0 0 0.70881 0.29295 -0.64169 0.0025762
0.26815 0.14454 0.81786 6.1771e-39 153 322 0 0 0 0.71218 0.29645 -0.63634 0.0027754
0.15896 0.14683 0.81732 8.0902e-39 355 322.5 0 0 0 -0.71221 0.27481 -0.64593 0.0012355
0.15987 0.1487 0.81705 6.5459e-39 303 324 0 0 0 -0.71113 0.27405 -0.64744 0.0012364
0.26475 0.14998 0.81624 6.5459e-39 398 325 0 0 0 0.69564 0.29408 -0.65544 0.0020067
0.16084 0.1511 0.81714 9.2502e-39 229.33 325.67 0 0 0 -0.70866 0.2742 -0.65008 0.0013185
0.26528 0.15124 0.81786 1.2262e-38 249 326 0 0 0 0.70284 0.29626 -0.64672 0.0017082
0.16123 0.15276 0.8175 7.6215e-39 190.33 326.67 0 0 0 -0.70688 0.27329 -0.65241 0.0014072
0.26432 0.15219 0.81786 6.3615e-39 396 326 0 0 0 0.69935 0.29625 -0.65049 0.0016778
0.16162 0.15475 0.81745 9.1504e-39 310 327.25 0 0 0 -0.70482 0.27148 -0.65538 0.0014407
0.26336 0.15507 0.81786 1.1524e-38 224 328 0 0 0 0.69488 0.29854 -0.65423 0.0015976
0.16194 0.15698 0.81786 6.9147e-39 404 328 0 0 0 -0.7022 0.27234 -0.65784 0.0015106
0.16257 0.15762 0.81624 1.2262e-38 254 329 0 0 0 -0.70337 0.27327 -0.65619 0.0015134
0.26119 0.1573 0.81705 9.7726e-39 279.5 329 0 0 0 0.68278 0.3016 -0.66547 0.0015696
0.26241 0.15602 0.81786 6.7303e-39 362 328 0 0 0 0.69174 0.29845 -0.65759 0.0016935
0.16315 0.15916 0.81678 9.9109e-39 312 329.5 0 0 0 -0.7019 0.27367 -0.65761 0.0015433
0.25998 0.15858 0.81624 9.1274e-39 190 330 0 0 0 0.67833 0.30103 -0.67027 0.0015969
0.2608 0.15926 0.81732 7.9749e-39 257 330 0 0 0 0.68227 0.30383 -0.66498 0.0015778
0.16331 0.16075 0.81759 7.0991e-39 365.5 330 0 0 0 -0.69992 0.27293 -0.66002 0.0015434
0.26015 0.16107 0.81678 5.624e-39 233.5 331 0 0 0 0.68092 0.30423 -0.66617 0.0016886
0.16454 0.16293 0.81651 9.2197e-39 272.5 331.5 0 0 0 -0.70288 0.27236 -0.6571 0.0014795
0.26015 0.16298 0.81678 5.9927e-39 226 332 0 0 0 0.68167 0.30411 -0.66547 0.0017649
0.16465 0.16495 0.81705 9.3118e-39 272.5 332.5 0 0 0 -0.70247 0.2693 -0.65879 0.0014609
0.2591 0.16484 0.81651 5.6239e-39 227.5 333 0 0 0 0.67954 0.30546 -0.66702 0.0018878
0.16537 0.16679 0.8175 8.3899e-39 303 333.33 0 0 0 -0.70346 0.26811 -0.65823 0.0013797
0.2588 0.16638 0.81705 7.0991e-39 162.5 334 0 0 0 0.68052 0.30563 -0.66594 0.0018748
0.16645 0.16866 0.81651 8.9889e-39 275.5 334.5 0 0 0 -0.70787 0.26662 -0.65409 0.00136
0.16685 0.17082 0.81696 9.8956e-39 242.33 335.67 0 0 0 -0.70721 0.26575 -0.65516 0.0012906
0.16725 0.17249 0.81732 8.9123e-39 281 336.33 0 0 0 -0.70607 0.26773 -0.65558 0.0012211
0.1683 0.1729 0.81624 1.0418e-38 185 337 0 0 0 -0.71138 0.26702 -0.6501 0.0013093
0.2552 0.17386 0.81624 5.9005e-39 424 337 0 0 0 0.69007 0.29175 -0.66233 0.002042
0.16912 0.17501 0.81714 8.5742e-39 274.67 337.67 0 0 0 -0.71106 0.26752 -0.65025 0.0012582
0.25425 0.17481 0.81624 9.1274e-39 266 338 0 0 0 0.69192 0.29124 -0.66062 0.0020192
0.16959 0.17707 0.81786 1.0971e-38 173 339 0 0 0 -0.71042 0.26769 -0.65088 0.0011746
0.17027 0.17726 0.81651 8.989e-39 243 339 0 0 0 -0.71533 0.26612 -0.64613 0.0012608
0.17071 0.17947 0.81714 8.0825e-39 246.33 340 0 0 0 -0.71446 0.26746 -0.64653 0.0012173
0.17128 0.18114 0.81678 7.1913e-39 208.5 341 0 0 0 -0.71565 0.27021 -0.64408 0.0012208
0.17212 0.18102 0.81624 6.9607e-39 209.5 341 0 0 0 -0.71716 0.27007 -0.64245 0.0012973
0.17128 0.18305 0.81678 7.8366e-39 344 341.5 0 0 0 -0.71484 0.27406 -0.64335 0.0012465
0.17212 0.18293 0.81624 7.7444e-39 345 341.5 0 0 0 -0.71566 0.27444 -0.64227 0.0012857
0.24852 0.18341 0.81624 7.0991e-39 349 342 0 0 0 0.69431 0.30759 -0.65063 0.0018224
0.17144 0.18514 0.81759 8.2054e-39 343 342.5 0 0 0 -0.71343 0.27912 -0.64274 0.0012882
0.17218 0.1849 0.81651 8.021e-39 344 342.5 0 0 0 -0.71513 0.27709 -0.64172 0.0013296
0.24772 0.18496 0.81678 7.6061e-39 276.5 343 0 0 0 0.69276 0.31609 -0.64821 0.0018934
0.24884 0.18461 0.81732 7.56e-39 206 343 0 0 0 0.69848 0.31496 -0.64259 0.0016945
0.17291 0.18675 0.81696 6.8225e-39 371.33 343.33 0 0 0 -0.71171 0.28482 -0.64214 0.0015217
0.24805 0.18664 0.81786 6.6381e-39 206 344 0 0 0 0.69603 0.32179 -0.64187 0.0018742
0.17342 0.18856 0.81786 5.8083e-39 425 344 0 0 0 -0.71091 0.2905 -0.64048 0.0015956
0.17403 0.18914 0.81624 6.2693e-39 274 345 0 0 0 -0.71024 0.2907 -0.64113 0.0017339
0.17486 0.19118 0.81678 6.7534e-39 349 345.75 0 0 0 -0.70952 0.29339 -0.6407 0.0018007
0.24693 0.19034 0.81732 7.7444e-39 208 346 0 0 0 0.69074 0.33713 -0.63971 0.0021679
0.17527 0.1928 0.81759 7.3296e-39 347 346.5 0 0 0 -0.71276 0.29454 -0.63657 0.0017551
0.17605 0.19308 0.81678 7.0991e-39 267 347 0 0 0 -0.71099 0.29395 -0.63881 0.0018062
0.24598 0.19226 0.81732 7.6522e-39 208 347 0 0 0 0.69026 0.34214 -0.63756 0.0024066
0.24614 0.19334 0.81786 6.8225e-39 343 347 0 0 0 0.69219 0.35095 -0.63064 0.0022256
0.17653 0.195 0.81678 7.8828e-39 331.5 347.75 0 0 0 -0.71347 0.29555 -0.6353 0.0017695
0.2447 0.19487 0.81624 7.6522e-39 330 348 0 0 0 0.68839 0.34756 -0.63665 0.00259
0.17717 0.19676 0.8175 8.3591e-39 287.33 348.67 0 0 0 -0.71665 0.29761 -0.63074 0.0016978
0.17844 0.19786 0.81678 7.0069e-39 360.5 349 0 0 0 -0.71667 0.29494 -0.63198 0.001771
0.24374 0.19678 0.81624 6.5459e-39 304 349 0 0 0 0.69113 0.35022 -0.6322 0.0024594
0.24454 0.19703 0.81732 6.4537e-39 167.5 349.5 0 0 0 0.6937 0.35753 -0.62527 0.0021194
0.1794 0.19882 0.81678 6.4998e-39 202.5 350 0 0 0 -0.7172 0.29489 -0.6314 0.0017745
0.18 0.19991 0.81732 7.56e-39 322 350 0 0 0 -0.71811 0.29778 -0.629 0.0017923
0.24279 0.19869 0.81624 6.6381e-39 269 350 0 0 0 0.69437 0.35409 -0.62648 0.0021864
0.17916 0.20004 0.81786 7.2835e-39 321 350 0 0 0 -0.7192 0.29903 -0.62716 0.0016982
0.18112 0.20122 0.81721 7.8919e-39 204.6 351 0 0 0 -0.71816 0.29702 -0.6293 0.0017824
0.24199 0.20073 0.81678 1.0049e-38 224 351 0 0 0 0.69762 0.35813 -0.62054 0.0018405
0.18233 0.20318 0.81705 6.9608e-39 296.5 351.5 0 0 0 -0.71868 0.29524 -0.62955 0.0017993
0.24088 0.20346 0.81624 6.7303e-39 267 352 0 0 0 0.69744 0.36324 -0.61777 0.0018935
0.1828 0.20509 0.81705 6.8225e-39 354 352 0 0 0 -0.72097 0.29493 -0.62707 0.0017667
0.24008 0.20551 0.81678 6.2693e-39 184 353 0 0 0 0.69634 0.37276 -0.61332 0.0018385
0.18325 0.20697 0.81691 8.1363e-39 256 353 0 0 0 -0.72432 0.29092 -0.62508 0.0017562
0.23944 0.20674 0.81786 5.9005e-39 271 353 0 0 0 0.69909 0.37396 -0.60944 0.0017883
0.18331 0.20896 0.81718 7.1221e-39 294.5 353.5 0 0 0 -0.72675 0.2898 -0.62278 0.0017572
0.23817 0.20837 0.81678 6.1771e-39 168 354 0 0 0 0.6964 0.37473 -0.61205 0.0018716
0.18325 0.2108 0.81691 6.8917e-39 321 354 0 0 0 -0.72953 0.28484 -0.62182 0.0017998
0.23689 0.2109 0.81732 6.1771e-39 386 354 0 0 0 0.69674 0.37736 -0.61005 0.0020184
0.18346 0.21261 0.81714 7.4371e-39 187.33 355 0 0 0 -0.73104 0.28343 -0.62068 0.0018315
0.18453 0.21397 0.81624 6.5459e-39 319 355 0 0 0 -0.73086 0.27661 -0.62396 0.0019734
0.23483 0.21363 0.81678 6.2232e-39 335 355 0 0 0 0.6951 0.38078 -0.60978 0.0024038
0.18388 0.2148 0.81759 6.7303e-39 357 355 0 0 0 -0.7331 0.27668 -0.6213 0.0019588
0.18466 0.21506 0.81678 6.0849e-39 397 355 0 0 0 -0.73264 0.27584 -0.62221 0.0019673
0.23324 0.21492 0.81624 6.2693e-39 159 356 0 0 0 0.69335 0.38467 -0.60934 0.0023479
0.2345 0.21521 0.81732 6.2693e-39 160 356 0 0 0 0.69575 0.38275 -0.60782 0.0023939
0.18394 0.2163 0.81786 6.2693e-39 177 356 0 0 0 -0.73509 0.27184 -0.62108 0.0020654
0.18506 0.21675 0.81714 7.9596e-39 219 356 0 0 0 -0.73339 0.27113 -0.6234 0.0021339
0.23133 0.21683 0.81624 6.4537e-39 284 356 0 0 0 0.68957 0.39019 -0.61012 0.0027986
0.2337 0.2163 0.81786 8.6664e-39 225 356 0 0 0 0.6958 0.38849 -0.6041 0.0024019
0.18579 0.21863 0.81759 6.8225e-39 331.5 356 0 0 0 -0.73307 0.27191 -0.62343 0.0022795
0.18651 0.21929 0.81651 6.3615e-39 395.5 356 0 0 0 -0.73167 0.2749 -0.62377 0.0024516
0.22972 0.21903 0.81732 5.9005e-39 406 356 0 0 0 0.67856 0.41392 -0.60682 0.0024713
0.23068 0.21807 0.81732 7.0991e-39 349 356 0 0 0 0.68386 0.40437 -0.60731 0.0024117
0.1872 0.22111 0.81678 6.9761e-39 200.67 357 0 0 0 -0.73196 0.27304 -0.62425 0.0025722
0.22846 0.22065 0.81624 6.2693e-39 228 357 0 0 0 0.67268 0.41966 -0.60942 0.0022482
0.18723 0.22245 0.81759 7.4679e-39 254.5 357 0 0 0 -0.7332 0.2702 -0.62402 0.0026091
0.18835 0.22256 0.81624 6.9147e-39 278 357 0 0 0 -0.72704 0.27726 -0.62813 0.0026782
0.12757 0.091974 0.8184 6.3615e-39 426 271 0 0 0 -0.62872 -0.16326 -0.7603 0.17367
0.13053 0.091076 0.81895 5.6239e-39 381 270 0 0 0 -0.52293 -0.42959 -0.7362 0.17943
0.1291 0.092035 0.81895 6.0388e-39 427.5 271 0 0 0 -0.63215 -0.28063 -0.72224 0.17762
0.16705 0.095931 0.81949 8.1132e-39 407 277 0 0 0 -0.025439 -0.89504 -0.44526 0.002684
0.16886 0.095867 0.81895 7.9288e-39 409 277 0 0 0 -0.022427 -0.897 -0.44146 0.0024331
0.17173 0.095867 0.81895 7.2835e-39 412 277 0 0 0 -0.021025 -0.9005 -0.43435 0.0025141
0.17269 0.095867 0.81895 7.0991e-39 413 277 0 0 0 -0.023052 -0.9011 -0.433 0.0025532
0.17509 0.095388 0.81895 7.0069e-39 396.5 276.5 0 0 0 -0.022691 -0.90306 -0.4289 0.0026727
0.17688 0.095804 0.8184 5.8544e-39 417.5 277 0 0 0 -0.022702 -0.90365 -0.42767 0.0027543
0.17898 0.095899 0.81922 5.9466e-39 420 277 0 0 0 -0.017116 -0.90658 -0.42169 0.0030212
0.18095 0.095931 0.81949 5.9005e-39 422.5 277 0 0 0 -0.011826 -0.90785 -0.41913 0.0032221
0.18239 0.095931 0.81949 6.2693e-39 424 277 0 0 0 -0.0043911 -0.90846 -0.41794 0.0032843
0.18479 0.095931 0.81949 5.8083e-39 426.5 277 0 0 0 0.0065895 -0.90969 -0.41523 0.0031199
0.21662 0.095804 0.8184 6.3615e-39 229 278 0 0 0 -0.023959 -0.91347 -0.40619 0.0019545
0.21964 0.095867 0.81895 6.2693e-39 232 278 0 0 0 -0.016477 -0.91474 -0.40371 0.0017916
0.22115 0.095899 0.81922 6.131e-39 233.5 278 0 0 0 -0.012684 -0.91565 -0.40177 0.001633
0.22299 0.095867 0.81895 6.4998e-39 235.5 278 0 0 0 -0.0057179 -0.91578 -0.40164 0.0016196
0.22499 0.095419 0.81922 6.4076e-39 333.5 277 0 0 0 0.0018923 -0.91685 -0.39923 0.0015696
0.23129 0.095931 0.81949 6.0849e-39 265 278 0 0 0 0.0249 -0.91213 -0.40915 0.0015321
0.28306 0.095931 0.81949 7.9288e-39 406 278 0 0 0 0.45701 -0.61416 -0.64339 0.088852
0.14346 0.097305 0.81895 5.8083e-39 320 279 0 0 0 -0.3976 -0.60047 -0.69379 0.09931
0.14538 0.096825 0.81895 5.7161e-39 428.5 278 0 0 0 -0.3361 -0.65789 -0.67396 0.089971
0.14672 0.096761 0.8184 5.9005e-39 430 278 0 0 0 -0.30831 -0.68077 -0.66445 0.08521
0.15353 0.096825 0.81895 6.3615e-39 437 278 0 0 0 -0.23183 -0.77359 -0.58976 0.04767
0.15459 0.096889 0.81949 6.5459e-39 438 278 0 0 0 -0.21223 -0.79031 -0.57478 0.042301
0.1563 0.097718 0.8184 6.3615e-39 264 280 0 0 0 -0.20511 -0.7907 -0.57682 0.040611
0.15928 0.097783 0.81895 5.6239e-39 267 280 0 0 0 -0.15451 -0.82364 -0.54566 0.031127
0.16071 0.097783 0.81895 5.3473e-39 268.5 280 0 0 0 -0.12943 -0.84162 -0.52433 0.02377
0.16311 0.097783 0.81895 6.3615e-39 271 280 0 0 0 -0.078341 -0.86318 -0.49878 0.013728
0.16506 0.096846 0.81913 8.1132e-39 357.67 278.33 0 0 0 -0.041998 -0.88569 -0.46238 0.0045889
0.16736 0.096793 0.81868 5.3934e-39 178 279 0 0 0 -0.028078 -0.89362 -0.44795 0.002769
0.17928 0.096761 0.8184 6.3615e-39 231 279 0 0 0 -0.015833 -0.90475 -0.42564 0.0029131
0.18071 0.096761 0.8184 6.2232e-39 232.5 279 0 0 0 -0.01345 -0.90542 -0.4243 0.0030498
0.18269 0.096793 0.81868 6.1771e-39 234.5 279 0 0 0 -0.0041008 -0.90597 -0.42331 0.0032054
0.18502 0.09708 0.8184 6.9761e-39 285 279.33 0 0 0 0.0083055 -0.90509 -0.42513 0.0031499
0.18679 0.097165 0.81913 6.6074e-39 286.67 279.33 0 0 0 0.01725 -0.90774 -0.41918 0.0029822
0.18898 0.097144 0.81895 6.6996e-39 302.33 279.33 0 0 0 0.026223 -0.90902 -0.41592 0.0027395
0.19121 0.097144 0.81895 6.8225e-39 304.67 279.33 0 0 0 0.030799 -0.91114 -0.41094 0.0023428
0.19329 0.096825 0.81895 6.131e-39 265.5 279 0 0 0 0.032263 -0.91301 -0.40666 0.0022333
0.19521 0.097303 0.81895 6.7303e-39 329.5 279.5 0 0 0 0.029669 -0.91545 -0.40133 0.0022804
0.19699 0.097718 0.8184 7.7905e-39 393.5 280 0 0 0 0.021798 -0.9171 -0.39807 0.0025498
0.19904 0.097303 0.81895 7.3526e-39 355.25 279.5 0 0 0 0.015763 -0.91892 -0.39413 0.0025184
0.20096 0.097783 0.81895 8.3437e-39 397.5 280 0 0 0 0.0063998 -0.92055 -0.39058 0.0025284
0.20301 0.096889 0.81949 5.8083e-39 362.5 279 0 0 0 -0.0053421 -0.91948 -0.39309 0.0022959
0.20472 0.09775 0.81868 8.1132e-39 401.5 280 0 0 0 -0.014318 -0.91994 -0.3918 0.0021768
0.20705 0.09724 0.8184 8.021e-39 385.5 279.5 0 0 0 -0.021863 -0.91814 -0.39565 0.0021162
0.2091 0.096825 0.81895 9.0352e-39 369 279 0 0 0 -0.027658 -0.91598 -0.40028 0.0020412
0.21068 0.096889 0.81949 8.8508e-39 370.5 279 0 0 0 -0.02902 -0.91522 -0.40192 0.0019969
0.21293 0.096825 0.81895 8.1132e-39 373 279 0 0 0 -0.028078 -0.91405 -0.40463 0.002
0.21566 0.096761 0.8184 8.3898e-39 376 279 0 0 0 -0.024667 -0.91307 -0.40706 0.0019676
0.22236 0.096761 0.8184 7.56e-39 383 279 0 0 0 -0.0087436 -0.91395 -0.40573 0.0016442
0.22682 0.096825 0.81895 7.4218e-39 387.5 279 0 0 0 0.0076068 -0.91425 -0.40508 0.0016186
0.22866 0.096793 0.81868 7.5139e-39 389.5 279 0 0 0 0.01731 -0.91229 -0.40919 0.0016285
0.23098 0.096761 0.8184 7.6522e-39 392 279 0 0 0 0.025954 -0.90983 -0.41418 0.0016253
0.23345 0.096793 0.81868 7.8827e-39 394.5 279 0 0 0 0.035882 -0.9075 -0.41852 0.0013472
0.23577 0.096761 0.8184 8.5742e-39 397 279 0 0 0 0.048055 -0.90291 -0.42713 0.0011757
0.23728 0.096793 0.81868 8.2976e-39 398.5 279 0 0 0 0.052865 -0.90143 -0.42968 0.0011453
0.24112 0.096793 0.81868 8.2976e-39 402.5 279 0 0 0 0.063063 -0.89664 -0.43824 0.0012832
0.24311 0.096825 0.81895 7.8827e-39 404.5 279 0 0 0 0.065229 -0.89273 -0.44584 0.0015067
0.24503 0.096825 0.81895 7.2374e-39 406.5 279 0 0 0 0.061984 -0.88936 -0.45299 0.0018694
0.24716 0.097165 0.81913 7.2835e-39 421 279.33 0 0 0 0.057062 -0.88475 -0.46256 0.0023267
0.24886 0.097783 0.81895 9.0352e-39 447.5 280 0 0 0 0.056052 -0.88013 -0.47141 0.0024634
0.25099 0.097485 0.81913 7.1298e-39 345.67 280 0 0 0 0.04577 -0.87459 -0.4827 0.0030144
0.25278 0.097815 0.81922 5.4395e-39 176.5 281 0 0 0 0.03624 -0.87135 -0.48932 0.0032805
0.25469 0.097815 0.81922 5.0247e-39 178.5 281 0 0 0 0.026002 -0.86702 -0.4976 0.0033466
0.2567 0.097848 0.81949 5.2551e-39 180.5 281 0 0 0 0.019177 -0.86453 -0.50221 0.0032843
0.25909 0.097848 0.81949 5.4395e-39 183 281 0 0 0 0.015798 -0.85785 -0.51366 0.0032903
0.26101 0.097848 0.81949 5.6546e-39 185 281 0 0 0 0.019738 -0.85036 -0.52583 0.004176
0.26293 0.097848 0.81949 6.1771e-39 209 281 0 0 0 0.034187 -0.83587 -0.54786 0.0080594
0.27683 0.097848 0.81949 5.9466e-39 260.5 281 0 0 0 0.30639 -0.67697 -0.66921 0.075353
0.27898 0.097761 0.81877 5.839e-39 263 281 0 0 0 0.36852 -0.638 -0.67613 0.080583
0.28102 0.097485 0.81913 6.9761e-39 325.33 280.33 0 0 0 0.45652 -0.58786 -0.66785 0.090233
0.28287 0.097304 0.81895 7.1682e-39 357.5 280 0 0 0 0.5112 -0.55136 -0.6593 0.092847
0.28493 0.097352 0.81936 6.4537e-39 291 280.25 0 0 0 0.58214 -0.51262 -0.63114 0.096873
0.14116 0.099766 0.81949 5.9005e-39 404 282 0 0 0 -0.5275 -0.4409 -0.72619 0.10621
0.14299 0.09922 0.81895 7.6522e-39 388 281.5 0 0 0 -0.47517 -0.50113 -0.72325 0.10306
0.25348 0.098676 0.8184 6.8225e-39 359.5 282 0 0 0 0.037763 -0.87153 -0.48889 0.0032281
0.2554 0.098676 0.8184 8.1593e-39 361.5 282 0 0 0 0.029856 -0.86811 -0.49548 0.0032652
0.25748 0.098741 0.81895 8.1132e-39 363.5 282 0 0 0 0.023048 -0.8628 -0.50502 0.0032279
0.25923 0.098676 0.8184 8.482e-39 365.5 282 0 0 0 0.024811 -0.85612 -0.51617 0.003706
0.26114 0.098676 0.8184 8.9891e-39 367.5 282 0 0 0 0.04376 -0.83802 -0.54388 0.0081076
0.26323 0.098741 0.81895 9.1274e-39 369.5 282 0 0 0 0.058054 -0.82075 -0.56832 0.01398
0.26499 0.09906 0.81895 7.7752e-39 386.33 282.33 0 0 0 0.07712 -0.7981 -0.59756 0.022531
0.26706 0.09922 0.81895 8.1823e-39 396 282.5 0 0 0 0.09903 -0.77637 -0.62245 0.033406
0.26888 0.099402 0.81913 8.5742e-39 405.33 282.67 0 0 0 0.13967 -0.75374 -0.64215 0.044842
0.27108 0.099766 0.81949 8.8047e-39 422.5 283 0 0 0 0.19939 -0.72275 -0.66172 0.057441
0.2729 0.099733 0.81922 8.9891e-39 426.5 283 0 0 0 0.23655 -0.70058 -0.67322 0.062625
0.27482 0.099253 0.81922 8.5281e-39 406 282.5 0 0 0 0.29656 -0.67481 -0.67578 0.072132
0.277 0.098698 0.81858 7.2527e-39 384 282 0 0 0 0.34436 -0.6493 -0.67811 0.075723
0.27886 0.098676 0.8184 7.3757e-39 386 282 0 0 0 0.4251 -0.59504 -0.68207 0.085549
0.28125 0.098676 0.8184 8.1132e-39 388.5 282 0 0 0 0.50494 -0.54649 -0.66812 0.089715
0.28364 0.099155 0.8184 8.6203e-39 418 282.5 0 0 0 0.58838 -0.46467 -0.66173 0.090598
0.28522 0.099204 0.81881 8.5281e-39 419.5 282.5 0 0 0 0.65046 -0.40597 -0.64194 0.091312
0.2869 0.099286 0.81949 8.482e-39 421 282.5 0 0 0 0.69532 -0.37741 -0.61163 0.093828
0.14116 0.1012 0.81949 7.1452e-39 273 284.5 0 0 0 -0.56184 -0.33457 -0.75657 0.10191
0.14289 0.10107 0.8184 7.1452e-39 275 284.5 0 0 0 -0.53425 -0.37425 -0.75797 0.10012
0.28517 0.10111 0.81867 7.099e-39 351.75 285.5 0 0 0 0.6875 -0.33067 -0.64653 0.083602
0.2869 0.10072 0.81949 8.6664e-39 360 285 0 0 0 0.72192 -0.31096 -0.61817 0.085829
0.14289 0.10298 0.8184 7.6983e-39 414.5 286.5 0 0 0 -0.56921 -0.27284 -0.7756 0.09335
0.28373 0.10302 0.81868 9.0813e-39 422.5 287.5 0 0 0 0.68627 -0.31555 -0.65533 0.079072
0.28546 0.10264 0.81949 9.2657e-39 413.5 287 0 0 0 0.72497 -0.28845 -0.62548 0.078534
0.14289 0.1049 0.8184 5.9927e-39 183 289.5 0 0 0 -0.59828 -0.18282 -0.78015 0.080687
0.28269 0.10538 0.8184 5.2552e-39 177 291 0 0 0 0.69481 -0.237 -0.67902 0.069616
0.28402 0.10456 0.81949 6.6381e-39 163 290 0 0 0 0.71006 -0.26439 -0.65262 0.073859
0.14344 0.10687 0.81881 5.9696e-39 204.5 291.5 0 0 0 -0.62291 -0.13202 -0.77108 0.068067
0.28183 0.10685 0.81868 6.4537e-39 166.5 292.5 0 0 0 0.69613 -0.2098 -0.68658 0.067815
0.14351 0.10836 0.81922 6.0849e-39 191.5 293 0 0 0 -0.653 -0.072668 -0.75387 0.054524
0.14443 0.10928 0.81895 5.209e-39 173.5 294 0 0 0 -0.65022 -0.066015 -0.75687 0.051774
0.28096 0.10928 0.81895 9.404e-39 422 294 0 0 0 0.70203 -0.13297 -0.69962 0.058869
0.14455 0.11053 0.81876 6.9761e-39 245.33 295 0 0 0 -0.66313 -0.02168 -0.74819 0.041834
0.14485 0.11259 0.81868 6.7764e-39 330.5 296.5 0 0 0 -0.67172 0.047345 -0.73929 0.026243
0.28019 0.11223 0.81949 6.2693e-39 251 297 0 0 0 0.71111 -0.037911 -0.70206 0.047792
0.14519 0.115 0.81877 6.6074e-39 196.33 299 0 0 0 -0.68294 0.13002 -0.71881 0.0087131
0.14541 0.11696 0.81908 7.3987e-39 339.75 300.25 0 0 0 -0.68334 0.17436 -0.70897 0.0042805
0.14586 0.11934 0.81895 9.7267e-39 245.5 302.5 0 0 0 -0.68255 0.20018 -0.70289 0.0037016
0.14672 0.11926 0.8184 9.3115e-39 246.5 302.5 0 0 0 -0.68909 0.20081 -0.6963 0.0031277
0.14596 0.12134 0.81949 8.1593e-39 300 304 0 0 0 -0.68312 0.21609 -0.6976 0.0038252
0.14725 0.12122 0.81867 7.998e-39 301.5 304 0 0 0 -0.68802 0.21403 -0.69341 0.0033476
0.14864 0.12166 0.8184 5.7161e-39 424 304 0 0 0 -0.695 0.21525 -0.68603 0.0026404
0.14756 0.1231 0.81949 1.1002e-38 333.67 305.33 0 0 0 -0.68461 0.22385 -0.69369 0.0038425
0.14905 0.12333 0.81895 1.094e-38 294.33 305.67 0 0 0 -0.69522 0.22332 -0.68322 0.0028895
0.14974 0.12513 0.81922 1.0049e-38 181.5 307.5 0 0 0 -0.6987 0.23032 -0.67733 0.0027853
0.15055 0.12501 0.8184 1.0511e-38 182.5 307.5 0 0 0 -0.70193 0.22727 -0.67502 0.002304
0.14979 0.12661 0.81949 1.0602e-38 399 308 0 0 0 -0.69733 0.23732 -0.67632 0.0030762
0.15097 0.12717 0.81895 1.1863e-38 310.33 308.67 0 0 0 -0.70138 0.23813 -0.67183 0.0024073
0.15113 0.12892 0.81895 1.1156e-38 302.5 310 0 0 0 -0.70202 0.24578 -0.6684 0.0024545
0.15113 0.13084 0.81895 1.1225e-38 220 311.5 0 0 0 -0.70252 0.25428 -0.66469 0.0024099
0.15129 0.13259 0.81895 1.1832e-38 343.33 312.33 0 0 0 -0.7051 0.25914 -0.66006 0.0021807
0.15161 0.13467 0.81895 9.0813e-39 269 314 0 0 0 -0.70599 0.26555 -0.65655 0.0020819
0.15247 0.13506 0.8184 9.7727e-39 378 314 0 0 0 -0.70769 0.26507 -0.65491 0.0019785
0.27252 0.13524 0.81949 9.4961e-39 198 315 0 0 0 0.73717 0.30187 -0.60453 0.0035467
0.15171 0.13668 0.81949 8.9889e-39 192.5 315.5 0 0 0 -0.70599 0.27156 -0.65409 0.0020191
0.15282 0.13701 0.81858 9.8957e-39 254 315.67 0 0 0 -0.70845 0.27055 -0.65184 0.0018399
0.27156 0.13716 0.81949 1.1156e-38 268 316 0 0 0 0.72777 0.3107 -0.6114 0.0034945
0.15305 0.13898 0.81895 8.6663e-39 254 317 0 0 0 -0.70919 0.27248 -0.65024 0.001731
0.27024 0.13889 0.8184 1.0971e-38 424 317 0 0 0 0.71459 0.3102 -0.62701 0.0038369
0.15328 0.14096 0.81931 9.9569e-39 268 318.33 0 0 0 -0.7111 0.27222 -0.64826 0.0015673
0.15486 0.14176 0.8184 1.1893e-38 252.5 319 0 0 0 -0.71359 0.2708 -0.64611 0.0014994
0.15504 0.14337 0.81936 7.4679e-39 291.5 320 0 0 0 -0.71365 0.27199 -0.64554 0.0014311
0.1563 0.14368 0.8184 9.1274e-39 403 320 0 0 0 -0.71483 0.27074 -0.64476 0.001406
0.26946 0.14377 0.81895 8.021e-39 227 321 0 0 0 0.72153 0.29497 -0.6264 0.0026094
0.15555 0.14483 0.81949 7.0069e-39 274 321 0 0 0 -0.71257 0.27316 -0.64624 0.0013409
0.15645 0.14526 0.81922 6.9147e-39 240.5 321.5 0 0 0 -0.71347 0.27258 -0.64549 0.0013533
0.26898 0.14521 0.81895 6.592e-39 263 322 0 0 0 0.72042 0.29173 -0.6292 0.0024419
0.15711 0.14703 0.81931 6.6688e-39 374.67 322.33 0 0 0 -0.71263 0.27271 -0.64636 0.0013048
0.15821 0.14751 0.8184 6.8225e-39 288 323 0 0 0 -0.71273 0.27345 -0.64594 0.0012735
0.26737 0.14655 0.8184 1.1893e-38 243 323 0 0 0 0.71607 0.28855 -0.6356 0.0021671
0.15746 0.14866 0.81949 7.8366e-39 205 324 0 0 0 -0.7119 0.26993 -0.64833 0.0013783
0.15874 0.14899 0.81868 6.9147e-39 301.5 324 0 0 0 -0.71163 0.27208 -0.64773 0.0013191
0.15885 0.15101 0.81922 9.4271e-39 199.5 325.5 0 0 0 -0.71039 0.27033 -0.64982 0.0013892
0.16013 0.15134 0.8184 6.7303e-39 144 326 0 0 0 -0.70906 0.27304 -0.65014 0.0013751
0.26676 0.15154 0.81949 1.2354e-38 250 326 0 0 0 0.71301 0.2916 -0.63764 0.0015245
0.15938 0.1525 0.81949 9.1274e-39 282 326 0 0 0 -0.70803 0.26869 -0.65307 0.0014792
0.16023 0.15288 0.81895 7.7444e-39 212.5 326.5 0 0 0 -0.70746 0.26934 -0.65342 0.0014571
0.26537 0.15307 0.81913 9.4345e-39 293.33 326.67 0 0 0 0.70621 0.2943 -0.64394 0.0014569
0.16051 0.15492 0.81877 7.4986e-39 369.67 327 0 0 0 -0.70534 0.26875 -0.65595 0.0014926
0.26467 0.15431 0.81895 7.1913e-39 376 327 0 0 0 0.70235 0.29512 -0.64777 0.0014279
0.16074 0.15674 0.81908 9.4732e-39 332.5 328 0 0 0 -0.70349 0.26811 -0.65819 0.0015316
0.26332 0.15676 0.81922 9.6347e-39 287.5 328.5 0 0 0 0.69787 0.29721 -0.65164 0.0015311
0.16094 0.15854 0.81931 9.7726e-39 297 329 0 0 0 -0.70035 0.26914 -0.66112 0.0015524
0.16204 0.15852 0.8184 9.2657e-39 321 329 0 0 0 -0.7004 0.27055 -0.66049 0.001548
0.26293 0.15825 0.81949 6.9147e-39 349 329 0 0 0 0.6964 0.298 -0.65286 0.0016173
0.16284 0.16123 0.81881 1.0718e-38 253.25 330.5 0 0 0 -0.69813 0.27068 -0.66284 0.0015656
0.26188 0.16059 0.81922 6.592e-39 245 330.5 0 0 0 0.68911 0.3063 -0.65675 0.0016349
0.16311 0.16294 0.81895 9.2427e-39 273.5 331.25 0 0 0 -0.69745 0.27124 -0.66332 0.0015109
0.16407 0.16389 0.81895 1.051e-38 197 332 0 0 0 -0.69852 0.27097 -0.6623 0.0014701
0.16322 0.16544 0.81949 9.5882e-39 270.5 332.5 0 0 0 -0.69761 0.27015 -0.6636 0.0013919
0.16407 0.16533 0.81895 9.4499e-39 271.5 332.5 0 0 0 -0.69898 0.26906 -0.66259 0.0013986
0.26066 0.16474 0.8184 5.6239e-39 154 333 0 0 0 0.6853 0.30447 -0.66156 0.0019678
0.16454 0.16725 0.81895 9.035e-39 278.5 333.5 0 0 0 -0.70069 0.26756 -0.6614 0.0013417
0.1655 0.16916 0.81895 9.3116e-39 274 334.5 0 0 0 -0.70224 0.26576 -0.66048 0.0013256
0.1657 0.17096 0.81913 8.7891e-39 289.67 335.33 0 0 0 -0.70264 0.26624 -0.65986 0.0012428
0.16634 0.17319 0.81913 9.7111e-39 231 336.67 0 0 0 -0.70314 0.26931 -0.65808 0.0011854
0.16742 0.17491 0.81895 9.1735e-39 250.5 337.5 0 0 0 -0.70532 0.26963 -0.65561 0.0011934
0.16874 0.17528 0.8184 9.7727e-39 179 338 0 0 0 -0.70848 0.26843 -0.65269 0.0011902
0.25622 0.17551 0.81949 9.1274e-39 267 338 0 0 0 0.69388 0.30196 -0.65372 0.0015697
0.16861 0.17675 0.81931 8.6663e-39 269 338.33 0 0 0 -0.70795 0.26894 -0.65306 0.0011998
0.25492 0.17623 0.8184 6.3615e-39 414 338 0 0 0 0.69592 0.29653 -0.65403 0.0018063
0.16934 0.17875 0.81895 8.4129e-39 233.5 339.5 0 0 0 -0.71054 0.26922 -0.65012 0.0011863
0.16981 0.18066 0.81895 6.5459e-39 359.5 340 0 0 0 -0.7123 0.27124 -0.64735 0.0011434
0.17066 0.1815 0.8184 7.6522e-39 207.5 341 0 0 0 -0.71414 0.27193 -0.64502 0.0011673
0.16987 0.18264 0.81922 8.1133e-39 347 341 0 0 0 -0.71293 0.27433 -0.64534 0.0011853
0.17066 0.18341 0.8184 7.9288e-39 343 341.5 0 0 0 -0.71371 0.27597 -0.64378 0.0012311
0.16993 0.18462 0.81949 7.7444e-39 341 342 0 0 0 -0.71336 0.27925 -0.64275 0.0012143
0.17072 0.18539 0.81868 8.0211e-39 342 342.5 0 0 0 -0.71312 0.27947 -0.64293 0.0012972
0.24917 0.18581 0.8184 7.1913e-39 349 343 0 0 0 0.70085 0.32118 -0.63691 0.0017434
0.25078 0.18593 0.81895 6.8686e-39 350.5 343 0 0 0 0.70564 0.32311 -0.63062 0.0016685
0.25238 0.1851 0.81949 7.8366e-39 207 343 0 0 0 0.70889 0.31853 -0.62929 0.0016685
0.16993 0.18605 0.81949 9.0352e-39 266 343 0 0 0 -0.71332 0.28142 -0.64186 0.0012584
0.17125 0.18737 0.81895 7.9288e-39 344 343.5 0 0 0 -0.71158 0.28696 -0.64133 0.0014661
0.17257 0.18772 0.8184 9.404e-39 270 344 0 0 0 -0.71145 0.28806 -0.64098 0.0015171
0.24902 0.18753 0.81895 7.0991e-39 302 344 0 0 0 0.70163 0.33058 -0.63121 0.001807
0.25094 0.18701 0.81949 7.6522e-39 208.5 344 0 0 0 0.70698 0.32742 -0.62688 0.0016337
0.17179 0.18935 0.81922 6.638e-39 347 344.5 0 0 0 -0.71023 0.29242 -0.64037 0.0015359
0.17293 0.18936 0.81858 6.3e-39 323 344.67 0 0 0 -0.71103 0.29144 -0.63992 0.0016157
0.2487 0.18912 0.81895 7.222e-39 257 345 0 0 0 0.70064 0.33607 -0.62941 0.0018904
0.1737 0.19127 0.81922 6.6381e-39 347 345.5 0 0 0 -0.71025 0.29607 -0.63866 0.001689
0.24726 0.19155 0.8184 7.8366e-39 347 346 0 0 0 0.69431 0.34486 -0.63166 0.0021928
0.24855 0.19085 0.81949 7.56e-39 209 346 0 0 0 0.7014 0.34638 -0.62294 0.0020193
0.17376 0.19277 0.81949 6.0849e-39 426 346 0 0 0 -0.71171 0.29787 -0.63619 0.0017049
0.17455 0.19306 0.81868 7.7444e-39 346 346.5 0 0 0 -0.71218 0.29673 -0.63621 0.0017068
0.24751 0.19318 0.81922 7.1913e-39 276.5 347 0 0 0 0.69839 0.35448 -0.62177 0.0020104
0.17508 0.19503 0.81895 7.9288e-39 336.5 347.5 0 0 0 -0.7135 0.29882 -0.63374 0.0017049
0.24647 0.19455 0.81895 7.1913e-39 201 348 0 0 0 0.69503 0.35861 -0.62316 0.0020028
0.17568 0.1966 0.81949 6.1771e-39 392 348 0 0 0 -0.71416 0.30192 -0.63151 0.0016863
0.17652 0.19743 0.81895 9.2196e-39 233 349 0 0 0 -0.71645 0.30054 -0.62958 0.0016541
0.24551 0.19743 0.81895 6.9147e-39 305 349 0 0 0 0.69681 0.36387 -0.61811 0.0017653
0.17703 0.1989 0.81908 6.7764e-39 277.5 349.5 0 0 0 -0.71831 0.30052 -0.62747 0.0016625
0.17832 0.19921 0.8184 7.0991e-39 201 350 0 0 0 -0.71997 0.29945 -0.62608 0.0016645
0.24455 0.19935 0.81895 6.4537e-39 270 350 0 0 0 0.69926 0.3633 -0.61567 0.0017014
0.17724 0.20071 0.81931 7.222e-39 264.33 350.33 0 0 0 -0.71996 0.30203 -0.62485 0.0016448
0.17868 0.20085 0.81858 6.9147e-39 211.67 350.67 0 0 0 -0.72106 0.30031 -0.62441 0.0016332
0.24343 0.20017 0.8184 5.9927e-39 392 350 0 0 0 0.69935 0.36114 -0.61684 0.001728
0.1776 0.20235 0.81949 7.0991e-39 267 351 0 0 0 -0.7212 0.30298 -0.62296 0.0016436
0.17901 0.2028 0.81936 6.5689e-39 326 351 0 0 0 -0.72205 0.30172 -0.62258 0.0016419
0.18074 0.20308 0.81854 6.4076e-39 311.25 351.25 0 0 0 -0.72321 0.30051 -0.62182 0.0016432
0.18215 0.204 0.8184 6.6381e-39 205 352 0 0 0 -0.72287 0.29848 -0.62319 0.0016427
0.24279 0.20235 0.81949 7.0069e-39 343 351 0 0 0 0.70111 0.36938 -0.60991 0.0016201
0.1792 0.20459 0.81949 6.3615e-39 233.33 352 0 0 0 -0.72289 0.30221 -0.62137 0.0016676
0.18067 0.20477 0.81895 6.6996e-39 266.67 352 0 0 0 -0.72371 0.30016 -0.62141 0.0016176
0.18215 0.20496 0.8184 7.0069e-39 300 352 0 0 0 -0.72408 0.29786 -0.62208 0.0016528
0.24151 0.20496 0.8184 6.1771e-39 377 352 0 0 0 0.70022 0.3734 -0.60849 0.0017629
0.18092 0.20663 0.81936 7.2374e-39 307 352.5 0 0 0 -0.72615 0.29821 -0.6195 0.0017079
0.18227 0.20701 0.81895 7.3757e-39 305 352.67 0 0 0 -0.72714 0.29532 -0.61973 0.0016983
0.18143 0.20858 0.81949 6.7303e-39 345 353 0 0 0 -0.72852 0.29487 -0.61832 0.0017745
0.18239 0.20906 0.81949 6.6381e-39 394 353 0 0 0 -0.72955 0.2922 -0.61837 0.0017607
0.18143 0.21098 0.81949 6.4844e-39 276 354 0 0 0 -0.73168 0.29012 -0.61683 0.0018544
0.18231 0.21089 0.81913 6.6996e-39 277 354 0 0 0 -0.73119 0.28919 -0.61784 0.0017867
0.238 0.21194 0.81949 6.8225e-39 139 355 0 0 0 0.70092 0.38572 -0.59994 0.0019452
0.23896 0.21002 0.81949 9.5883e-39 251 354 0 0 0 0.70185 0.38045 -0.60221 0.0018783
0.18143 0.2129 0.81949 6.2693e-39 159 355 0 0 0 -0.73352 0.2853 -0.61689 0.0019484
0.18259 0.2134 0.81895 7.8366e-39 211.67 355 0 0 0 -0.73472 0.28159 -0.61717 0.0018831
0.23688 0.21276 0.81895 9.8649e-39 217 355 0 0 0 0.70002 0.38459 -0.60172 0.0020319
0.18291 0.21499 0.81895 7.2527e-39 342.67 355 0 0 0 -0.73637 0.27501 -0.61817 0.0020514
0.23593 0.21468 0.81895 6.3615e-39 379 355 0 0 0 0.699 0.38841 -0.60045 0.0021132
0.23608 0.21578 0.81949 6.3615e-39 161 356 0 0 0 0.70033 0.38866 -0.59873 0.0022534
0.18335 0.21722 0.81949 7.7444e-39 206.5 356 0 0 0 -0.73731 0.26938 -0.61952 0.0022778
0.18406 0.21741 0.8184 8.943e-39 238 356 0 0 0 -0.73686 0.26838 -0.62049 0.0021514
0.2329 0.21741 0.8184 7.0069e-39 285 356 0 0 0 0.69509 0.40128 -0.59651 0.0022579
0.23457 0.21714 0.81922 7.8827e-39 256.5 356 0 0 0 0.69712 0.39953 -0.59532 0.0021713
0.18467 0.21899 0.81895 6.8917e-39 329 356 0 0 0 -0.73799 0.26675 -0.61985 0.0023462
0.23162 0.21899 0.81895 6.3615e-39 378.5 356 0 0 0 0.6918 0.41468 -0.59115 0.0022934
0.18521 0.22074 0.81922 6.2923e-39 365.75 356.25 0 0 0 -0.73802 0.26396 -0.62101 0.0024696
0.1861 0.22138 0.81895 6.9147e-39 183 357 0 0 0 -0.73763 0.26337 -0.62172 0.0025284
0.23018 0.22042 0.81895 6.0849e-39 177 357 0 0 0 0.68248 0.4257 -0.59414 0.0020808
0.18659 0.22282 0.81895 7.099e-39 253.5 357 0 0 0 -0.73712 0.26909 -0.61987 0.0025759
0.13193 0.091379 0.82167 5.6239e-39 382 270 0 0 0 -0.51939 -0.62109 -0.58692 0.16915
0.13117 0.092579 0.82094 6.5152e-39 375 271.67 0 0 0 -0.65502 -0.4638 -0.59652 0.16789
0.28363 0.09324 0.82112 6.7303e-39 404 274 0 0 0 0.36366 -0.71622 -0.59563 0.074487
0.28517 0.093271 0.8214 7.514e-39 405.5 274 0 0 0 0.44608 -0.6876 -0.57291 0.084585
0.14414 0.095994 0.82003 8.2054e-39 383 277 0 0 0 -0.34607 -0.66668 -0.66013 0.093396
0.16674 0.095481 0.82112 6.8532e-39 381 276.33 0 0 0 -0.020566 -0.89828 -0.43894 0.002756
0.16883 0.095161 0.82112 5.9927e-39 370.5 276 0 0 0 -0.017563 -0.90036 -0.43478 0.0026451
0.17069 0.095129 0.82085 6.131e-39 372.5 276 0 0 0 -0.019637 -0.90073 -0.43394 0.0026184
0.17303 0.095098 0.82058 7.7444e-39 375 276 0 0 0 -0.02003 -0.90237 -0.43049 0.0026971
0.17507 0.094681 0.82113 7.1913e-39 303.5 275.5 0 0 0 -0.017442 -0.906 -0.42291 0.0029179
0.17736 0.094618 0.82057 7.3526e-39 306 275.5 0 0 0 -0.014737 -0.90923 -0.41602 0.003173
0.17919 0.09482 0.82094 7.683e-39 332.33 275.67 0 0 0 -0.012794 -0.91088 -0.41248 0.0033107
0.18143 0.09482 0.82094 7.6522e-39 334.67 275.67 0 0 0 -0.0059534 -0.91303 -0.40785 0.0034047
0.18311 0.095097 0.82058 7.3757e-39 358.5 276 0 0 0 0.0020218 -0.91273 -0.40856 0.0033367
0.185 0.094841 0.82112 7.5908e-39 344.67 275.67 0 0 0 0.010695 -0.91463 -0.40415 0.0031601
0.18864 0.095225 0.82167 7.0991e-39 391 276 0 0 0 0.030542 -0.91581 -0.40044 0.0024294
0.19345 0.095225 0.82167 6.5459e-39 396 276 0 0 0 0.036511 -0.91487 -0.40209 0.0020918
0.19489 0.095225 0.82167 6.592e-39 397.5 276 0 0 0 0.033405 -0.91471 -0.40273 0.0021523
0.19868 0.095193 0.8214 7.7444e-39 401.5 276 0 0 0 0.020588 -0.91568 -0.40138 0.0023703
0.20066 0.095225 0.82167 8.0671e-39 403.5 276 0 0 0 0.010109 -0.91526 -0.40273 0.0024631
0.20258 0.095225 0.82167 8.2054e-39 405.5 276 0 0 0 -0.0017947 -0.91565 -0.40198 0.0024035
0.21734 0.095161 0.82112 5.9005e-39 421 276 0 0 0 -0.020827 -0.91733 -0.39757 0.0019643
0.2188 0.095738 0.82058 6.2693e-39 294.67 277.33 0 0 0 -0.017218 -0.91654 -0.39958 0.0017991
0.22109 0.095119 0.82076 5.962e-39 425 276 0 0 0 -0.010934 -0.91869 -0.39483 0.0015587
0.22343 0.095098 0.82057 5.9005e-39 427.5 276 0 0 0 -0.0037837 -0.91918 -0.39383 0.0014929
0.22503 0.094521 0.82112 7.683e-39 401.67 275.33 0 0 0 0.0007268 -0.92125 -0.38898 0.0014609
0.22712 0.095738 0.82058 6.3e-39 317.33 277.33 0 0 0 0.0071446 -0.91784 -0.39689 0.0015675
0.2285 0.09546 0.82094 6.0849e-39 377.67 276.67 0 0 0 0.010689 -0.91863 -0.39497 0.0015303
0.23106 0.09546 0.82094 6.1771e-39 380.33 276.67 0 0 0 0.018397 -0.91719 -0.39804 0.0014855
0.23263 0.09561 0.82085 5.9466e-39 353 277 0 0 0 0.025791 -0.91375 -0.40547 0.0014215
0.23504 0.09561 0.82085 6.131e-39 355.5 277 0 0 0 0.036557 -0.91095 -0.41088 0.0012053
0.23647 0.09561 0.82085 6.6381e-39 357 277 0 0 0 0.042233 -0.90894 -0.41477 0.0011914
0.23884 0.095593 0.82071 6.9608e-39 403 277 0 0 0 0.050693 -0.90513 -0.4221 0.0012201
0.24076 0.095593 0.82071 6.6381e-39 405 277 0 0 0 0.055901 -0.90197 -0.42816 0.0013582
0.26747 0.095225 0.82167 6.9147e-39 262 277 0 0 0 0.031004 -0.82593 -0.56292 0.014121
0.28141 0.095225 0.82167 5.4395e-39 363.5 277 0 0 0 0.37459 -0.69925 -0.60887 0.080401
0.28294 0.094931 0.8208 6.0111e-39 301.4 276.8 0 0 0 0.43229 -0.66883 -0.60481 0.083751
0.28485 0.095087 0.82049 6.5459e-39 320.83 277 0 0 0 0.48672 -0.61601 -0.61938 0.090449
0.28651 0.095082 0.82044 6.6151e-39 334.25 277 0 0 0 0.53286 -0.58602 -0.61044 0.094687
0.13952 0.097083 0.82112 5.9005e-39 422 278 0 0 0 -0.48765 -0.54044 -0.68566 0.11468
0.14092 0.09705 0.82085 6.761e-39 337.83 278.33 0 0 0 -0.45696 -0.57391 -0.67957 0.10876
0.14273 0.096852 0.8208 7.0437e-39 365.2 278 0 0 0 -0.40305 -0.62575 -0.66782 0.10209
0.14519 0.096058 0.82058 7.9288e-39 384 277 0 0 0 -0.32393 -0.6839 -0.65372 0.090272
0.14663 0.096058 0.82058 7.7905e-39 385.5 277 0 0 0 -0.29308 -0.70273 -0.64829 0.08441
0.14906 0.096079 0.82076 7.9288e-39 388 277 0 0 0 -0.25823 -0.74095 -0.61993 0.067808
0.15143 0.096058 0.82058 7.3296e-39 390.5 277 0 0 0 -0.21999 -0.77677 -0.59011 0.051912
0.15297 0.096122 0.82112 7.0069e-39 392 277 0 0 0 -0.2032 -0.79935 -0.56547 0.042357
0.15575 0.097018 0.82058 7.0069e-39 439 278 0 0 0 -0.18803 -0.81014 -0.55526 0.035455
0.15725 0.097051 0.82085 7.6061e-39 440.5 278 0 0 0 -0.16183 -0.82716 -0.53816 0.030773
0.15916 0.097051 0.82085 8.482e-39 442.5 278 0 0 0 -0.13031 -0.8435 -0.52108 0.024146
0.16109 0.097051 0.82085 8.7125e-39 444.5 278 0 0 0 -0.088052 -0.86591 -0.49239 0.013559
0.16295 0.097018 0.82057 7.8827e-39 391.5 278.25 0 0 0 -0.05267 -0.88114 -0.46991 0.0068808
0.16487 0.096058 0.82058 8.1132e-39 404.5 277 0 0 0 -0.031738 -0.89266 -0.4496 0.003528
0.18708 0.096122 0.82112 5.9466e-39 428.5 277 0 0 0 0.021826 -0.91368 -0.40586 0.0029043
0.18894 0.09609 0.82085 5.9466e-39 430.5 277 0 0 0 0.028495 -0.91454 -0.40349 0.0025655
0.19072 0.096421 0.82094 6.2693e-39 376 277.67 0 0 0 0.034129 -0.91497 -0.40208 0.0022298
0.19271 0.096058 0.82058 5.7622e-39 435.5 277 0 0 0 0.035837 -0.91501 -0.40184 0.0020592
0.19463 0.096058 0.82058 6.131e-39 437.5 277 0 0 0 0.034418 -0.91597 -0.39977 0.0021587
0.19703 0.096538 0.82057 6.0388e-39 354.5 278 0 0 0 0.026449 -0.91637 -0.39946 0.0024124
0.199 0.096079 0.82076 6.7303e-39 442 277 0 0 0 0.018708 -0.9172 -0.39799 0.0024555
0.20129 0.096506 0.8203 7.076e-39 402.5 278 0 0 0 0.0059128 -0.91803 -0.39646 0.0025278
0.20327 0.096058 0.82058 8.021e-39 446.5 277 0 0 0 -0.0066343 -0.91784 -0.39688 0.002341
0.20519 0.096538 0.82057 7.3757e-39 406.5 278 0 0 0 -0.020798 -0.91769 -0.39674 0.002173
0.20705 0.096986 0.8203 7.0991e-39 366.5 279 0 0 0 -0.025703 -0.91699 -0.39809 0.0020763
0.20883 0.096186 0.82167 5.0708e-39 181 278 0 0 0 -0.029851 -0.91538 -0.40149 0.001987
0.21225 0.096954 0.82003 8.2976e-39 372 279 0 0 0 -0.028963 -0.91458 -0.40337 0.0019784
0.21508 0.096186 0.82167 5.7622e-39 187.5 278 0 0 0 -0.027768 -0.91646 -0.39916 0.0019813
0.21624 0.096058 0.82058 6.3615e-39 209 278 0 0 0 -0.023936 -0.91579 -0.40095 0.0019494
0.22968 0.096058 0.82058 6.4537e-39 263 278 0 0 0 0.016308 -0.91596 -0.40093 0.0015213
0.23352 0.096058 0.82058 5.6239e-39 267 278 0 0 0 0.03229 -0.91159 -0.40984 0.0013635
0.23736 0.096058 0.82058 7.4678e-39 271 278 0 0 0 0.047132 -0.90669 -0.41916 0.001207
0.24264 0.096058 0.82058 5.4856e-39 363.5 278 0 0 0 0.058031 -0.89773 -0.4367 0.001598
0.24509 0.096079 0.82076 6.0234e-39 366 278 0 0 0 0.052174 -0.89274 -0.44754 0.0021723
0.24712 0.096122 0.82112 6.7303e-39 368 278 0 0 0 0.043399 -0.88833 -0.45715 0.0027833
0.24887 0.096538 0.82057 7.0068e-39 390 278.5 0 0 0 0.040333 -0.88141 -0.47063 0.0031717
0.25096 0.096362 0.82112 7.6522e-39 382 278.25 0 0 0 0.030016 -0.87514 -0.48294 0.003709
0.25304 0.096698 0.82058 6.9147e-39 401 278.67 0 0 0 0.027652 -0.8687 -0.49456 0.0036186
0.255 0.096506 0.82112 7.1912e-39 392.2 278.4 0 0 0 0.01839 -0.86541 -0.50072 0.0035676
0.25721 0.096602 0.82113 6.8224e-39 399 278.5 0 0 0 0.010925 -0.86182 -0.50709 0.003385
0.259 0.096877 0.82101 6.8225e-39 357.6 279 0 0 0 0.0070218 -0.85881 -0.51225 0.0031235
0.26105 0.096602 0.82113 7.1913e-39 403.5 278.5 0 0 0 0.0035944 -0.85379 -0.52061 0.0032199
0.26298 0.096602 0.82113 6.6381e-39 405.5 278.5 0 0 0 0.0097811 -0.84739 -0.53089 0.0044928
0.26507 0.097348 0.82067 6.3922e-39 312.83 279.83 0 0 0 0.034386 -0.82855 -0.55885 0.012081
0.2668 0.096851 0.8208 6.7118e-39 370.2 279 0 0 0 0.045466 -0.81558 -0.57685 0.016998
0.26874 0.097082 0.82112 6.6688e-39 345.83 279.33 0 0 0 0.079403 -0.79866 -0.59651 0.028341
0.27056 0.097424 0.82131 6.761e-39 361.67 279.67 0 0 0 0.12525 -0.77516 -0.61922 0.041225
0.27228 0.097147 0.82167 7.0069e-39 436 279 0 0 0 0.16117 -0.76408 -0.62467 0.049647
0.27532 0.097514 0.82072 7.6061e-39 337.5 280 0 0 0 0.24488 -0.72542 -0.64328 0.064143
0.27698 0.096468 0.82079 8.5926e-39 416 278.4 0 0 0 0.29083 -0.71744 -0.63301 0.070027
0.27921 0.09657 0.82085 8.8277e-39 422.5 278.5 0 0 0 0.36575 -0.68501 -0.63007 0.079824
0.2812 0.096378 0.82058 8.5127e-39 417.67 278.33 0 0 0 0.43449 -0.65146 -0.62195 0.088831
0.2869 0.09697 0.82017 5.8083e-39 259.25 279.75 0 0 0 0.6406 -0.48108 -0.59849 0.097238
0.28862 0.09721 0.82058 5.9927e-39 280.6 280 0 0 0 0.70547 -0.43708 -0.55792 0.097488
0.13946 0.09896 0.82076 7.0991e-39 325.67 281 0 0 0 -0.52852 -0.46531 -0.71003 0.1128
0.14062 0.099193 0.82003 8.0518e-39 379.33 281.33 0 0 0 -0.5258 -0.46237 -0.71396 0.10892
0.14222 0.099352 0.82003 7.5601e-39 387 281.5 0 0 0 -0.49519 -0.48669 -0.71966 0.10642
0.26982 0.098873 0.82003 8.6664e-39 376 282 0 0 0 0.13881 -0.75857 -0.63663 0.044282
0.27122 0.098596 0.82039 7.6215e-39 324 281.67 0 0 0 0.16419 -0.74908 -0.64181 0.049664
0.27297 0.098491 0.82085 7.2374e-39 306 281.5 0 0 0 0.21117 -0.73101 -0.64887 0.059832
0.27432 0.098458 0.82057 7.2835e-39 307.5 281.5 0 0 0 0.25006 -0.71253 -0.65557 0.066365
0.28805 0.099352 0.82003 8.6203e-39 422 282.5 0 0 0 0.72561 -0.35559 -0.58911 0.092855
0.13891 0.10109 0.8209 6.7487e-39 296.6 284 0 0 0 -0.58854 -0.32867 -0.73865 0.10833
0.1403 0.10127 0.82003 7.053e-39 272 284.5 0 0 0 -0.57098 -0.33506 -0.74948 0.10386
0.14222 0.10127 0.82003 7.2835e-39 274 284.5 0 0 0 -0.53352 -0.39714 -0.74675 0.10578
0.13905 0.10333 0.82113 7.3757e-39 410 286.5 0 0 0 -0.63001 -0.2049 -0.74907 0.094946
0.1408 0.10321 0.82017 7.6292e-39 412 286.5 0 0 0 -0.58778 -0.25256 -0.76859 0.098189
0.14222 0.10319 0.82003 7.6522e-39 413.5 286.5 0 0 0 -0.57695 -0.27159 -0.77031 0.09754
0.28517 0.10367 0.82003 6.2693e-39 152 289 0 0 0 0.73239 -0.26303 -0.62803 0.073767
0.13952 0.10525 0.82112 6.3154e-39 178 289.5 0 0 0 -0.64761 -0.13262 -0.75034 0.083525
0.14092 0.10521 0.82085 5.9696e-39 180.5 289.5 0 0 0 -0.62536 -0.15856 -0.76406 0.086873
0.14222 0.10511 0.82003 5.8544e-39 182 289.5 0 0 0 -0.60298 -0.18289 -0.77651 0.088801
0.28507 0.10525 0.82112 5.7622e-39 171 290.5 0 0 0 0.75411 -0.21831 -0.6194 0.068728
0.13962 0.10724 0.82167 6.0388e-39 196.5 291.5 0 0 0 -0.65273 -0.046214 -0.75618 0.065088
0.14097 0.10717 0.82112 6.108e-39 201.5 291.5 0 0 0 -0.64769 -0.081897 -0.75749 0.065923
0.14231 0.1071 0.82058 5.8083e-39 203 291.5 0 0 0 -0.63803 -0.11386 -0.76155 0.069257
0.28344 0.1071 0.82057 6.131e-39 167.5 292.5 0 0 0 0.73206 -0.1841 -0.65589 0.064796
0.14106 0.10916 0.82167 6.2463e-39 179 293.5 0 0 0 -0.66554 -0.024834 -0.74595 0.048061
0.14263 0.10918 0.82058 5.501e-39 177.67 293.67 0 0 0 -0.66142 -0.040644 -0.74892 0.048837
0.28293 0.10891 0.82094 7.3142e-39 242.67 294 0 0 0 0.74005 -0.10796 -0.66383 0.055185
0.14106 0.11061 0.82167 6.4076e-39 152.5 295 0 0 0 -0.67617 0.016284 -0.73657 0.032254
0.14279 0.11094 0.82057 7.5831e-39 287.5 295 0 0 0 -0.67383 0.012502 -0.73878 0.033855
0.14414 0.11134 0.82003 9.5883e-39 422 295 0 0 0 -0.66778 0.0047127 -0.74435 0.036355
0.28161 0.11098 0.82085 9.45e-39 382.5 295.5 0 0 0 0.73548 -0.045225 -0.67604 0.046488
0.14279 0.11286 0.82057 7.099e-39 328 296.5 0 0 0 -0.67851 0.073465 -0.73091 0.018531
0.14414 0.11278 0.82003 7.0991e-39 329.5 296.5 0 0 0 -0.67287 0.059389 -0.73737 0.02302
0.28037 0.11326 0.82003 6.9147e-39 216 298 0 0 0 0.72793 -0.0028102 -0.68565 0.043257
0.14279 0.11478 0.82057 6.2463e-39 212.5 298.5 0 0 0 -0.67744 0.13692 -0.72272 0.007457
0.14414 0.1147 0.82003 6.4998e-39 214 298.5 0 0 0 -0.67879 0.12907 -0.7229 0.0088511
0.28084 0.11489 0.8214 5.8083e-39 303 299 0 0 0 0.74596 0.06399 -0.66291 0.033502
0.14284 0.11674 0.82085 7.6061e-39 283 300 0 0 0 -0.67757 0.17686 -0.71387 0.0042824
0.14414 0.11662 0.82003 7.1452e-39 284.5 300 0 0 0 -0.68102 0.17025 -0.7122 0.0046864
0.28093 0.11685 0.82167 7.9288e-39 329 300.5 0 0 0 0.74759 0.15853 -0.64497 0.019831
0.14289 0.1187 0.82112 9.6115e-39 316.5 301.5 0 0 0 -0.67642 0.19892 -0.70915 0.0038823
0.14475 0.11886 0.82025 9.5329e-39 299.6 301.8 0 0 0 -0.68149 0.19925 -0.70418 0.0038544
0.28074 0.11822 0.82112 7.3757e-39 243 302 0 0 0 0.74298 0.20904 -0.63583 0.011472
0.14294 0.12066 0.8214 9.2657e-39 198.5 303.5 0 0 0 -0.67472 0.21411 -0.70633 0.0039771
0.14473 0.12104 0.82072 9.0353e-39 249.5 303.75 0 0 0 -0.67883 0.21618 -0.70176 0.003981
0.14346 0.12262 0.82167 8.4818e-39 394 304.5 0 0 0 -0.67286 0.22564 -0.70452 0.0041645
0.14479 0.123 0.82099 9.9342e-39 352.75 305 0 0 0 -0.67786 0.22748 -0.69912 0.0041841
0.14641 0.12353 0.82021 1.094e-38 291.33 305.67 0 0 0 -0.68433 0.22663 -0.69306 0.0039546
0.14488 0.12501 0.82153 9.3579e-39 200.5 307 0 0 0 -0.6788 0.23835 -0.69457 0.0044567
0.14708 0.12531 0.82039 9.1428e-39 178.5 307.5 0 0 0 -0.68536 0.23506 -0.68923 0.0041579
0.14893 0.12526 0.82003 9.3118e-39 180.5 307.5 0 0 0 -0.69346 0.23167 -0.68223 0.0033428
0.14539 0.12695 0.82167 1.1709e-38 394 308 0 0 0 -0.68136 0.24703 -0.68901 0.0046449
0.14673 0.12734 0.82112 1.217e-38 328 308.5 0 0 0 -0.68446 0.24558 -0.68644 0.0043883
0.14882 0.12734 0.82047 1.2188e-38 316.8 308.6 0 0 0 -0.6927 0.24247 -0.67925 0.0037579
0.14696 0.12916 0.82149 1.0019e-38 261.33 310 0 0 0 -0.68656 0.25654 -0.68031 0.0044857
0.14903 0.12918 0.82058 1.091e-38 300 310 0 0 0 -0.69602 0.24951 -0.67328 0.0034039
0.14731 0.13079 0.82167 1.1893e-38 255 311 0 0 0 -0.68663 0.26425 -0.67728 0.0044773
0.14908 0.13114 0.82085 1.0679e-38 217.5 311.5 0 0 0 -0.69598 0.26041 -0.66918 0.0033103
0.1493 0.133 0.82101 1.1285e-38 330.6 312.4 0 0 0 -0.69861 0.26799 -0.66342 0.0030367
0.15085 0.13341 0.82003 1.1985e-38 240 313 0 0 0 -0.70325 0.26329 -0.66039 0.0023775
0.14961 0.13503 0.82113 8.7355e-39 266.5 314 0 0 0 -0.70369 0.27136 -0.65664 0.0024903
0.15085 0.13485 0.82003 8.6203e-39 268 314 0 0 0 -0.70429 0.26752 -0.65758 0.0023067
0.14948 0.13682 0.82131 9.3117e-39 202 315.33 0 0 0 -0.70306 0.27529 -0.65568 0.0023755
0.15063 0.13702 0.82058 8.3283e-39 179 315.67 0 0 0 -0.70563 0.2734 -0.65371 0.002108
0.27306 0.13647 0.82112 1.2815e-38 412 315 0 0 0 0.74756 0.30258 -0.59127 0.0031054
0.15097 0.1388 0.82067 9.0044e-39 303.5 316.5 0 0 0 -0.70637 0.27623 -0.65172 0.0019666
0.15105 0.14079 0.82112 8.8507e-39 274 318 0 0 0 -0.7071 0.27659 -0.65077 0.0018729
0.15277 0.14109 0.82003 1.1893e-38 386 318 0 0 0 -0.71058 0.27398 -0.64809 0.0016306
0.27087 0.14065 0.8203 8.9431e-39 249.5 318.5 0 0 0 0.72795 0.30673 -0.6132 0.0029523
0.15115 0.14281 0.82167 9.4959e-39 212.5 319.5 0 0 0 -0.71053 0.27589 -0.64733 0.0017841
0.15285 0.14293 0.82048 8.7433e-39 239.33 319.67 0 0 0 -0.71243 0.2725 -0.64668 0.0015213
0.27123 0.14276 0.8214 6.6842e-39 249.5 320 0 0 0 0.73643 0.29584 -0.60839 0.002324
0.15297 0.14496 0.82112 9.6652e-39 302.17 320.83 0 0 0 -0.71268 0.27324 -0.64609 0.0014494
0.15504 0.14559 0.82021 7.683e-39 227.33 321.67 0 0 0 -0.71279 0.27091 -0.64695 0.0013819
0.15303 0.14661 0.8214 6.6381e-39 308 322 0 0 0 -0.71284 0.27091 -0.64689 0.0014762
0.15543 0.14726 0.82058 6.8532e-39 372.67 322.33 0 0 0 -0.71218 0.2711 -0.64754 0.0013693
0.15661 0.1478 0.82003 6.3615e-39 286 323 0 0 0 -0.71205 0.27153 -0.6475 0.0013482
0.15495 0.14885 0.8214 7.222e-39 260.67 323.67 0 0 0 -0.71161 0.26841 -0.64928 0.0014714
0.15693 0.1494 0.82003 7.0684e-39 329.67 324 0 0 0 -0.71171 0.26928 -0.64882 0.0014064
0.15561 0.15095 0.82149 8.4819e-39 260.67 325 0 0 0 -0.71088 0.26459 -0.65164 0.0015224
0.15719 0.15126 0.82058 9.4961e-39 197.5 325.5 0 0 0 -0.70999 0.26473 -0.65256 0.0014703
0.1573 0.15328 0.82112 7.5831e-39 209 326.5 0 0 0 -0.70811 0.26384 -0.65496 0.0015223
0.15885 0.15324 0.82003 7.099e-39 187.33 326.67 0 0 0 -0.70726 0.26656 -0.65478 0.0015139
0.2672 0.15323 0.82085 8.7124e-39 320.5 326.5 0 0 0 0.71473 0.28845 -0.63715 0.0013802
0.15753 0.15511 0.82149 9.5269e-39 320.33 327 0 0 0 -0.70587 0.26234 -0.65797 0.0015629
0.15906 0.15505 0.8203 8.2054e-39 345 327 0 0 0 -0.70549 0.26444 -0.65754 0.0015003
0.2655 0.155 0.82003 9.404e-39 301 327.5 0 0 0 0.70659 0.29292 -0.64415 0.001345
0.2669 0.15525 0.8214 9.4501e-39 302 327.5 0 0 0 0.71378 0.28874 -0.63808 0.0012644
0.15788 0.15723 0.82167 9.542e-39 328.5 328 0 0 0 -0.70524 0.26294 -0.65841 0.0014967
0.15914 0.15705 0.82072 9.6806e-39 330.5 328 0 0 0 -0.70498 0.26401 -0.65825 0.0015178
0.26494 0.15722 0.82076 1.0449e-38 263.67 328.67 0 0 0 0.70446 0.2948 -0.64562 0.0014087
0.15919 0.15902 0.82099 9.6115e-39 317.5 329 0 0 0 -0.70124 0.26522 -0.66175 0.0014784
0.16045 0.15931 0.82003 6.5459e-39 387 329 0 0 0 -0.69972 0.26775 -0.66234 0.0015293
0.2631 0.15931 0.82003 9.5883e-39 192 330 0 0 0 0.69598 0.30481 -0.65016 0.0015633
0.26441 0.15905 0.82113 8.2054e-39 271.5 329.5 0 0 0 0.70413 0.2981 -0.64447 0.0014494
0.15927 0.16102 0.8214 9.381e-39 294.5 330 0 0 0 -0.69827 0.26603 -0.66456 0.0014557
0.16096 0.16078 0.82017 9.4962e-39 296.5 330 0 0 0 -0.69822 0.26908 -0.66339 0.0015479
0.26337 0.16092 0.82085 6.8686e-39 246 330.5 0 0 0 0.69554 0.30707 -0.64956 0.0015595
0.15981 0.163 0.82167 8.9429e-39 272.5 331 0 0 0 -0.69728 0.26751 -0.66501 0.0014547
0.16106 0.16281 0.82072 9.0811e-39 274 331 0 0 0 -0.69669 0.26963 -0.66477 0.0014507
0.16237 0.16315 0.82003 7.56e-39 344 331 0 0 0 -0.69611 0.26973 -0.66534 0.0014796
0.26289 0.16236 0.82085 5.4395e-39 303.5 331 0 0 0 0.69381 0.30766 -0.65114 0.001595
0.15981 0.16492 0.82167 9.0351e-39 264 332 0 0 0 -0.69739 0.27024 -0.66379 0.0013895
0.16114 0.16481 0.82112 9.035e-39 265.5 332 0 0 0 -0.69522 0.27131 -0.66563 0.0013437
0.16237 0.16459 0.82003 9.1273e-39 267 332 0 0 0 -0.69611 0.27175 -0.66452 0.0014116
0.2625 0.16481 0.82113 6.0388e-39 226.5 332.5 0 0 0 0.69382 0.30846 -0.65075 0.0017064
0.15981 0.16636 0.82167 1.0326e-38 197 333 0 0 0 -0.69704 0.27119 -0.66377 0.0013764
0.16122 0.16681 0.82153 8.966e-39 271.5 333 0 0 0 -0.69645 0.27054 -0.66465 0.0012907
0.16275 0.16674 0.8204 8.6358e-39 297.67 333 0 0 0 -0.69681 0.27018 -0.66442 0.0012929
0.16428 0.16795 0.82003 1.0787e-38 208 334 0 0 0 -0.69951 0.26666 -0.663 0.001252
0.26118 0.16603 0.82003 5.9927e-39 303 333 0 0 0 0.69187 0.31017 -0.652 0.0018112
0.16125 0.16828 0.82167 1.0234e-38 204.5 334 0 0 0 -0.69811 0.26992 -0.66316 0.0012502
