# .PCD v.7 - Point Cloud Data file format
VERSION .7
FIELDS x y z rgb u v vx vy vz normal_x normal_y normal_z curvature
SIZE 4 4 4 4 4 4 4 4 4 4 4 4 4
TYPE F F F F F F F F F F F F F
COUNT 1 1 1 1 1 1 1 1 1 1 1 1 1
WIDTH 553
HEIGHT 1
VIEWPOINT 0 0 0 1 0 0 0
POINTS 553
DATA ascii
0.04257 0.11695 1.0628 5.9927e-39 165 306 0 0 0 0.6933 0.29552 -0.65727 0.0058701
0.042606 0.1183 1.0637 6.1771e-39 222 306 0 0 0 0.69245 0.29527 -0.65827 0.0057514
-0.023392 -0.027356 1.0655 2.9503e-39 185 231 0 0 0 0.48682 0.52746 -0.69627 0.069921
-0.020881 -0.026087 1.0646 4.241e-39 248 233 0 0 0 0.4704 0.5463 -0.69302 0.0644
0.041433 -0.022369 1.0655 1.3184e-38 221 238 0 0 0 -0.65329 -0.0071347 -0.75708 0.030585
0.043303 -0.021123 1.0655 6.3615e-39 233.5 239 0 0 0 -0.67403 -0.027043 -0.73821 0.034446
0.047625 -0.021104 1.0646 6.1771e-39 237 239 0 0 0 -0.70646 -0.048701 -0.70608 0.044075
-0.038352 -0.018629 1.0655 6.4537e-39 247 240 0 0 0 0.7357 0.26196 -0.6246 0.056018
0.045153 -0.019244 1.0651 6.9147e-39 232 240.5 0 0 0 -0.70073 -0.045194 -0.71199 0.036408
0.047238 -0.019039 1.0652 6.9454e-39 231.33 240.67 0 0 0 -0.72001 -0.057472 -0.69158 0.040918
0.051362 -0.019859 1.0646 7.0069e-39 244 240 0 0 0 -0.7581 -0.086738 -0.64635 0.048998
0.052653 -0.018629 1.0655 7.6522e-39 231 241 0 0 0 -0.76218 -0.089733 -0.64111 0.049098
-0.039598 -0.016136 1.0655 5.9927e-39 219 242 0 0 0 0.77266 0.17446 -0.61038 0.046699
-0.037105 -0.016759 1.0655 6.8686e-39 228 241.5 0 0 0 0.73805 0.25755 -0.62366 0.054329
0.047023 -0.016752 1.0651 5.7392e-39 201 242.5 0 0 0 -0.73586 -0.060714 -0.67441 0.038559
-0.037073 -0.014876 1.0646 5.2552e-39 208 243 0 0 0 0.75984 0.21871 -0.61221 0.050652
0.047022 -0.014882 1.0651 4.0105e-39 190.5 244 0 0 0 -0.75033 -0.076211 -0.65666 0.038621
-0.035859 -0.012396 1.0655 6.8225e-39 210 245 0 0 0 0.76011 0.16579 -0.62829 0.040623
0.045173 -0.01302 1.0655 4.5637e-39 190.5 245.5 0 0 0 -0.74246 -0.062114 -0.66701 0.03511
0.04638 -0.013631 1.0646 4.3332e-39 191 245 0 0 0 -0.75657 -0.082296 -0.64872 0.03828
-0.035859 -0.011149 1.0655 7.6522e-39 211 246 0 0 0 0.77534 0.1126 -0.62142 0.034626
0.045134 -0.01114 1.0646 4.6098e-39 194 247 0 0 0 -0.76264 -0.088262 -0.64077 0.036875
-0.035859 -0.0092794 1.0655 7.6061e-39 216 247.5 0 0 0 0.7889 0.068167 -0.61073 0.029831
-0.035859 -0.0067861 1.0655 7.6061e-39 210 249.5 0 0 0 0.79687 0.014884 -0.60396 0.024472
0.045134 -0.0067803 1.0646 5.5318e-39 148.5 250.5 0 0 0 -0.77784 -0.11126 -0.61854 0.035638
0.045173 -0.0049162 1.0655 3.8722e-39 569 251 0 0 0 -0.78157 -0.11842 -0.61248 0.034793
0.04638 -0.0049119 1.0646 3.78e-39 570 251 0 0 0 -0.79166 -0.14362 -0.59384 0.03457
0.045134 -0.0030436 1.0646 6.1771e-39 452 252.5 0 0 0 -0.78838 -0.15513 -0.59531 0.030516
0.045134 -0.0011752 1.0646 6.9147e-39 443 254 0 0 0 -0.79689 -0.17488 -0.57827 0.026416
0.045134 0.00069312 1.0646 6.7764e-39 445 255.5 0 0 0 -0.82042 -0.15126 -0.55139 0.020196
0.056393 0.049936 1.0655 6.0849e-39 427 285 0 0 0 0.93354 0.24216 -0.26432 0.016371
0.053853 0.051139 1.0646 5.2552e-39 229 286 0 0 0 0.92455 0.26353 -0.27525 0.013925
0.047625 0.06484 1.0646 9.2196e-39 372 291 0 0 0 0.90559 0.25409 -0.33963 0.022907
0.047646 0.066737 1.0651 6.0849e-39 371 291.5 0 0 0 0.90392 0.22591 -0.36317 0.028378
0.047667 0.068636 1.0655 9.9571e-39 429 292 0 0 0 0.90242 0.20709 -0.37781 0.029016
-0.047038 0.077296 1.0646 8.6664e-39 254 295 0 0 0 -0.59916 0.38006 -0.70467 0.071356
-0.04539 0.076903 1.0649 7.8981e-39 219.33 295 0 0 0 -0.6124 0.3714 -0.69787 0.069201
-0.04332 0.076706 1.0651 7.2374e-39 203 295 0 0 0 -0.6473 0.35619 -0.67389 0.064413
-0.048283 0.079787 1.0646 7.56e-39 223 296 0 0 0 -0.60678 0.39575 -0.68935 0.078172
-0.047078 0.079232 1.0655 8.897e-39 324.5 295.5 0 0 0 -0.6114 0.39121 -0.68785 0.077059
-0.044566 0.079199 1.0651 8.9431e-39 326.5 295.5 0 0 0 -0.66205 0.35856 -0.65812 0.064555
-0.042092 0.082349 1.0655 6.4537e-39 170 297 0 0 0 -0.68313 0.35658 -0.63733 0.058236
-0.04081 0.082278 1.0646 6.3615e-39 171 297 0 0 0 -0.69984 0.35058 -0.62235 0.052002
-0.039598 0.082349 1.0655 6.2693e-39 172 297 0 0 0 -0.69821 0.35245 -0.62312 0.052639
0.047625 0.095979 1.0646 8.7586e-39 232 301 0 0 0 0.88482 0.053986 -0.46279 0.017398
0.047625 0.097225 1.0646 1.1524e-38 390 301 0 0 0 0.86868 0.092882 -0.48659 0.016057
0.048871 0.099716 1.0646 8.943e-39 233 302 0 0 0 0.84931 0.13748 -0.50967 0.012456
0.05016 0.10105 1.0655 1.1985e-38 388 302 0 0 0 0.85928 0.12465 -0.49609 0.014903
-0.032714 0.10345 1.0646 6.592e-39 564.5 302 0 0 0 -0.76254 0.30363 -0.57127 0.006418
0.047625 0.10345 1.0646 5.6239e-39 206 303 0 0 0 0.81503 0.16977 -0.55399 0.011579
0.051406 0.1023 1.0655 6.5459e-39 563 302 0 0 0 0.8559 0.12776 -0.50111 0.013993
0.047023 0.10475 1.0651 7.514e-39 274.5 303 0 0 0 0.80384 0.17969 -0.56705 0.010177
0.048871 0.1047 1.0646 7.8366e-39 277 303 0 0 0 0.80717 0.17338 -0.56429 0.010196
0.050117 0.1047 1.0646 7.6522e-39 278 303 0 0 0 0.81912 0.16268 -0.55007 0.010833
0.04642 0.10666 1.0655 7.6061e-39 289 303.5 0 0 0 0.793 0.18959 -0.57897 0.010426
0.048913 0.10604 1.0655 8.943e-39 424 303 0 0 0 0.80672 0.17555 -0.56425 0.010635
0.05016 0.10604 1.0655 8.8508e-39 425 303 0 0 0 0.82085 0.16421 -0.54703 0.011295
0.04642 0.10915 1.0655 9.6806e-39 300 304 0 0 0 0.78798 0.19504 -0.58399 0.011147
0.045134 0.11342 1.0646 7.6522e-39 240 305 0 0 0 0.7357 0.2417 -0.63271 0.0087274
0.045173 0.11476 1.0655 1.2815e-38 388 305 0 0 0 0.72934 0.25104 -0.63643 0.0079795
0.043889 0.11715 1.0646 6.4537e-39 166 306 0 0 0 0.70236 0.28466 -0.65242 0.0056428
0.045173 0.11601 1.0655 5.9005e-39 471 305 0 0 0 0.72301 0.25866 -0.64058 0.0075454
0.043927 0.1185 1.0655 6.7303e-39 223 306 0 0 0 0.70382 0.29121 -0.64795 0.0055709
-0.025284 -0.026132 1.0665 8.2976e-39 244.5 233 0 0 0 0.54869 0.44392 -0.70843 0.066973
-0.022165 -0.026132 1.0665 5.163e-39 247 233 0 0 0 0.49075 0.49675 -0.71583 0.060396
-0.032146 -0.024884 1.0665 5.3473e-39 250 234 0 0 0 0.65608 0.36401 -0.6611 0.070166
-0.029677 -0.024905 1.0674 5.8083e-39 252 234 0 0 0 0.62765 0.36161 -0.68941 0.065259
0.039007 -0.023657 1.0674 2.8581e-39 187 237 0 0 0 -0.638 -0.0083929 -0.76999 0.023009
0.040256 -0.023657 1.0674 2.9503e-39 188 237 0 0 0 -0.63896 -0.010905 -0.76917 0.024973
0.041469 -0.021141 1.0665 5.9005e-39 232 239 0 0 0 -0.65718 -0.0058356 -0.75371 0.028092
0.050203 -0.021141 1.0665 7.0991e-39 239 239 0 0 0 -0.7001 -0.047646 -0.71246 0.048009
-0.037153 -0.019277 1.0669 6.592e-39 245.5 239.5 0 0 0 0.71281 0.28468 -0.64098 0.059302
0.041505 -0.01991 1.0674 6.8225e-39 236 240 0 0 0 -0.6618 0.0010284 -0.74968 0.0259
0.042754 -0.01991 1.0674 6.6381e-39 237 240 0 0 0 -0.66668 -0.0077786 -0.7453 0.026899
0.044003 -0.01991 1.0674 6.8225e-39 238 240 0 0 0 -0.67386 -0.022934 -0.7385 0.030071
-0.039667 -0.017413 1.0674 7.56e-39 233 241 0 0 0 0.75047 0.1981 -0.63052 0.048009
-0.035921 -0.016788 1.0674 6.9147e-39 229 241.5 0 0 0 0.71467 0.25902 -0.64974 0.050832
0.045212 -0.016774 1.0665 7.1914e-39 199.5 242.5 0 0 0 -0.70394 -0.038863 -0.7092 0.03297
-0.035921 -0.014915 1.0674 4.702e-39 209 243 0 0 0 0.73174 0.21208 -0.64775 0.042958
0.045212 -0.014902 1.0665 4.241e-39 189 244 0 0 0 -0.71487 -0.039115 -0.69816 0.033341
-0.03589 -0.013654 1.0665 4.9786e-39 208 244 0 0 0 0.7394 0.20107 -0.64254 0.041845
0.042754 -0.011169 1.0674 4.6098e-39 192 247 0 0 0 -0.72334 -0.023859 -0.69007 0.030679
0.042754 -0.0092955 1.0674 5.1168e-39 192 248.5 0 0 0 -0.73328 -0.02809 -0.67935 0.031285
0.044003 -0.0086711 1.0674 5.4395e-39 191 249 0 0 0 -0.74054 -0.041194 -0.67075 0.032039
0.042754 -0.0074223 1.0674 5.6239e-39 150 250 0 0 0 -0.74069 -0.031674 -0.67109 0.03109
0.042754 -0.0024271 1.0674 6.5459e-39 446 253 0 0 0 -0.77426 -0.058285 -0.63018 0.022027
0.042754 7.0523e-05 1.0674 6.9147e-39 444 255 0 0 0 -0.79017 -0.051572 -0.61072 0.017653
0.044003 0.00069491 1.0674 6.9147e-39 444 255.5 0 0 0 -0.79288 -0.072506 -0.60505 0.018321
0.055242 0.051271 1.0674 5.3473e-39 230 286 0 0 0 0.92241 0.25639 -0.28882 0.018923
0.052699 0.052475 1.0665 6.9147e-39 430 286 0 0 0 0.9108 0.27424 -0.3086 0.018413
0.048998 0.065008 1.0674 9.0352e-39 373 291 0 0 0 0.88474 0.24999 -0.39337 0.027252
0.048955 0.066823 1.0665 6.131e-39 372 291.5 0 0 0 0.89058 0.22817 -0.39345 0.027714
0.047708 0.069943 1.0665 7.8366e-39 220 293 0 0 0 0.89062 0.19033 -0.41301 0.030509
0.048955 0.068695 1.0665 1.0049e-38 430 292 0 0 0 0.87937 0.22007 -0.42223 0.028714
0.047749 0.071252 1.0674 1.1156e-38 387 293 0 0 0 0.89274 0.19614 -0.40565 0.03093
0.048998 0.070628 1.0674 9.5885e-39 304.5 293 0 0 0 0.89135 0.1926 -0.41036 0.029823
-0.045871 0.079301 1.0665 8.9431e-39 325.5 295.5 0 0 0 -0.62698 0.38643 -0.67643 0.075137
-0.043376 0.079301 1.0665 8.9431e-39 327.5 295.5 0 0 0 -0.65661 0.3665 -0.65919 0.068639
-0.047119 0.081172 1.0665 1.1985e-38 391 296 0 0 0 -0.63487 0.38548 -0.66958 0.075809
-0.045267 0.081207 1.0669 1.1524e-38 392.5 296 0 0 0 -0.6554 0.37567 -0.65523 0.071478
-0.043413 0.081242 1.0674 1.1156e-38 394 296 0 0 0 -0.66136 0.37055 -0.65214 0.067638
-0.044662 0.082491 1.0674 6.2693e-39 168 297 0 0 0 -0.66698 0.37976 -0.64103 0.069529
-0.042128 0.083668 1.0665 6.3615e-39 266 297 0 0 0 -0.68421 0.36889 -0.62911 0.059603
-0.04088 0.083668 1.0665 6.9147e-39 267 297 0 0 0 -0.68928 0.36798 -0.62409 0.056877
-0.039633 0.083668 1.0665 7.4678e-39 268 297 0 0 0 -0.70106 0.36194 -0.61442 0.053329
-0.042165 0.084989 1.0674 9.8649e-39 427 297 0 0 0 -0.68836 0.38537 -0.61454 0.060215
-0.040916 0.084989 1.0674 9.8649e-39 428 297 0 0 0 -0.70059 0.37777 -0.60537 0.056522
-0.039633 0.084915 1.0665 9.8649e-39 429 297 0 0 0 -0.70957 0.36436 -0.60311 0.050533
-0.039633 0.086787 1.0665 1.0049e-38 295.5 298 0 0 0 -0.72458 0.3707 -0.581 0.047752
-0.039633 0.089282 1.0665 7.4218e-39 191 299 0 0 0 -0.74775 0.36318 -0.55585 0.042491
-0.039633 0.091154 1.0665 1.134e-38 398 299 0 0 0 -0.76507 0.3604 -0.53364 0.032207
-0.03965 0.093066 1.0669 7.4218e-39 196 300 0 0 0 -0.77052 0.35355 -0.53038 0.026694
-0.039667 0.094979 1.0674 1.1432e-38 396 300 0 0 0 -0.78828 0.32072 -0.52511 0.015252
-0.039667 0.096852 1.0674 7.6061e-39 195.5 301 0 0 0 -0.79389 0.30753 -0.52456 0.010526
-0.03965 0.099307 1.0669 9.4037e-39 275 301.5 0 0 0 -0.79322 0.29964 -0.53011 0.0079032
0.048955 0.09864 1.0665 6.2693e-39 143 302 0 0 0 0.86956 0.10835 -0.48179 0.014921
0.051451 0.10363 1.0665 5.9005e-39 209 303 0 0 0 0.85741 0.12875 -0.49827 0.014658
-0.032784 0.10492 1.0669 6.2693e-39 210.5 303 0 0 0 -0.77237 0.30388 -0.55776 0.0079175
-0.032174 0.10622 1.0674 6.4537e-39 359 303 0 0 0 -0.75455 0.30603 -0.58052 0.0071941
0.047729 0.1068 1.0669 7.5601e-39 290 303.5 0 0 0 0.81733 0.16761 -0.55125 0.013593
0.048955 0.10737 1.0665 6.2693e-39 158 304 0 0 0 0.8085 0.17342 -0.56236 0.011582
0.050203 0.10737 1.0665 6.1771e-39 159 304 0 0 0 0.82349 0.1605 -0.54416 0.012103
0.047749 0.10872 1.0674 6.8225e-39 226 304 0 0 0 0.80539 0.17781 -0.56545 0.012168
0.048998 0.10872 1.0674 6.2693e-39 227 304 0 0 0 0.81218 0.17186 -0.55752 0.012543
0.050247 0.10872 1.0674 5.9927e-39 228 304 0 0 0 0.81921 0.16297 -0.54985 0.012805
-0.032174 0.11121 1.0674 1.2354e-38 383 304 0 0 0 -0.75175 0.29768 -0.58843 0.0075701
0.04646 0.11112 1.0665 5.4395e-39 468 304 0 0 0 0.77753 0.2031 -0.59514 0.010604
-0.032174 0.11309 1.0674 5.9466e-39 326.5 304.5 0 0 0 -0.74814 0.29885 -0.59244 0.0077346
0.0465 0.11246 1.0674 6.0849e-39 171 305 0 0 0 0.77314 0.20463 -0.60031 0.01117
0.045212 0.11736 1.0665 6.9147e-39 167 306 0 0 0 0.72388 0.2664 -0.63643 0.0070889
-0.027202 -0.026177 1.0683 1.0142e-38 243 233 0 0 0 0.56087 0.43565 -0.70401 0.060807
-0.023453 -0.026177 1.0683 5.8083e-39 246 233 0 0 0 0.53599 0.46177 -0.70675 0.052529
-0.033481 -0.024949 1.0692 5.163e-39 249 234 0 0 0 0.63195 0.36895 -0.68155 0.070653
-0.030979 -0.024949 1.0692 5.5317e-39 251 234 0 0 0 0.6125 0.3667 -0.70027 0.063872
-0.028452 -0.024927 1.0683 6.2693e-39 253 234 0 0 0 0.61157 0.36605 -0.70142 0.060019
-0.025339 -0.024938 1.0688 7.6983e-39 255.5 234 0 0 0 0.5658 0.4059 -0.71772 0.052855
-0.022222 -0.024949 1.0692 2.9503e-39 185 235 0 0 0 0.53669 0.44884 -0.7145 0.045605
-0.020953 -0.024927 1.0683 2.9503e-39 186 235 0 0 0 0.52551 0.46708 -0.71111 0.046535
-0.032202 -0.023052 1.0683 8.2515e-39 205.5 236.5 0 0 0 0.65482 0.3339 -0.67803 0.06135
0.040291 -0.022427 1.0683 1.3553e-38 220 238 0 0 0 -0.64282 0.0037833 -0.76601 0.022759
0.047832 -0.022447 1.0692 9.9571e-39 225 238 0 0 0 -0.65376 -0.0050826 -0.75668 0.035341
-0.037234 -0.021196 1.0692 4.702e-39 228 238 0 0 0 0.68521 0.30947 -0.65933 0.063606
-0.032202 -0.021177 1.0683 4.702e-39 232 238 0 0 0 0.6627 0.30852 -0.68238 0.056262
0.040291 -0.021177 1.0683 5.9005e-39 231 239 0 0 0 -0.6503 0.0041271 -0.75967 0.022469
0.05154 -0.021177 1.0683 7.1913e-39 240 239 0 0 0 -0.69687 -0.035171 -0.71633 0.047942
-0.039094 -0.019311 1.0688 6.7764e-39 244 239.5 0 0 0 0.7106 0.27017 -0.64966 0.056324
-0.035342 -0.019311 1.0688 6.592e-39 247 239.5 0 0 0 0.69714 0.27972 -0.66012 0.051675
-0.03223 -0.01932 1.0692 6.5459e-39 249.5 239.5 0 0 0 0.67632 0.28903 -0.67754 0.048603
0.040933 -0.019311 1.0688 6.2232e-39 228.5 240.5 0 0 0 -0.66057 0.0071179 -0.75073 0.021904
0.042791 -0.018678 1.0683 5.8083e-39 223 241 0 0 0 -0.67126 -0.0012092 -0.74122 0.025746
0.044041 -0.018678 1.0683 6.3615e-39 224 241 0 0 0 -0.6735 -0.0065895 -0.73916 0.026722
0.05279 -0.019927 1.0683 7.0069e-39 245 240 0 0 0 -0.70998 -0.047004 -0.70265 0.050264
-0.034732 -0.016817 1.0692 6.8686e-39 230 241.5 0 0 0 0.69526 0.25291 -0.67279 0.044132
-0.03223 -0.017443 1.0692 7.0069e-39 239 241 0 0 0 0.68759 0.27185 -0.67329 0.043196
0.041577 -0.016817 1.0692 9.2198e-39 196.5 242.5 0 0 0 -0.67648 0.014419 -0.73632 0.022635
0.042791 -0.016803 1.0683 8.3435e-39 197.5 242.5 0 0 0 -0.68743 -0.0080142 -0.72621 0.026316
0.044079 -0.016817 1.0692 8.0208e-39 198.5 242.5 0 0 0 -0.68474 -0.0042673 -0.72877 0.02661
-0.034732 -0.014941 1.0692 4.7942e-39 210 243 0 0 0 0.70896 0.21993 -0.67008 0.038422
0.042791 -0.014928 1.0683 4.4254e-39 187 244 0 0 0 -0.69413 -0.0022811 -0.71984 0.02606
0.044079 -0.014941 1.0692 4.4254e-39 188 244 0 0 0 -0.69285 -0.0046668 -0.72106 0.026408
-0.034717 -0.013059 1.0688 6.2233e-39 210 244.5 0 0 0 0.71146 0.21326 -0.66959 0.037486
0.041577 -0.013064 1.0692 4.7942e-39 187.5 245.5 0 0 0 -0.69922 0.015755 -0.71473 0.024104
0.042791 -0.013053 1.0683 4.8403e-39 188.5 245.5 0 0 0 -0.70833 -0.0033519 -0.70587 0.027836
0.04406 -0.013059 1.0688 4.7481e-39 189.5 245.5 0 0 0 -0.70452 -0.0050048 -0.70966 0.027649
-0.034702 -0.011178 1.0683 7.8366e-39 212 246 0 0 0 0.73403 0.17582 -0.65596 0.034494
0.041577 -0.011188 1.0692 4.9786e-39 191 247 0 0 0 -0.70634 0.013383 -0.70774 0.025242
0.044041 -0.011178 1.0683 4.6098e-39 193 247 0 0 0 -0.7204 -0.017408 -0.69334 0.030083
-0.034732 -0.0093116 1.0692 7.4679e-39 217 247.5 0 0 0 0.74688 0.12657 -0.6528 0.026471
0.041577 -0.0093116 1.0692 4.9786e-39 174.5 248.5 0 0 0 -0.71107 0.018183 -0.70289 0.026256
0.044041 -0.0099284 1.0683 4.8864e-39 195 248 0 0 0 -0.72829 -0.024609 -0.68483 0.030614
-0.034732 -0.0068096 1.0692 7.6061e-39 211 249.5 0 0 0 0.76067 0.08195 -0.64395 0.022375
0.041577 -0.0068096 1.0692 5.67e-39 145.5 250.5 0 0 0 -0.72314 -0.002568 -0.6907 0.02827
0.042791 -0.0061788 1.0683 5.6239e-39 143 251 0 0 0 -0.73593 -0.021093 -0.67673 0.030246
0.044041 -0.0068038 1.0683 5.6239e-39 147.5 250.5 0 0 0 -0.74423 -0.041895 -0.6666 0.031252
0.042791 -0.0049289 1.0683 4.7942e-39 567 251 0 0 0 -0.7425 -0.044159 -0.66839 0.02973
0.044079 -0.0049332 1.0692 4.1488e-39 568 251 0 0 0 -0.74312 -0.04442 -0.66768 0.029973
0.041577 -0.0030568 1.0692 6.2693e-39 449.5 252.5 0 0 0 -0.75186 -0.0094658 -0.65925 0.020126
0.042791 -0.0036791 1.0683 5.7161e-39 455 252 0 0 0 -0.74537 -0.055376 -0.66435 0.028041
0.044041 -0.0036791 1.0683 5.6239e-39 456 252 0 0 0 -0.7542 -0.084339 -0.6512 0.030807
0.040951 -0.0011803 1.0692 7.053e-39 441.5 254 0 0 0 -0.75948 0.011073 -0.65044 0.016602
0.041577 7.0645e-05 1.0692 7.0991e-39 443 255 0 0 0 -0.76884 -0.0068513 -0.6394 0.017344
0.056539 0.051316 1.0683 5.4395e-39 231 286 0 0 0 0.91656 0.26009 -0.30374 0.020813
0.05404 0.052565 1.0683 7.4678e-39 431 286 0 0 0 0.90699 0.28174 -0.31304 0.021142
0.04904 0.063189 1.0683 7.56e-39 293.5 290.5 0 0 0 0.88583 0.25483 -0.38778 0.026951
0.047373 0.073397 1.0683 6.761e-39 237 294 0 0 0 0.92833 0.16417 -0.33355 0.028783
0.04904 0.073188 1.0683 6.7764e-39 221.5 294 0 0 0 0.91608 0.17065 -0.36287 0.028941
0.047186 0.075095 1.0688 6.131e-39 477.5 294 0 0 0 0.9333 0.15594 -0.32348 0.024097
0.049083 0.075128 1.0692 6.5459e-39 479 294 0 0 0 0.93012 0.15122 -0.33468 0.025096
0.04654 0.076938 1.0683 9.1273e-39 325.5 295 0 0 0 0.94061 0.13427 -0.3118 0.020097
0.046581 0.078881 1.0692 8.5742e-39 207 296 0 0 0 0.94109 0.11179 -0.31915 0.017286
-0.045364 0.08326 1.0692 6.6381e-39 215.5 297 0 0 0 -0.66664 0.40174 -0.62785 0.075689
-0.043489 0.082634 1.0692 6.4537e-39 169 297 0 0 0 -0.66851 0.3877 -0.63465 0.071533
-0.04222 0.086975 1.0688 9.6343e-39 293.5 298 0 0 0 -0.7133 0.4058 -0.57143 0.057513
-0.040951 0.086937 1.0683 9.911e-39 294.5 298 0 0 0 -0.71896 0.3882 -0.57654 0.054631
-0.042238 0.088889 1.0692 1.9361e-39 571 298 0 0 0 -0.74501 0.40104 -0.53303 0.054612
-0.040951 0.088812 1.0683 1.8439e-39 572 298 0 0 0 -0.74601 0.38316 -0.54466 0.048399
-0.040987 0.09014 1.0692 8.3898e-39 240 299 0 0 0 -0.76417 0.37023 -0.52818 0.044287
0.04904 0.095061 1.0683 6.1771e-39 143 301 0 0 0 0.93022 -0.034095 -0.3654 0.017399
0.049061 0.096978 1.0688 1.0556e-38 312 301 0 0 0 0.92913 -0.023522 -0.369 0.018958
0.050937 0.10073 1.0688 1.0833e-38 311.5 302 0 0 0 0.89145 0.079623 -0.44607 0.016513
0.05154 0.10506 1.0683 7.1913e-39 279 303 0 0 0 0.86982 0.12182 -0.47809 0.017723
-0.033045 0.10717 1.0686 7.7137e-39 403.67 303 0 0 0 -0.76402 0.30552 -0.56827 0.0084967
-0.032842 0.10886 1.0688 6.4537e-39 161.5 304 0 0 0 -0.76018 0.30908 -0.57149 0.0088151
-0.037234 0.11141 1.0692 1.134e-38 379 304 0 0 0 -0.78284 0.31496 -0.53662 0.011427
-0.033035 0.11048 1.0683 8.3285e-39 281.67 304 0 0 0 -0.75342 0.30237 -0.58389 0.0083925
0.047811 0.11073 1.0688 8.8507e-39 422.5 304 0 0 0 0.80486 0.18078 -0.56526 0.013404
0.049061 0.11073 1.0688 8.7585e-39 423.5 304 0 0 0 0.81689 0.16996 -0.55118 0.013997
0.050334 0.11016 1.0692 1.1893e-38 378 304 0 0 0 0.8271 0.16016 -0.53876 0.014704
-0.033452 0.11319 1.0683 5.7162e-39 325.5 304.5 0 0 0 -0.75249 0.29499 -0.58884 0.0080642
0.047186 0.11323 1.0688 7.1452e-39 206.5 305 0 0 0 0.78405 0.20035 -0.58747 0.012024
-0.033481 0.11516 1.0692 1.134e-38 248 305 0 0 0 -0.76016 0.28182 -0.58544 0.0091515
0.046581 0.11516 1.0692 1.2446e-38 389 305 0 0 0 0.75759 0.22543 -0.61257 0.01
-0.02725 -0.02497 1.0702 7.0069e-39 254 234 0 0 0 0.58636 0.38498 -0.71272 0.051921
-0.023493 -0.02497 1.0702 3.2268e-39 184 235 0 0 0 0.55 0.39678 -0.7349 0.041933
0.037263 -0.024992 1.0711 8.3898e-39 260.5 235 0 0 0 -0.6335 0.0022024 -0.77374 0.018087
-0.03664 -0.022466 1.0702 9.2196e-39 207 237 0 0 0 0.65945 0.33258 -0.67418 0.063755
-0.034762 -0.023092 1.0702 8.8967e-39 203.5 236.5 0 0 0 0.65653 0.33361 -0.67652 0.063314
-0.03351 -0.023092 1.0702 8.8968e-39 204.5 236.5 0 0 0 0.64353 0.33533 -0.68806 0.058791
-0.031006 -0.023092 1.0702 7.4215e-39 206.5 236.5 0 0 0 0.63243 0.32979 -0.70091 0.053948
-0.029141 -0.023102 1.0706 6.6381e-39 208 236.5 0 0 0 0.61879 0.3345 -0.71077 0.048312
-0.027273 -0.023739 1.0711 2.9503e-39 190 236 0 0 0 0.60204 0.34354 -0.72079 0.045196
-0.025383 -0.023729 1.0706 8.3438e-39 208 236 0 0 0 0.585 0.33976 -0.73643 0.04002
-0.021008 -0.023739 1.0711 1.429e-38 228 236 0 0 0 0.54624 0.39287 -0.73978 0.03189
0.037248 -0.023102 1.0706 3.1116e-39 189.5 237.5 0 0 0 -0.6403 0.018743 -0.7679 0.017218
0.039109 -0.022466 1.0702 1.2815e-38 219 238 0 0 0 -0.647 0.013736 -0.76237 0.018955
0.049168 -0.022486 1.0711 7.3757e-39 226 238 0 0 0 -0.63525 0.0016344 -0.77231 0.036614
-0.038551 -0.021232 1.0711 5.7161e-39 227 238 0 0 0 0.67172 0.26926 -0.69014 0.058788
-0.036014 -0.021214 1.0702 4.241e-39 229 238 0 0 0 0.67144 0.31139 -0.67246 0.059317
-0.034762 -0.021214 1.0702 4.241e-39 230 238 0 0 0 0.65842 0.31149 -0.68517 0.056544
-0.03351 -0.021214 1.0702 4.4254e-39 231 238 0 0 0 0.65546 0.31072 -0.68835 0.05479
-0.031006 -0.021214 1.0702 5.2552e-39 233 238 0 0 0 0.64936 0.31038 -0.69426 0.049587
-0.02978 -0.021232 1.0711 5.3473e-39 234 238 0 0 0 0.62658 0.30302 -0.71804 0.042855
0.037248 -0.021223 1.0706 4.8864e-39 228.5 239 0 0 0 -0.64888 0.028825 -0.76035 0.016284
0.039109 -0.021214 1.0702 5.6239e-39 230 239 0 0 0 -0.64937 0.014629 -0.76034 0.018016
-0.03351 -0.019336 1.0702 6.6842e-39 248.5 239.5 0 0 0 0.6735 0.29035 -0.67978 0.049513
-0.031006 -0.019336 1.0702 6.5459e-39 250.5 239.5 0 0 0 0.6551 0.29917 -0.69379 0.043913
0.037263 -0.019352 1.0711 6.0158e-39 225.5 240.5 0 0 0 -0.65579 0.035947 -0.75409 0.015545
0.039143 -0.019979 1.0711 7.2835e-39 234 240 0 0 0 -0.6553 0.025903 -0.75493 0.017106
0.040361 -0.01871 1.0702 5.3473e-39 221 241 0 0 0 -0.66206 0.022166 -0.74912 0.018812
-0.033093 -0.016623 1.0702 7.3757e-39 229 241.67 0 0 0 0.68511 0.25749 -0.68141 0.040909
-0.031006 -0.016832 1.0702 7.4218e-39 233 241.5 0 0 0 0.66921 0.26282 -0.69504 0.038079
0.036636 -0.017473 1.0711 5.2552e-39 200 242 0 0 0 -0.66429 0.047627 -0.74596 0.015034
0.040361 -0.016832 1.0702 9.4498e-39 195.5 242.5 0 0 0 -0.67445 0.024869 -0.7379 0.019096
-0.032884 -0.014954 1.0702 5.209e-39 211.5 243 0 0 0 0.68753 0.24681 -0.68292 0.038532
-0.031006 -0.014954 1.0702 5.5317e-39 213 243 0 0 0 0.67089 0.25129 -0.69768 0.035905
0.041005 -0.01496 1.0706 5.2552e-39 159.5 244 0 0 0 -0.67954 0.032967 -0.7329 0.019903
-0.032884 -0.013076 1.0702 6.615e-39 211.5 244.5 0 0 0 0.69338 0.22163 -0.68564 0.033978
-0.031033 -0.013087 1.0711 7.0069e-39 213 244.5 0 0 0 0.67715 0.23131 -0.69854 0.031556
0.040361 -0.013076 1.0702 4.8864e-39 173.5 245.5 0 0 0 -0.69116 0.024928 -0.72227 0.021614
-0.032884 -0.011198 1.0702 7.6522e-39 213.5 246 0 0 0 0.70846 0.20602 -0.67501 0.032616
-0.031033 -0.011207 1.0711 7.3757e-39 215 246 0 0 0 0.68315 0.23047 -0.69296 0.031097
0.03789 -0.011207 1.0711 4.7942e-39 188 247 0 0 0 -0.68632 0.053537 -0.72532 0.017664
0.040361 -0.011198 1.0702 5.0708e-39 190 247 0 0 0 -0.69807 0.032465 -0.71529 0.021771
-0.032898 -0.0093234 1.0706 7.7444e-39 218.5 247.5 0 0 0 0.71422 0.17115 -0.67867 0.026668
-0.031033 -0.0093277 1.0711 8.1593e-39 220 247.5 0 0 0 0.69113 0.19513 -0.69589 0.025646
0.03789 -0.0099543 1.0711 5.163e-39 190 248 0 0 0 -0.69125 0.05448 -0.72056 0.018425
0.040361 -0.0093196 1.0702 4.8864e-39 173.5 248.5 0 0 0 -0.70397 0.027307 -0.70971 0.022903
-0.033121 -0.0070303 1.0711 7.5908e-39 212.67 249.33 0 0 0 0.72827 0.13111 -0.67263 0.022502
0.040361 -0.0068155 1.0702 5.5778e-39 144.5 250.5 0 0 0 -0.71148 0.026915 -0.7022 0.02326
-0.033539 -0.0049418 1.0711 7.0069e-39 208 251 0 0 0 0.7478 0.088338 -0.65802 0.021828
0.040987 -0.0049375 1.0702 5.5778e-39 565.5 251 0 0 0 -0.71966 0.010798 -0.69425 0.024173
0.039143 -0.0024355 1.0711 6.8225e-39 443 253 0 0 0 -0.73834 0.062709 -0.67151 0.013246
0.040361 -0.0030594 1.0702 6.4537e-39 448.5 252.5 0 0 0 -0.73765 0.046075 -0.67361 0.014495
-0.033539 -0.0011824 1.0711 3.78e-39 570 253 0 0 0 0.76774 0.081492 -0.63556 0.016372
0.039143 -0.0011824 1.0711 6.9147e-39 440 254 0 0 0 -0.7443 0.051271 -0.66588 0.01292
-0.033539 0.00069733 1.0711 4.5637e-39 567.5 254.5 0 0 0 0.77583 0.097152 -0.62342 0.01209
0.039143 0.00069733 1.0711 6.9147e-39 441.5 255.5 0 0 0 -0.75357 0.043958 -0.65589 0.013166
0.040361 7.0706e-05 1.0702 7.0069e-39 442 255 0 0 0 -0.76559 0.013466 -0.64319 0.016283
0.052927 0.053955 1.0711 5.4395e-39 226 287 0 0 0 0.8951 0.29254 -0.33647 0.024677
0.054783 0.053306 1.0706 6.4076e-39 329.5 286.5 0 0 0 0.89659 0.28833 -0.33615 0.023885
0.056686 0.052702 1.0711 7.1913e-39 433 286 0 0 0 0.89854 0.28637 -0.3326 0.025429
0.047873 0.076445 1.0702 8.8508e-39 241 295 0 0 0 0.93391 0.14316 -0.3276 0.024714
0.049147 0.077105 1.0706 9.4963e-39 327.5 295 0 0 0 0.93483 0.1364 -0.32785 0.024314
-0.04603 0.083958 1.0702 7.0069e-39 263 297 0 0 0 -0.64889 0.42549 -0.6308 0.082604
-0.043526 0.083958 1.0702 6.6381e-39 265 297 0 0 0 -0.67788 0.40347 -0.61457 0.073205
-0.04607 0.085284 1.0711 9.7727e-39 424 297 0 0 0 -0.6729 0.44241 -0.59286 0.08204
-0.044778 0.08521 1.0702 9.8649e-39 425 297 0 0 0 -0.69224 0.42353 -0.58432 0.074467
-0.043526 0.08521 1.0702 9.9571e-39 426 297 0 0 0 -0.69789 0.41545 -0.5834 0.071535
-0.04607 0.086537 1.0711 7.6522e-39 210 298 0 0 0 -0.70439 0.44773 -0.5508 0.078985
-0.044798 0.087126 1.0706 9.9572e-39 291.5 298 0 0 0 -0.71342 0.43798 -0.54699 0.071551
-0.043564 0.086537 1.0711 7.7444e-39 212 298 0 0 0 -0.72149 0.42736 -0.54481 0.069012
-0.042274 0.090218 1.0702 8.2054e-39 239 299 0 0 0 -0.76987 0.38759 -0.50702 0.046442
-0.041058 0.099068 1.0711 1.1709e-38 398 301 0 0 0 -0.8143 0.29552 -0.49958 0.0094229
0.050421 0.099068 1.0711 5.8083e-39 144 302 0 0 0 0.9354 -0.016643 -0.35321 0.019675
-0.041058 0.10032 1.0711 5.9927e-39 150 302 0 0 0 -0.81276 0.29473 -0.50254 0.0096352
-0.034762 0.109 1.0702 6.4537e-39 160 304 0 0 0 -0.77849 0.31227 -0.54446 0.010811
-0.036014 0.11088 1.0702 8.7124e-39 304.5 304 0 0 0 -0.78284 0.31496 -0.53662 0.011427
-0.034762 0.11088 1.0702 8.8509e-39 305.5 304 0 0 0 -0.7796 0.31031 -0.544 0.011093
0.050421 0.1116 1.0711 5.9927e-39 471 304 0 0 0 0.83293 0.16319 -0.52877 0.016321
-0.036014 0.11275 1.0702 5.7161e-39 472 304 0 0 0 -0.78495 0.30562 -0.53894 0.011671
-0.034762 0.11275 1.0702 5.3473e-39 473 304 0 0 0 -0.77452 0.30051 -0.55661 0.010968
0.049125 0.11275 1.0702 6.5459e-39 173 305 0 0 0 0.81304 0.17747 -0.5545 0.015044
-0.036045 0.11411 1.0711 6.8225e-39 175 305 0 0 0 -0.79214 0.30378 -0.52937 0.012843
-0.034792 0.11473 1.0711 8.6662e-39 211.5 305 0 0 0 -0.76415 0.28421 -0.57905 0.010728
0.047873 0.11401 1.0702 8.3898e-39 242 305 0 0 0 0.79611 0.19411 -0.57317 0.013467
0.049168 0.11411 1.0711 8.6664e-39 243 305 0 0 0 0.80571 0.18908 -0.56133 0.014181
0.046621 0.11651 1.0702 5.9927e-39 472 305 0 0 0 0.755 0.24271 -0.60916 0.0089021
0.034816 -0.025036 1.073 7.8827e-39 258.5 235 0 0 0 -0.63151 0.044001 -0.77412 0.016326
-0.036076 -0.023759 1.072 3.8722e-39 183 236 0 0 0 0.62575 0.31686 -0.71276 0.064699
-0.02667 -0.022505 1.072 7.6522e-39 229.5 237 0 0 0 0.60175 0.31625 -0.73341 0.03753
-0.024788 -0.022505 1.072 5.5317e-39 231 237 0 0 0 0.5881 0.32992 -0.73843 0.033059
-0.022922 -0.023147 1.0727 9.2888e-39 229.5 236.5 0 0 0 0.5666 0.35053 -0.74572 0.030238
-0.021062 -0.022544 1.0739 4.5176e-39 234 237 0 0 0 0.54501 0.36166 -0.75642 0.025379
0.032963 -0.022544 1.0739 2.9503e-39 190 238 0 0 0 -0.63067 0.09545 -0.77016 0.014448
0.034801 -0.023142 1.0725 3.4343e-39 187.5 237.5 0 0 0 -0.63502 0.04947 -0.77091 0.015361
-0.028551 -0.021251 1.072 5.3473e-39 235 238 0 0 0 0.61668 0.30782 -0.72454 0.038087
-0.026468 -0.020839 1.0723 5.7468e-39 241.67 238.33 0 0 0 0.60285 0.31121 -0.73465 0.032596
-0.024821 -0.02065 1.0734 6.2232e-39 245.5 238.5 0 0 0 0.59017 0.31549 -0.74308 0.028143
-0.022947 -0.021288 1.0739 7.2835e-39 239.5 238 0 0 0 0.57001 0.32948 -0.75269 0.025833
0.032963 -0.020659 1.0739 5.9005e-39 227 239.5 0 0 0 -0.63592 0.10065 -0.76517 0.013577
0.034809 -0.020637 1.0727 5.8083e-39 228.5 239.5 0 0 0 -0.64567 0.058214 -0.76139 0.014052
-0.039839 -0.019997 1.072 6.8225e-39 241 239 0 0 0 0.6796 0.2296 -0.69672 0.053053
-0.029178 -0.01937 1.072 6.4767e-39 252 239.5 0 0 0 0.62694 0.29425 -0.72136 0.035467
-0.026886 -0.019166 1.0723 6.2386e-39 254.67 239.67 0 0 0 0.61562 0.29597 -0.73036 0.03147
-0.024832 -0.018775 1.0739 5.9005e-39 258 240 0 0 0 0.59422 0.3026 -0.74521 0.025538
0.032963 -0.018775 1.0739 6.9147e-39 215 241 0 0 0 -0.64607 0.095684 -0.75726 0.01224
0.034817 -0.018759 1.073 5.3012e-39 216.5 241 0 0 0 -0.65414 0.067319 -0.75337 0.013415
0.039177 -0.018742 1.072 5.2552e-39 220 241 0 0 0 -0.65915 0.032755 -0.7513 0.015685
-0.029197 -0.016872 1.0727 7.4909e-39 234.5 241.5 0 0 0 0.6327 0.27611 -0.7235 0.030725
-0.026704 -0.016883 1.0734 7.4679e-39 236.5 241.5 0 0 0 0.61782 0.27776 -0.73563 0.026328
0.032963 -0.017519 1.0739 4.241e-39 197 242 0 0 0 -0.65232 0.094261 -0.75206 0.011685
0.034832 -0.016883 1.0734 5.0016e-39 179 242.5 0 0 0 -0.65697 0.07164 -0.75051 0.012894
0.037504 -0.016652 1.072 6.2386e-39 174.67 242.67 0 0 0 -0.66578 0.050362 -0.74444 0.014647
0.039177 -0.016861 1.072 8.7123e-39 182.5 242.5 0 0 0 -0.66775 0.041723 -0.74321 0.016063
-0.029216 -0.014999 1.0734 5.7161e-39 214.5 243 0 0 0 0.63371 0.26847 -0.72549 0.028099
-0.026704 -0.014999 1.0734 6.0849e-39 216.5 243 0 0 0 0.62139 0.27176 -0.73486 0.025411
0.034847 -0.015006 1.0739 5.7161e-39 154.5 244 0 0 0 -0.66376 0.077425 -0.74392 0.012213
0.037295 -0.01498 1.072 5.7622e-39 156.5 244 0 0 0 -0.67504 0.055661 -0.73568 0.01522
0.039177 -0.01498 1.072 5.6239e-39 158 244 0 0 0 -0.67477 0.042509 -0.7368 0.016742
-0.029216 -0.013115 1.0734 6.8917e-39 214.5 244.5 0 0 0 0.64421 0.24685 -0.72392 0.025494
-0.027332 -0.013115 1.0734 6.9608e-39 216 244.5 0 0 0 0.62599 0.26187 -0.73455 0.025725
0.034847 -0.013121 1.0739 5.8083e-39 155.5 245.5 0 0 0 -0.67232 0.08441 -0.73543 0.012112
0.037295 -0.013098 1.072 5.3934e-39 157.5 245.5 0 0 0 -0.67898 0.057738 -0.73188 0.015582
0.039177 -0.013098 1.072 4.8864e-39 159 245.5 0 0 0 -0.67977 0.052307 -0.73155 0.016862
-0.029831 -0.011227 1.073 7.2835e-39 216 246 0 0 0 0.6525 0.23463 -0.72055 0.024551
-0.027344 -0.011237 1.0739 7.8366e-39 218 246 0 0 0 0.62379 0.2503 -0.74043 0.022195
0.034847 -0.011237 1.0739 5.4856e-39 156.5 247 0 0 0 -0.68041 0.091667 -0.72708 0.0095733
0.036668 -0.011217 1.072 4.9786e-39 187 247 0 0 0 -0.68112 0.069258 -0.72888 0.015253
0.039177 -0.011217 1.072 4.9786e-39 189 247 0 0 0 -0.68838 0.052213 -0.72347 0.017975
-0.029857 -0.009352 1.0739 8.3437e-39 221 247.5 0 0 0 0.64806 0.21653 -0.73016 0.020835
-0.027344 -0.0099802 1.0739 8.482e-39 222 247 0 0 0 0.62522 0.23836 -0.74315 0.019858
0.035057 -0.0095614 1.0739 5.2244e-39 165 248.33 0 0 0 -0.68659 0.095292 -0.72077 0.0093668
0.037086 -0.0091268 1.072 5.1015e-39 164.67 248.67 0 0 0 -0.68548 0.064705 -0.72521 0.016178
0.039177 -0.0093358 1.072 5.1169e-39 172.5 248.5 0 0 0 -0.69154 0.054212 -0.7203 0.018611
-0.032314 -0.0062003 1.072 7.3757e-39 212 250 0 0 0 0.7144 0.1384 -0.68591 0.021277
-0.03106 -0.0068274 1.072 7.8366e-39 214 249.5 0 0 0 0.6931 0.16737 -0.70114 0.021019
-0.029857 -0.0068392 1.0739 7.8827e-39 215 249.5 0 0 0 0.65576 0.18856 -0.73104 0.017416
0.037311 -0.0068304 1.0725 4.9555e-39 357 250 0 0 0 -0.70467 0.085059 -0.70442 0.011593
0.039177 -0.0068274 1.072 4.6098e-39 358.5 250 0 0 0 -0.70177 0.049067 -0.71072 0.019535
-0.032314 -0.004946 1.072 7.1913e-39 209 251 0 0 0 0.7244 0.11637 -0.67948 0.019982
-0.03106 -0.004946 1.072 7.1913e-39 210 251 0 0 0 0.70904 0.13716 -0.6917 0.020009
-0.029857 -0.0049546 1.0739 7.2835e-39 211 251 0 0 0 0.65889 0.17068 -0.73262 0.016541
0.037311 -0.0049481 1.0725 5.5317e-39 461.5 251 0 0 0 -0.71304 0.096201 -0.69449 0.009363
0.039177 -0.004946 1.072 5.7161e-39 463 251 0 0 0 -0.72063 0.073389 -0.68942 0.012395
-0.032955 -0.003066 1.0725 6.2233e-39 176.5 252.5 0 0 0 0.73261 0.10472 -0.67255 0.018823
-0.031073 -0.0030658 1.0725 6.1771e-39 178 252.5 0 0 0 0.71056 0.13017 -0.69149 0.017214
-0.029857 -0.0036982 1.0739 7.1913e-39 207 252 0 0 0 0.6672 0.16708 -0.7259 0.01395
0.037311 -0.003066 1.0725 6.7073e-39 446 252.5 0 0 0 -0.71803 0.089588 -0.69022 0.0098224
0.039177 -0.0036918 1.072 6.5459e-39 452 252 0 0 0 -0.72807 0.07676 -0.68119 0.01164
-0.032342 -0.0011844 1.073 5.7161e-39 141 254 0 0 0 0.73037 0.12666 -0.6712 0.012254
-0.031114 -0.0011854 1.0739 5.6239e-39 142 254 0 0 0 0.69878 0.16347 -0.69641 0.0087235
0.037327 -0.0011844 1.073 6.8686e-39 438.5 254 0 0 0 -0.72022 0.086469 -0.68833 0.0096423
-0.032342 0.00069855 1.073 4.1488e-39 568.5 254.5 0 0 0 0.72432 0.14305 -0.67446 0.0074633
-0.031114 0.00069918 1.0739 4.9785e-39 354.5 255 0 0 0 0.71399 0.15869 -0.68193 0.0075952
-0.029857 0.00069918 1.0739 4.8403e-39 355.5 255 0 0 0 0.70085 0.16457 -0.69406 0.0078726
0.037327 0.00069855 1.073 6.9608e-39 440 255.5 0 0 0 -0.72869 0.081345 -0.67999 0.0092612
-0.031114 0.0032119 1.0739 7.0991e-39 455 256.5 0 0 0 0.72653 0.14452 -0.67176 0.0075529
-0.02943 0.0034202 1.0736 7.5293e-39 455.67 256.67 0 0 0 0.71067 0.14936 -0.68749 0.0083766
0.037327 0.0025815 1.073 6.3615e-39 399 257 0 0 0 -0.74035 0.073753 -0.66816 0.0084722
-0.029216 0.0050943 1.0734 7.053e-39 430.5 258 0 0 0 0.71774 0.12728 -0.68458 0.0091635
-0.029805 0.0063419 1.072 7.0069e-39 429 259 0 0 0 0.74645 0.12322 -0.65393 0.0073589
0.051719 0.054002 1.072 5.6239e-39 225 287 0 0 0 0.89443 0.295 -0.33611 0.025477
0.053065 0.055353 1.0739 7.1913e-39 430 287 0 0 0 0.89142 0.27402 -0.36094 0.031274
0.055111 0.054886 1.073 6.8532e-39 364 287 0 0 0 0.88862 0.29008 -0.35525 0.028509
0.056809 0.054701 1.0734 6.3615e-39 331.5 287 0 0 0 0.88728 0.29183 -0.35716 0.028919
0.054322 0.057237 1.0739 6.3154e-39 326 288 0 0 0 0.88619 0.26665 -0.3789 0.031786
0.050552 0.071686 1.0739 1.1801e-38 389 293 0 0 0 0.85522 0.21759 -0.47037 0.02546
0.050508 0.072879 1.073 7.7444e-39 173 294 0 0 0 0.85614 0.22446 -0.46544 0.026159
0.050508 0.074761 1.073 5.9005e-39 376.5 294 0 0 0 0.85586 0.22523 -0.46558 0.026205
0.047956 0.077832 1.072 9.6805e-39 412 295 0 0 0 0.93885 0.1369 -0.31593 0.024648
0.05053 0.077307 1.0734 9.4499e-39 328.5 295 0 0 0 0.92388 0.1453 -0.35403 0.027897
0.048647 0.079189 1.0734 7.5601e-39 208.5 296 0 0 0 0.93842 0.112 -0.32685 0.026577
-0.04611 0.087866 1.072 1.1801e-38 371 298 0 0 0 -0.73594 0.44834 -0.50734 0.077302
-0.043602 0.087866 1.072 1.1893e-38 373 298 0 0 0 -0.75164 0.41547 -0.51227 0.070566
-0.04615 0.089198 1.073 2.3971e-39 568 298 0 0 0 -0.77991 0.41828 -0.46559 0.073038
-0.044856 0.08912 1.072 2.0283e-39 569 298 0 0 0 -0.76686 0.41459 -0.48994 0.067719
-0.043602 0.08912 1.072 1.9361e-39 570 298 0 0 0 -0.77293 0.39837 -0.49384 0.057628
-0.041165 0.095557 1.0739 1.0326e-38 395 300 0 0 0 -0.81871 0.30442 -0.48687 0.012759
0.050552 0.095557 1.0739 5.9005e-39 144 301 0 0 0 0.9428 -0.038834 -0.33108 0.015804
-0.041093 0.097273 1.072 7.2835e-39 194.5 301 0 0 0 -0.81635 0.29235 -0.4981 0.0096892
0.050942 0.097176 1.0733 1.0172e-38 287 301 0 0 0 0.94628 -0.025107 -0.32237 0.016097
-0.042421 0.098698 1.0739 1.0188e-38 317.5 301 0 0 0 -0.8261 0.29642 -0.47927 0.011128
0.051787 0.098655 1.0734 8.6663e-39 270 301.5 0 0 0 0.94726 -0.02303 -0.31963 0.017485
0.051764 0.1005 1.073 9.1274e-39 235 302 0 0 0 0.94641 0.00084826 -0.32298 0.020146
0.050508 0.11305 1.073 6.9147e-39 174 305 0 0 0 0.84268 0.16677 -0.51193 0.018078
-0.03672 0.11551 1.0725 9.7725e-39 245.5 305 0 0 0 -0.79879 0.29532 -0.52414 0.014182
0.047956 0.11546 1.072 1.1985e-38 390 305 0 0 0 0.79431 0.21479 -0.56828 0.013466
0.04921 0.11546 1.072 1.2078e-38 391 305 0 0 0 0.8008 0.21022 -0.56083 0.0139
0.05053 0.11498 1.0734 1.0694e-38 318 305 0 0 0 0.839 0.18986 -0.50993 0.018415
0.047956 0.11671 1.072 5.7161e-39 473 305 0 0 0 0.78122 0.23252 -0.57934 0.012479
0.049296 0.11692 1.0739 5.4395e-39 474 305 0 0 0 0.81147 0.23648 -0.53441 0.01594
0.032991 -0.025079 1.0748 8.021e-39 257 235 0 0 0 -0.625 0.10168 -0.77397 0.016042
0.032991 -0.023821 1.0748 7.9288e-39 261 236 0 0 0 -0.62752 0.091239 -0.77324 0.015473
-0.022967 -0.020049 1.0748 6.4537e-39 254.5 239 0 0 0 0.56736 0.32199 -0.75791 0.023572
-0.02109 -0.020686 1.0753 6.7303e-39 248.5 238.5 0 0 0 0.54375 0.33541 -0.76931 0.021726
0.031762 -0.020696 1.0758 5.8544e-39 226 239.5 0 0 0 -0.61762 0.13771 -0.77433 0.013783
-0.022977 -0.018799 1.0753 6.0388e-39 259.5 240 0 0 0 0.56715 0.31686 -0.76022 0.02211
0.031734 -0.018791 1.0748 7.8366e-39 214 241 0 0 0 -0.64122 0.12275 -0.75748 0.011844
-0.024864 -0.016913 1.0753 7.6061e-39 238 241.5 0 0 0 0.59415 0.28857 -0.75081 0.022713
-0.023616 -0.01692 1.0758 7.3296e-39 239 241.5 0 0 0 0.57975 0.29069 -0.76118 0.021282
0.031324 -0.01712 1.0751 4.6098e-39 182.67 242.33 0 0 0 -0.63329 0.12396 -0.76392 0.011701
0.032991 -0.016276 1.0748 5.4395e-39 158 243 0 0 0 -0.65306 0.10658 -0.74977 0.010806
-0.024875 -0.015032 1.0758 6.4537e-39 218 243 0 0 0 0.59444 0.27382 -0.75608 0.021292
0.031762 -0.015032 1.0758 5.4395e-39 152 244 0 0 0 -0.64517 0.11901 -0.75472 0.01058
0.032991 -0.015019 1.0748 5.5317e-39 153 244 0 0 0 -0.66051 0.10255 -0.74378 0.0097369
-0.026111 -0.013132 1.0748 7.1451e-39 217 244.5 0 0 0 0.611 0.25718 -0.74869 0.020576
0.031762 -0.013144 1.0758 5.6239e-39 153 245.5 0 0 0 -0.65337 0.11739 -0.74788 0.0091769
0.032991 -0.013132 1.0748 5.5778e-39 154 245.5 0 0 0 -0.66733 0.10258 -0.73766 0.0094809
-0.028626 -0.011246 1.0748 7.56e-39 217 246 0 0 0 0.62679 0.23678 -0.74234 0.020701
-0.026133 -0.011256 1.0758 8.1132e-39 219 246 0 0 0 0.61104 0.23989 -0.75437 0.018195
0.031762 -0.011256 1.0758 5.5317e-39 154 247 0 0 0 -0.65799 0.11179 -0.74468 0.0082731
0.032991 -0.011246 1.0748 5.5317e-39 155 247 0 0 0 -0.6748 0.10653 -0.73027 0.0082108
-0.028626 -0.0093601 1.0748 8.2515e-39 222 247.5 0 0 0 0.62985 0.22535 -0.74331 0.018071
-0.026545 -0.009156 1.0755 7.683e-39 224 247.67 0 0 0 0.61358 0.22872 -0.75579 0.016537
0.031762 -0.0099976 1.0758 5.5317e-39 154 248 0 0 0 -0.65702 0.10953 -0.74587 0.0084116
0.033005 -0.009364 1.0753 5.4856e-39 152 248.5 0 0 0 -0.67251 0.10906 -0.73201 0.0073947
0.034249 -0.0087314 1.0748 5.8083e-39 150 249 0 0 0 -0.68004 0.1097 -0.72493 0.007313
-0.028651 -0.0068512 1.0758 7.7905e-39 216 249.5 0 0 0 0.6301 0.19764 -0.75094 0.014633
-0.026751 -0.0068482 1.0753 7.6292e-39 217.5 249.5 0 0 0 0.62055 0.20621 -0.75657 0.01468
0.034892 -0.0068482 1.0753 4.5176e-39 568 249.5 0 0 0 -0.68776 0.10778 -0.7179 0.0068711
-0.028651 -0.0049633 1.0758 7.3757e-39 212 251 0 0 0 0.63776 0.18884 -0.74673 0.013142
-0.027392 -0.0049633 1.0758 7.56e-39 213 251 0 0 0 0.62642 0.19791 -0.75394 0.011718
0.035506 -0.004959 1.0748 5.5317e-39 460 251 0 0 0 -0.69154 0.11042 -0.71385 0.0072069
-0.029883 -0.002444 1.0748 5.6239e-39 194 253 0 0 0 0.67439 0.17481 -0.71739 0.0092431
0.035506 -0.0030727 1.0748 6.7764e-39 444.5 252.5 0 0 0 -0.69531 0.11229 -0.70989 0.007443
-0.029883 -0.0011865 1.0748 5.6239e-39 143 254 0 0 0 0.68302 0.18018 -0.70783 0.0082155
0.035537 -0.0011875 1.0758 6.6381e-39 437 254 0 0 0 -0.69531 0.11747 -0.70904 0.0072319
-0.028651 0.0013297 1.0758 5.9927e-39 143 256 0 0 0 0.67156 0.16372 -0.72264 0.01003
0.035537 0.00070039 1.0758 7.0991e-39 438.5 255.5 0 0 0 -0.70083 0.11209 -0.70447 0.006912
-0.028626 0.002586 1.0748 8.021e-39 465 256 0 0 0 0.68222 0.15106 -0.71537 0.010077
0.035537 0.0025883 1.0758 6.2693e-39 396 257 0 0 0 -0.70857 0.10113 -0.69836 0.00663
0.051899 0.055449 1.0758 6.7303e-39 429 287 0 0 0 0.8841 0.2582 -0.38949 0.037231
0.053111 0.057287 1.0748 6.4537e-39 325 288 0 0 0 0.88064 0.25436 -0.39972 0.03383
0.055626 0.057287 1.0748 6.131e-39 327 288 0 0 0 0.88321 0.2513 -0.39597 0.03495
0.056884 0.057287 1.0748 6.131e-39 328 288 0 0 0 0.88098 0.25612 -0.39784 0.035952
0.053158 0.059225 1.0758 7.6522e-39 223 289 0 0 0 0.87839 0.24541 -0.41013 0.030078
0.054998 0.059173 1.0748 7.6983e-39 224.5 289 0 0 0 0.88015 0.24285 -0.40788 0.030472
0.056884 0.059173 1.0748 6.9147e-39 226 289 0 0 0 0.88171 0.24066 -0.40579 0.031432
0.053158 0.061113 1.0758 8.2054e-39 312.5 289.5 0 0 0 0.87165 0.24127 -0.42663 0.028333
0.054836 0.060903 1.0758 8.6357e-39 348 289.33 0 0 0 0.87165 0.24127 -0.42663 0.028333
0.056933 0.060483 1.0758 8.2054e-39 418 289 0 0 0 0.87452 0.23768 -0.42275 0.029695
0.053158 0.063 1.0758 7.6522e-39 401 290 0 0 0 0.86468 0.23827 -0.44222 0.026269
0.055046 0.063 1.0758 7.4678e-39 402.5 290 0 0 0 0.86083 0.23985 -0.44883 0.026713
0.056933 0.063 1.0758 7.3757e-39 404 290 0 0 0 0.86234 0.22883 -0.45166 0.028232
0.058192 0.063 1.0758 7.4678e-39 405 290 0 0 0 0.86382 0.22207 -0.45222 0.028788
0.053111 0.064832 1.0748 7.9749e-39 282.5 291 0 0 0 0.86079 0.23148 -0.45328 0.025722
0.055046 0.064888 1.0758 8.3207e-39 284 291 0 0 0 0.85657 0.23741 -0.45817 0.025324
0.056933 0.064888 1.0758 8.4359e-39 287.5 291 0 0 0 0.85614 0.2332 -0.46114 0.026116
0.058192 0.064888 1.0758 8.2976e-39 288.5 291 0 0 0 0.8544 0.22835 -0.46675 0.026501
0.053111 0.067347 1.0748 6.131e-39 374 291.5 0 0 0 0.85573 0.22926 -0.46386 0.023993
0.054416 0.066776 1.0758 5.5317e-39 566 291 0 0 0 0.85665 0.2293 -0.46213 0.023579
0.053111 0.069233 1.0748 1.0142e-38 432 292 0 0 0 0.85434 0.22836 -0.46685 0.023471
0.054416 0.068664 1.0758 7.8829e-39 347.5 292 0 0 0 0.85434 0.22836 -0.46685 0.023471
0.053135 0.071151 1.0753 1.0418e-38 307 293 0 0 0 0.85445 0.22663 -0.4675 0.024313
0.054416 0.070552 1.0758 8.482e-39 224 293 0 0 0 0.85394 0.22198 -0.47065 0.024457
0.053158 0.073069 1.0758 8.2054e-39 175 294 0 0 0 0.85371 0.22538 -0.46945 0.025317
0.053158 0.074957 1.0758 5.7162e-39 378.5 294 0 0 0 0.85528 0.21862 -0.46979 0.025137
0.046824 0.080551 1.0748 1.1617e-38 379 296 0 0 0 0.94497 0.089811 -0.31458 0.027772
-0.044973 0.09061 1.0748 8.3898e-39 237 299 0 0 0 -0.83216 0.32241 -0.45118 0.040002
-0.043716 0.09061 1.0748 8.2054e-39 238 299 0 0 0 -0.81977 0.33457 -0.46479 0.036304
0.051854 0.09564 1.0748 5.8083e-39 147 301 0 0 0 0.94701 -0.032046 -0.3196 0.016386
0.053158 0.096982 1.0758 8.6664e-39 236 301 0 0 0 0.95145 -0.031193 -0.30623 0.017117
0.053158 0.098241 1.0758 1.0879e-38 394 301 0 0 0 0.95247 -0.02918 -0.30323 0.017446
-0.042458 0.10067 1.0748 5.8083e-39 149 302 0 0 0 -0.82857 0.29718 -0.47452 0.011144
-0.042495 0.10202 1.0758 8.482e-39 237 302 0 0 0 -0.83076 0.3021 -0.46752 0.011519
0.050596 0.11702 1.0748 5.6239e-39 475 305 0 0 0 0.81786 0.24111 -0.52246 0.017831
0.031817 -0.025144 1.0776 8.2976e-39 256 235 0 0 0 -0.5989 0.12318 -0.79129 0.01851
0.031387 -0.023037 1.0773 4.6098e-39 212.33 237.33 0 0 0 -0.60182 0.14345 -0.78564 0.017155
0.029282 -0.020723 1.0771 6.6841e-39 224 239.5 0 0 0 -0.59116 0.16525 -0.78944 0.016251
0.03053 -0.020714 1.0767 6.0849e-39 225 239.5 0 0 0 -0.59912 0.15199 -0.7861 0.01615
-0.021117 -0.018824 1.0767 6.3615e-39 261 240 0 0 0 0.54343 0.32206 -0.77522 0.020402
0.02927 -0.018824 1.0767 1.0326e-38 212 241 0 0 0 -0.59857 0.16095 -0.78474 0.014924
0.03053 -0.018824 1.0767 8.943e-39 213 241 0 0 0 -0.60844 0.14507 -0.78023 0.014739
-0.022387 -0.016941 1.0771 7.0991e-39 240 241.5 0 0 0 0.55719 0.30322 -0.77305 0.019902
-0.021136 -0.01758 1.0776 6.6381e-39 248 241 0 0 0 0.54562 0.31078 -0.77828 0.019365
0.029282 -0.016941 1.0771 4.3793e-39 174.5 242.5 0 0 0 -0.60009 0.15808 -0.78416 0.01419
0.03053 -0.016305 1.0767 5.9927e-39 156 243 0 0 0 -0.62004 0.1396 -0.77205 0.0124
-0.023017 -0.015051 1.0771 7.1452e-39 219.5 243 0 0 0 0.57398 0.2698 -0.77315 0.018182
0.030556 -0.015058 1.0776 5.3473e-39 151 244 0 0 0 -0.6165 0.13937 -0.77492 0.012106
-0.024897 -0.013155 1.0767 7.4679e-39 218 244.5 0 0 0 0.59222 0.25928 -0.76292 0.018317
-0.023647 -0.013161 1.0771 7.6983e-39 219 244.5 0 0 0 0.58056 0.2629 -0.77061 0.018296
0.030556 -0.013797 1.0776 5.4395e-39 152 245 0 0 0 -0.62117 0.13246 -0.7724 0.011748
-0.024907 -0.010641 1.0771 8.0671e-39 222 246.5 0 0 0 0.59114 0.23284 -0.77223 0.015202
-0.024918 -0.0087543 1.0776 7.6522e-39 226 248 0 0 0 0.59029 0.22208 -0.77604 0.014232
0.031789 -0.0087467 1.0767 5.5317e-39 148 249 0 0 0 -0.65255 0.11131 -0.74953 0.0087232
0.031817 -0.0074935 1.0776 4.702e-39 567 249 0 0 0 -0.6493 0.11044 -0.75247 0.008851
0.033049 -0.0068572 1.0767 4.8403e-39 566.5 249.5 0 0 0 -0.66492 0.11067 -0.73867 0.0075413
-0.026156 -0.0049676 1.0767 7.7444e-39 214 251 0 0 0 0.62028 0.20465 -0.75721 0.0094617
0.033078 -0.0049719 1.0776 5.9005e-39 458 251 0 0 0 -0.66028 0.12053 -0.74129 0.007596
0.034309 -0.0049676 1.0767 5.8083e-39 459 251 0 0 0 -0.67375 0.11758 -0.72954 0.0070573
-0.028676 -0.003078 1.0767 6.2693e-39 201.5 252.5 0 0 0 0.64837 0.19548 -0.7358 0.009013
-0.027012 -0.0032898 1.0773 6.5459e-39 205 252.33 0 0 0 0.62746 0.19779 -0.75311 0.0096902
0.033078 -0.0030808 1.0776 6.6381e-39 442.5 252.5 0 0 0 -0.66094 0.12927 -0.73922 0.0077393
0.034309 -0.003078 1.0767 6.6842e-39 443.5 252.5 0 0 0 -0.67801 0.12307 -0.72468 0.0072975
-0.028701 -0.0011896 1.0776 5.9005e-39 144 254 0 0 0 0.64778 0.18741 -0.73842 0.0096407
0.034339 -0.0011896 1.0776 6.1771e-39 436 254 0 0 0 -0.67847 0.12315 -0.72423 0.0076402
-0.028676 7.1138e-05 1.0767 3.6878e-39 570 254 0 0 0 0.65656 0.17868 -0.7328 0.0099172
-0.02744 0.001332 1.0776 5.9005e-39 144 256 0 0 0 0.63461 0.15858 -0.75638 0.013525
0.034324 0.000701 1.0771 7.0069e-39 437.5 255.5 0 0 0 -0.68604 0.11428 -0.71854 0.0075973
-0.02744 0.0032232 1.0776 7.8827e-39 459.5 256.5 0 0 0 0.63796 0.14212 -0.75684 0.015207
0.034309 0.0025905 1.0767 6.1771e-39 395 257 0 0 0 -0.69569 0.10085 -0.71122 0.007453
0.05199 0.056807 1.0776 6.5459e-39 224 288 0 0 0 0.87773 0.23933 -0.41511 0.03883
0.055723 0.061796 1.0767 8.8508e-39 212 290 0 0 0 0.86606 0.22643 -0.44573 0.028238
0.056983 0.061796 1.0767 8.8508e-39 213 290 0 0 0 0.86552 0.22039 -0.44978 0.029194
0.055723 0.066834 1.0767 3.8722e-39 567 291 0 0 0 0.85115 0.2247 -0.47439 0.023045
0.056983 0.066834 1.0767 2.4893e-39 568 291 0 0 0 0.84675 0.22214 -0.48339 0.024434
0.058243 0.066834 1.0767 1.9361e-39 569 291 0 0 0 0.84768 0.2164 -0.48437 0.02491
0.055748 0.068754 1.0771 7.6522e-39 348.5 292 0 0 0 0.8448 0.22949 -0.48338 0.024102
0.057008 0.068754 1.0771 7.5601e-39 349.5 292 0 0 0 0.84442 0.22676 -0.48531 0.024262
0.058243 0.068094 1.0767 5.4395e-39 265 292 0 0 0 0.84637 0.22128 -0.48445 0.023967
0.054464 0.071873 1.0767 1.217e-38 392 293 0 0 0 0.84617 0.22478 -0.48318 0.024884
0.054511 0.073197 1.0776 7.9288e-39 176 294 0 0 0 0.84537 0.23506 -0.47968 0.024855
0.051967 0.075054 1.0771 5.7162e-39 377.5 294 0 0 0 0.85523 0.21725 -0.47052 0.024759
0.054511 0.074457 1.0776 5.2552e-39 276 294 0 0 0 0.84879 0.22403 -0.47893 0.025178
0.05199 0.076979 1.0776 7.9288e-39 244 295 0 0 0 0.87459 0.18825 -0.44683 0.028463
0.053204 0.076912 1.0767 8.1132e-39 245 295 0 0 0 0.87443 0.18846 -0.44704 0.027405
0.050685 0.079431 1.0767 7.8366e-39 210 296 0 0 0 0.92283 0.125 -0.36435 0.031848
0.05325 0.07824 1.0776 1.0879e-38 416 295 0 0 0 0.90093 0.15547 -0.40516 0.030536
0.048795 0.080691 1.0767 1.1709e-38 380.5 296 0 0 0 0.93627 0.10184 -0.3362 0.031152
-0.04383 0.092108 1.0776 1.1985e-38 397 299 0 0 0 -0.84974 0.29076 -0.43977 0.022633
0.051359 0.09463 1.0776 1.134e-38 391.5 300 0 0 0 0.95322 -0.044135 -0.29904 0.017086
0.054511 0.097152 1.0776 8.482e-39 237 301 0 0 0 0.9566 -0.037747 -0.28893 0.017788
0.054511 0.098412 1.0776 1.0879e-38 395 301 0 0 0 0.96003 -0.02452 -0.2788 0.017776
0.029347 -0.025188 1.0795 7.6522e-39 254 235 0 0 0 -0.56737 0.1624 -0.80729 0.021039
0.030583 -0.025166 1.0786 8.2054e-39 255 235 0 0 0 -0.59174 0.15296 -0.79148 0.019208
0.029334 -0.023284 1.0791 5.4395e-39 222.5 237 0 0 0 -0.5695 0.17262 -0.80366 0.018924
0.030583 -0.023905 1.0786 7.56e-39 259 236 0 0 0 -0.59036 0.15812 -0.7915 0.018034
-0.019269 -0.020759 1.0791 6.1771e-39 250 238.5 0 0 0 0.51589 0.35511 -0.77959 0.01933
0.028059 -0.020119 1.0786 5.6239e-39 225 240 0 0 0 -0.56348 0.17784 -0.80676 0.0177
-0.019269 -0.018865 1.0791 6.6842e-39 353.5 240 0 0 0 0.51685 0.34021 -0.78557 0.018865
-0.017384 -0.018874 1.0795 6.9147e-39 446 240 0 0 0 0.50256 0.34361 -0.79332 0.01715
0.028059 -0.018857 1.0786 1.1617e-38 211 241 0 0 0 -0.56054 0.17771 -0.80883 0.017535
-0.021154 -0.016333 1.0786 7.0991e-39 234 242 0 0 0 0.5426 0.29522 -0.7864 0.01683
-0.01991 -0.017611 1.0795 6.5459e-39 249 241 0 0 0 0.53096 0.31207 -0.78784 0.016334
0.028059 -0.016964 1.0786 4.1949e-39 173.5 242.5 0 0 0 -0.56733 0.17719 -0.8042 0.016436
-0.021173 -0.015085 1.0795 7.7444e-39 221 243 0 0 0 0.54018 0.28722 -0.79102 0.015707
0.028703 -0.015078 1.0791 6.4998e-39 453.5 243 0 0 0 -0.58262 0.16128 -0.79658 0.014961
-0.022426 -0.013184 1.0791 7.9288e-39 220 244.5 0 0 0 0.55419 0.26335 -0.78963 0.016173
0.029347 -0.013191 1.0795 5.6239e-39 151 245.5 0 0 0 -0.59373 0.14139 -0.79215 0.013865
0.030583 -0.012548 1.0786 5.4395e-39 152 246 0 0 0 -0.61908 0.13049 -0.77441 0.011631
-0.023688 -0.01066 1.0791 7.8827e-39 223 246.5 0 0 0 0.57169 0.23762 -0.78531 0.014934
0.030583 -0.010655 1.0786 5.5778e-39 153 247.5 0 0 0 -0.62047 0.11841 -0.77524 0.01125
-0.023699 -0.0087696 1.0795 7.8366e-39 227 248 0 0 0 0.58131 0.22489 -0.78198 0.011966
