# .PCD v.7 - Point Cloud Data file format
VERSION .7
FIELDS x y z rgb u v vx vy vz normal_x normal_y normal_z curvature
SIZE 4 4 4 4 4 4 4 4 4 4 4 4 4
TYPE F F F F F F F F F F F F F
COUNT 1 1 1 1 1 1 1 1 1 1 1 1 1
WIDTH 547
HEIGHT 1
VIEWPOINT 0 0 0 1 0 0 0
POINTS 547
DATA ascii
0.24059 0.10937 0.88423 6.8839e-39 315.33 288 0 0 0 -0.44339 0.34939 -0.82543 0.0024768
0.23967 0.11096 0.88592 6.5459e-39 225 289 0 0 0 -0.44518 0.35607 -0.8216 0.0024612
0.24117 0.1112 0.88507 5.7469e-39 203.33 289.33 0 0 0 -0.44694 0.35296 -0.82199 0.0024126
0.24266 0.11144 0.88423 5.6239e-39 181.67 289.67 0 0 0 -0.44551 0.35253 -0.82295 0.0023588
0.241 0.11266 0.88571 7.222e-39 303 290 0 0 0 -0.44742 0.35798 -0.81955 0.0023236
0.24308 0.11345 0.88512 7.2835e-39 300 290.5 0 0 0 -0.44571 0.35913 -0.81998 0.0023712
0.24473 0.11351 0.88423 7.0069e-39 275.67 290.67 0 0 0 -0.43733 0.35808 -0.82493 0.0024765
0.24175 0.11459 0.88592 6.5459e-39 185 291.5 0 0 0 -0.44668 0.3611 -0.81858 0.0022638
0.24321 0.11507 0.8856 6.2232e-39 151.5 292 0 0 0 -0.44547 0.36297 -0.81842 0.002271
0.24525 0.11532 0.88486 6.2693e-39 227 292 0 0 0 -0.43704 0.36215 -0.82331 0.0023915
0.24691 0.11538 0.88402 7.0991e-39 264.25 292 0 0 0 -0.42744 0.35996 -0.82929 0.0025089
0.24347 0.11649 0.88592 7.56e-39 314 292.33 0 0 0 -0.44593 0.36221 -0.81851 0.0022416
0.24508 0.11678 0.88549 6.8532e-39 264 292.67 0 0 0 -0.44066 0.36362 -0.82073 0.0023098
0.24709 0.11701 0.88465 5.9927e-39 214.5 293 0 0 0 -0.42882 0.36278 -0.82735 0.0024614
0.24898 0.11744 0.88402 7.8366e-39 323 293 0 0 0 -0.41653 0.36082 -0.83445 0.0025022
0.25053 0.11796 0.88402 9.1274e-39 431 293 0 0 0 -0.40976 0.35949 -0.83837 0.0025362
0.24589 0.11874 0.88592 8.3437e-39 346.5 293.5 0 0 0 -0.43792 0.36336 -0.82231 0.002401
0.24727 0.11865 0.88528 8.2515e-39 348 293.5 0 0 0 -0.43095 0.36163 -0.82674 0.0025192
0.24905 0.11877 0.88486 7.5601e-39 323.33 293.67 0 0 0 -0.42052 0.36055 -0.83257 0.0024978
0.25071 0.11908 0.88465 6.2693e-39 272 294 0 0 0 -0.40947 0.36052 -0.83807 0.0024714
0.24744 0.12081 0.88592 7.1221e-39 308.5 295 0 0 0 -0.43409 0.35998 -0.82582 0.0025245
0.24943 0.12077 0.8856 7.099e-39 310.5 295 0 0 0 -0.42226 0.35891 -0.83239 0.0025006
0.25123 0.12064 0.88465 6.8456e-39 312.5 295 0 0 0 -0.41219 0.35619 -0.83858 0.0025054
0.2526 0.12107 0.88402 7.1913e-39 417 295 0 0 0 -0.40363 0.35342 -0.84391 0.002565
0.25101 0.12285 0.88571 5.9312e-39 214.5 296.5 0 0 0 -0.41818 0.35565 -0.83584 0.0024956
0.25326 0.12269 0.88449 5.8313e-39 217 296.5 0 0 0 -0.4049 0.35001 -0.84472 0.002571
0.25502 0.12279 0.88402 5.962e-39 206.33 296.67 0 0 0 -0.39785 0.3465 -0.8495 0.0024922
0.25107 0.12444 0.88592 9.6805e-39 380 297 0 0 0 -0.42279 0.35154 -0.83527 0.0024535
0.25283 0.1248 0.88554 8.5188e-39 319.8 297.4 0 0 0 -0.41546 0.34745 -0.84064 0.0024607
0.2551 0.1249 0.88478 7.6337e-39 291.2 297.6 0 0 0 -0.40498 0.34223 -0.84786 0.002487
0.25683 0.12473 0.88433 7.8827e-39 308.5 297.5 0 0 0 -0.39894 0.33699 -0.85281 0.0025506
0.25315 0.12703 0.88592 5.7161e-39 211.5 299 0 0 0 -0.41921 0.34653 -0.83916 0.0023759
0.25483 0.12683 0.88528 5.9927e-39 202.2 299 0 0 0 -0.41362 0.34141 -0.84402 0.0024201
0.2572 0.12698 0.8849 6.6012e-39 226.8 299 0 0 0 -0.40814 0.33146 -0.85062 0.0025031
0.25881 0.12727 0.88402 6.5459e-39 273 299 0 0 0 -0.40328 0.32533 -0.85529 0.0024309
0.25481 0.1289 0.88571 7.56e-39 262 300 0 0 0 -0.4222 0.34111 -0.83988 0.0023722
0.2569 0.12891 0.88528 7.7444e-39 277.2 300 0 0 0 -0.41599 0.3348 -0.84549 0.0024457
0.25912 0.12898 0.8844 7.8366e-39 323.4 300 0 0 0 -0.40721 0.32564 -0.85331 0.0024006
0.25522 0.13066 0.88592 6.5459e-39 233 301 0 0 0 -0.42646 0.34367 -0.83667 0.0023012
0.2566 0.131 0.88592 6.7303e-39 304 301 0 0 0 -0.4254 0.33893 -0.83914 0.0023909
0.25866 0.13108 0.88528 6.2002e-39 341.5 301 0 0 0 -0.41779 0.33272 -0.84543 0.0023645
0.26097 0.13094 0.88433 6.3154e-39 241 301.33 0 0 0 -0.40652 0.32407 -0.85424 0.0022809
0.25626 0.13273 0.88592 6.3615e-39 254 302 0 0 0 -0.43055 0.34409 -0.8344 0.0023612
0.2588 0.13322 0.88576 6.1771e-39 209 302.5 0 0 0 -0.42237 0.33751 -0.84124 0.0024268
0.26069 0.13313 0.88512 6.108e-39 211 302.5 0 0 0 -0.41633 0.3317 -0.84655 0.0023561
0.26289 0.13314 0.88452 6.4168e-39 203.8 302.6 0 0 0 -0.40559 0.32382 -0.85477 0.0022279
0.25937 0.1348 0.88592 8.7586e-39 369 303 0 0 0 -0.42443 0.3418 -0.83847 0.0023844
0.26078 0.13524 0.88544 7.514e-39 286.5 303.5 0 0 0 -0.41928 0.33769 -0.84272 0.002401
0.2628 0.13522 0.88528 7.1682e-39 288.5 303.5 0 0 0 -0.41117 0.33381 -0.84824 0.0023587
0.26445 0.13527 0.88444 6.7303e-39 262.33 303.67 0 0 0 -0.40466 0.32895 -0.85325 0.0022379
0.26109 0.13722 0.88592 6.0234e-39 361.67 304.33 0 0 0 -0.42311 0.34627 -0.8373 0.002361
0.2631 0.13719 0.88571 6.0234e-39 363.67 304.33 0 0 0 -0.41413 0.34319 -0.84304 0.0023703
0.26478 0.13724 0.88497 6.2693e-39 338 304.5 0 0 0 -0.40833 0.3379 -0.84799 0.0023567
0.26605 0.13761 0.88402 5.7161e-39 257 305 0 0 0 -0.40499 0.33561 -0.8505 0.0022813
0.26351 0.13947 0.88592 7.7905e-39 275.5 306 0 0 0 -0.41787 0.35246 -0.83735 0.0023713
0.26492 0.13939 0.88544 7.2604e-39 277 306 0 0 0 -0.41167 0.3488 -0.84194 0.0024102
0.26614 0.13921 0.88433 6.8224e-39 278.5 306 0 0 0 -0.40695 0.343 -0.84661 0.0023539
0.26507 0.14102 0.88592 6.3615e-39 221.5 307 0 0 0 -0.41387 0.35668 -0.83755 0.0023457
0.26652 0.14147 0.88444 6.0542e-39 368 307 0 0 0 -0.40822 0.35325 -0.84177 0.0024174
0.26507 0.14206 0.88592 6.1771e-39 438 307 0 0 0 -0.41583 0.35897 -0.8356 0.0023454
0.26685 0.14294 0.88497 5.3934e-39 270.5 308 0 0 0 -0.40961 0.35904 -0.83863 0.0023389
0.26873 0.14336 0.88433 6.0158e-39 220.5 308.5 0 0 0 -0.40346 0.3561 -0.84286 0.0023806
0.27019 0.14382 0.88402 6.1771e-39 170 309 0 0 0 -0.39918 0.35644 -0.84475 0.0023244
0.26725 0.14444 0.88571 6.8532e-39 234.33 309 0 0 0 -0.41103 0.36515 -0.8353 0.0024053
0.26892 0.14501 0.88497 7.2374e-39 372.5 309 0 0 0 -0.40538 0.3662 -0.83759 0.0023223
0.27075 0.14539 0.88418 6.7994e-39 282 309.5 0 0 0 -0.40042 0.36493 -0.84053 0.0022495
0.26766 0.14672 0.88592 6.1771e-39 292.5 310 0 0 0 -0.41174 0.37441 -0.83083 0.0023905
0.26907 0.14664 0.88544 6.2923e-39 294 310 0 0 0 -0.40685 0.37265 -0.83403 0.0023579
0.27099 0.14708 0.88497 6.4998e-39 402.5 310 0 0 0 -0.40277 0.37184 -0.83637 0.0021987
0.27277 0.14744 0.88402 6.3615e-39 317.5 310.5 0 0 0 -0.3976 0.36903 -0.84008 0.002121
0.26973 0.14828 0.88592 7.1913e-39 227 311 0 0 0 -0.40889 0.37859 -0.83035 0.0022655
0.27119 0.14874 0.8856 6.2463e-39 335.5 311 0 0 0 -0.40504 0.3777 -0.83263 0.0021898
0.27286 0.14879 0.88486 6.1156e-39 384.33 311 0 0 0 -0.40101 0.37538 -0.83563 0.0021539
0.27484 0.14899 0.88402 6.4076e-39 480.5 311 0 0 0 -0.39276 0.37203 -0.84103 0.0020393
0.2718 0.15087 0.88592 8.5743e-39 205.5 312.5 0 0 0 -0.4069 0.387 -0.82744 0.0021355
0.27316 0.15076 0.88528 8.1593e-39 208.25 312.5 0 0 0 -0.40326 0.38407 -0.83059 0.0021247
0.27504 0.15065 0.88465 8.2285e-39 211 312.5 0 0 0 -0.39491 0.38044 -0.83625 0.0021406
0.27378 0.15288 0.8856 7.514e-39 226.5 313.5 0 0 0 -0.40317 0.39314 -0.82638 0.0021629
0.27528 0.15286 0.88544 7.9978e-39 228 313.5 0 0 0 -0.39676 0.39222 -0.82991 0.0021425
0.27701 0.15266 0.88433 6.2002e-39 266.5 313.5 0 0 0 -0.38761 0.38769 -0.83633 0.0020911
0.27856 0.15266 0.88433 6.3615e-39 268 313.5 0 0 0 -0.38239 0.38531 -0.83983 0.0020752
0.2756 0.15484 0.88592 6.3e-39 303.67 314.33 0 0 0 -0.3978 0.39764 -0.82682 0.0020861
0.2772 0.15484 0.88497 6.2693e-39 275.5 314.5 0 0 0 -0.39142 0.39597 -0.83066 0.0020938
0.27922 0.15482 0.88481 6.4537e-39 277.5 314.5 0 0 0 -0.38238 0.39244 -0.83653 0.0021415
0.28105 0.1552 0.88402 6.592e-39 189.5 315 0 0 0 -0.37276 0.38725 -0.84326 0.0020687
0.28329 0.15485 0.88402 6.423e-39 251.67 314.67 0 0 0 -0.36038 0.37838 -0.85262 0.0018574
0.27731 0.15698 0.88528 6.7073e-39 285.5 315.5 0 0 0 -0.39442 0.40053 -0.82705 0.0020768
0.27948 0.15703 0.8856 6.8225e-39 287.5 315.5 0 0 0 -0.3887 0.39758 -0.83117 0.0021761
0.28109 0.15678 0.88418 6.6381e-39 291 315.5 0 0 0 -0.37559 0.39098 -0.84028 0.0021612
0.28326 0.15683 0.88449 6.7073e-39 293 315.5 0 0 0 -0.36916 0.38377 -0.84643 0.0020949
0.28467 0.15727 0.88402 7.6522e-39 208 316 0 0 0 -0.36054 0.37893 -0.8523 0.0019802
0.27699 0.15916 0.88592 6.7764e-39 302.5 316.5 0 0 0 -0.3985 0.40377 -0.82351 0.0020793
0.27875 0.15887 0.88576 6.5689e-39 347 316.25 0 0 0 -0.39455 0.40284 -0.82586 0.0020926
0.2811 0.15912 0.88516 7.3572e-39 291.6 316.6 0 0 0 -0.38582 0.39825 -0.83219 0.0022199
0.28321 0.15879 0.88486 6.6688e-39 344 316.33 0 0 0 -0.37596 0.39133 -0.83995 0.0022884
0.28453 0.1591 0.88465 6.9454e-39 285 316.67 0 0 0 -0.37057 0.38694 -0.84437 0.0022929
0.27802 0.16071 0.88592 5.5317e-39 415 317 0 0 0 -0.39718 0.40422 -0.82393 0.0020981
0.28072 0.16102 0.88571 6.8225e-39 355 317.33 0 0 0 -0.39179 0.40279 -0.8272 0.0021601
0.28268 0.16123 0.88592 6.9607e-39 327.5 317.5 0 0 0 -0.38674 0.40181 -0.83005 0.0022089
0.28482 0.16119 0.88516 7.3941e-39 312.8 317.6 0 0 0 -0.37372 0.3939 -0.83975 0.0023208
0.28715 0.1611 0.88423 8.9735e-39 302 317.67 0 0 0 -0.35966 0.38588 -0.84955 0.0023918
0.28542 0.16301 0.88528 7.1913e-39 356 318.33 0 0 0 -0.37606 0.39785 -0.83684 0.0024431
0.28727 0.16325 0.88503 7.8366e-39 306.8 318.6 0 0 0 -0.3662 0.39528 -0.84241 0.0025851
0.28922 0.16282 0.88423 7.0069e-39 362.67 318.33 0 0 0 -0.35042 0.38713 -0.85284 0.0027839
0.29059 0.16317 0.88423 7.9903e-39 297.67 318.67 0 0 0 -0.33815 0.38656 -0.85803 0.0031395
0.28528 0.16486 0.88592 5.6239e-39 415 319 0 0 0 -0.38052 0.40587 -0.83094 0.0023846
0.28678 0.16535 0.88576 8.2055e-39 318.5 319.5 0 0 0 -0.37393 0.40399 -0.83485 0.002642
0.2887 0.16526 0.88528 8.9892e-39 320.5 319.5 0 0 0 -0.36181 0.4006 -0.84179 0.0029687
0.29108 0.16514 0.88465 8.3129e-39 323 319.5 0 0 0 -0.34062 0.39433 -0.85351 0.0036407
0.28942 0.16745 0.88592 6.4537e-39 304.5 320.5 0 0 0 -0.36329 0.40568 -0.83872 0.0033289
0.29087 0.16739 0.8856 6.4767e-39 306.25 320.5 0 0 0 -0.34659 0.403 -0.84703 0.0041693
0.2929 0.16729 0.88452 7.2466e-39 288.6 320.6 0 0 0 -0.31404 0.40202 -0.86009 0.0056568
0.29098 0.16901 0.88592 7.0069e-39 358.5 321 0 0 0 -0.34825 0.40634 -0.84475 0.0045454
0.29294 0.16919 0.88507 6.9762e-39 298.33 321.33 0 0 0 -0.31592 0.40773 -0.85671 0.0062991
0.2947 0.16928 0.88465 6.7995e-39 269 321.5 0 0 0 -0.30063 0.40417 -0.86387 0.0065452
0.29604 0.16968 0.88402 6.3615e-39 177 322 0 0 0 -0.286 0.40131 -0.87015 0.0064988
0.31156 0.16968 0.88402 5.9927e-39 192 322 0 0 0 -0.078679 0.41037 -0.90852 0.0061091
0.29288 0.17073 0.88592 1.0633e-38 238.67 322 0 0 0 -0.32286 0.41245 -0.85185 0.0066282
0.29501 0.17126 0.88507 1.051e-38 328.33 322 0 0 0 -0.30343 0.41104 -0.85963 0.0069976
0.29646 0.17144 0.88423 8.0824e-39 397.67 322 0 0 0 -0.28975 0.40639 -0.86654 0.0068597
0.29862 0.17175 0.88402 5.9466e-39 480.5 322 0 0 0 -0.26823 0.4059 -0.87367 0.006872
0.31052 0.17175 0.88402 5.8083e-39 492 322 0 0 0 -0.10513 0.41859 -0.90207 0.0056215
0.312 0.17147 0.88528 8.1133e-39 214 322.5 0 0 0 -0.088378 0.42517 -0.90079 0.0054983
0.29357 0.17263 0.88592 8.4822e-39 324 322.5 0 0 0 -0.31694 0.41769 -0.85152 0.0072548
0.29488 0.17276 0.88571 9.5885e-39 288 322.67 0 0 0 -0.30957 0.41648 -0.85481 0.0072686
0.29688 0.17297 0.88497 1.1202e-38 215.5 323 0 0 0 -0.28983 0.41381 -0.863 0.0072524
0.2986 0.17321 0.88444 9.3116e-39 263 323 0 0 0 -0.27531 0.41188 -0.86865 0.0070971
0.30059 0.17351 0.88423 7.8366e-39 310.67 323 0 0 0 -0.24882 0.4095 -0.87773 0.0069389
0.30287 0.17336 0.88433 9.1733e-39 290 323 0 0 0 -0.21803 0.40975 -0.88576 0.00653
0.30443 0.17336 0.88433 9.1275e-39 291.5 323 0 0 0 -0.1998 0.41017 -0.88985 0.006473
0.30971 0.17394 0.88465 7.0069e-39 365 323 0 0 0 -0.1158 0.42235 -0.89901 0.0057043
0.31052 0.17278 0.88402 1.0234e-38 229 323 0 0 0 -0.10591 0.41846 -0.90204 0.0055488
0.3123 0.17342 0.88465 7.9749e-39 304.5 323 0 0 0 -0.079086 0.43124 -0.89876 0.005599
0.29513 0.17419 0.88592 7.3757e-39 350.5 323 0 0 0 -0.30863 0.41949 -0.85368 0.0075185
0.29709 0.17464 0.8856 6.7073e-39 246.5 323.5 0 0 0 -0.29474 0.41806 -0.85928 0.007444
0.2993 0.17479 0.88549 6.3922e-39 213.33 323.67 0 0 0 -0.2733 0.41955 -0.86561 0.0077794
0.30102 0.17503 0.88497 5.9466e-39 144.5 324 0 0 0 -0.24998 0.41916 -0.87282 0.0073399
0.3032 0.1751 0.88528 6.8225e-39 146.5 324 0 0 0 -0.21967 0.42468 -0.87829 0.0073212
0.30505 0.17497 0.88465 7.0991e-39 148.5 324 0 0 0 -0.19094 0.42086 -0.8868 0.0069035
0.30712 0.17497 0.88465 6.7303e-39 150.5 324 0 0 0 -0.15285 0.42318 -0.89306 0.006142
0.3093 0.17503 0.88497 6.5459e-39 152.5 324 0 0 0 -0.1136 0.42694 -0.89712 0.0056258
0.31108 0.17464 0.8856 7.053e-39 260 323.5 0 0 0 -0.088906 0.43016 -0.89836 0.0054971
0.29772 0.17626 0.88592 1.0971e-38 228 324 0 0 0 -0.28649 0.42331 -0.8595 0.0079909
0.29865 0.17672 0.8856 8.5745e-39 290.5 324 0 0 0 -0.27697 0.42734 -0.86062 0.0082833
0.30144 0.17656 0.88571 8.5435e-39 272.67 324 0 0 0 -0.24603 0.42893 -0.86919 0.0081552
0.30342 0.17626 0.88592 1.0418e-38 233.5 324 0 0 0 -0.22077 0.42861 -0.8761 0.0075236
0.30517 0.17652 0.88549 9.8341e-39 276.33 324 0 0 0 -0.1953 0.43042 -0.88125 0.0071985
0.30693 0.17671 0.8856 9.0813e-39 298.5 324 0 0 0 -0.16308 0.43578 -0.88515 0.006885
0.3087 0.17691 0.88571 8.2054e-39 320.67 324 0 0 0 -0.12724 0.43798 -0.88993 0.0060435
0.31015 0.17626 0.88592 1.0326e-38 240 324 0 0 0 -0.10257 0.43711 -0.89354 0.0056503
0.26545 0.065451 0.88719 5.9005e-39 384.5 263 0 0 0 -0.031026 -0.87484 -0.48343 0.0061462
0.26681 0.065404 0.88655 5.7161e-39 386 263 0 0 0 -0.041135 -0.87527 -0.48188 0.0061596
0.26908 0.065451 0.88719 5.839e-39 388 263 0 0 0 -0.04245 -0.88027 -0.47257 0.0065504
0.27096 0.065404 0.88655 5.8083e-39 390 263 0 0 0 -0.051193 -0.87896 -0.47413 0.0064379
0.27262 0.065427 0.88687 5.8083e-39 391.5 263 0 0 0 -0.047752 -0.88207 -0.46869 0.0063952
0.27447 0.065498 0.88783 5.9927e-39 393 263 0 0 0 -0.04481 -0.88716 -0.45928 0.0063103
0.27696 0.065475 0.88751 5.8544e-39 395.5 263 0 0 0 -0.039346 -0.88442 -0.46504 0.0065472
0.27904 0.065475 0.88751 6.592e-39 397.5 263 0 0 0 -0.033406 -0.8859 -0.46267 0.0069377
0.28112 0.065475 0.88751 7.8366e-39 399.5 263 0 0 0 -0.027909 -0.88564 -0.46353 0.0072408
0.28299 0.065427 0.88687 8.0671e-39 401.5 263 0 0 0 -0.021179 -0.87966 -0.47513 0.0075347
0.28496 0.065404 0.88655 7.7905e-39 403.5 263 0 0 0 -0.016748 -0.87645 -0.48121 0.0073175
0.28724 0.064413 0.88719 6.0388e-39 184.5 263 0 0 0 -0.018066 -0.8847 -0.46581 0.0070233
0.28943 0.064436 0.88751 5.8083e-39 186.5 263 0 0 0 -0.011962 -0.88796 -0.45977 0.0066613
0.29067 0.065404 0.88655 8.021e-39 419 263 0 0 0 -0.0034363 -0.87612 -0.48208 0.0063032
0.29264 0.065498 0.88783 6.4537e-39 439.5 263 0 0 0 4.7347e-05 -0.88692 -0.46193 0.005942
0.29472 0.065498 0.88783 6.3615e-39 441.5 263 0 0 0 0.011648 -0.88609 -0.46337 0.0054252
0.2968 0.065498 0.88783 6.0388e-39 443.5 263 0 0 0 0.026967 -0.88332 -0.468 0.0048746
0.29836 0.065498 0.88783 5.9005e-39 445 263 0 0 0 0.04122 -0.88372 -0.46621 0.0044364
0.30355 0.065498 0.88783 6.5459e-39 450 263 0 0 0 0.073904 -0.8815 -0.46637 0.0035538
0.30563 0.065498 0.88783 6.0849e-39 452 263 0 0 0 0.088351 -0.87978 -0.4671 0.0031506
0.30667 0.065498 0.88783 6.0849e-39 453 263 0 0 0 0.09079 -0.88032 -0.46562 0.0031511
0.22565 0.067575 0.88783 6.7303e-39 449 264 0 0 0 -0.29316 -0.74926 -0.59386 0.051205
0.22636 0.067478 0.88655 6.6381e-39 450 264 0 0 0 -0.27786 -0.74243 -0.60958 0.051559
0.23127 0.067551 0.88751 6.4998e-39 454.5 264 0 0 0 -0.19212 -0.78975 -0.58256 0.040216
0.23984 0.067478 0.88655 5.9927e-39 154 265 0 0 0 -0.072379 -0.83786 -0.54106 0.027476
0.24105 0.067527 0.88719 5.9005e-39 155 265 0 0 0 -0.055517 -0.85122 -0.52186 0.022409
0.24331 0.067575 0.88783 5.9927e-39 158 265 0 0 0 -0.04033 -0.86484 -0.50042 0.018056
0.24486 0.067575 0.88783 6.0388e-39 170.5 265 0 0 0 -0.037453 -0.86802 -0.49512 0.015923
0.24685 0.067551 0.88751 6.131e-39 184 265 0 0 0 -0.035035 -0.87126 -0.48958 0.014381
0.26153 0.067197 0.8874 6.2078e-39 226.33 264.67 0 0 0 -0.019276 -0.87268 -0.48791 0.0056341
0.26346 0.066513 0.88751 5.8083e-39 265.5 264 0 0 0 -0.02509 -0.87433 -0.48469 0.005954
0.26474 0.066441 0.88655 5.7161e-39 267 264 0 0 0 -0.029406 -0.8743 -0.4845 0.0059875
0.27459 0.066441 0.88655 7.7444e-39 369.5 264 0 0 0 -0.046224 -0.87942 -0.4738 0.0062424
0.27615 0.066441 0.88655 8.482e-39 371 264 0 0 0 -0.041317 -0.88082 -0.47164 0.0063667
0.27926 0.066441 0.88655 8.2054e-39 374 264 0 0 0 -0.031832 -0.87811 -0.4774 0.0068774
0.30312 0.066441 0.88655 5.8083e-39 391 264 0 0 0 0.072276 -0.87281 -0.48267 0.0034211
0.30467 0.066441 0.88655 6.0849e-39 392.5 264 0 0 0 0.081251 -0.87472 -0.47777 0.0030495
0.30623 0.066441 0.88655 6.2693e-39 394 264 0 0 0 0.086318 -0.87347 -0.47917 0.002986
0.30904 0.066489 0.88719 6.2232e-39 395.5 264 0 0 0 0.097017 -0.87677 -0.47102 0.0031071
0.31112 0.066489 0.88719 7.2835e-39 397.5 264 0 0 0 0.11157 -0.87811 -0.46527 0.0034842
0.31342 0.066537 0.88783 8.4359e-39 399.5 264 0 0 0 0.13974 -0.88273 -0.44862 0.0043375
0.31527 0.067007 0.88719 7.0068e-39 333.5 264.5 0 0 0 0.15335 -0.87283 -0.4633 0.0039408
0.31683 0.067527 0.88719 5.6239e-39 267 265 0 0 0 0.16092 -0.87148 -0.46327 0.0040773
0.2189 0.069653 0.88783 7.56e-39 218.5 266 0 0 0 -0.46428 -0.59989 -0.65159 0.066389
0.22097 0.069653 0.88783 7.8366e-39 220.5 266 0 0 0 -0.42709 -0.63252 -0.64616 0.06658
0.22237 0.068565 0.88719 7.4678e-39 377 265 0 0 0 -0.37672 -0.68555 -0.62298 0.057908
0.22429 0.068516 0.88655 6.2693e-39 379 265 0 0 0 -0.33085 -0.69976 -0.63315 0.057122
0.24711 0.068516 0.88655 8.2976e-39 401 265 0 0 0 -0.044373 -0.85866 -0.51063 0.019261
0.24907 0.068927 0.8874 7.4678e-39 353.33 265.33 0 0 0 -0.035374 -0.87082 -0.49033 0.014208
0.25092 0.069083 0.88719 6.9377e-39 330.5 265.5 0 0 0 -0.023722 -0.8768 -0.48027 0.010377
0.25308 0.069628 0.88751 5.9005e-39 262.5 266 0 0 0 -0.017287 -0.88272 -0.46958 0.0061272
0.25496 0.069273 0.8874 6.6381e-39 312.33 265.67 0 0 0 -0.012677 -0.88062 -0.47366 0.0057921
0.25744 0.06929 0.88762 5.9927e-39 323.33 265.67 0 0 0 -0.0089767 -0.87723 -0.47999 0.0056513
0.25922 0.069084 0.88719 6.3384e-39 353.5 265.5 0 0 0 -0.011646 -0.87541 -0.48324 0.0055557
0.26059 0.068516 0.88655 6.7303e-39 440 265 0 0 0 -0.013598 -0.87351 -0.48662 0.0054624
0.31764 0.068516 0.88655 6.4537e-39 197 266 0 0 0 0.15341 -0.86335 -0.48071 0.0035069
0.3189 0.068565 0.88719 6.2693e-39 198 266 0 0 0 0.18117 -0.86809 -0.46217 0.0043548
0.21866 0.071134 0.88687 5.9696e-39 353.5 266.5 0 0 0 -0.48913 -0.51615 -0.70309 0.066954
0.22054 0.070953 0.88676 5.8698e-39 384.33 266.33 0 0 0 -0.45421 -0.55456 -0.69726 0.068077
0.25281 0.07059 0.88655 6.3615e-39 191.5 267 0 0 0 -0.0389 -0.86784 -0.49532 0.012417
0.2554 0.07059 0.88655 6.2693e-39 194 267 0 0 0 -0.0067284 -0.88156 -0.47202 0.00597
0.25644 0.07059 0.88655 6.3615e-39 195 267 0 0 0 -0.0053602 -0.881 -0.47308 0.0057762
0.25955 0.07059 0.88655 6.2693e-39 198 267 0 0 0 -0.0094336 -0.87596 -0.48229 0.0057904
0.21694 0.073444 0.88762 7.1912e-39 328.67 268 0 0 0 -0.53211 -0.41368 -0.73874 0.068662
0.21806 0.072665 0.88655 6.4537e-39 196 268 0 0 0 -0.50356 -0.45757 -0.73284 0.065149
0.21526 0.075365 0.88783 5.9005e-39 234 269.5 0 0 0 -0.56004 -0.31074 -0.76798 0.062389
0.21658 0.075285 0.88687 6.0619e-39 235.5 269.5 0 0 0 -0.54707 -0.32168 -0.77281 0.061528
0.21511 0.077388 0.88719 6.7764e-39 403 270.5 0 0 0 -0.56365 -0.2302 -0.79329 0.058176
0.21658 0.07736 0.88687 6.8916e-39 404.5 270.5 0 0 0 -0.556 -0.22991 -0.79876 0.057424
0.21555 0.079435 0.88687 7.0299e-39 294.5 272 0 0 0 -0.55451 -0.12778 -0.82231 0.048691
0.21703 0.079406 0.88655 6.9146e-39 296 272 0 0 0 -0.54267 -0.13562 -0.82892 0.051185
0.21806 0.079925 0.88655 7.6522e-39 394 272 0 0 0 -0.53652 -0.11591 -0.83589 0.04995
0.21266 0.080559 0.88783 7.1452e-39 297 272.5 0 0 0 -0.58713 -0.083662 -0.80516 0.046102
0.21489 0.080775 0.88735 6.7764e-39 253.5 272.75 0 0 0 -0.56144 -0.076959 -0.82393 0.045094
0.21703 0.080962 0.88655 6.1771e-39 210 273 0 0 0 -0.53987 -0.065158 -0.83922 0.043718
0.21806 0.080962 0.88655 5.9927e-39 211 273 0 0 0 -0.52842 -0.075276 -0.84564 0.045922
0.20896 0.082607 0.88751 6.1771e-39 281 273.5 0 0 0 -0.58834 -0.02986 -0.80806 0.043434
0.21076 0.08281 0.88783 6.2078e-39 252 273.67 0 0 0 -0.57954 -0.020176 -0.8147 0.042246
0.21266 0.082637 0.88783 6.0849e-39 284.5 273.5 0 0 0 -0.57363 -0.021624 -0.81883 0.041515
0.21506 0.082558 0.88698 6.4844e-39 287 273.5 0 0 0 -0.55052 -0.011057 -0.83475 0.038666
0.21703 0.082519 0.88655 6.9147e-39 289 273.5 0 0 0 -0.53362 -0.0056724 -0.8457 0.037247
0.21806 0.082519 0.88655 7.1913e-39 290 273.5 0 0 0 -0.51967 -0.0078513 -0.85433 0.039094
0.20732 0.084653 0.88719 6.0619e-39 286 274.5 0 0 0 -0.56839 0.031362 -0.82216 0.042403
0.20888 0.084653 0.88719 6.4537e-39 287.5 274.5 0 0 0 -0.56001 0.042132 -0.82741 0.039692
0.21087 0.084598 0.8877 6.6381e-39 306.6 274.4 0 0 0 -0.56071 0.040754 -0.82701 0.0368
0.21283 0.084888 0.88783 6.3922e-39 262.33 274.67 0 0 0 -0.55083 0.060213 -0.83244 0.03525
0.2149 0.08455 0.88719 7.4494e-39 310.6 274.4 0 0 0 -0.53313 0.061729 -0.84378 0.032483
0.21683 0.084826 0.88719 7.0069e-39 266.33 274.67 0 0 0 -0.5181 0.081898 -0.85139 0.031099
0.21806 0.084592 0.88655 7.2835e-39 296.5 274.5 0 0 0 -0.49987 0.083396 -0.86208 0.029883
0.22014 0.084592 0.88655 7.3296e-39 298.5 274.5 0 0 0 -0.48587 0.083798 -0.87001 0.029093
0.2068 0.086729 0.88719 7.6522e-39 291.5 275.5 0 0 0 -0.54134 0.092378 -0.83571 0.041696
0.20903 0.086792 0.88783 7.2835e-39 293.5 275.5 0 0 0 -0.53414 0.10003 -0.83946 0.036227
0.21111 0.086272 0.88783 8.3898e-39 386 275 0 0 0 -0.53399 0.094514 -0.84019 0.033486
0.21249 0.086618 0.88783 7.7444e-39 327 275.33 0 0 0 -0.52858 0.11739 -0.84073 0.030827
0.2147 0.086776 0.88767 6.8455e-39 299 275.5 0 0 0 -0.51344 0.13367 -0.84765 0.027359
0.21666 0.086729 0.88719 6.569e-39 301 275.5 0 0 0 -0.49899 0.14373 -0.8546 0.025018
0.21862 0.086683 0.88671 6.1541e-39 304.5 275.5 0 0 0 -0.48286 0.15033 -0.8627 0.023137
0.22014 0.086668 0.88655 5.5778e-39 307.5 275.5 0 0 0 -0.47013 0.15646 -0.86862 0.021998
0.20687 0.088837 0.88751 6.7303e-39 286 276.5 0 0 0 -0.50712 0.15028 -0.84867 0.035568
0.21526 0.08835 0.88783 8.2054e-39 386 276 0 0 0 -0.49369 0.17214 -0.85243 0.02371
0.21682 0.088869 0.88783 7.0991e-39 295.5 276.5 0 0 0 -0.48054 0.19197 -0.8557 0.020723
0.21866 0.088773 0.88687 6.6381e-39 297.5 276.5 0 0 0 -0.46671 0.2062 -0.86004 0.017714
0.2203 0.088805 0.88719 6.8225e-39 299 276.5 0 0 0 -0.45029 0.2206 -0.8652 0.014881
0.21897 0.09073 0.8874 7.1298e-39 320.67 277.33 0 0 0 -0.44465 0.2416 -0.86251 0.013654
0.22073 0.090848 0.88687 6.6611e-39 290.5 277.5 0 0 0 -0.42877 0.25848 -0.86564 0.010959
0.21934 0.092991 0.88751 5.9928e-39 259 278.5 0 0 0 -0.42014 0.28781 -0.86061 0.0092667
0.22085 0.092974 0.88735 6.0158e-39 260.5 278.5 0 0 0 -0.41222 0.29597 -0.86167 0.0077623
0.22273 0.093409 0.88655 6.6842e-39 183.5 279 0 0 0 -0.40453 0.30913 -0.86069 0.0062992
0.21941 0.094582 0.88783 8.021e-39 369 279 0 0 0 -0.40491 0.31058 -0.85999 0.0073936
0.22093 0.095084 0.88767 6.9377e-39 281.5 279.5 0 0 0 -0.39895 0.32453 -0.85762 0.0059951
0.22273 0.094965 0.88655 6.6612e-39 283.5 279.5 0 0 0 -0.39758 0.3279 -0.85698 0.0052916
0.22429 0.094965 0.88655 6.9146e-39 285 279.5 0 0 0 -0.3996 0.32878 -0.8557 0.0050126
0.22114 0.097006 0.88783 7.5293e-39 320.33 280.33 0 0 0 -0.39138 0.34189 -0.85436 0.0050178
0.22289 0.097109 0.88719 7.3065e-39 293 280.5 0 0 0 -0.39556 0.34388 -0.85163 0.0045945
0.22484 0.097057 0.88671 7.053e-39 295 280.5 0 0 0 -0.40706 0.33698 -0.84897 0.0039403
0.22636 0.097558 0.88655 6.7303e-39 209 281 0 0 0 -0.41863 0.3335 -0.84471 0.0032483
0.22305 0.099257 0.88783 7.1221e-39 320 281.5 0 0 0 -0.401 0.35324 -0.84523 0.0037764
0.22501 0.099203 0.88735 6.8916e-39 322 281.5 0 0 0 -0.41346 0.34496 -0.84265 0.0031138
0.22692 0.099132 0.88671 6.9146e-39 324 281.5 0 0 0 -0.42369 0.3408 -0.83925 0.0027606
0.22878 0.099286 0.88655 7.4064e-39 298.67 281.67 0 0 0 -0.43134 0.33671 -0.837 0.0027342
0.22513 0.10081 0.88783 5.8083e-39 151.5 283 0 0 0 -0.41687 0.35059 -0.83863 0.002721
0.22704 0.10126 0.88719 6.5459e-39 269.5 283 0 0 0 -0.42799 0.34714 -0.83446 0.0025056
0.22903 0.10123 0.88687 6.8916e-39 271.5 283 0 0 0 -0.4356 0.34294 -0.83225 0.0025541
0.23051 0.10171 0.88655 8.2054e-39 389 283 0 0 0 -0.43986 0.34147 -0.83061 0.0025753
0.2331 0.10171 0.88655 7.7444e-39 391.5 283 0 0 0 -0.44208 0.33879 -0.83053 0.0026367
0.22738 0.10324 0.88783 7.3449e-39 295 284 0 0 0 -0.43244 0.352 -0.83012 0.0024922
0.2292 0.10338 0.88751 7.7214e-39 334.25 284 0 0 0 -0.43767 0.34929 -0.82852 0.0024564
0.23115 0.10332 0.88703 7.8365e-39 339 284 0 0 0 -0.4421 0.34604 -0.82753 0.002511
0.23318 0.1033 0.88687 7.8366e-39 342 284 0 0 0 -0.44351 0.34504 -0.82719 0.0026211
0.23466 0.10326 0.88655 7.9288e-39 343.5 284 0 0 0 -0.44188 0.3439 -0.82854 0.0027346
0.22928 0.10497 0.88783 7.8366e-39 366.5 285 0 0 0 -0.43854 0.35112 -0.82728 0.0024173
0.23127 0.10493 0.88751 7.9749e-39 368.5 285 0 0 0 -0.44194 0.35038 -0.82579 0.0024914
0.2331 0.10524 0.88719 7.3142e-39 316.67 285.33 0 0 0 -0.44423 0.35024 -0.82462 0.0025383
0.23541 0.10519 0.88676 7.2527e-39 319 285.33 0 0 0 -0.44209 0.34967 -0.82601 0.0026284
0.23153 0.10636 0.88783 6.2386e-39 275.33 286 0 0 0 -0.44313 0.35168 -0.82459 0.0025355
0.23361 0.1067 0.88783 6.4844e-39 346.33 286 0 0 0 -0.44347 0.35383 -0.82349 0.0025391
0.23523 0.10665 0.8874 7.5908e-39 348 286 0 0 0 -0.44314 0.35373 -0.82372 0.0025127
0.23673 0.10741 0.88655 8.0671e-39 336 286.5 0 0 0 -0.44214 0.35313 -0.82451 0.0025738
0.23188 0.10809 0.88783 7.4678e-39 248 287 0 0 0 -0.44194 0.35325 -0.82456 0.002584
0.23327 0.10843 0.88783 6.9762e-39 220 287.33 0 0 0 -0.4435 0.35416 -0.82333 0.0025488
0.23543 0.10857 0.88751 6.9146e-39 208 287.5 0 0 0 -0.44279 0.35541 -0.82318 0.002539
0.23733 0.10952 0.88687 6.8225e-39 273.5 288 0 0 0 -0.4453 0.3549 -0.82204 0.0025147
0.23676 0.11074 0.88745 7.0069e-39 285.4 288.6 0 0 0 -0.44475 0.35762 -0.82116 0.0025077
0.23881 0.11104 0.88655 6.6381e-39 224 289 0 0 0 -0.4462 0.35561 -0.82125 0.0024249
0.23751 0.11272 0.88751 7.9749e-39 331.75 289.75 0 0 0 -0.44414 0.35981 -0.82053 0.0024328
0.23937 0.11262 0.88671 6.9838e-39 263 290 0 0 0 -0.44658 0.3591 -0.81952 0.0023709
0.23794 0.11424 0.88719 6.1771e-39 216 291 0 0 0 -0.44375 0.36079 -0.82031 0.002413
0.23869 0.11496 0.8874 8.2669e-39 359.33 291 0 0 0 -0.44568 0.36088 -0.81923 0.0023467
0.24049 0.11473 0.88703 8.0902e-39 325.5 291 0 0 0 -0.44749 0.3618 -0.81784 0.0022485
0.2388 0.11674 0.88783 6.5152e-39 249 292.33 0 0 0 -0.44346 0.36165 -0.82009 0.0023399
0.24103 0.11682 0.88708 7.0222e-39 270.5 292.5 0 0 0 -0.44794 0.36307 -0.81702 0.0022164
0.24296 0.11727 0.88655 6.9147e-39 210 293 0 0 0 -0.44715 0.36344 -0.81729 0.0022061
0.24088 0.11882 0.88783 6.9147e-39 367.67 293.33 0 0 0 -0.44593 0.36128 -0.81892 0.0022678
0.24307 0.11888 0.88698 7.6062e-39 343.5 293.5 0 0 0 -0.44585 0.36197 -0.81865 0.0022609
0.24503 0.11882 0.88655 8.0672e-39 345.5 293.5 0 0 0 -0.44243 0.36347 -0.81985 0.0023146
0.2427 0.12103 0.88751 6.6842e-39 303.5 295 0 0 0 -0.4449 0.35947 -0.82027 0.0023586
0.24469 0.12098 0.88719 6.9607e-39 305.5 295 0 0 0 -0.44501 0.35924 -0.82031 0.0023659
0.24607 0.12089 0.88655 7.2835e-39 307 295 0 0 0 -0.44095 0.36119 -0.82165 0.0024046
0.24331 0.12315 0.88783 6.1771e-39 206.5 296.5 0 0 0 -0.44334 0.35506 -0.82303 0.0024093
0.24473 0.12308 0.88735 5.9696e-39 208 296.5 0 0 0 -0.44419 0.35736 -0.82158 0.0024067
0.24663 0.12299 0.88671 6.2232e-39 210 296.5 0 0 0 -0.44025 0.35822 -0.82332 0.0024781
0.24866 0.12297 0.88655 6.3384e-39 212 296.5 0 0 0 -0.43267 0.35796 -0.82744 0.0025107
0.24463 0.12502 0.88762 8.8817e-39 321.67 297.33 0 0 0 -0.44183 0.35105 -0.82556 0.0024336
0.24676 0.12514 0.88719 8.2283e-39 298 297.5 0 0 0 -0.44006 0.35251 -0.82588 0.0024491
0.2488 0.12511 0.88703 8.4588e-39 300 297.5 0 0 0 -0.43409 0.35178 -0.82935 0.0023983
0.25056 0.12522 0.88655 7.8366e-39 276 297.67 0 0 0 -0.42684 0.35117 -0.83336 0.0023969
0.2469 0.12728 0.88767 6.4306e-39 275.25 298.75 0 0 0 -0.43703 0.34751 -0.8296 0.00239
0.24889 0.12723 0.88735 6.2002e-39 207 299 0 0 0 -0.43314 0.35076 -0.83027 0.0023361
0.25082 0.12717 0.88687 5.67e-39 209 299 0 0 0 -0.42855 0.35074 -0.83266 0.0022863
0.25229 0.12712 0.88655 5.5778e-39 210.5 299 0 0 0 -0.42436 0.34779 -0.83604 0.0023227
0.24746 0.12886 0.88783 5.7161e-39 189 300 0 0 0 -0.43491 0.34561 -0.83151 0.0022881
0.24919 0.12921 0.88783 7.2527e-39 256 300 0 0 0 -0.43083 0.34964 -0.83195 0.0022745
0.25091 0.12929 0.88719 8.2054e-39 290.5 300 0 0 0 -0.42898 0.35011 -0.8327 0.0022397
0.25281 0.12919 0.88655 7.9749e-39 292.5 300 0 0 0 -0.42708 0.34846 -0.83437 0.002262
0.25437 0.12971 0.88655 9.7727e-39 392 300 0 0 0 -0.42546 0.34434 -0.83691 0.002311
0.25121 0.13125 0.88762 5.9312e-39 294.67 301 0 0 0 -0.42962 0.34959 -0.8326 0.0022135
0.25299 0.13136 0.88719 5.7622e-39 329.5 301 0 0 0 -0.43005 0.34976 -0.8323 0.0022366
0.25471 0.13144 0.88655 6.2693e-39 371.33 301 0 0 0 -0.42895 0.3469 -0.83407 0.0023356
0.25748 0.13179 0.88655 6.6381e-39 444 301 0 0 0 -0.42596 0.33988 -0.83847 0.0024235
0.25162 0.13301 0.88783 6.4537e-39 249 302 0 0 0 -0.42858 0.3502 -0.83287 0.0022545
0.25316 0.13327 0.88719 5.9005e-39 219 302.33 0 0 0 -0.43121 0.3504 -0.83143 0.0022543
0.25498 0.13339 0.88687 5.9005e-39 205 302.5 0 0 0 -0.43297 0.34895 -0.83113 0.0023091
0.25713 0.13351 0.88655 5.9005e-39 191.33 302.67 0 0 0 -0.43092 0.34603 -0.83341 0.0023808
0.25162 0.13405 0.88783 6.3615e-39 154 303 0 0 0 -0.42836 0.35015 -0.83301 0.0022683
0.25294 0.13471 0.88762 8.1439e-39 293.33 303 0 0 0 -0.43046 0.3514 -0.8314 0.0023117
0.25507 0.135 0.88719 9.2657e-39 364.5 303 0 0 0 -0.43347 0.35106 -0.82998 0.0023291
0.25679 0.13525 0.88655 8.6971e-39 310.33 303.33 0 0 0 -0.43501 0.35107 -0.82916 0.0023712
0.25886 0.13559 0.88655 7.6523e-39 256.33 303.67 0 0 0 -0.43035 0.34772 -0.833 0.002389
0.25317 0.13665 0.88783 6.3154e-39 301.5 304 0 0 0 -0.4297 0.35404 -0.83067 0.0023323
0.25516 0.1366 0.88751 6.4306e-39 303.5 304 0 0 0 -0.43428 0.35358 -0.82848 0.0023416
0.25725 0.13669 0.88698 6.7303e-39 341.33 304 0 0 0 -0.43598 0.35271 -0.82796 0.0023009
0.25903 0.13697 0.88655 6.2232e-39 414.5 304 0 0 0 -0.43234 0.35137 -0.83043 0.0022745
0.25369 0.13873 0.88783 5.8083e-39 198 305.5 0 0 0 -0.42951 0.35637 -0.82977 0.0023115
0.25542 0.13856 0.88783 5.9312e-39 216 305.33 0 0 0 -0.43408 0.35684 -0.82719 0.0023067
0.25719 0.13865 0.88735 6.4306e-39 203.5 305.5 0 0 0 -0.43652 0.35756 -0.82559 0.0022902
0.25917 0.1386 0.88703 6.3615e-39 205.5 305.5 0 0 0 -0.43341 0.35748 -0.82726 0.0022944
0.26094 0.1387 0.88655 5.962e-39 192.67 305.67 0 0 0 -0.42803 0.35377 -0.83165 0.002313
0.26266 0.13853 0.88655 6.4076e-39 209.5 305.5 0 0 0 -0.4229 0.35019 -0.83578 0.002351
0.2575 0.14063 0.88783 8.8201e-39 323 306.33 0 0 0 -0.43547 0.36197 -0.82422 0.0023281
0.25932 0.14075 0.88751 8.2515e-39 297.5 306.5 0 0 0 -0.43459 0.36232 -0.82453 0.0022602
0.26125 0.14068 0.88703 8.2515e-39 299.5 306.5 0 0 0 -0.42979 0.36181 -0.82727 0.0022527
0.26307 0.14081 0.88676 7.6522e-39 274 306.67 0 0 0 -0.42301 0.36018 -0.83146 0.0022928
0.25941 0.14236 0.88783 5.3012e-39 425.5 307 0 0 0 -0.43432 0.36493 -0.82353 0.0022152
0.26148 0.14236 0.88783 5.7161e-39 427.5 307 0 0 0 -0.43051 0.36531 -0.82536 0.0022355
0.26337 0.14278 0.88719 6.0619e-39 351 307.5 0 0 0 -0.42561 0.36431 -0.82833 0.0022463
0.26526 0.1432 0.88655 5.5778e-39 268.5 308 0 0 0 -0.41639 0.36393 -0.83317 0.0022998
0.26346 0.14439 0.88751 5.4856e-39 162.5 309 0 0 0 -0.425 0.37014 -0.82606 0.0021718
0.2651 0.14494 0.88706 7.8919e-39 286 309 0 0 0 -0.41768 0.37146 -0.82919 0.0022571
0.26681 0.14527 0.88655 8.1132e-39 369 309 0 0 0 -0.41428 0.37145 -0.8309 0.0023248
0.26521 0.14687 0.88745 6.4168e-39 268.4 310 0 0 0 -0.4184 0.37824 -0.82576 0.0021814
0.26681 0.14683 0.88655 6.4537e-39 291.5 310 0 0 0 -0.41543 0.37681 -0.82791 0.0022716
0.26512 0.1486 0.88783 6.3615e-39 222 311 0 0 0 -0.41925 0.3831 -0.82308 0.0021773
0.26705 0.14877 0.88735 6.3615e-39 277.5 311 0 0 0 -0.41527 0.38303 -0.82513 0.0022334
0.26893 0.14919 0.88671 5.9235e-39 386.5 311 0 0 0 -0.41118 0.38367 -0.82688 0.0022191
0.2672 0.15067 0.88783 7.1913e-39 257 312 0 0 0 -0.41429 0.38945 -0.82261 0.002152
0.26887 0.15098 0.88719 7.5785e-39 213.6 312.4 0 0 0 -0.41138 0.38937 -0.82411 0.0021168
0.27068 0.15118 0.88676 7.7753e-39 185.33 312.67 0 0 0 -0.40861 0.38948 -0.82543 0.0020622
0.26927 0.15327 0.88783 8.9428e-39 221.5 313.5 0 0 0 -0.4117 0.39566 -0.82095 0.001996
0.27074 0.15321 0.88751 8.4128e-39 223 313.5 0 0 0 -0.40953 0.39664 -0.82156 0.0020046
0.27252 0.15305 0.88655 8.2515e-39 225 313.5 0 0 0 -0.40568 0.39479 -0.82435 0.0020374
0.271 0.15518 0.88783 6.4537e-39 298.67 314.33 0 0 0 -0.40884 0.39854 -0.82099 0.001959
0.27271 0.15523 0.88719 6.615e-39 270.5 314.5 0 0 0 -0.40696 0.39948 -0.82147 0.0020071
0.27442 0.1553 0.88655 6.2693e-39 242.33 314.67 0 0 0 -0.40273 0.40004 -0.82327 0.0020236
0.27291 0.15743 0.88783 6.6151e-39 280.5 315.5 0 0 0 -0.40573 0.40084 -0.8214 0.0020287
0.27459 0.1572 0.88655 6.6151e-39 282.5 315.5 0 0 0 -0.40148 0.40227 -0.8228 0.0020234
0.27615 0.1572 0.88655 6.4537e-39 284 315.5 0 0 0 -0.39953 0.40211 -0.82383 0.0020813
0.27291 0.15898 0.88783 6.9608e-39 383.5 316 0 0 0 -0.40398 0.40185 -0.82178 0.0020687
0.27479 0.15939 0.88719 6.4076e-39 300 316.5 0 0 0 -0.40101 0.40348 -0.82243 0.0020796
0.27625 0.15933 0.88687 6.9608e-39 301.5 316.5 0 0 0 -0.39987 0.40394 -0.82276 0.0021046
0.27926 0.15979 0.88655 7.0069e-39 219 317 0 0 0 -0.39456 0.40431 -0.82514 0.0020825
0.27499 0.16106 0.88783 6.2232e-39 411.5 317 0 0 0 -0.40005 0.40249 -0.82338 0.0022043
0.27703 0.16129 0.88719 6.3922e-39 350.67 317.33 0 0 0 -0.39911 0.403 -0.82359 0.0021587
0.27898 0.16156 0.88676 6.9454e-39 289.67 317.67 0 0 0 -0.39535 0.40362 -0.8251 0.0021084
0.2803 0.16187 0.88655 8.2054e-39 228 318 0 0 0 -0.39436 0.40453 -0.82513 0.0021656
0.27758 0.16314 0.88783 6.4537e-39 412 318 0 0 0 -0.39708 0.40426 -0.82396 0.0022666
0.27884 0.16296 0.88687 5.8544e-39 413.5 318 0 0 0 -0.39523 0.4046 -0.82468 0.0021706
0.28105 0.16329 0.88676 6.761e-39 350.67 318.33 0 0 0 -0.39249 0.40534 -0.82562 0.0021812
0.28289 0.16342 0.88655 7.8827e-39 320 318.5 0 0 0 -0.38998 0.40474 -0.8271 0.0022023
0.28445 0.16342 0.88655 8.021e-39 321.5 318.5 0 0 0 -0.38498 0.40376 -0.82992 0.0022318
0.2789 0.16449 0.88762 7.0376e-39 281 319 0 0 0 -0.39512 0.40393 -0.82506 0.0023858
0.28112 0.16464 0.88751 6.9607e-39 315 319 0 0 0 -0.39224 0.40706 -0.82489 0.0022397
0.28309 0.1651 0.88719 6.2232e-39 411.5 319 0 0 0 -0.38989 0.40724 -0.82592 0.0022451
0.28465 0.1651 0.88719 5.7161e-39 414 319 0 0 0 -0.38648 0.40659 -0.82784 0.0023539
0.28174 0.16625 0.88783 7.8366e-39 215 320 0 0 0 -0.39178 0.40753 -0.82488 0.0024542
0.28325 0.16674 0.88767 7.3987e-39 305.75 320 0 0 0 -0.38896 0.40692 -0.82651 0.0024631
0.28512 0.16662 0.88703 7.3526e-39 310.5 320 0 0 0 -0.38451 0.40894 -0.8276 0.0024197
0.28704 0.16705 0.88655 6.5459e-39 404.5 320 0 0 0 -0.37654 0.40814 -0.83165 0.002703
0.28859 0.16705 0.88655 6.7303e-39 406 320 0 0 0 -0.37067 0.4056 -0.83552 0.0030185
0.28548 0.16864 0.88762 6.761e-39 249.33 321 0 0 0 -0.38262 0.41008 -0.82791 0.002742
0.28719 0.1687 0.88703 7.0299e-39 277 321 0 0 0 -0.37855 0.40997 -0.82984 0.0028272
0.28901 0.16882 0.88676 7.0376e-39 304.67 321 0 0 0 -0.37177 0.40806 -0.83383 0.0031408
0.28589 0.17041 0.88783 5.5317e-39 166 322 0 0 0 -0.38357 0.40975 -0.82763 0.002953
0.2874 0.1709 0.88767 9.1967e-39 216.5 322 0 0 0 -0.37934 0.40996 -0.82948 0.0030351
0.28937 0.17084 0.88735 9.7034e-39 218.5 322 0 0 0 -0.3722 0.41113 -0.83213 0.0033528
0.29119 0.17068 0.88655 9.7496e-39 220.5 322 0 0 0 -0.34904 0.4129 -0.84124 0.0048253
0.28797 0.173 0.88783 8.6204e-39 318 322.5 0 0 0 -0.37541 0.41149 -0.83051 0.0033182
0.28943 0.17294 0.88751 8.113e-39 319.5 322.5 0 0 0 -0.36985 0.4135 -0.832 0.0034874
0.29129 0.17282 0.88687 8.2056e-39 321.5 322.5 0 0 0 -0.3468 0.41718 -0.84005 0.0052461
0.29274 0.17276 0.88655 8.39e-39 323 322.5 0 0 0 -0.32287 0.41934 -0.84847 0.0070635
0.29117 0.1749 0.88745 5.7899e-39 403.4 323 0 0 0 -0.34773 0.41824 -0.83914 0.005368
0.29331 0.17486 0.88671 6.4306e-39 331.25 323.25 0 0 0 -0.32325 0.41943 -0.84828 0.0073295
0.29533 0.17535 0.88655 6.7764e-39 138.5 324 0 0 0 -0.31034 0.41965 -0.85299 0.007735
0.31256 0.17489 0.88687 6.7764e-39 266.5 323.5 0 0 0 -0.060436 0.43871 -0.8966 0.0054396
0.29306 0.17684 0.88751 8.2054e-39 253.75 324 0 0 0 -0.32987 0.4199 -0.8455 0.0072201
0.29497 0.177 0.88703 7.6061e-39 286.5 324 0 0 0 -0.31159 0.42105 -0.85184 0.0080848
0.297 0.17723 0.88687 8.0442e-39 319.25 324 0 0 0 -0.29505 0.42599 -0.85527 0.0082606
0.30035 0.17708 0.88655 7.6523e-39 312.33 324 0 0 0 -0.26351 0.42971 -0.86366 0.008504
0.30312 0.17742 0.88655 7.0069e-39 356 324 0 0 0 -0.23125 0.43465 -0.87041 0.008456
0.30415 0.17742 0.88655 6.5459e-39 357 324 0 0 0 -0.211 0.43707 -0.87433 0.0079783
0.31114 0.17712 0.88676 7.8981e-39 322.67 324 0 0 0 -0.077255 0.44272 -0.89333 0.0055031
0.29472 0.17872 0.88783 6.3154e-39 484.5 324 0 0 0 -0.30993 0.42365 -0.85115 0.0085765
0.29669 0.17917 0.88751 8.5742e-39 348 324.5 0 0 0 -0.29204 0.43099 -0.85379 0.0087244
0.29856 0.17904 0.88687 9.0813e-39 350 324.5 0 0 0 -0.27586 0.43465 -0.85731 0.008821
0.30074 0.17911 0.88719 8.7355e-39 352 324.5 0 0 0 -0.25766 0.43825 -0.86113 0.0094931
0.30265 0.17901 0.88671 8.2975e-39 176.5 325 0 0 0 -0.23337 0.43875 -0.86777 0.0091646
0.30467 0.17898 0.88655 7.6292e-39 178.5 325 0 0 0 -0.19936 0.4417 -0.87473 0.0085446
0.30674 0.17898 0.88655 8.2284e-39 180.5 325 0 0 0 -0.1582 0.44258 -0.88266 0.0071897
0.30888 0.17901 0.88671 7.4678e-39 182.5 325 0 0 0 -0.12169 0.44315 -0.88815 0.0064192
0.31038 0.17846 0.88655 6.1771e-39 145 325 0 0 0 -0.093412 0.44414 -0.89107 0.0056261
0.29628 0.1808 0.88783 1.2262e-38 277 325 0 0 0 -0.29516 0.43064 -0.85289 0.0093047
0.29891 0.18106 0.8874 8.0825e-39 306.33 325 0 0 0 -0.26869 0.43602 -0.85889 0.010005
0.3009 0.18128 0.88767 6.9839e-39 321.5 325 0 0 0 -0.25393 0.43866 -0.86203 0.010516
0.30287 0.18122 0.88735 6.8917e-39 323.5 325 0 0 0 -0.2276 0.44062 -0.86836 0.010373
0.30483 0.18115 0.88703 6.8456e-39 325.5 325 0 0 0 -0.19739 0.44138 -0.87534 0.0096711
0.30691 0.18115 0.88703 6.6842e-39 333 325 0 0 0 -0.15848 0.44412 -0.88184 0.0084365
0.30894 0.18106 0.8874 6.2386e-39 319.67 325 0 0 0 -0.11996 0.4448 -0.88756 0.0071849
0.2994 0.18339 0.88783 6.3615e-39 284.5 325.5 0 0 0 -0.26174 0.43858 -0.85973 0.011003
0.30095 0.18287 0.88783 5.7161e-39 421.5 325 0 0 0 -0.24998 0.44107 -0.86195 0.011087
0.30303 0.18287 0.88783 5.5778e-39 423.5 325 0 0 0 -0.22589 0.44084 -0.8687 0.011269
0.30528 0.18322 0.88783 6.423e-39 335.33 325.33 0 0 0 -0.19246 0.44067 -0.87679 0.010814
0.30719 0.18287 0.88783 6.6381e-39 427.5 325 0 0 0 -0.15783 0.44127 -0.88339 0.009346
0.28734 0.063512 0.88911 8.6664e-39 232 262 0 0 0 -0.02318 -0.90272 -0.42961 0.0060691
0.28911 0.063558 0.88975 8.3437e-39 233.5 262 0 0 0 -0.022206 -0.90599 -0.42272 0.0059511
0.29047 0.063512 0.88911 8.1132e-39 235 262 0 0 0 -0.014248 -0.90438 -0.42649 0.005879
0.24695 0.06564 0.88975 6.6381e-39 366 263 0 0 0 -0.022311 -0.8914 -0.45266 0.0078392
0.25945 0.06564 0.88975 8.021e-39 378 263 0 0 0 -0.018227 -0.8739 -0.48577 0.0053469
0.2629 0.065592 0.88911 6.5459e-39 381.5 263 0 0 0 -0.017984 -0.8755 -0.48288 0.005844
0.26507 0.065095 0.88943 6.131e-39 414.5 262.5 0 0 0 -0.021353 -0.88012 -0.47427 0.0064737
0.26706 0.064552 0.88911 5.9466e-39 447.5 262 0 0 0 -0.030238 -0.8829 -0.46859 0.0068782
0.26881 0.064599 0.88975 6.5459e-39 449 262 0 0 0 -0.034704 -0.88598 -0.46242 0.0067521
0.27113 0.064529 0.88879 6.2693e-39 451.5 262 0 0 0 -0.045133 -0.88693 -0.4597 0.00659
0.27278 0.064552 0.88911 6.1771e-39 453 262 0 0 0 -0.043602 -0.8909 -0.45209 0.0063863
0.27493 0.064914 0.88932 6.1464e-39 434.33 262.33 0 0 0 -0.040984 -0.89311 -0.44798 0.0063098
0.2787 0.064599 0.88975 6.2693e-39 458.5 262 0 0 0 -0.032226 -0.89876 -0.43726 0.0060547
0.28027 0.064599 0.88975 6.3615e-39 501 262 0 0 0 -0.033275 -0.90041 -0.43377 0.0061996
0.28277 0.064576 0.88943 6.6842e-39 179 263 0 0 0 -0.028353 -0.89847 -0.43812 0.0067089
0.28474 0.064552 0.88911 6.3615e-39 181.5 263 0 0 0 -0.023813 -0.89559 -0.44424 0.0074346
0.2861 0.064506 0.88847 6.2693e-39 183 263 0 0 0 -0.020539 -0.8917 -0.45217 0.0072064
0.2913 0.064506 0.88847 5.8083e-39 188 263 0 0 0 -0.0088349 -0.89222 -0.45152 0.006384
0.29317 0.064576 0.88943 6.2232e-39 189.5 263 0 0 0 -0.0001945 -0.90139 -0.433 0.0053092
0.29526 0.064576 0.88943 6.7303e-39 191.5 263 0 0 0 0.014632 -0.90033 -0.43496 0.0050342
0.29723 0.064552 0.88911 6.4076e-39 193.5 263 0 0 0 0.031492 -0.89849 -0.43786 0.0045105
0.2992 0.065049 0.88879 6.131e-39 321.5 263 0 0 0 0.0502 -0.89118 -0.45087 0.0042354
0.30079 0.06523 0.8889 6.1464e-39 364.33 263 0 0 0 0.055162 -0.8922 -0.44825 0.0041563
0.30268 0.064914 0.88932 6.7303e-39 287.33 263 0 0 0 0.075074 -0.89596 -0.43775 0.0038904
0.30476 0.064914 0.88932 7.1912e-39 289.33 263 0 0 0 0.089126 -0.89454 -0.43801 0.0038098
0.30718 0.064914 0.88932 7.4064e-39 291.67 263 0 0 0 0.10772 -0.89433 -0.43425 0.0036513
0.30897 0.065545 0.88847 6.2693e-39 455 263 0 0 0 0.11194 -0.88935 -0.44332 0.0038361
0.31064 0.065568 0.88879 6.4998e-39 456.5 263 0 0 0 0.12649 -0.89134 -0.43533 0.004082
0.31283 0.065592 0.88911 6.0388e-39 305 263.5 0 0 0 0.14217 -0.89137 -0.4304 0.0043464
0.31514 0.06564 0.88975 5.8544e-39 154 264 0 0 0 0.16692 -0.89212 -0.41984 0.0042589
0.21937 0.067721 0.88975 6.1771e-39 442.5 264 0 0 0 -0.42956 -0.69103 -0.58134 0.060061
0.22329 0.067649 0.88879 6.2232e-39 446.5 264 0 0 0 -0.35157 -0.73568 -0.57894 0.053946
0.23446 0.066681 0.88975 7.7444e-39 218 264 0 0 0 -0.11663 -0.84564 -0.52086 0.021625
0.23863 0.066681 0.88975 8.5742e-39 230 264 0 0 0 -0.062326 -0.86921 -0.49049 0.01462
0.24071 0.066681 0.88975 8.2054e-39 232 264 0 0 0 -0.04438 -0.87817 -0.47628 0.012926
0.24314 0.066633 0.88911 8.021e-39 234.5 264 0 0 0 -0.034452 -0.87861 -0.47629 0.012486
0.24539 0.066681 0.88975 8.2976e-39 236.5 264 0 0 0 -0.026963 -0.88459 -0.46559 0.0098202
0.24721 0.066609 0.88879 8.5281e-39 238.5 264 0 0 0 -0.024695 -0.88545 -0.46407 0.0090823
0.24921 0.067326 0.88911 6.5151e-39 204.33 264.67 0 0 0 -0.020367 -0.88722 -0.46089 0.0077661
0.25146 0.067673 0.88911 5.9005e-39 188.5 265 0 0 0 -0.02354 -0.8849 -0.46519 0.0065582
0.2532 0.067721 0.88975 6.3615e-39 190 265 0 0 0 -0.024036 -0.88091 -0.47268 0.0057834
0.25487 0.067358 0.88954 6.6381e-39 210.33 264.67 0 0 0 -0.020119 -0.88119 -0.47234 0.0056231
0.25684 0.067721 0.88975 6.592e-39 194.5 265 0 0 0 -0.01547 -0.87842 -0.47763 0.0054366
0.25874 0.067153 0.88911 6.2463e-39 225 264.5 0 0 0 -0.013756 -0.87592 -0.48227 0.0053229
0.26065 0.066979 0.88911 5.9005e-39 241.33 264.33 0 0 0 -0.016023 -0.87409 -0.48549 0.0053178
0.31688 0.066609 0.88879 8.021e-39 402.5 264 0 0 0 0.17056 -0.88354 -0.43619 0.004848
0.31832 0.067624 0.88847 5.7161e-39 268 265 0 0 0 0.17374 -0.87227 -0.45713 0.0044199
0.21773 0.069257 0.88943 7.9749e-39 294.5 265.5 0 0 0 -0.46781 -0.63738 -0.61229 0.065067
0.21905 0.068664 0.88847 8.2976e-39 373.5 265 0 0 0 -0.44427 -0.65943 -0.60645 0.059817
0.22129 0.068713 0.88911 8.021e-39 375.5 265 0 0 0 -0.3967 -0.70012 -0.59368 0.05908
0.25336 0.068664 0.88847 7.4678e-39 406.5 265 0 0 0 -0.020856 -0.87962 -0.47523 0.0059556
0.25595 0.068664 0.88847 7.7444e-39 418 265 0 0 0 -0.014644 -0.87791 -0.47861 0.0055154
0.25699 0.068664 0.88847 8.021e-39 419 265 0 0 0 -0.011712 -0.8769 -0.48052 0.0054032
0.21573 0.071885 0.88975 6.3615e-39 263 267 0 0 0 -0.5173 -0.50527 -0.69073 0.069364
0.2172 0.071453 0.88868 6.4537e-39 322.67 266.67 0 0 0 -0.50661 -0.52284 -0.68555 0.068
0.21324 0.073602 0.88954 6.9147e-39 323.33 268 0 0 0 -0.56878 -0.39271 -0.72269 0.061442
0.21505 0.073394 0.88911 6.9838e-39 292 268 0 0 0 -0.54854 -0.42892 -0.71773 0.064912
0.21645 0.072821 0.88847 6.3615e-39 194 268 0 0 0 -0.52832 -0.46318 -0.71157 0.067245
0.21156 0.075008 0.88975 6.9147e-39 250 269 0 0 0 -0.58278 -0.32802 -0.74349 0.059022
0.21286 0.075434 0.88863 6.0849e-39 231 269.5 0 0 0 -0.58218 -0.29782 -0.75655 0.059279
0.21438 0.07542 0.88847 6.131e-39 232.5 269.5 0 0 0 -0.56921 -0.31104 -0.76109 0.062498
0.21156 0.076049 0.88975 5.9005e-39 209 270 0 0 0 -0.60101 -0.28105 -0.7482 0.057317
0.2129 0.077007 0.88879 6.8225e-39 438.5 270 0 0 0 -0.58731 -0.23444 -0.77467 0.058734
0.21438 0.076979 0.88847 6.3615e-39 440 270 0 0 0 -0.56928 -0.25555 -0.78142 0.061594
0.20948 0.079172 0.88975 6.4537e-39 191 272 0 0 0 -0.60281 -0.16295 -0.78107 0.051828
0.21121 0.078825 0.88975 6.0849e-39 218.67 271.67 0 0 0 -0.60055 -0.17447 -0.78032 0.054483
0.21282 0.078538 0.88847 7.4679e-39 278.5 271.5 0 0 0 -0.59526 -0.17768 -0.78364 0.05357
0.21438 0.078538 0.88847 6.9146e-39 280 271.5 0 0 0 -0.57757 -0.18915 -0.79412 0.058841
0.20636 0.080213 0.88975 7.4678e-39 382 272 0 0 0 -0.63444 -0.12041 -0.76354 0.050195
0.20898 0.080849 0.88911 7.4064e-39 262.67 272.67 0 0 0 -0.61346 -0.086178 -0.78501 0.048723
0.21081 0.080646 0.88879 7.3065e-39 295 272.5 0 0 0 -0.60293 -0.090425 -0.79265 0.049069
0.20821 0.082726 0.88879 6.0849e-39 280 273.5 0 0 0 -0.60355 -0.039472 -0.79635 0.046866
0.21022 0.082177 0.88847 6.3615e-39 374 273 0 0 0 -0.5884 -0.041557 -0.8075 0.044419
0.20606 0.087374 0.88847 6.7303e-39 200 276 0 0 0 -0.53648 0.097859 -0.83822 0.043543
0.20814 0.086854 0.88847 7.514e-39 292.5 275.5 0 0 0 -0.53623 0.096163 -0.83857 0.038676
0.21057 0.087027 0.88847 6.7917e-39 264.67 275.67 0 0 0 -0.5264 0.12032 -0.84168 0.032775
0.21334 0.087374 0.88847 6.9147e-39 207 276 0 0 0 -0.5193 0.14347 -0.84246 0.028694
0.20628 0.08903 0.88943 6.8685e-39 285 276.5 0 0 0 -0.5356 0.14013 -0.83277 0.04045
0.2087 0.088949 0.88863 6.8455e-39 287.5 276.5 0 0 0 -0.50759 0.15406 -0.84772 0.032349
0.21081 0.088965 0.88879 7.4448e-39 289.5 276.5 0 0 0 -0.50424 0.16791 -0.84708 0.02788
0.21282 0.088933 0.88847 7.5831e-39 291.5 276.5 0 0 0 -0.49685 0.17943 -0.84908 0.024698
0.21472 0.089106 0.88847 7.1298e-39 262.67 276.67 0 0 0 -0.49372 0.1859 -0.84952 0.023018
0.20732 0.09111 0.88943 7.053e-39 264.5 277.5 0 0 0 -0.49941 0.20723 -0.84121 0.0306
0.20889 0.09059 0.88943 8.4359e-39 374.5 277 0 0 0 -0.49646 0.1955 -0.84576 0.028258
0.21104 0.090623 0.88975 8.2976e-39 376.5 277 0 0 0 -0.48778 0.19895 -0.85 0.025015
0.21305 0.09111 0.88943 6.9607e-39 282.5 277.5 0 0 0 -0.47124 0.22168 -0.85369 0.020544
0.21509 0.091094 0.88927 7.1913e-39 284.5 277.5 0 0 0 -0.46837 0.22465 -0.85449 0.018812
0.21701 0.091028 0.88863 7.099e-39 286.5 277.5 0 0 0 -0.45583 0.24036 -0.857 0.015875
0.21853 0.091532 0.88847 5.3473e-39 192 278 0 0 0 -0.4393 0.25934 -0.86009 0.012752
0.2152 0.092705 0.88975 4.8864e-39 274.5 278 0 0 0 -0.44936 0.2589 -0.85501 0.015485
0.21741 0.09303 0.88954 5.7469e-39 235 278.33 0 0 0 -0.4318 0.27608 -0.85868 0.011946
0.21861 0.093124 0.88879 6.2694e-39 258 278.5 0 0 0 -0.42243 0.28744 -0.85961 0.010222
0.21904 0.095412 0.88911 6.423e-39 249.67 279.67 0 0 0 -0.40075 0.32393 -0.85701 0.0069382
0.21973 0.097319 0.88911 7.1913e-39 289.5 280.5 0 0 0 -0.38901 0.34754 -0.85316 0.0051306
0.22061 0.097769 0.88847 6.1771e-39 203 281 0 0 0 -0.39111 0.34984 -0.85126 0.0048716
0.21989 0.09947 0.88975 7.6522e-39 316.5 281.5 0 0 0 -0.39211 0.3652 -0.84432 0.0049495
0.22113 0.099328 0.88847 7.5139e-39 318 281.5 0 0 0 -0.39455 0.35908 -0.84581 0.0043348
0.22125 0.10146 0.88895 8.8738e-39 419 282.5 0 0 0 -0.39995 0.36717 -0.83978 0.0038314
0.22329 0.10145 0.88879 7.1682e-39 264.5 283 0 0 0 -0.40847 0.36059 -0.83853 0.003113
0.22529 0.10193 0.88847 7.9288e-39 383.5 283 0 0 0 -0.41781 0.35522 -0.83621 0.0027264
0.22197 0.10311 0.88975 6.2693e-39 218 284 0 0 0 -0.40742 0.36842 -0.83563 0.0034453
0.22345 0.10307 0.88943 5.8083e-39 219.5 284 0 0 0 -0.41468 0.36108 -0.83526 0.0028327
0.22537 0.103 0.88879 6.131e-39 221.5 284 0 0 0 -0.42301 0.35605 -0.83324 0.002564
0.22197 0.10416 0.88975 9.3118e-39 432 284 0 0 0 -0.41211 0.36765 -0.83367 0.0034824
0.22301 0.10416 0.88975 9.2196e-39 433 284 0 0 0 -0.41537 0.36594 -0.8328 0.0031377
0.22501 0.10438 0.88943 8.9199e-39 416.75 284.25 0 0 0 -0.42265 0.35934 -0.83201 0.0026402
