# .PCD v.7 - Point Cloud Data file format
VERSION .7
FIELDS x y z rgb u v vx vy vz normal_x normal_y normal_z curvature
SIZE 4 4 4 4 4 4 4 4 4 4 4 4 4
TYPE F F F F F F F F F F F F F
COUNT 1 1 1 1 1 1 1 1 1 1 1 1 1
WIDTH 544
HEIGHT 1
VIEWPOINT 0 0 0 1 0 0 0
POINTS 544
DATA ascii
0.27701 0.077694 0.86181 6.4537e-39 202.5 267 0 0 0 -0.0036381 -0.88682 -0.46211 0.0023579
0.29566 0.077694 0.86181 6.0849e-39 240 267 0 0 0 -0.025265 -0.84518 -0.53389 0.0038823
0.29667 0.077694 0.86181 5.9927e-39 241 267 0 0 0 -0.029593 -0.84375 -0.53591 0.0041839
0.29919 0.077694 0.86181 6.7764e-39 243.5 267 0 0 0 -0.031607 -0.8413 -0.53965 0.0047272
0.3007 0.077694 0.86181 8.2054e-39 245 267 0 0 0 -0.034131 -0.83925 -0.54267 0.0053047
0.30937 0.07734 0.86161 9.0045e-39 256 266.67 0 0 0 -0.038507 -0.81822 -0.57362 0.0096031
0.31075 0.077056 0.86031 8.7586e-39 259.5 266.5 0 0 0 -0.039577 -0.82084 -0.56978 0.011436
0.31266 0.077029 0.86001 8.2515e-39 264.5 266.5 0 0 0 -0.047065 -0.82072 -0.56939 0.013645
0.18318 0.079178 0.86151 6.7303e-39 369 267.5 0 0 0 -0.043833 -0.89355 -0.44681 0.0068704
0.18519 0.079178 0.86151 8.2976e-39 371 267.5 0 0 0 -0.050021 -0.90059 -0.43178 0.0063171
0.18698 0.079319 0.86121 9.0352e-39 372.67 267.67 0 0 0 -0.057065 -0.90557 -0.42034 0.0057012
0.18915 0.079655 0.86121 8.5281e-39 374.5 268 0 0 0 -0.059684 -0.91015 -0.40995 0.0052262
0.1913 0.079301 0.86101 8.2361e-39 377 267.67 0 0 0 -0.05789 -0.91344 -0.40284 0.0049722
0.19305 0.079096 0.86061 8.3206e-39 379 267.5 0 0 0 -0.056171 -0.916 -0.39722 0.0047697
0.19513 0.079124 0.86091 8.482e-39 381 267.5 0 0 0 -0.053588 -0.91781 -0.39338 0.0047481
0.19708 0.079096 0.86061 7.8366e-39 383 267.5 0 0 0 -0.048184 -0.92079 -0.38707 0.0047448
0.19845 0.078538 0.86001 6.9147e-39 385 267 0 0 0 -0.046388 -0.92256 -0.38306 0.0045651
0.20132 0.078675 0.86151 6.8225e-39 387.5 267 0 0 0 -0.028863 -0.92772 -0.37216 0.0043123
0.20312 0.078593 0.86061 6.6381e-39 389.5 267 0 0 0 -0.027129 -0.9311 -0.36376 0.0038705
0.205 0.078538 0.86001 7.2374e-39 391.5 267 0 0 0 -0.031057 -0.93645 -0.34942 0.0027629
0.207 0.078538 0.86001 7.8366e-39 394 267 0 0 0 -0.027941 -0.941 -0.33726 0.0022209
0.20952 0.078538 0.86001 8.3898e-39 399 267 0 0 0 -0.012767 -0.94395 -0.32983 0.0019723
0.21133 0.078648 0.86121 8.5742e-39 400.5 267 0 0 0 -0.00045022 -0.9452 -0.32648 0.0016865
0.21254 0.078538 0.86001 8.3898e-39 402 267 0 0 0 0.0015023 -0.94627 -0.32338 0.0015932
0.2152 0.078593 0.86061 6.8225e-39 404.5 267 0 0 0 0.012938 -0.94767 -0.31899 0.0014179
0.21714 0.078566 0.86031 6.131e-39 406.5 267 0 0 0 0.018437 -0.94686 -0.32113 0.0014403
0.21974 0.078593 0.86061 5.8083e-39 409 267 0 0 0 0.01772 -0.94526 -0.32585 0.0016543
0.22361 0.079544 0.86001 5.8083e-39 409 268 0 0 0 0.015646 -0.94118 -0.33755 0.0019371
0.22609 0.079711 0.86181 6.4537e-39 411 268 0 0 0 0.0075449 -0.93895 -0.34396 0.0021815
0.2289 0.079637 0.86101 5.6854e-39 414.67 268 0 0 0 0.0040955 -0.93446 -0.35604 0.0023147
0.23065 0.079544 0.86001 5.7161e-39 417 268 0 0 0 0.003344 -0.93138 -0.36402 0.0022718
0.23349 0.079655 0.86121 5.9466e-39 418.5 268 0 0 0 -0.011425 -0.92916 -0.3695 0.0021926
0.23702 0.078648 0.86121 5.9927e-39 426 267 0 0 0 -0.025183 -0.92336 -0.38312 0.0017334
0.23929 0.078566 0.86031 6.2232e-39 428.5 267 0 0 0 -0.030704 -0.9226 -0.38453 0.001455
0.24088 0.078593 0.86061 6.5459e-39 430 267 0 0 0 -0.035365 -0.92193 -0.38574 0.0013582
0.2429 0.078593 0.86061 5.9927e-39 292 267.5 0 0 0 -0.034779 -0.92233 -0.38483 0.0013105
0.24491 0.078593 0.86061 6.0849e-39 158 268 0 0 0 -0.030943 -0.92349 -0.38237 0.0013844
0.24793 0.078593 0.86061 4.9786e-39 175 268 0 0 0 -0.021684 -0.92555 -0.37801 0.0014207
0.24961 0.078648 0.86121 5.0247e-39 176.5 268 0 0 0 -0.018097 -0.92718 -0.37419 0.0013912
0.25178 0.078538 0.86001 6.1771e-39 179 268 0 0 0 -0.015771 -0.92894 -0.3699 0.0014296
0.25681 0.078538 0.86001 6.3615e-39 184 268 0 0 0 0.0021058 -0.92909 -0.36985 0.0014094
0.26353 0.079096 0.86061 5.9005e-39 187 268.5 0 0 0 0.029716 -0.9211 -0.38819 0.0018815
0.26555 0.079096 0.86061 5.7161e-39 189 268.5 0 0 0 0.034796 -0.91785 -0.39539 0.0020182
0.26683 0.078675 0.86151 5.8544e-39 193.5 268 0 0 0 0.031952 -0.91352 -0.40555 0.0019991
0.26901 0.078575 0.86041 5.6546e-39 197 268 0 0 0 0.035892 -0.91068 -0.41155 0.0020831
0.2719 0.078538 0.86001 5.9005e-39 200 268 0 0 0 0.030963 -0.90558 -0.42304 0.0022682
0.27341 0.078538 0.86001 6.4998e-39 201.5 268 0 0 0 0.027463 -0.9023 -0.43024 0.002184
0.27794 0.078538 0.86001 6.0849e-39 206 268 0 0 0 0.0052365 -0.88741 -0.46095 0.0023389
0.27914 0.078593 0.86061 6.4537e-39 228 268 0 0 0 0.0020629 -0.88457 -0.46641 0.0024361
0.28065 0.079096 0.86061 6.4537e-39 217 268.5 0 0 0 0.002016 -0.88139 -0.47238 0.0022979
0.28558 0.079572 0.86031 6.3154e-39 216.5 269 0 0 0 0.0063624 -0.86836 -0.49589 0.0025504
0.2875 0.079544 0.86001 6.7764e-39 228.5 269 0 0 0 0.0081009 -0.86538 -0.50106 0.0026228
0.28907 0.078983 0.86121 6.4844e-39 231 268.33 0 0 0 -0.0011761 -0.85827 -0.51321 0.002833
0.29082 0.079123 0.86091 6.1541e-39 232.5 268.5 0 0 0 -0.0018248 -0.85591 -0.51712 0.0029629
0.29273 0.079096 0.86061 6.0849e-39 234.5 268.5 0 0 0 -0.010762 -0.85341 -0.52113 0.0034114
0.29475 0.079096 0.86061 6.3384e-39 236.5 268.5 0 0 0 -0.02161 -0.85 -0.52633 0.0039933
0.29676 0.079096 0.86061 6.2002e-39 238.5 268.5 0 0 0 -0.024474 -0.84831 -0.52894 0.0043913
0.29883 0.07911 0.86076 6.0158e-39 240.5 268.5 0 0 0 -0.029439 -0.84853 -0.52834 0.0050622
0.30094 0.079138 0.86106 6.0849e-39 242.5 268.5 0 0 0 -0.03207 -0.84514 -0.53359 0.0057718
0.30312 0.079178 0.86151 6.8916e-39 244.5 268.5 0 0 0 -0.033471 -0.83914 -0.54288 0.0064169
0.30514 0.079178 0.86151 7.6522e-39 246.5 268.5 0 0 0 -0.036184 -0.83585 -0.54776 0.0075121
0.30704 0.079151 0.86121 8.2054e-39 248.5 268.5 0 0 0 -0.039656 -0.83384 -0.55058 0.0088448
0.30922 0.079192 0.86166 8.5742e-39 250.5 268.5 0 0 0 -0.038169 -0.82407 -0.5652 0.0097717
0.3108 0.079083 0.86046 8.4589e-39 255 268.5 0 0 0 -0.041818 -0.82833 -0.55868 0.011614
0.31287 0.079096 0.86061 8.4359e-39 260 268.5 0 0 0 -0.051524 -0.82182 -0.56741 0.013989
0.17549 0.081138 0.86091 8.3898e-39 258 269.5 0 0 0 -0.029342 -0.84565 -0.53293 0.020813
0.17682 0.081297 0.86081 8.3591e-39 257 269.67 0 0 0 -0.048222 -0.85041 -0.52391 0.021601
0.17887 0.081315 0.86101 7.683e-39 289.67 269.67 0 0 0 -0.050936 -0.86406 -0.5008 0.015854
0.1811 0.08167 0.86121 8.8047e-39 256.5 270 0 0 0 -0.047948 -0.87913 -0.47416 0.01163
0.18292 0.080578 0.86031 5.8083e-39 365.5 269 0 0 0 -0.062553 -0.88826 -0.45507 0.0099855
0.18487 0.08055 0.86001 6.8686e-39 367.5 269 0 0 0 -0.068306 -0.89766 -0.43536 0.0077211
0.18738 0.08055 0.86001 8.7586e-39 370 269 0 0 0 -0.069331 -0.906 -0.41756 0.0057939
0.30108 0.08055 0.86001 6.4537e-39 235 270 0 0 0 -0.031422 -0.84898 -0.52748 0.0062975
0.30283 0.080904 0.86021 6.2693e-39 224.33 270.33 0 0 0 -0.034103 -0.84775 -0.5293 0.0069901
0.30481 0.080606 0.86061 6.2232e-39 238.5 270 0 0 0 -0.036222 -0.84157 -0.53893 0.0080116
0.30672 0.080578 0.86031 5.9005e-39 240.5 270 0 0 0 -0.037767 -0.84126 -0.53931 0.0089133
0.30868 0.080942 0.86061 6.1464e-39 230 270.33 0 0 0 -0.037224 -0.83533 -0.54849 0.010041
0.31014 0.08055 0.86001 6.4537e-39 244 270 0 0 0 -0.040979 -0.83551 -0.54795 0.011264
0.31266 0.08055 0.86001 6.7764e-39 246.5 270 0 0 0 -0.052427 -0.82923 -0.55644 0.013817
0.17436 0.1294 0.86031 8.067e-39 285 303.5 0 0 0 -0.64914 0.33544 -0.68271 0.0027552
0.17506 0.13126 0.86041 9.0352e-39 325.67 304.33 0 0 0 -0.65043 0.32727 -0.68545 0.0028578
0.17499 0.1325 0.86091 8.7126e-39 295 305 0 0 0 -0.64733 0.32042 -0.69158 0.003462
0.17638 0.13342 0.86031 8.6661e-39 294 305.5 0 0 0 -0.64683 0.31926 -0.6926 0.003284
0.17562 0.13462 0.86151 8.3898e-39 290.5 306 0 0 0 -0.64247 0.31179 -0.70002 0.0044769
0.17644 0.13548 0.86061 8.1129e-39 288.5 306.5 0 0 0 -0.6425 0.30975 -0.70089 0.0041073
0.17694 0.13749 0.86061 7.9749e-39 279.5 307.5 0 0 0 -0.64057 0.30313 -0.70553 0.0046551
0.17686 0.13873 0.86101 8.3898e-39 306 308 0 0 0 -0.63971 0.29662 -0.70907 0.0049486
0.17833 0.13891 0.86001 8.5742e-39 371 308 0 0 0 -0.64075 0.29881 -0.70722 0.0043951
0.17724 0.14045 0.86121 7.3142e-39 201.67 309 0 0 0 -0.64036 0.28857 -0.7118 0.004957
0.17893 0.14099 0.86046 8.1592e-39 238.25 309.25 0 0 0 -0.64148 0.28737 -0.71128 0.0045391
0.17908 0.14263 0.86121 9.6805e-39 208.5 310 0 0 0 -0.64227 0.28129 -0.713 0.0045191
0.18068 0.1436 0.86001 8.1438e-39 288.33 310.33 0 0 0 -0.64018 0.28312 -0.71415 0.0040852
0.17965 0.14469 0.86151 9.9111e-39 354.5 310.5 0 0 0 -0.64218 0.27963 -0.71373 0.0045094
0.18106 0.14532 0.86021 1.008e-38 315.67 311 0 0 0 -0.63913 0.28291 -0.71518 0.0041201
0.18084 0.14676 0.86081 1.0326e-38 308.67 311.67 0 0 0 -0.63996 0.27959 -0.71574 0.0043478
0.18285 0.14746 0.86001 9.1964e-39 339.5 312 0 0 0 -0.63426 0.28479 -0.71875 0.003831
0.18437 0.14746 0.86001 8.8046e-39 341 312 0 0 0 -0.63241 0.2849 -0.72034 0.00362
0.18116 0.14873 0.86151 7.9749e-39 333 312.5 0 0 0 -0.63887 0.28392 -0.71501 0.0046373
0.18292 0.14902 0.86031 1.1156e-38 234.5 313 0 0 0 -0.63467 0.28612 -0.71787 0.0040081
0.18437 0.14947 0.86001 9.0812e-39 332 313 0 0 0 -0.62879 0.2888 -0.72195 0.0035916
0.18173 0.15079 0.86181 7.8827e-39 325.5 313.5 0 0 0 -0.63563 0.29031 -0.71532 0.0046348
0.18302 0.15061 0.86076 7.8827e-39 327 313.5 0 0 0 -0.63093 0.29071 -0.71931 0.003954
0.18437 0.15098 0.86001 9.4961e-39 229 314 0 0 0 -0.62779 0.29476 -0.72041 0.0036128
0.18324 0.1525 0.86101 7.1913e-39 350.67 314.33 0 0 0 -0.63006 0.29587 -0.71798 0.0040784
0.18449 0.15259 0.86061 7.8366e-39 319 314.5 0 0 0 -0.62535 0.30053 -0.72015 0.0036568
0.18374 0.15432 0.86181 6.1771e-39 410 315 0 0 0 -0.62695 0.3067 -0.71615 0.0040939
0.18462 0.15472 0.86121 9.3117e-39 313.5 315.5 0 0 0 -0.62331 0.30961 -0.71807 0.0037993
0.18503 0.15665 0.86076 9.5885e-39 312.5 316.5 0 0 0 -0.62103 0.31708 -0.71679 0.0037372
0.18556 0.1587 0.86091 8.2976e-39 317.5 317.5 0 0 0 -0.62034 0.32766 -0.71261 0.0035628
0.18569 0.16082 0.86151 8.5282e-39 322.5 318.5 0 0 0 -0.62085 0.33485 -0.70882 0.0033909
0.18638 0.16054 0.86001 8.3438e-39 323.5 318.5 0 0 0 -0.62284 0.33031 -0.7092 0.0030171
0.18701 0.16266 0.86061 9.8189e-39 330 319.5 0 0 0 -0.62507 0.33609 -0.70451 0.0029669
0.18771 0.16485 0.86151 8.8509e-39 356 320.5 0 0 0 -0.62756 0.34071 -0.70006 0.0027257
0.18877 0.16477 0.86021 9.4959e-39 324.67 320.67 0 0 0 -0.6284 0.33763 -0.7008 0.0026519
0.18928 0.1666 0.86101 1.0295e-38 196.67 322 0 0 0 -0.62882 0.34105 -0.69876 0.0025983
0.19078 0.16678 0.86021 8.2055e-39 240.33 322 0 0 0 -0.62494 0.34125 -0.70214 0.002602
0.18979 0.16844 0.86181 1.2078e-38 182 323 0 0 0 -0.62953 0.34648 -0.69544 0.002504
0.19117 0.16883 0.86121 9.6804e-39 271 323 0 0 0 -0.62571 0.34713 -0.69856 0.0024928
0.19299 0.16865 0.86031 9.7495e-39 273 323 0 0 0 -0.61984 0.34648 -0.7041 0.0025303
0.19443 0.16909 0.86001 7.56e-39 362 323 0 0 0 -0.6135 0.34483 -0.71043 0.0023896
0.1934 0.17071 0.86141 9.8342e-39 260 324 0 0 0 -0.62167 0.34869 -0.70139 0.002571
0.19463 0.17078 0.86091 8.1591e-39 294 324 0 0 0 -0.6161 0.34888 -0.70619 0.0024652
0.19528 0.17261 0.86081 7.9596e-39 262.67 325 0 0 0 -0.61344 0.34882 -0.70853 0.0024494
0.19578 0.17494 0.86151 7.1913e-39 278.5 326 0 0 0 -0.61507 0.34992 -0.70657 0.0024368
0.19698 0.17465 0.86016 7.4218e-39 280 326 0 0 0 -0.6044 0.34942 -0.71596 0.0023041
0.19725 0.17691 0.86136 9.2196e-39 245.5 327 0 0 0 -0.60786 0.354 -0.71077 0.0023574
0.19883 0.17685 0.86021 1.0357e-38 267.33 327 0 0 0 -0.60275 0.35062 -0.71677 0.0022671
0.19906 0.17874 0.86046 1.0303e-38 204.5 328 0 0 0 -0.60367 0.35348 -0.71459 0.0022568
0.20047 0.17915 0.86001 1.1063e-38 268 328 0 0 0 -0.60018 0.35275 -0.71788 0.0021974
0.19936 0.18071 0.86101 6.761e-39 337.33 328.33 0 0 0 -0.60466 0.35715 -0.71192 0.0022785
0.20053 0.18073 0.86031 7.0069e-39 309 328.5 0 0 0 -0.60121 0.35622 -0.7153 0.0022321
0.19981 0.18299 0.86151 7.0069e-39 246.5 329.5 0 0 0 -0.6039 0.35897 -0.71165 0.0023554
0.20094 0.18297 0.86061 6.8839e-39 217.33 329.67 0 0 0 -0.60191 0.35773 -0.71396 0.0022939
0.20118 0.18488 0.86091 8.6662e-39 327.5 330 0 0 0 -0.6019 0.35742 -0.71412 0.0023601
0.20161 0.18683 0.86061 6.131e-39 253.5 331 0 0 0 -0.60143 0.35612 -0.71516 0.0024378
0.20248 0.1872 0.86001 5.163e-39 309 331 0 0 0 -0.60102 0.35573 -0.7157 0.0023689
0.20175 0.18847 0.86121 5.9927e-39 420 331 0 0 0 -0.60154 0.35384 -0.7162 0.0026273
0.20295 0.18901 0.86061 6.6381e-39 282 331.67 0 0 0 -0.60106 0.35335 -0.71685 0.0025546
0.20343 0.19083 0.86121 8.3284e-39 334.67 332 0 0 0 -0.60031 0.35071 -0.71877 0.0026715
0.20483 0.19089 0.86001 6.7917e-39 367.33 332 0 0 0 -0.59988 0.35225 -0.71838 0.0025805
0.28106 0.19079 0.86031 6.2232e-39 279 332.5 0 0 0 0.81442 0.29728 -0.49834 0.0033434
0.20391 0.19264 0.86181 6.2693e-39 190 333 0 0 0 -0.59863 0.34814 -0.72142 0.0027804
0.20524 0.19297 0.86106 8.1823e-39 233 333 0 0 0 -0.59745 0.35111 -0.72096 0.0027349
0.2065 0.19324 0.86001 9.0352e-39 276 333 0 0 0 -0.59892 0.35208 -0.71926 0.0026047
0.28155 0.19264 0.86181 1.1156e-38 263 333 0 0 0 0.80804 0.29041 -0.51258 0.0040884
0.20732 0.19472 0.86061 6.3922e-39 284.33 333.33 0 0 0 -0.59862 0.34433 -0.72325 0.0027439
0.20851 0.19525 0.86001 5.9005e-39 143 334 0 0 0 -0.60142 0.34023 -0.72286 0.0028628
0.20787 0.1971 0.86151 7.5601e-39 247.5 334 0 0 0 -0.59698 0.33494 -0.729 0.0030684
0.20916 0.1969 0.86061 7.8827e-39 249 334 0 0 0 -0.6024 0.33155 -0.72607 0.0033635
0.21053 0.19727 0.86001 8.6664e-39 285 334 0 0 0 -0.60457 0.32699 -0.72634 0.003537
0.20931 0.19855 0.86121 7.0069e-39 351.5 334 0 0 0 -0.59961 0.32573 -0.731 0.0038688
0.21091 0.19899 0.86021 6.3615e-39 412.67 334 0 0 0 -0.60478 0.3185 -0.72993 0.0039972
0.21153 0.20028 0.86001 6.9147e-39 200 335 0 0 0 -0.60425 0.31059 -0.73377 0.0043677
0.27914 0.20143 0.86061 7.3757e-39 329 335 0 0 0 0.81589 0.30963 -0.48831 0.005265
0.27833 0.20359 0.86121 5.9005e-39 168 336 0 0 0 0.81979 0.3214 -0.47396 0.0064595
0.30133 0.075836 0.86362 6.0849e-39 236 265 0 0 0 -0.039909 -0.82875 -0.5582 0.0046178
0.31071 0.075278 0.86301 7.6983e-39 238.5 264.5 0 0 0 -0.040469 -0.80399 -0.59327 0.0097058
0.31262 0.074748 0.86271 6.0388e-39 233.5 264 0 0 0 -0.044037 -0.7937 -0.60672 0.011017
0.31425 0.074774 0.86301 5.9927e-39 235 264 0 0 0 -0.05531 -0.78958 -0.61115 0.013157
0.1835 0.077803 0.86301 5.9466e-39 361.5 266 0 0 0 -0.03633 -0.89544 -0.44371 0.0058985
0.18501 0.077803 0.86301 5.9005e-39 363 266 0 0 0 -0.03833 -0.89908 -0.43611 0.0059367
0.18669 0.077466 0.86301 6.9147e-39 333.33 265.67 0 0 0 -0.0442 -0.90398 -0.42529 0.0057385
0.18868 0.077857 0.86362 6.131e-39 369.5 266 0 0 0 -0.047115 -0.90768 -0.41702 0.0057467
0.1907 0.077857 0.86362 6.7764e-39 371.5 266 0 0 0 -0.047845 -0.90957 -0.4128 0.0055472
0.19252 0.077776 0.86271 7.6061e-39 373.5 266 0 0 0 -0.0497 -0.91295 -0.40503 0.0053092
0.1946 0.077803 0.86301 8.2054e-39 375.5 266 0 0 0 -0.04537 -0.91714 -0.39598 0.0052094
0.19864 0.077803 0.86301 8.2515e-39 379.5 266 0 0 0 -0.032861 -0.92368 -0.38175 0.0047535
0.2047 0.077803 0.86301 7.4679e-39 385.5 266 0 0 0 -0.010001 -0.93404 -0.35704 0.0031538
0.20607 0.077748 0.86241 7.1913e-39 387 266 0 0 0 -0.012732 -0.93663 -0.35008 0.0026843
0.20823 0.077803 0.86301 6.7303e-39 389 266 0 0 0 -0.0072478 -0.94086 -0.33871 0.0021421
0.21111 0.077748 0.86241 7.56e-39 392 266 0 0 0 0.0043349 -0.94498 -0.32711 0.0016873
0.21293 0.077352 0.86362 7.8366e-39 389.5 265.5 0 0 0 0.011252 -0.94383 -0.33025 0.0017846
0.21479 0.077298 0.86301 8.0671e-39 393 265.5 0 0 0 0.013518 -0.94512 -0.32643 0.0015935
0.21697 0.077857 0.86362 8.5742e-39 400.5 266 0 0 0 0.014712 -0.94522 -0.32611 0.0017452
0.21891 0.07783 0.86331 8.2976e-39 402.5 266 0 0 0 0.012728 -0.9445 -0.32828 0.0018542
0.2205 0.077857 0.86362 7.8366e-39 404 266 0 0 0 0.010872 -0.94352 -0.33115 0.0019714
0.23902 0.077803 0.86301 5.5778e-39 422.5 266 0 0 0 -0.033772 -0.92103 -0.38802 0.0014471
0.24172 0.077857 0.86362 5.8083e-39 425 266 0 0 0 -0.033643 -0.92137 -0.38723 0.0014619
0.24491 0.077748 0.86241 5.9466e-39 428.5 266 0 0 0 -0.028492 -0.92226 -0.38552 0.0014831
0.24727 0.076847 0.86362 5.67e-39 421.5 265 0 0 0 -0.017478 -0.92536 -0.37869 0.0015229
0.24913 0.077803 0.86301 6.0388e-39 159.5 267 0 0 0 -0.013877 -0.92652 -0.37599 0.0014003
0.25115 0.077298 0.86301 5.4395e-39 300.5 266 0 0 0 -0.0095908 -0.92819 -0.37199 0.0012696
0.25385 0.076847 0.86362 5.9927e-39 428 265 0 0 0 -0.0073776 -0.9298 -0.368 0.0011207
0.2551 0.076766 0.86271 6.131e-39 293.5 265.5 0 0 0 -0.0041132 -0.93004 -0.36743 0.0011029
0.25721 0.077298 0.86301 5.8544e-39 170.5 266.5 0 0 0 -0.00084192 -0.92917 -0.36966 0.001162
0.26395 0.077857 0.86362 5.7161e-39 188 267 0 0 0 0.016883 -0.91743 -0.39754 0.0016826
0.26597 0.077857 0.86362 5.9005e-39 190 267 0 0 0 0.019019 -0.91371 -0.40592 0.0018766
0.26748 0.077857 0.86362 6.0388e-39 191.5 267 0 0 0 0.019893 -0.90865 -0.41709 0.0019699
0.26932 0.077803 0.86301 5.8544e-39 193.5 267 0 0 0 0.020481 -0.90644 -0.42185 0.0020481
0.27064 0.077748 0.86241 5.9005e-39 196 267 0 0 0 0.02114 -0.90337 -0.42834 0.0021091
0.27932 0.077776 0.86271 6.3154e-39 204.5 267 0 0 0 -0.0094238 -0.87971 -0.47542 0.0023003
0.28093 0.077803 0.86301 6.3615e-39 228 267 0 0 0 -0.01227 -0.87556 -0.48295 0.0023469
0.28214 0.077857 0.86362 6.7303e-39 229 267 0 0 0 -0.01753 -0.87015 -0.49247 0.0022302
0.28416 0.077857 0.86362 6.9147e-39 231 267 0 0 0 -0.019516 -0.86422 -0.50273 0.0024515
0.2886 0.07783 0.86331 5.9927e-39 234.5 267 0 0 0 -0.011578 -0.85436 -0.51955 0.0029202
0.29052 0.077803 0.86301 6.131e-39 236.5 267 0 0 0 -0.010491 -0.85006 -0.52658 0.0030286
0.29264 0.077325 0.86331 6.3154e-39 236.5 266.5 0 0 0 -0.020952 -0.84437 -0.53535 0.003326
0.29473 0.077129 0.86301 6.2693e-39 237.33 266.33 0 0 0 -0.026803 -0.8421 -0.53866 0.0036123
0.29709 0.077129 0.86301 6.423e-39 239.67 266.33 0 0 0 -0.030242 -0.83918 -0.54301 0.0039412
0.2987 0.07682 0.86331 6.3615e-39 240.5 266 0 0 0 -0.034673 -0.83627 -0.54721 0.0041486
0.30098 0.077093 0.86261 7.4679e-39 243.67 266.33 0 0 0 -0.036735 -0.83554 -0.5482 0.0050569
0.30273 0.077111 0.86281 8.7279e-39 245.33 266.33 0 0 0 -0.037922 -0.83151 -0.55422 0.005561
0.30456 0.077484 0.86321 9.1581e-39 247.67 266.67 0 0 0 -0.03877 -0.82757 -0.56003 0.0061697
0.30702 0.07741 0.86313 9.2749e-39 250 266.6 0 0 0 -0.039319 -0.82101 -0.56956 0.0072572
0.3088 0.07682 0.86331 9.2657e-39 250.5 266 0 0 0 -0.041142 -0.81311 -0.58066 0.0085908
0.17668 0.079523 0.86342 6.6688e-39 329.33 267.67 0 0 0 0.0047037 -0.86808 -0.49641 0.010645
0.17908 0.079878 0.86362 6.1771e-39 362 268 0 0 0 -0.015111 -0.88086 -0.47313 0.0081569
0.18198 0.079822 0.86301 6.0849e-39 367 268 0 0 0 -0.028809 -0.88985 -0.45534 0.0068056
0.18896 0.078775 0.86261 8.8201e-39 375 267 0 0 0 -0.050539 -0.90913 -0.41343 0.0055842
0.19094 0.078757 0.86241 8.2054e-39 377 267 0 0 0 -0.053211 -0.91243 -0.40575 0.0053286
0.19655 0.078785 0.86271 8.2515e-39 382.5 267 0 0 0 -0.045008 -0.9196 -0.39026 0.0049649
0.20002 0.078757 0.86241 7.2835e-39 386 267 0 0 0 -0.033566 -0.92508 -0.37829 0.0046232
0.2212 0.078757 0.86241 6.2693e-39 410 267 0 0 0 0.012735 -0.94413 -0.32934 0.0018211
0.22287 0.078813 0.86301 6.3615e-39 411.5 267 0 0 0 0.0091558 -0.94203 -0.33542 0.0021111
0.2249 0.079317 0.86301 6.131e-39 411.5 267.5 0 0 0 0.0049426 -0.94061 -0.33946 0.0022842
0.22758 0.079878 0.86362 6.1771e-39 412 268 0 0 0 -0.0026775 -0.93685 -0.34971 0.0025371
0.22944 0.078812 0.86301 5.8083e-39 418 267 0 0 0 -0.005909 -0.93357 -0.35835 0.0025325
0.23103 0.07884 0.86331 6.2693e-39 419.5 267 0 0 0 -0.010183 -0.93205 -0.36219 0.0025358
0.23499 0.078813 0.86301 5.6239e-39 423.5 267 0 0 0 -0.02481 -0.92597 -0.37679 0.0018971
0.26459 0.078757 0.86241 5.7161e-39 191 268 0 0 0 0.024811 -0.91724 -0.39756 0.0017424
0.2878 0.078757 0.86241 6.8225e-39 230 268 0 0 0 -0.0048257 -0.859 -0.51195 0.0027991
0.17794 0.080832 0.86301 8.1132e-39 267 269 0 0 0 -0.013898 -0.86789 -0.49656 0.010766
0.17996 0.080832 0.86301 6.1771e-39 361 269 0 0 0 -0.026009 -0.87878 -0.47653 0.0091798
0.18141 0.080803 0.86271 5.9466e-39 362.5 269 0 0 0 -0.03568 -0.88527 -0.4637 0.0081257
0.17479 0.13526 0.86241 1.051e-38 385 306 0 0 0 -0.63707 0.30642 -0.70728 0.0054229
0.17542 0.13687 0.86301 7.4448e-39 283 307 0 0 0 -0.63573 0.30139 -0.71064 0.0055274
0.17605 0.13848 0.86362 6.2693e-39 178 308 0 0 0 -0.63255 0.29364 -0.71669 0.0056651
0.17681 0.14131 0.86241 1.0418e-38 277 309 0 0 0 -0.63668 0.28371 -0.71704 0.005176
0.17744 0.14292 0.86301 1.0603e-38 206.5 310 0 0 0 -0.63861 0.28037 -0.71664 0.0050403
0.17883 0.14333 0.86241 1.3829e-38 265 310 0 0 0 -0.64115 0.279 -0.7149 0.0048491
0.1787 0.14484 0.86342 9.0661e-39 388 310.33 0 0 0 -0.6418 0.27616 -0.71542 0.0049971
0.17963 0.1468 0.86301 8.236e-39 374.33 311.33 0 0 0 -0.6423 0.27847 -0.71408 0.0048377
0.17996 0.14848 0.86301 6.5459e-39 432 312 0 0 0 -0.64169 0.28108 -0.7136 0.0049514
0.18009 0.14959 0.86362 9.3118e-39 231 313 0 0 0 -0.6423 0.28455 -0.71167 0.0050907
0.18091 0.15095 0.86271 8.067e-39 324.5 313.5 0 0 0 -0.63636 0.28945 -0.71503 0.0046657
0.18164 0.15286 0.86301 7.7136e-39 348.67 314.33 0 0 0 -0.63355 0.29769 -0.71414 0.0047749
0.18286 0.15342 0.86241 1.0049e-38 218 315 0 0 0 -0.63027 0.30175 -0.71534 0.0044779
0.18302 0.15507 0.86317 8.1132e-39 311.5 315.5 0 0 0 -0.62834 0.31063 -0.71323 0.0044325
0.18366 0.1569 0.86301 7.8059e-39 341.33 316.33 0 0 0 -0.62543 0.3172 -0.7129 0.0040685
0.18463 0.15888 0.86281 7.8672e-39 346.67 317.33 0 0 0 -0.61995 0.32941 -0.71214 0.0038623
0.18501 0.16111 0.86301 8.5284e-39 321.5 318.5 0 0 0 -0.61804 0.33705 -0.71023 0.0036332
0.18552 0.16262 0.86301 6.1771e-39 415.5 319 0 0 0 -0.61722 0.34195 -0.7086 0.0034707
0.18615 0.16374 0.86362 1.3276e-38 241 320 0 0 0 -0.62152 0.34285 -0.70439 0.003063
0.18697 0.16508 0.86271 8.9889e-39 343 320.5 0 0 0 -0.62486 0.34355 -0.70109 0.0027618
0.18716 0.16677 0.86362 1.051e-38 150 322 0 0 0 -0.62482 0.34655 -0.69964 0.0027135
0.18838 0.16733 0.86301 8.1747e-39 237.33 322 0 0 0 -0.62834 0.34588 -0.69682 0.002587
0.18939 0.16935 0.86301 8.9429e-39 298 323 0 0 0 -0.62939 0.34853 -0.69455 0.0025304
0.19107 0.17094 0.86301 1.0257e-38 244 324 0 0 0 -0.62786 0.3498 -0.69529 0.0024842
0.19252 0.17164 0.86271 6.8225e-39 365.5 324 0 0 0 -0.62736 0.34886 -0.69622 0.0024816
0.19265 0.17277 0.86331 8.021e-39 208.5 325 0 0 0 -0.6274 0.34909 -0.69606 0.0025538
0.19454 0.17316 0.86271 7.3757e-39 287 325 0 0 0 -0.62196 0.3496 -0.70067 0.0026252
0.19524 0.17485 0.86362 7.1913e-39 209 326 0 0 0 -0.62269 0.35217 -0.69874 0.0026078
0.19618 0.17732 0.86331 1.0556e-38 244 327 0 0 0 -0.61718 0.35422 -0.70257 0.002536
0.19746 0.17911 0.86301 1.0879e-38 181.67 328 0 0 0 -0.61243 0.35617 -0.70574 0.0023792
0.19814 0.17978 0.86301 1.0787e-38 265 328 0 0 0 -0.61038 0.35667 -0.70727 0.0023667
0.19726 0.18092 0.86362 6.4537e-39 389 328 0 0 0 -0.61325 0.35594 -0.70515 0.0024018
0.19864 0.1813 0.86301 6.3615e-39 306.5 328.5 0 0 0 -0.60856 0.35776 -0.70828 0.0024038
0.19922 0.18338 0.86331 6.9608e-39 245.5 329.5 0 0 0 -0.60672 0.35891 -0.70928 0.0024431
0.20009 0.18527 0.86271 8.2977e-39 326 330 0 0 0 -0.60526 0.35759 -0.71119 0.0025552
0.20063 0.18732 0.86286 6.8686e-39 252 331 0 0 0 -0.60422 0.35465 -0.71354 0.0026163
0.20131 0.189 0.86362 6.1771e-39 419 331 0 0 0 -0.60396 0.35094 -0.71559 0.0027367
0.20203 0.18975 0.86241 6.9147e-39 211 332 0 0 0 -0.60216 0.35 -0.71757 0.0027427
0.20261 0.19133 0.86271 7.6061e-39 349 332 0 0 0 -0.60013 0.34645 -0.72099 0.0027633
0.20282 0.19253 0.86362 6.131e-39 292 332.5 0 0 0 -0.59874 0.34341 -0.72359 0.0028569
0.20419 0.19392 0.86301 1.0234e-38 273 333 0 0 0 -0.5965 0.34347 -0.72541 0.0028282
0.28315 0.19203 0.86362 6.1771e-39 177 333 0 0 0 0.80356 0.26882 -0.53107 0.0056992
0.2052 0.19493 0.86301 6.9147e-39 353 333 0 0 0 -0.594 0.34244 -0.72795 0.0027364
0.20658 0.1953 0.86241 6.3615e-39 247.5 333.5 0 0 0 -0.59414 0.34179 -0.72813 0.0027139
0.20679 0.19651 0.86331 6.7764e-39 176 334 0 0 0 -0.59212 0.33884 -0.73115 0.0028228
0.28073 0.19883 0.86241 6.0849e-39 425 334 0 0 0 0.81069 0.28948 -0.50891 0.0049276
0.31137 0.073919 0.86483 6.4998e-39 427.5 262 0 0 0 -0.04406 -0.7912 -0.60997 0.0090313
0.31238 0.073413 0.86483 6.9146e-39 408 261.5 0 0 0 -0.047922 -0.7899 -0.61137 0.010014
0.1835 0.075996 0.86543 6.3615e-39 239 264 0 0 0 -0.022018 -0.89177 -0.45196 0.0065074
0.18503 0.075996 0.86543 6.8225e-39 240.5 264 0 0 0 -0.026093 -0.89658 -0.44212 0.0062572
0.18704 0.075996 0.86543 8.8047e-39 242.5 264 0 0 0 -0.032997 -0.90141 -0.43172 0.0062072
0.25521 0.075943 0.86483 5.9927e-39 417 264 0 0 0 -0.0042183 -0.92953 -0.36871 0.0010846
0.25623 0.075943 0.86483 5.9927e-39 418 264 0 0 0 -0.0052446 -0.92954 -0.36867 0.0010716
0.29184 0.075996 0.86543 6.3615e-39 203 265 0 0 0 -0.029359 -0.84026 -0.5414 0.0032507
0.29316 0.075943 0.86483 6.4537e-39 204.5 265 0 0 0 -0.030073 -0.83804 -0.54478 0.0034067
0.29535 0.075605 0.86483 6.6996e-39 217.33 264.67 0 0 0 -0.031291 -0.83422 -0.55054 0.0035297
0.297 0.075889 0.86422 6.4537e-39 231.5 265 0 0 0 -0.034248 -0.83432 -0.55021 0.003724
0.29928 0.075449 0.86498 6.0158e-39 214 264.5 0 0 0 -0.042177 -0.82646 -0.56141 0.0039054
0.30108 0.075268 0.86483 5.839e-39 209.33 264.33 0 0 0 -0.044801 -0.82254 -0.56693 0.0041956
0.30328 0.075436 0.86483 6.2002e-39 218 264.5 0 0 0 -0.046391 -0.81986 -0.57068 0.0048462
0.30529 0.075943 0.86483 6.4076e-39 239.5 265 0 0 0 -0.046109 -0.81348 -0.57976 0.0056893
0.30733 0.075943 0.86483 6.9147e-39 241.5 265 0 0 0 -0.044694 -0.80787 -0.58767 0.0064121
0.30935 0.075436 0.86483 7.8366e-39 230.5 264.5 0 0 0 -0.044187 -0.80303 -0.5943 0.0079328
0.31065 0.074878 0.86422 6.7303e-39 231 264 0 0 0 -0.04572 -0.79652 -0.60289 0.00923
0.18281 0.077433 0.86453 8.5742e-39 262 265.5 0 0 0 -0.023164 -0.89014 -0.4551 0.0064463
0.18476 0.076901 0.86422 8.3437e-39 262.5 265 0 0 0 -0.032533 -0.89606 -0.44274 0.0061993
0.18628 0.076901 0.86422 8.7586e-39 264 265 0 0 0 -0.034664 -0.90012 -0.43427 0.0059753
0.18894 0.076954 0.86483 8.1593e-39 266.5 265 0 0 0 -0.044231 -0.90665 -0.41955 0.0058076
0.19109 0.077008 0.86543 6.7764e-39 314.5 265 0 0 0 -0.040926 -0.90983 -0.41295 0.0055655
0.19306 0.076981 0.86513 5.8083e-39 362.5 265 0 0 0 -0.038676 -0.91232 -0.40765 0.0053578
0.19501 0.076954 0.86483 6.0849e-39 366 265 0 0 0 -0.03702 -0.91652 -0.39828 0.0052507
0.19703 0.077966 0.86483 8.021e-39 377.5 266 0 0 0 -0.034083 -0.91977 -0.39098 0.0050921
0.20145 0.077912 0.86422 8.3898e-39 382 266 0 0 0 -0.014463 -0.92629 -0.37653 0.0040836
0.20303 0.077939 0.86453 7.9288e-39 383.5 266 0 0 0 -0.0057128 -0.92927 -0.36935 0.003936
0.20983 0.077008 0.86543 8.482e-39 382 265 0 0 0 0.0086436 -0.93768 -0.34738 0.0025417
0.21127 0.076981 0.86513 8.0671e-39 383.5 265 0 0 0 0.013828 -0.9397 -0.34173 0.002332
0.2156 0.076901 0.86422 7.3757e-39 388 265 0 0 0 0.015535 -0.94377 -0.33025 0.0019324
0.21743 0.077008 0.86543 7.1913e-39 389.5 265 0 0 0 0.014464 -0.94196 -0.33542 0.002179
0.21995 0.077008 0.86543 7.56e-39 392 265 0 0 0 0.0094337 -0.94152 -0.33682 0.0022988
0.2214 0.077487 0.86513 7.6061e-39 399 265.5 0 0 0 0.0068646 -0.94165 -0.33654 0.0022874
0.22284 0.077966 0.86483 6.8225e-39 406 266 0 0 0 0.0032808 -0.94093 -0.33858 0.0023971
0.22486 0.077966 0.86483 5.9005e-39 408 266 0 0 0 -0.0029089 -0.93908 -0.34368 0.0026204
0.22992 0.077966 0.86483 5.9927e-39 413 266 0 0 0 -0.015631 -0.93307 -0.35934 0.0027579
0.23194 0.077966 0.86483 5.7161e-39 415 266 0 0 0 -0.020992 -0.93071 -0.36516 0.0025829
0.23599 0.077966 0.86483 6.1771e-39 419 266 0 0 0 -0.033954 -0.92453 -0.37959 0.0018158
0.23734 0.077912 0.86422 6.131e-39 420.5 266 0 0 0 -0.032336 -0.92315 -0.38308 0.0016004
0.23919 0.077008 0.86543 5.9927e-39 413 265 0 0 0 -0.035474 -0.92163 -0.38644 0.0015338
0.24071 0.077008 0.86543 5.7161e-39 414.5 265 0 0 0 -0.033707 -0.92157 -0.38676 0.0015399
0.2429 0.077912 0.86422 5.9005e-39 426 266 0 0 0 -0.032315 -0.92195 -0.38595 0.0015106
0.2445 0.076927 0.86453 6.0849e-39 418.5 265 0 0 0 -0.027609 -0.92318 -0.38338 0.0015833
0.24611 0.076954 0.86483 6.2693e-39 420 265 0 0 0 -0.019588 -0.92421 -0.38137 0.0016243
0.24914 0.076954 0.86483 5.5317e-39 423 265 0 0 0 -0.0086251 -0.92664 -0.37586 0.0014164
0.25057 0.076927 0.86453 5.3473e-39 424.5 265 0 0 0 -0.0078332 -0.92848 -0.3713 0.0012982
0.25301 0.076901 0.86422 6.1771e-39 427 265 0 0 0 -0.0085233 -0.92953 -0.36865 0.0011754
0.25866 0.076927 0.86453 5.5318e-39 167.5 266 0 0 0 -0.0024106 -0.92679 -0.37557 0.0012444
0.26059 0.076901 0.86422 5.0708e-39 176.5 266 0 0 0 0.00093695 -0.92499 -0.37998 0.001493
0.2628 0.076954 0.86483 6.0849e-39 178.5 266 0 0 0 0.0041792 -0.91921 -0.39375 0.0016057
0.26506 0.077309 0.86503 5.8698e-39 183.33 266.33 0 0 0 0.0094024 -0.91284 -0.40821 0.0017746
0.26704 0.077008 0.86543 5.8083e-39 182.5 266 0 0 0 0.0086172 -0.90689 -0.42129 0.0020782
0.26906 0.077008 0.86543 5.9927e-39 184.5 266 0 0 0 0.0062844 -0.90187 -0.43197 0.0022861
0.2709 0.076954 0.86483 5.8544e-39 186.5 266 0 0 0 0.0048359 -0.89762 -0.44075 0.0023342
0.27292 0.076954 0.86483 6.0849e-39 189.5 266 0 0 0 -0.00073444 -0.89209 -0.45186 0.0023229
0.27485 0.076927 0.86453 6.131e-39 192.5 266 0 0 0 -0.006171 -0.8871 -0.46154 0.0025359
0.27687 0.076927 0.86453 6.131e-39 195 266 0 0 0 -0.017049 -0.88123 -0.47237 0.0023931
0.279 0.076954 0.86483 5.4856e-39 197.5 266 0 0 0 -0.020975 -0.87478 -0.48406 0.0024865
0.28122 0.077008 0.86543 5.9927e-39 199.5 266 0 0 0 -0.027086 -0.86707 -0.49745 0.0023373
0.28327 0.077309 0.86503 6.7303e-39 211 266.33 0 0 0 -0.029719 -0.86141 -0.50703 0.0023428
0.2853 0.077309 0.86503 6.3615e-39 213 266.33 0 0 0 -0.023938 -0.85658 -0.51545 0.0026335
0.28698 0.077309 0.86503 6.423e-39 222.33 266.33 0 0 0 -0.021572 -0.85238 -0.52248 0.0028126
0.28922 0.076981 0.86513 6.8225e-39 230.5 266 0 0 0 -0.018648 -0.84727 -0.53084 0.0030241
0.29092 0.076901 0.86422 6.2693e-39 232.5 266 0 0 0 -0.018871 -0.84559 -0.5335 0.0031188
0.29245 0.076901 0.86422 6.0849e-39 234 266 0 0 0 -0.02282 -0.84161 -0.53961 0.0032558
0.30559 0.076901 0.86422 9.5883e-39 247 266 0 0 0 -0.040679 -0.81838 -0.57323 0.0059728
0.17617 0.078923 0.86422 5.8083e-39 360 267 0 0 0 0.017373 -0.86914 -0.49426 0.010291
0.17865 0.079315 0.86483 6.0542e-39 362 267.33 0 0 0 0.0027002 -0.88051 -0.47402 0.0080591
0.18085 0.078978 0.86483 6.7456e-39 332.5 267 0 0 0 -0.020383 -0.88686 -0.46159 0.0066973
0.18224 0.078923 0.86422 6.1771e-39 368 267 0 0 0 -0.029463 -0.88892 -0.45711 0.0061304
0.20072 0.078021 0.86543 8.7586e-39 381 266 0 0 0 -0.013838 -0.9242 -0.38166 0.0041897
0.22493 0.078499 0.86513 5.9927e-39 410.5 266.5 0 0 0 -0.0032947 -0.93887 -0.34425 0.0026439
0.22731 0.078951 0.86453 5.5778e-39 415.5 267 0 0 0 -0.0068502 -0.93695 -0.34941 0.0026518
0.22891 0.078472 0.86483 5.9005e-39 414.5 266.5 0 0 0 -0.011207 -0.93582 -0.35229 0.0027183
0.23109 0.078021 0.86543 5.7161e-39 414 266 0 0 0 -0.0201 -0.93178 -0.36247 0.0026894
0.23324 0.078622 0.86462 5.7776e-39 419.67 266.67 0 0 0 -0.025308 -0.92776 -0.37232 0.0022722
0.23514 0.078021 0.86543 5.9005e-39 418 266 0 0 0 -0.033324 -0.92494 -0.37864 0.0018954
0.17439 0.13573 0.86543 1.0234e-38 384 306 0 0 0 -0.6285 0.301 -0.71721 0.0061448
0.17439 0.13725 0.86543 8.2054e-39 281.5 307 0 0 0 -0.62314 0.29389 -0.72479 0.006527
0.17522 0.13914 0.86453 8.7124e-39 272 308 0 0 0 -0.63184 0.28511 -0.72076 0.0058888
0.17617 0.13959 0.86422 1.0879e-38 368 308 0 0 0 -0.63409 0.28505 -0.7188 0.0056493
0.1754 0.1413 0.86543 9.2656e-39 218 309 0 0 0 -0.63051 0.27674 -0.72516 0.0057504
0.17636 0.14125 0.86513 8.5283e-39 219 309 0 0 0 -0.63343 0.27738 -0.72237 0.0056363
0.17642 0.14282 0.86543 6.4537e-39 148 310 0 0 0 -0.63226 0.27863 -0.72292 0.0054603
0.17724 0.1452 0.86453 8.7587e-39 351.5 310.5 0 0 0 -0.6376 0.27723 -0.71876 0.0054177
0.17819 0.14566 0.86422 1.0787e-38 248 311 0 0 0 -0.63955 0.27645 -0.71732 0.0053255
0.17737 0.14733 0.86513 8.9892e-39 338 311.5 0 0 0 -0.63822 0.27851 -0.71771 0.0055879
0.17857 0.14738 0.86442 9.1276e-39 305.67 311.67 0 0 0 -0.64106 0.27825 -0.71527 0.0052214
0.17743 0.1489 0.86543 6.8225e-39 429 312 0 0 0 -0.63928 0.28185 -0.71546 0.0059013
0.17886 0.14932 0.86498 8.1824e-39 330 312.5 0 0 0 -0.64101 0.28262 -0.7136 0.005563
0.17945 0.15143 0.86543 7.4218e-39 322.5 313.5 0 0 0 -0.6409 0.28842 -0.71138 0.0056388
0.18021 0.15122 0.86422 7.9288e-39 323.5 313.5 0 0 0 -0.64046 0.28928 -0.71142 0.0051608
0.18068 0.15351 0.86483 9.0044e-39 281.33 314.67 0 0 0 -0.63536 0.29856 -0.71216 0.0051923
0.18102 0.1552 0.86483 7.8367e-39 341.67 315.33 0 0 0 -0.62924 0.30866 -0.71329 0.0049459
0.18224 0.15577 0.86422 9.3118e-39 213 316 0 0 0 -0.62715 0.31303 -0.71323 0.004523
0.18148 0.157 0.86543 6.5459e-39 400 316 0 0 0 -0.62522 0.31611 -0.71356 0.0047225
0.18262 0.15749 0.86442 9.2194e-39 278.67 316.67 0 0 0 -0.62466 0.31901 -0.71276 0.004271
0.18148 0.15801 0.86543 1.1893e-38 216 317 0 0 0 -0.62469 0.31868 -0.71289 0.0047684
0.18293 0.15897 0.86513 6.7764e-39 405.5 317 0 0 0 -0.621 0.32674 -0.71246 0.0042743
0.18426 0.15981 0.86422 1.2262e-38 224 318 0 0 0 -0.61903 0.33222 -0.71164 0.003921
0.1835 0.16003 0.86543 1.4106e-38 223 318 0 0 0 -0.61861 0.33393 -0.71121 0.0040334
0.18432 0.16138 0.86453 8.7125e-39 320.5 318.5 0 0 0 -0.61561 0.33859 -0.7116 0.0038454
0.18489 0.16346 0.86483 9.7728e-39 327 319.5 0 0 0 -0.61647 0.34506 -0.70774 0.0034507
0.18503 0.16459 0.86543 9.404e-39 333 320 0 0 0 -0.61457 0.3492 -0.70737 0.003371
0.18634 0.16543 0.86453 9.4961e-39 342 320.5 0 0 0 -0.62165 0.34529 -0.70308 0.0028175
0.18654 0.16712 0.86543 1.0787e-38 149 322 0 0 0 -0.6218 0.35009 -0.70058 0.0026799
0.18748 0.16859 0.86513 9.4959e-39 228.5 322.5 0 0 0 -0.62487 0.3501 -0.69783 0.0025622
0.18843 0.16903 0.86483 1.3461e-38 180 323 0 0 0 -0.62726 0.34928 -0.69609 0.0025491
0.18882 0.17075 0.86503 9.4959e-39 252.67 323.67 0 0 0 -0.62828 0.3495 -0.69507 0.0026075
0.19032 0.17194 0.86422 7.0069e-39 363 324 0 0 0 -0.62925 0.34823 -0.69482 0.0025929
0.18945 0.17257 0.86483 8.6664e-39 283.5 324.5 0 0 0 -0.6286 0.34977 -0.69464 0.0026168
0.19083 0.17295 0.86422 9.0351e-39 206.5 325 0 0 0 -0.62871 0.34988 -0.69448 0.0025951
0.19286 0.17397 0.86422 7.2835e-39 361.5 325 0 0 0 -0.62729 0.34996 -0.69572 0.0026455
0.19437 0.17397 0.86422 6.9147e-39 363 325 0 0 0 -0.62531 0.35126 -0.69686 0.0027327
0.18958 0.17421 0.86543 6.8225e-39 358 325 0 0 0 -0.62786 0.34781 -0.69629 0.0026574
0.19103 0.17466 0.86513 7.4218e-39 282 325.5 0 0 0 -0.62888 0.34804 -0.69526 0.0027128
0.19306 0.17516 0.86513 7.6061e-39 206.5 326 0 0 0 -0.62639 0.34987 -0.69658 0.0027102
0.19495 0.17555 0.86453 7.4218e-39 277 326 0 0 0 -0.6238 0.35216 -0.69775 0.0026199
0.19363 0.17623 0.86543 6.6381e-39 344 326 0 0 0 -0.62511 0.35119 -0.69707 0.0026991
0.19552 0.17712 0.86483 7.0991e-39 183 327 0 0 0 -0.62224 0.35291 -0.69877 0.0026754
0.19565 0.17826 0.86543 1.2815e-38 303 327 0 0 0 -0.62266 0.35172 -0.69899 0.0025679
0.19653 0.17915 0.86483 1.1156e-38 139 328 0 0 0 -0.61797 0.35423 -0.70188 0.0024525
0.19667 0.18079 0.86543 8.8506e-39 325 328 0 0 0 -0.61717 0.35474 -0.70233 0.0024236
0.19747 0.18262 0.86453 6.1771e-39 275.5 329 0 0 0 -0.61232 0.35656 -0.70565 0.0024319
0.19848 0.18262 0.86453 6.4076e-39 276.5 329 0 0 0 -0.61046 0.35769 -0.70668 0.0023534
0.19768 0.18433 0.86543 7.0069e-39 152 330 0 0 0 -0.61104 0.3554 -0.70733 0.0024261
0.19889 0.18488 0.86483 9.281e-39 230 330 0 0 0 -0.60872 0.35608 -0.70899 0.0024704
0.19956 0.18674 0.86483 6.0849e-39 288.5 330.5 0 0 0 -0.60707 0.35353 -0.71168 0.0026579
0.19963 0.18883 0.86513 7.8366e-39 361 331 0 0 0 -0.60658 0.34917 -0.71424 0.0027729
0.20044 0.18913 0.86422 6.5459e-39 418 331 0 0 0 -0.60359 0.35029 -0.71622 0.002781
0.1997 0.19092 0.86543 8.3437e-39 253.5 332 0 0 0 -0.60728 0.34318 -0.71654 0.0029226
0.20105 0.19075 0.86468 7.9288e-39 255 332 0 0 0 -0.6034 0.34488 -0.719 0.0028746
0.20135 0.19273 0.86523 6.2078e-39 324.67 332.33 0 0 0 -0.60256 0.34039 -0.72184 0.003087
0.20246 0.19318 0.86422 5.9927e-39 188 333 0 0 0 -0.59897 0.33942 -0.72528 0.0029689
0.20311 0.19483 0.86483 8.4128e-39 311 333 0 0 0 -0.59598 0.33865 -0.7281 0.0031067
0.20448 0.1952 0.86422 7.0991e-39 352 333 0 0 0 -0.59408 0.33992 -0.72906 0.002854
0.28233 0.19419 0.86422 7.56e-39 346 333 0 0 0 0.8021 0.27071 -0.53231 0.0060193
0.20505 0.19628 0.86453 6.6381e-39 138.5 334 0 0 0 -0.5906 0.33926 -0.73218 0.0029317
0.2065 0.19722 0.86422 7.1913e-39 211 334 0 0 0 -0.59106 0.3353 -0.73364 0.0029858
0.18376 0.073061 0.86665 6.6381e-39 233 260 0 0 0 -0.016544 -0.89137 -0.45297 0.0070799
0.18535 0.072579 0.86695 7.1913e-39 248.5 259 0 0 0 -0.017699 -0.89362 -0.44847 0.0072035
0.18605 0.073163 0.86786 6.3615e-39 235 260 0 0 0 -0.019096 -0.89667 -0.44229 0.006819
0.29368 0.073163 0.86786 8.3898e-39 265 261 0 0 0 -0.045925 -0.83105 -0.5543 0.003201
0.29469 0.073163 0.86786 8.2054e-39 266 261 0 0 0 -0.047067 -0.82805 -0.55867 0.0032832
0.30119 0.073138 0.86756 6.4997e-39 315 261 0 0 0 -0.054455 -0.80938 -0.58476 0.0037653
0.30311 0.073112 0.86725 6.0849e-39 364.5 261 0 0 0 -0.053061 -0.80798 -0.58682 0.0040846
0.30514 0.073112 0.86725 6.4076e-39 373 261 0 0 0 -0.054367 -0.80226 -0.59449 0.0046708
0.30728 0.073138 0.86756 7.3757e-39 381.5 261 0 0 0 -0.054665 -0.79496 -0.60419 0.0055649
0.30931 0.073138 0.86756 7.8366e-39 383.5 261 0 0 0 -0.04913 -0.78627 -0.61592 0.0067398
0.31118 0.072591 0.8671 7.3296e-39 308.5 260.5 0 0 0 -0.054816 -0.77512 -0.62943 0.0080158
0.18199 0.075194 0.86786 5.3473e-39 175 263 0 0 0 -0.015773 -0.88732 -0.46089 0.0074048
0.18341 0.074647 0.86741 6.3385e-39 282.5 262 0 0 0 -0.014309 -0.89192 -0.45197 0.0069377
0.18525 0.074568 0.8665 6.7303e-39 284.5 262 0 0 0 -0.02276 -0.89622 -0.44303 0.0065373
0.18718 0.074768 0.86685 6.5459e-39 251 262.33 0 0 0 -0.026828 -0.90072 -0.43357 0.0063034
0.18808 0.074179 0.86786 8.021e-39 393 261 0 0 0 -0.022078 -0.90102 -0.43322 0.0059719
0.24596 0.075194 0.86786 6.3615e-39 365 263 0 0 0 -0.015466 -0.92464 -0.38052 0.00176
0.24799 0.075194 0.86786 6.0849e-39 376 263 0 0 0 -0.0064588 -0.92594 -0.37763 0.0016032
0.249 0.075194 0.86786 6.1771e-39 377 263 0 0 0 -0.0032972 -0.92651 -0.37624 0.0014965
0.25052 0.075194 0.86786 7.1913e-39 378.5 263 0 0 0 -0.0021758 -0.92634 -0.37668 0.0014318
0.25256 0.075194 0.86786 8.4359e-39 380.5 263 0 0 0 -0.0051453 -0.92673 -0.37569 0.00133
0.25552 0.075167 0.86756 8.2976e-39 383.5 263 0 0 0 -0.0081058 -0.92631 -0.37667 0.0011956
0.25677 0.075089 0.86665 7.8366e-39 385 263 0 0 0 -0.010249 -0.92644 -0.3763 0.0012229
0.26119 0.075194 0.86786 7.4678e-39 389 263 0 0 0 -0.016527 -0.91837 -0.39537 0.0017125
0.28657 0.075194 0.86786 5.163e-39 175 264 0 0 0 -0.04192 -0.85282 -0.52052 0.0023194
0.289 0.075167 0.86756 5.4856e-39 177.5 264 0 0 0 -0.03326 -0.84634 -0.5316 0.0028457
0.29099 0.074647 0.86741 7.1221e-39 286.5 263 0 0 0 -0.034077 -0.8411 -0.5398 0.0029472
0.29281 0.074595 0.8668 6.7764e-39 289.5 263 0 0 0 -0.037464 -0.83538 -0.5484 0.0032872
0.29417 0.074556 0.86634 6.8224e-39 292 263 0 0 0 -0.038013 -0.83255 -0.55265 0.0034145
0.29935 0.074075 0.86665 8.2976e-39 398 262 0 0 0 -0.048185 -0.81747 -0.57395 0.0036101
0.30087 0.074075 0.86665 8.2976e-39 399.5 262 0 0 0 -0.050277 -0.81507 -0.57718 0.0037958
0.30279 0.074049 0.86634 6.1771e-39 418.5 262 0 0 0 -0.050601 -0.81357 -0.57926 0.0042539
0.30502 0.074395 0.86645 5.9312e-39 347 262.67 0 0 0 -0.050587 -0.80859 -0.58619 0.0050787
0.3069 0.074568 0.8665 5.9236e-39 312.25 263 0 0 0 -0.050741 -0.80306 -0.59373 0.0058196
0.30881 0.074413 0.86665 6.1771e-39 351 262.67 0 0 0 -0.049515 -0.79674 -0.60228 0.0066081
0.31029 0.074023 0.86604 6.3615e-39 426 262 0 0 0 -0.046284 -0.79151 -0.60939 0.0075104
0.17958 0.077062 0.86604 9.2196e-39 250 265 0 0 0 -0.016046 -0.88116 -0.47255 0.0074788
0.18126 0.076623 0.8668 7.6753e-39 244 264.5 0 0 0 -0.020136 -0.88482 -0.46549 0.0072119
0.18275 0.076609 0.86664 7.7905e-39 245.5 264.5 0 0 0 -0.020094 -0.88962 -0.45626 0.0068276
0.1894 0.076129 0.86695 9.2196e-39 244.5 264 0 0 0 -0.032401 -0.90528 -0.42359 0.0058131
0.19113 0.076209 0.86786 9.2196e-39 246 264 0 0 0 -0.029474 -0.90657 -0.42103 0.0056853
0.19307 0.076173 0.86746 9.3732e-39 248 264 0 0 0 -0.028414 -0.91055 -0.41243 0.0055335
0.19542 0.076102 0.86665 9.0352e-39 250.5 264 0 0 0 -0.026671 -0.91359 -0.40577 0.0052374
0.19745 0.077116 0.86665 5.8083e-39 369.5 265 0 0 0 -0.023302 -0.91701 -0.39818 0.0049551
0.1994 0.077089 0.86634 6.1771e-39 371.5 265 0 0 0 -0.012784 -0.91985 -0.39206 0.0045522
0.20273 0.077198 0.86756 6.6842e-39 374.5 265 0 0 0 0.0090097 -0.92483 -0.38027 0.0038844
0.20505 0.077116 0.86665 7.6215e-39 377 265 0 0 0 0.00656 -0.92848 -0.37132 0.0036055
0.20752 0.077089 0.86634 8.1593e-39 379.5 265 0 0 0 0.0086364 -0.93398 -0.35723 0.0028554
0.20911 0.077116 0.86665 8.7586e-39 381 265 0 0 0 0.012911 -0.93605 -0.35164 0.0026686
0.21092 0.076209 0.86786 6.6842e-39 314.5 264 0 0 0 0.018457 -0.9342 -0.35627 0.0030495
0.21302 0.077062 0.86604 7.6522e-39 385 265 0 0 0 0.016873 -0.93948 -0.34218 0.0024252
0.21476 0.076129 0.86695 5.8544e-39 367 264 0 0 0 0.017797 -0.93803 -0.34611 0.0026214
0.21687 0.076155 0.86725 5.9005e-39 371.5 264 0 0 0 0.015184 -0.93835 -0.34535 0.0026651
0.2191 0.077062 0.86604 7.6522e-39 391 265 0 0 0 0.0098565 -0.94122 -0.33766 0.0023847
0.22108 0.076209 0.86786 6.3615e-39 375.5 264 0 0 0 0.0039672 -0.93666 -0.35022 0.0029506
0.22297 0.076778 0.86665 7.7752e-39 389 264.67 0 0 0 -0.001093 -0.93853 -0.34519 0.002781
0.22482 0.077116 0.86665 7.7905e-39 396.5 265 0 0 0 -0.0075638 -0.9371 -0.34899 0.0028728
0.22702 0.077171 0.86725 8.2976e-39 398.5 265 0 0 0 -0.01433 -0.93494 -0.35453 0.0028845
0.22905 0.077171 0.86725 8.3898e-39 400.5 265 0 0 0 -0.02198 -0.93276 -0.35982 0.0028484
0.23107 0.076662 0.86725 7.9058e-39 394 264.5 0 0 0 -0.029955 -0.92887 -0.36918 0.0025449
0.23288 0.076814 0.86705 7.7751e-39 398.67 264.67 0 0 0 -0.033022 -0.92741 -0.37259 0.0023927
0.23513 0.077171 0.86725 7.2835e-39 406.5 265 0 0 0 -0.037615 -0.92515 -0.37774 0.0020125
0.23691 0.077089 0.86634 6.0388e-39 410.5 265 0 0 0 -0.039538 -0.92344 -0.38171 0.0017405
0.23919 0.076662 0.86725 7.053e-39 403 264.5 0 0 0 -0.038498 -0.92286 -0.3832 0.0016586
0.2413 0.076182 0.86756 7.8366e-39 395.5 264 0 0 0 -0.03192 -0.92305 -0.38335 0.0016928
0.24299 0.077089 0.86634 5.8544e-39 416.5 265 0 0 0 -0.029682 -0.92245 -0.38498 0.0016659
0.2451 0.076102 0.86664 8.482e-39 399.5 264 0 0 0 -0.020837 -0.9238 -0.3823 0.0017168
0.24705 0.076076 0.86634 8.021e-39 402.5 264 0 0 0 -0.011885 -0.92481 -0.38024 0.0016217
0.24907 0.076076 0.86634 7.56e-39 405.5 264 0 0 0 -0.0054022 -0.92663 -0.37594 0.0014672
0.2511 0.076076 0.86634 6.3154e-39 410.5 264 0 0 0 -0.003727 -0.9275 -0.37381 0.001338
0.25313 0.076076 0.86634 6.0849e-39 412.5 264 0 0 0 -0.006059 -0.92833 -0.37171 0.0011585
0.25456 0.076049 0.86604 5.8083e-39 415 264 0 0 0 -0.0071475 -0.92844 -0.37142 0.0011246
0.2576 0.076049 0.86604 6.1771e-39 419 264 0 0 0 -0.0070735 -0.92679 -0.37551 0.0011835
0.25939 0.076129 0.86695 5.9466e-39 420.5 264 0 0 0 -0.0099847 -0.92363 -0.38316 0.0013687
0.26123 0.076076 0.86634 5.0247e-39 422.5 264 0 0 0 -0.0098639 -0.9214 -0.38849 0.001563
0.26303 0.076156 0.86725 4.8864e-39 424 264 0 0 0 -0.010206 -0.91548 -0.40224 0.0018928
0.26456 0.076156 0.86725 5.6239e-39 425.5 264 0 0 0 -0.0074467 -0.91182 -0.41052 0.0020447
0.26658 0.076156 0.86725 6.2693e-39 427.5 264 0 0 0 -0.005401 -0.90786 -0.41924 0.0021845
0.26862 0.076156 0.86725 6.3154e-39 293.5 264.5 0 0 0 -0.0080865 -0.89982 -0.43619 0.0024612
0.27109 0.076138 0.86705 6.0849e-39 160 265 0 0 0 -0.011677 -0.89374 -0.44843 0.0025508
0.27349 0.076102 0.86665 5.0708e-39 176 265 0 0 0 -0.016284 -0.88724 -0.46102 0.0026841
0.27502 0.076102 0.86665 5.8083e-39 178 265 0 0 0 -0.023425 -0.88267 -0.46941 0.0026927
0.27654 0.076102 0.86665 6.2693e-39 179.5 265 0 0 0 -0.027908 -0.87783 -0.47816 0.0024457
0.27867 0.076129 0.86695 6.0388e-39 181.5 265 0 0 0 -0.036528 -0.87122 -0.48954 0.0023436
0.28079 0.076156 0.86725 5.7622e-39 184.5 265 0 0 0 -0.038188 -0.86488 -0.50052 0.002216
0.28282 0.076156 0.86725 5.67e-39 186.5 265 0 0 0 -0.040663 -0.85989 -0.50886 0.0020817
0.28485 0.076156 0.86725 5.7622e-39 190.5 265 0 0 0 -0.037928 -0.85588 -0.51578 0.0022916
0.28688 0.076156 0.86725 5.9005e-39 195.5 265 0 0 0 -0.03315 -0.85016 -0.52547 0.0026287
0.2887 0.076102 0.86665 5.67e-39 198.5 265 0 0 0 -0.02802 -0.84712 -0.53066 0.0028714
0.29052 0.076049 0.86604 6.4998e-39 200.5 265 0 0 0 -0.025839 -0.84342 -0.53663 0.0030281
0.17908 0.078076 0.86604 8.6203e-39 264.5 266 0 0 0 -0.016151 -0.88075 -0.47331 0.007226
0.2267 0.078076 0.86604 5.9927e-39 409.5 266 0 0 0 -0.0102 -0.93633 -0.35097 0.0028138
0.22821 0.078076 0.86604 6.0849e-39 411 266 0 0 0 -0.015312 -0.93477 -0.35493 0.0028755
0.23429 0.078076 0.86604 5.7161e-39 417 266 0 0 0 -0.030918 -0.92668 -0.37459 0.002212
0.17184 0.1346 0.86786 8.436e-39 291.5 305.5 0 0 0 -0.62275 0.2975 -0.72365 0.0080607
0.17362 0.13592 0.86665 1.0602e-38 383 306 0 0 0 -0.62047 0.29416 -0.72697 0.0068709
0.17303 0.13666 0.86705 7.7136e-39 251 306.67 0 0 0 -0.6181 0.29021 -0.73056 0.0073162
0.17323 0.13856 0.86725 9.1734e-39 274.5 307.5 0 0 0 -0.61933 0.27734 -0.73452 0.0070283
0.17458 0.13943 0.86634 8.2515e-39 271 308 0 0 0 -0.62265 0.27921 -0.73099 0.0062347
0.17336 0.14069 0.86786 8.8046e-39 261.5 308.5 0 0 0 -0.62632 0.26994 -0.73134 0.0066427
0.17464 0.14099 0.86665 6.5459e-39 160 309 0 0 0 -0.62639 0.27379 -0.72985 0.0059744
0.17336 0.14221 0.86786 1.2585e-38 272.5 309 0 0 0 -0.62653 0.26924 -0.73142 0.0068329
0.17502 0.14272 0.86685 8.5435e-39 189 309.67 0 0 0 -0.62589 0.27505 -0.7298 0.0060052
0.17654 0.14394 0.86604 1.5397e-38 262 310 0 0 0 -0.63311 0.27494 -0.72359 0.0057296
0.17285 0.14525 0.86786 8.482e-39 446 310 0 0 0 -0.63063 0.27658 -0.72512 0.0071062
0.1752 0.14459 0.86695 1.1202e-38 357 310 0 0 0 -0.62996 0.27604 -0.72592 0.0061389
0.17654 0.14546 0.86604 8.7585e-39 350.5 310.5 0 0 0 -0.63657 0.27587 -0.72019 0.005897
0.17319 0.14694 0.86786 8.9123e-39 370.33 311 0 0 0 -0.63246 0.27715 -0.72332 0.0071828
0.1752 0.14662 0.86695 9.7496e-39 340.5 311 0 0 0 -0.6334 0.27782 -0.72224 0.0062421
0.17666 0.14708 0.86665 7.6522e-39 438 311 0 0 0 -0.63675 0.27942 -0.71866 0.0061057
0.17336 0.14881 0.86786 8.0902e-39 328.5 312 0 0 0 -0.63247 0.28292 -0.72107 0.0074826
0.17526 0.14871 0.86725 8.8506e-39 330.5 312 0 0 0 -0.6356 0.28048 -0.71927 0.0069065
0.17666 0.1486 0.86665 9.3578e-39 332 312 0 0 0 -0.63795 0.28301 -0.71618 0.0063155
0.17319 0.15067 0.86786 8.021e-39 287.33 313 0 0 0 -0.63501 0.28761 -0.71697 0.0080092
0.17532 0.15079 0.86756 8.5971e-39 321.5 313 0 0 0 -0.63509 0.28784 -0.7168 0.00717
0.1772 0.15065 0.8668 8.7356e-39 323.5 313 0 0 0 -0.63837 0.28547 -0.71484 0.0065055
0.17857 0.15103 0.86604 6.8225e-39 421 313 0 0 0 -0.63949 0.28698 -0.71322 0.0060132
0.17285 0.15236 0.86786 9.7727e-39 216 314 0 0 0 -0.62717 0.29103 -0.72247 0.0083743
0.1759 0.15287 0.86786 7.053e-39 313.5 314 0 0 0 -0.63857 0.29346 -0.71142 0.0071003
0.17729 0.15276 0.86725 7.1913e-39 315 314 0 0 0 -0.63788 0.29347 -0.71203 0.0066636
0.17895 0.15275 0.86624 7.0991e-39 348.33 314 0 0 0 -0.63988 0.29247 -0.71065 0.0060595
0.17793 0.1549 0.86786 8.2054e-39 307.5 315 0 0 0 -0.63503 0.30296 -0.7106 0.0063225
0.1792 0.15469 0.86665 7.8597e-39 309 315 0 0 0 -0.6326 0.30267 -0.71289 0.0057312
0.17936 0.15685 0.8674 9.2889e-39 303.5 316 0 0 0 -0.62803 0.31526 -0.71147 0.0054746
0.18059 0.1566 0.86604 8.5281e-39 305 316 0 0 0 -0.6273 0.31336 -0.71295 0.0050813
0.17996 0.15845 0.86786 1.0049e-38 214 317 0 0 0 -0.62559 0.32215 -0.71053 0.0050909
0.18106 0.15891 0.86665 7.7136e-39 340.67 317 0 0 0 -0.62229 0.32468 -0.71228 0.0047349
0.18152 0.16071 0.86725 1.1248e-38 283 318 0 0 0 -0.61753 0.33324 -0.71247 0.0044013
0.183 0.16086 0.86624 9.1273e-39 347 318 0 0 0 -0.61574 0.33679 -0.71235 0.0041655
0.18199 0.16303 0.86786 8.897e-39 319 319 0 0 0 -0.61308 0.34439 -0.71101 0.0040848
0.18326 0.16279 0.86665 9.1505e-39 320.5 319 0 0 0 -0.61127 0.34563 -0.71196 0.0039343
0.18345 0.16449 0.86756 1.2631e-38 237.5 320 0 0 0 -0.61089 0.35093 -0.70969 0.0038344
0.18433 0.16539 0.86695 5.9005e-39 425.5 320 0 0 0 -0.61182 0.35112 -0.7088 0.0034966
0.18501 0.16677 0.86677 1.1838e-38 211.4 321.4 0 0 0 -0.61479 0.35228 -0.70564 0.0030324
