# .PCD v.7 - Point Cloud Data file format
VERSION .7
FIELDS x y z rgb u v vx vy vz normal_x normal_y normal_z curvature
SIZE 4 4 4 4 4 4 4 4 4 4 4 4 4
TYPE F F F F F F F F F F F F F
COUNT 1 1 1 1 1 1 1 1 1 1 1 1 1
WIDTH 554
HEIGHT 1
VIEWPOINT 0 0 0 1 0 0 0
POINTS 554
DATA ascii
-0.035582 0.084807 1.0573 8.7124e-39 356 304 0 0 0 -0.78371 0.23451 -0.57515 0.012952
-0.035582 0.08728 1.0573 8.7124e-39 215 305 0 0 0 -0.76906 0.25328 -0.58685 0.010682
-0.034949 0.089098 1.0568 8.7125e-39 414.5 305 0 0 0 -0.75625 0.26697 -0.59734 0.0089048
-0.03308 0.08906 1.0564 7.7444e-39 416 305 0 0 0 -0.7478 0.27308 -0.60516 0.0082623
0.047299 0.089137 1.0573 5.8083e-39 503 305 0 0 0 0.83142 0.20774 -0.51535 0.011848
-0.034331 0.090953 1.0568 8.2515e-39 196 306 0 0 0 -0.74966 0.28527 -0.59718 0.0080742
-0.033108 0.090374 1.0573 6.8225e-39 153 306 0 0 0 -0.7502 0.28264 -0.59775 0.0083155
-0.031844 0.091532 1.0564 9.8649e-39 242 306 0 0 0 -0.73976 0.29366 -0.60541 0.0071689
0.047299 0.090992 1.0573 1.0372e-38 305.5 306 0 0 0 0.82753 0.21084 -0.52032 0.011493
-0.031871 0.092848 1.0573 1.1801e-38 400 306 0 0 0 -0.73989 0.29847 -0.60289 0.0068793
0.047299 0.092848 1.0573 6.3615e-39 464 306 0 0 0 0.8226 0.20793 -0.52923 0.010795
-0.030621 0.094663 1.0568 9.6345e-39 181.5 307 0 0 0 -0.72634 0.31241 -0.61224 0.005335
0.046023 0.094622 1.0564 1.0557e-38 285.5 307 0 0 0 0.79403 0.21688 -0.56787 0.010991
-0.029372 0.097094 1.0564 9.7268e-39 408.5 307 0 0 0 -0.721 0.31512 -0.61714 0.0055395
0.044787 0.097712 1.0564 7.0991e-39 166 308 0 0 0 0.77809 0.21246 -0.59113 0.0098524
0.046062 0.097178 1.0573 7.5139e-39 301 307.5 0 0 0 0.80437 0.2023 -0.55862 0.010455
-0.029397 0.099033 1.0573 9.0352e-39 185 308 0 0 0 -0.72678 0.32438 -0.60545 0.0062949
0.044825 0.099033 1.0573 1.2078e-38 245 308 0 0 0 0.7847 0.20565 -0.58476 0.0093173
-0.028148 0.10085 1.0568 1.1155e-38 327.5 308 0 0 0 -0.72004 0.32175 -0.61483 0.0069776
0.043551 0.1008 1.0564 1.0372e-38 420.5 308 0 0 0 0.74494 0.22009 -0.62978 0.0086335
0.044825 0.10027 1.0573 1.217e-38 385 308 0 0 0 0.78263 0.20535 -0.58764 0.008902
-0.026912 0.10332 1.0568 8.6665e-39 355 308.5 0 0 0 -0.72288 0.30799 -0.61853 0.007803
0.04296 0.10334 1.0571 1.0902e-38 233.5 309 0 0 0 0.74195 0.22392 -0.63195 0.0084562
-0.025664 0.10513 1.0564 1.0787e-38 285 309 0 0 0 -0.71889 0.29601 -0.62895 0.008861
0.042351 0.10522 1.0573 1.1617e-38 408 309 0 0 0 0.7324 0.22758 -0.64171 0.0081557
-0.025675 0.10702 1.0568 8.021e-39 290 309.5 0 0 0 -0.73008 0.28551 -0.62086 0.0092587
0.041079 0.1076 1.0564 1.217e-38 211 310 0 0 0 0.69832 0.23715 -0.67536 0.0074323
0.041079 0.10884 1.0564 1.1617e-38 281 310 0 0 0 0.6912 0.23772 -0.68245 0.0067991
-0.024428 0.11069 1.0564 7.6061e-39 397.5 310 0 0 0 -0.72571 0.26857 -0.63341 0.0084635
0.041079 0.11069 1.0564 8.574e-39 461 310 0 0 0 0.68257 0.24362 -0.68902 0.0065272
-0.024449 0.11326 1.0573 9.9112e-39 184.5 311 0 0 0 -0.73147 0.26646 -0.62765 0.009027
-0.023192 0.11378 1.0564 9.7727e-39 220 311 0 0 0 -0.71081 0.26464 -0.6517 0.0085644
0.039843 0.11378 1.0564 1.0879e-38 271 311 0 0 0 0.6551 0.25065 -0.71276 0.0054848
0.041097 0.11321 1.0568 1.0879e-38 239 311 0 0 0 0.6781 0.24606 -0.69256 0.0065234
-0.023192 0.11502 1.0564 8.7586e-39 285 311 0 0 0 -0.70942 0.26348 -0.65368 0.0081508
0.039843 0.11502 1.0564 1.3276e-38 400 311 0 0 0 0.6511 0.25627 -0.71442 0.00533
-0.023212 0.11697 1.0573 1.0695e-38 450 311 0 0 0 -0.71564 0.25805 -0.64906 0.008759
0.039242 0.11692 1.0568 9.1504e-39 317 311.5 0 0 0 0.64333 0.25752 -0.72098 0.0057364
-0.023212 0.11883 1.0573 1.051e-38 178 312 0 0 0 -0.7137 0.2569 -0.65165 0.0097481
-0.021956 0.11934 1.0564 1.2631e-38 208 312 0 0 0 -0.67245 0.2672 -0.69023 0.0080423
0.038607 0.11872 1.0564 1.3461e-38 228 312 0 0 0 0.6369 0.26072 -0.72553 0.0061211
-0.023212 0.12068 1.0573 1.1939e-38 258 312 0 0 0 -0.69512 0.26316 -0.669 0.0091484
-0.021956 0.1212 1.0564 1.2354e-38 282 312 0 0 0 -0.65814 0.26339 -0.70532 0.0061589
0.03864 0.12068 1.0573 1.1894e-38 327 312 0 0 0 0.63688 0.26151 -0.72525 0.0063317
-0.021956 0.12305 1.0564 1.2769e-38 404.5 312 0 0 0 -0.64819 0.26087 -0.7154 0.0051389
0.037371 0.12305 1.0564 1.0188e-38 437.5 312 0 0 0 0.60659 0.25907 -0.75162 0.0058454
0.03864 0.12315 1.0573 1.0326e-38 438.5 312 0 0 0 0.62193 0.25621 -0.73997 0.0059266
-0.021348 0.12495 1.0568 6.6381e-39 459.5 312 0 0 0 -0.64507 0.25576 -0.72005 0.0055168
0.037371 0.1249 1.0564 5.5317e-39 502 312 0 0 0 0.59866 0.2616 -0.75708 0.0055394
0.03864 0.12501 1.0573 5.8083e-39 503 312 0 0 0 0.6096 0.25464 -0.7507 0.0056276
-0.02072 0.12614 1.0564 6.1771e-39 504 312 0 0 0 -0.6406 0.25454 -0.72446 0.0056129
0.037371 0.12614 1.0564 1.1985e-38 161 313 0 0 0 0.5923 0.25832 -0.76318 0.005164
0.054792 -0.019129 1.0587 7.3296e-39 185 249 0 0 0 -0.67547 -0.39623 -0.62188 0.026366
-0.039327 -0.016025 1.0582 7.4678e-39 238 252 0 0 0 0.77785 -0.047184 -0.62667 0.024648
0.049859 -0.016039 1.0592 8.021e-39 166 254 0 0 0 -0.71376 -0.31529 -0.62541 0.028127
0.051098 -0.016039 1.0592 8.021e-39 167 254 0 0 0 -0.71204 -0.32418 -0.62282 0.028325
0.052945 -0.016655 1.059 7.1221e-39 186 253 0 0 0 -0.71017 -0.33565 -0.61886 0.027686
0.056054 -0.016039 1.0592 7.7444e-39 171 254 0 0 0 -0.69021 -0.36515 -0.62472 0.026897
-0.038089 -0.014787 1.0582 6.8225e-39 198 254 0 0 0 0.76795 -0.0036937 -0.6405 0.022877
-0.036851 -0.014787 1.0582 6.8225e-39 199 254 0 0 0 0.76357 0.011234 -0.64563 0.020756
0.049816 -0.014787 1.0582 7.0069e-39 244 255 0 0 0 -0.72505 -0.2837 -0.62755 0.029241
0.051054 -0.014787 1.0582 7.2835e-39 245 255 0 0 0 -0.72531 -0.31155 -0.61389 0.028209
0.052292 -0.014787 1.0582 7.7444e-39 246 255 0 0 0 -0.71915 -0.31553 -0.61908 0.027566
-0.035643 -0.012322 1.0592 6.3615e-39 206 257 0 0 0 0.74157 0.049054 -0.66908 0.019466
0.04862 -0.012942 1.0592 7.0991e-39 268.5 257.5 0 0 0 -0.74822 -0.23074 -0.62204 0.029604
-0.035613 -0.011073 1.0582 6.0849e-39 154 259 0 0 0 0.74758 0.043422 -0.66275 0.019727
0.04862 -0.011082 1.0592 6.6381e-39 241 260 0 0 0 -0.75537 -0.1675 -0.63353 0.02973
-0.035643 -0.0098433 1.0592 6.3615e-39 143 261 0 0 0 0.74671 0.049524 -0.6633 0.017979
0.048578 -0.0092159 1.0582 6.2693e-39 232.5 264 0 0 0 -0.74995 -0.082197 -0.65637 0.03107
0.048599 -0.0067423 1.0587 6.8225e-39 238.5 268 0 0 0 -0.7419 -0.029666 -0.66985 0.026974
0.04862 -0.0048867 1.0592 6.4537e-39 183 271 0 0 0 -0.7389 5.7306e-05 -0.67381 0.020932
0.04862 -0.0030279 1.0592 7.6983e-39 230.5 272.5 0 0 0 -0.73761 0.019266 -0.67495 0.017232
0.04862 -0.0011692 1.0592 7.2835e-39 228 274 0 0 0 -0.73965 0.031251 -0.67227 0.014642
0.054815 0.0075049 1.0592 6.2693e-39 159 279 0 0 0 -0.84672 0.12203 -0.51785 0.021552
0.056006 0.0074985 1.0582 6.1771e-39 161 279 0 0 0 -0.86331 0.12733 -0.48835 0.023933
0.05353 0.0087366 1.0582 5.8083e-39 214 279 0 0 0 -0.9097 0.15282 -0.38612 0.025297
0.054815 0.0087441 1.0592 5.8083e-39 215 279 0 0 0 -0.88683 0.15654 -0.43476 0.025366
0.056006 0.0087366 1.0582 5.9927e-39 219 279 0 0 0 0.93372 -0.25067 -0.25559 0.015603
-0.038089 0.065689 1.0582 6.4537e-39 189 300 0 0 0 -0.9098 0.22847 -0.34651 0.012792
0.049816 0.081784 1.0582 6.7303e-39 192 304 0 0 0 0.87406 0.18297 -0.45004 0.011016
0.04862 0.084333 1.0592 9.0352e-39 424 304 0 0 0 0.87964 0.1785 -0.44088 0.011057
-0.036851 0.087356 1.0582 8.897e-39 214 305 0 0 0 -0.7762 0.24294 -0.5818 0.01088
-0.036882 0.089289 1.0592 9.404e-39 413 305 0 0 0 -0.77207 0.26233 -0.57887 0.011371
-0.036882 0.090529 1.0592 6.4537e-39 150 306 0 0 0 -0.76662 0.27222 -0.58154 0.011242
-0.035613 0.09107 1.0582 8.2976e-39 195 306 0 0 0 -0.75752 0.28406 -0.58777 0.0092014
-0.033137 0.091689 1.0582 9.7727e-39 241 306 0 0 0 -0.75041 0.28773 -0.59506 0.0080681
-0.035009 0.092967 1.0587 1.1109e-38 397.5 306 0 0 0 -0.75462 0.29775 -0.58471 0.0091142
-0.033165 0.093007 1.0592 1.1617e-38 399 306 0 0 0 -0.75282 0.30338 -0.58414 0.0085424
-0.031912 0.094825 1.0587 9.0813e-39 363 306.5 0 0 0 -0.74014 0.3145 -0.59437 0.0065758
0.04734 0.094784 1.0582 1.0141e-38 286.5 307 0 0 0 0.83634 0.19553 -0.51216 0.010645
-0.03066 0.09726 1.0582 9.7264e-39 407.5 307 0 0 0 -0.73549 0.3263 -0.59378 0.0062477
0.04736 0.097302 1.0587 7.5601e-39 302 307.5 0 0 0 0.83795 0.18313 -0.5141 0.010097
0.046741 0.09916 1.0587 1.0971e-38 246.5 308 0 0 0 0.8285 0.18253 -0.5294 0.010622
-0.029435 0.10102 1.0587 1.134e-38 326.5 308 0 0 0 -0.7389 0.33405 -0.58518 0.0073835
0.044864 0.10159 1.0582 7.1913e-39 458 308 0 0 0 0.79301 0.20216 -0.57468 0.0094374
0.046141 0.10106 1.0592 9.312e-39 422.5 308 0 0 0 0.81843 0.18768 -0.54309 0.0098772
-0.028184 0.10283 1.0582 6.0849e-39 496 308 0 0 0 -0.73776 0.31902 -0.59492 0.0083377
0.044864 0.10283 1.0582 1.0787e-38 200 309 0 0 0 0.78546 0.20894 -0.58258 0.0094836
-0.028208 0.10478 1.0592 9.957e-39 247.5 309 0 0 0 -0.75332 0.31635 -0.57657 0.009875
-0.026946 0.10531 1.0582 8.6664e-39 284 309 0 0 0 -0.747 0.30992 -0.58817 0.010645
0.043625 0.10531 1.0582 1.1248e-38 409 309 0 0 0 0.75382 0.22123 -0.61872 0.0087566
0.044902 0.10478 1.0592 1.0879e-38 340.5 309 0 0 0 0.7857 0.20629 -0.5832 0.0090016
-0.026958 0.10722 1.0587 7.8827e-39 289 309.5 0 0 0 -0.75592 0.30546 -0.57904 0.011375
0.043006 0.10717 1.0582 9.4961e-39 176 310 0 0 0 0.74375 0.22463 -0.62958 0.008356
0.044902 0.10726 1.0592 9.5423e-39 177.5 310 0 0 0 0.77127 0.21714 -0.59833 0.008629
-0.026969 0.10912 1.0592 1.3092e-38 226 310 0 0 0 -0.76776 0.29148 -0.5706 0.01177
-0.025708 0.10902 1.0582 1.3e-38 227 310 0 0 0 -0.76118 0.28594 -0.5821 0.011666
0.043006 0.10902 1.0582 9.9573e-39 282.5 310 0 0 0 0.73749 0.23136 -0.63449 0.007892
0.044902 0.10912 1.0592 8.1132e-39 284 310 0 0 0 0.75944 0.22227 -0.61142 0.0077357
-0.025719 0.11093 1.0587 7.6522e-39 396.5 310 0 0 0 -0.7703 0.27644 -0.57464 0.011856
0.043006 0.11088 1.0582 1.028e-38 278 310.5 0 0 0 0.72557 0.24102 -0.64456 0.007863
0.044902 0.11036 1.0592 1.1156e-38 419 310 0 0 0 0.75458 0.22656 -0.61585 0.0080577
-0.02573 0.11283 1.0592 1.0695e-38 149 311 0 0 0 -0.78003 0.27289 -0.5631 0.012295
0.043025 0.11278 1.0587 1.1893e-38 207.5 311 0 0 0 0.72138 0.24479 -0.64783 0.0080832
-0.02447 0.11521 1.0582 8.943e-39 284 311 0 0 0 -0.74641 0.2686 -0.60888 0.010308
0.041149 0.11521 1.0582 1.4843e-38 401 311 0 0 0 0.6819 0.25256 -0.68646 0.0070165
0.043044 0.11469 1.0592 1.3668e-38 338 311 0 0 0 0.7215 0.24916 -0.64603 0.0084324
-0.02447 0.11707 1.0582 1.0188e-38 449 311 0 0 0 -0.7399 0.25781 -0.62135 0.010328
0.041167 0.11712 1.0587 9.8189e-39 318.5 311.5 0 0 0 0.68176 0.25561 -0.68547 0.0075897
0.043663 0.11655 1.0592 6.3615e-39 479 311 0 0 0 0.71184 0.24698 -0.65749 0.0081836
-0.02447 0.11893 1.0582 1.0326e-38 177 312 0 0 0 -0.72784 0.24993 -0.63858 0.0097244
0.039911 0.11893 1.0582 1.1893e-38 229 312 0 0 0 0.64737 0.25063 -0.71979 0.0055972
0.041185 0.11903 1.0592 1.1063e-38 230 312 0 0 0 0.68023 0.25616 -0.68678 0.007821
-0.024491 0.12089 1.0592 1.1617e-38 257 312 0 0 0 -0.72934 0.24861 -0.63738 0.011653
0.039911 0.12078 1.0582 1.2078e-38 328 312 0 0 0 0.6443 0.25135 -0.72229 0.006027
0.041185 0.12089 1.0592 1.2769e-38 329 312 0 0 0 0.6508 0.2476 -0.71774 0.0058003
-0.024491 0.12275 1.0592 1.5212e-38 382 312 0 0 0 -0.7129 0.25321 -0.65396 0.011087
-0.023232 0.12326 1.0582 1.3506e-38 403.5 312 0 0 0 -0.68552 0.25877 -0.68052 0.0080741
0.039911 0.12264 1.0582 1.429e-38 420 312 0 0 0 0.64002 0.24737 -0.72745 0.0063566
0.041185 0.12275 1.0592 1.4198e-38 421 312 0 0 0 0.64692 0.24601 -0.72178 0.00615
0.049559 -0.018974 1.0616 7.5908e-39 171.67 249.33 0 0 0 -0.70517 -0.31066 -0.63736 0.02763
0.051186 -0.018549 1.061 8.1132e-39 177 250 0 0 0 -0.70232 -0.33348 -0.62892 0.026606
0.053036 -0.019166 1.0608 7.56e-39 177.75 249 0 0 0 -0.69488 -0.36351 -0.62048 0.025844
-0.038171 -0.016681 1.0605 7.0529e-39 221 251 0 0 0 0.74725 0.0070966 -0.66451 0.023809
-0.036946 -0.016688 1.061 7.053e-39 222 251 0 0 0 0.73413 0.038244 -0.67793 0.022484
0.049088 -0.016885 1.0604 6.9147e-39 188.67 252.67 0 0 0 -0.72985 -0.27532 -0.62571 0.028912
0.051142 -0.017293 1.0601 6.0849e-39 202 252 0 0 0 -0.71028 -0.32305 -0.62541 0.027684
0.056103 -0.017293 1.0601 6.0849e-39 206 252 0 0 0 -0.6764 -0.39536 -0.62143 0.025982
-0.035705 -0.014825 1.061 6.4537e-39 200 254 0 0 0 0.72194 0.061069 -0.68925 0.020891
0.047503 -0.014838 1.0619 6.8225e-39 242 255 0 0 0 -0.7413 -0.20694 -0.63848 0.029437
0.048661 -0.014813 1.0601 6.9147e-39 243 255 0 0 0 -0.74284 -0.24909 -0.62141 0.030315
-0.035674 -0.013572 1.0601 5.9927e-39 153 256 0 0 0 0.73227 0.051601 -0.67906 0.02026
0.047503 -0.013596 1.0619 7.9288e-39 166 257 0 0 0 -0.74434 -0.20464 -0.63567 0.029236
0.047503 -0.0098687 1.0619 6.6381e-39 230 263 0 0 0 -0.7537 -0.12877 -0.64448 0.029628
-0.040635 0.063321 1.0601 9.8649e-39 369 299 0 0 0 -0.93758 0.19143 -0.29035 0.013112
-0.03822 0.067157 1.0619 8.3898e-39 266 300 0 0 0 -0.92733 0.14509 -0.34499 0.017281
-0.03822 0.069021 1.0619 8.2513e-39 291 300.5 0 0 0 -0.91255 0.1393 -0.38452 0.016449
-0.038187 0.070824 1.061 8.482e-39 239 301 0 0 0 -0.89954 0.13358 -0.41591 0.017727
-0.038187 0.072686 1.061 8.9889e-39 431.5 301 0 0 0 -0.88875 0.12534 -0.44093 0.017075
-0.03822 0.074611 1.0619 6.4537e-39 199 302 0 0 0 -0.87129 0.10294 -0.47986 0.01494
-0.03822 0.080823 1.0619 1.0234e-38 388 303 0 0 0 -0.83922 0.13552 -0.52663 0.015155
0.049901 0.083165 1.0601 9.6805e-39 269 304 0 0 0 0.89284 0.16861 -0.41761 0.010179
0.049324 0.085097 1.061 7.6061e-39 292.5 304.5 0 0 0 0.89212 0.16462 -0.42073 0.01048
0.048703 0.08696 1.061 9.2196e-39 244 305 0 0 0 0.88904 0.17185 -0.42435 0.010748
-0.03822 0.088898 1.0619 1.0741e-38 333 305 0 0 0 -0.78373 0.23125 -0.57645 0.015251
0.048703 0.088202 1.061 1.2446e-38 402 305 0 0 0 0.88891 0.16411 -0.42768 0.01084
-0.036914 0.091846 1.0601 9.7727e-39 238 306 0 0 0 -0.76322 0.28476 -0.58 0.0107
-0.036946 0.093167 1.061 1.0787e-38 396 306 0 0 0 -0.76084 0.30246 -0.57415 0.011509
0.048724 0.092586 1.0615 8.436e-39 425.5 306 0 0 0 0.88303 0.15093 -0.44439 0.011151
-0.036978 0.094489 1.0619 6.4537e-39 499 306 0 0 0 -0.76171 0.31678 -0.5652 0.012007
-0.034434 0.094327 1.0601 6.1771e-39 500 306 0 0 0 -0.75562 0.31462 -0.5745 0.0093853
-0.033193 0.094947 1.0601 8.5281e-39 362 306.5 0 0 0 -0.75325 0.31888 -0.57527 0.0086085
0.048703 0.095028 1.061 9.8649e-39 287.5 307 0 0 0 0.8769 0.15413 -0.45529 0.01122
-0.031953 0.096807 1.0601 1.3e-38 369 307 0 0 0 -0.74597 0.33557 -0.57526 0.0071509
0.048703 0.096891 1.061 8.2054e-39 437 307 0 0 0 0.86982 0.15017 -0.46996 0.010747
-0.031549 0.098903 1.0604 7.4678e-39 270.33 307.67 0 0 0 -0.74728 0.34371 -0.56872 0.0078824
0.048745 0.098837 1.0619 9.2198e-39 208.5 308 0 0 0 0.86881 0.14193 -0.47436 0.010591
-0.030739 0.10061 1.061 1.0049e-38 255 308 0 0 0 -0.75516 0.34936 -0.5547 0.0093662
0.047421 0.10115 1.0601 8.897e-39 423.5 308 0 0 0 0.83967 0.17181 -0.5152 0.0099097
0.048745 0.10132 1.0619 8.5743e-39 424.5 308 0 0 0 0.85604 0.15261 -0.49386 0.0098896
-0.029473 0.10301 1.0601 6.1771e-39 495 308 0 0 0 -0.75186 0.33374 -0.56862 0.0088346
0.046822 0.10306 1.0605 9.957e-39 201.5 309 0 0 0 0.82957 0.17295 -0.53094 0.0099062
0.048745 0.10319 1.0619 9.9571e-39 203 309 0 0 0 0.84522 0.15573 -0.51123 0.0099904
-0.029485 0.10492 1.0605 1.0833e-38 246.5 309 0 0 0 -0.76349 0.32917 -0.55564 0.010714
0.046822 0.10492 1.0605 1.1478e-38 342 309 0 0 0 0.81674 0.18569 -0.54631 0.0093797
0.048745 0.10567 1.0619 1.0326e-38 413 309 0 0 0 0.83539 0.17313 -0.52168 0.0097525
-0.028663 0.1072 1.0607 7.9595e-39 333 309.33 0 0 0 -0.77839 0.31655 -0.54213 0.011903
0.046841 0.10682 1.061 7.6061e-39 142.5 310 0 0 0 0.81322 0.19334 -0.5489 0.0096959
-0.02889 0.10873 1.0615 1.051e-38 188 310 0 0 0 -0.79734 0.31446 -0.51513 0.013925
0.046841 0.10868 1.061 1.1248e-38 250.5 310 0 0 0 0.80645 0.19878 -0.55689 0.0094788
-0.028281 0.11126 1.0619 9.1276e-39 394.5 310 0 0 0 -0.81877 0.291 -0.4949 0.013958
-0.026992 0.11107 1.0601 8.3898e-39 395.5 310 0 0 0 -0.78084 0.28343 -0.55674 0.012085
0.044941 0.11169 1.0601 9.5883e-39 140 311 0 0 0 0.75454 0.22695 -0.61576 0.0081657
0.046861 0.11121 1.0615 1.0948e-38 281 310.5 0 0 0 0.79222 0.2166 -0.57051 0.0090314
-0.027016 0.11303 1.061 1.0326e-38 148 311 0 0 0 -0.79589 0.27415 -0.53982 0.012307
0.044941 0.11293 1.0601 1.2446e-38 209 311 0 0 0 0.74561 0.23355 -0.62411 0.0081555
0.046861 0.11308 1.0615 1.1202e-38 210.5 311 0 0 0 0.781 0.22745 -0.58165 0.0097879
-0.027016 0.11489 1.061 1.2493e-38 249.5 311 0 0 0 -0.79671 0.26853 -0.54143 0.013232
-0.025752 0.11479 1.0601 1.1294e-38 250.5 311 0 0 0 -0.78525 0.26755 -0.55839 0.013019
0.04496 0.11484 1.0605 1.3276e-38 339.5 311 0 0 0 0.74239 0.2362 -0.62696 0.0087713
0.04626 0.11499 1.0619 1.3553e-38 340.5 311 0 0 0 0.76195 0.23026 -0.60531 0.0098075
-0.027039 0.11685 1.0619 1.2907e-38 408 311 0 0 0 -0.80293 0.26431 -0.53427 0.014274
-0.025752 0.11727 1.0601 9.7264e-39 448 311 0 0 0 -0.78613 0.26933 -0.5563 0.013956
0.042873 0.11748 1.0601 1.0203e-38 271.33 311.67 0 0 0 0.70431 0.24903 -0.66479 0.0083009
0.044979 0.11675 1.061 6.4537e-39 480 311 0 0 0 0.73414 0.23915 -0.63549 0.0090664
-0.027039 0.11809 1.0619 6.5459e-39 486 311 0 0 0 -0.80552 0.26696 -0.52903 0.014807
-0.025752 0.11913 1.0601 1.051e-38 176 312 0 0 0 -0.76516 0.25612 -0.5907 0.012107
0.04308 0.11913 1.0601 9.6344e-39 231.5 312 0 0 0 0.70126 0.2504 -0.66749 0.0086179
-0.025752 0.12099 1.0601 1.1248e-38 256 312 0 0 0 -0.758 0.258 -0.59906 0.013929
0.04246 0.12037 1.0601 1.2078e-38 278 312 0 0 0 0.69445 0.25483 -0.6729 0.0088802
0.053185 -0.021086 1.0637 6.0388e-39 183.5 245 0 0 0 -0.66153 -0.39807 -0.63555 0.023931
-0.038253 -0.018581 1.0628 8.1132e-39 169 248 0 0 0 0.73976 0.011983 -0.67277 0.023214
-0.037041 -0.018597 1.0637 7.9288e-39 170 248 0 0 0 0.72013 0.050031 -0.69203 0.02322
0.048829 -0.019842 1.0637 6.7303e-39 163 248 0 0 0 -0.69006 -0.31342 -0.65237 0.028177
0.051274 -0.019825 1.0628 7.0991e-39 165 248 0 0 0 -0.70041 -0.33023 -0.63275 0.026785
-0.035766 -0.016094 1.0628 7.1913e-39 241 252 0 0 0 0.71695 0.068613 -0.69374 0.020533
0.047142 -0.016514 1.0631 7.8674e-39 175.33 253.33 0 0 0 -0.72301 -0.2091 -0.65844 0.029233
0.0463 -0.014851 1.0628 7.0069e-39 241 255 0 0 0 -0.7321 -0.18797 -0.65476 0.02919
0.046714 -0.012778 1.0628 7.4679e-39 223.33 257.67 0 0 0 -0.73936 -0.1721 -0.65095 0.028169
0.046921 -0.011121 1.0628 6.8686e-39 239.5 260 0 0 0 -0.74546 -0.16629 -0.64548 0.028043
0.0463 -0.0092555 1.0628 6.3615e-39 231 264 0 0 0 -0.74607 -0.11852 -0.65524 0.028215
-0.034523 -0.0073903 1.0628 6.5459e-39 258 265 0 0 0 0.722 0.079532 -0.68731 0.015185
-0.042019 0.062295 1.0637 8.2054e-39 211 299 0 0 0 -0.94836 0.15396 -0.27731 0.017795
-0.04074 0.064728 1.0628 1.0234e-38 449 299 0 0 0 -0.94145 0.14915 -0.30236 0.01729
-0.042641 0.071007 1.0637 9.404e-39 235.5 301 0 0 0 -0.90461 0.061124 -0.42183 0.018222
-0.040775 0.071007 1.0637 8.7586e-39 237 301 0 0 0 -0.90474 0.074622 -0.41937 0.018474
-0.042641 0.072873 1.0637 8.8276e-39 428 301 0 0 0 -0.88855 0.060438 -0.45479 0.015742
-0.040757 0.072841 1.0633 8.9891e-39 429.5 301 0 0 0 -0.89249 0.076901 -0.44446 0.016164
-0.042641 0.075362 1.0637 6.131e-39 234.5 302 0 0 0 -0.8745 0.069867 -0.47996 0.014429
-0.040775 0.075362 1.0637 6.3154e-39 236 302 0 0 0 -0.87142 0.077594 -0.48436 0.014188
-0.038253 0.075919 1.0628 6.5459e-39 277 302 0 0 0 -0.86464 0.10691 -0.49088 0.014708
-0.038286 0.077229 1.0637 1.0049e-38 429 302 0 0 0 -0.8554 0.10142 -0.50794 0.014112
-0.038253 0.079028 1.0628 8.021e-39 195 303 0 0 0 -0.84586 0.12075 -0.51955 0.014129
-0.038253 0.082758 1.0628 6.8686e-39 330.5 303.5 0 0 0 -0.82496 0.13687 -0.54837 0.015578
-0.038253 0.085244 1.0628 8.482e-39 354 304 0 0 0 -0.81318 0.16754 -0.55738 0.017632
0.05003 0.085866 1.0628 6.1771e-39 161 305 0 0 0 0.9044 0.145 -0.40128 0.0097682
-0.038253 0.08711 1.0628 6.4537e-39 172 305 0 0 0 -0.79658 0.19918 -0.57078 0.016685
-0.040775 0.089051 1.0637 1.0372e-38 331 305 0 0 0 -0.78321 0.2173 -0.58255 0.017617
0.048829 0.089674 1.0637 7.0069e-39 138 306 0 0 0 0.89622 0.14099 -0.42061 0.010713
-0.038253 0.09084 1.0628 6.6381e-39 149 306 0 0 0 -0.77138 0.27777 -0.57256 0.015137
0.048829 0.090918 1.0637 1.0234e-38 227 306 0 0 0 0.89258 0.13969 -0.42871 0.011031
-0.038286 0.092163 1.0637 9.2196e-39 237 306 0 0 0 -0.77272 0.29088 -0.56417 0.016347
0.050073 0.095896 1.0637 9.7727e-39 362 307 0 0 0 0.88681 0.12335 -0.44537 0.011058
-0.032036 0.10079 1.0628 9.9571e-39 254 308 0 0 0 -0.76539 0.3671 -0.5286 0.011821
-0.030792 0.10203 1.0628 1.2539e-38 396 308 0 0 0 -0.76857 0.36026 -0.5287 0.012102
0.048787 0.10452 1.0628 1.2354e-38 274 309 0 0 0 0.84665 0.15467 -0.50917 0.010159
0.050073 0.10523 1.0637 1.0556e-38 344.5 309 0 0 0 0.85752 0.1451 -0.49357 0.010784
0.048787 0.107 1.0628 7.2835e-39 144 310 0 0 0 0.83473 0.17578 -0.52185 0.010193
-0.029549 0.10949 1.0628 1.2262e-38 224 310 0 0 0 -0.80364 0.31665 -0.50388 0.014959
0.048829 0.10834 1.0637 1.2815e-38 217 310 0 0 0 0.83719 0.17991 -0.51648 0.01049
-0.028305 0.11322 1.0628 9.3118e-39 147 311 0 0 0 -0.83207 0.27597 -0.48114 0.014334
-0.028305 0.11509 1.0628 1.2769e-38 248.5 311 0 0 0 -0.82785 0.27188 -0.49066 0.014738
0.047564 0.11514 1.0633 1.3323e-38 341.5 311 0 0 0 0.80038 0.23354 -0.55213 0.010849
0.046942 0.117 1.0633 6.6842e-39 483 311 0 0 0 0.78379 0.24708 -0.56976 0.011896
0.050117 -0.021104 1.0646 6.1771e-39 181 245 0 0 0 -0.68773 -0.34242 -0.64014 0.02716
-0.032119 -0.018629 1.0655 7.9288e-39 174 248 0 0 0 0.68515 0.09391 -0.72233 0.018246
0.047667 -0.018629 1.0655 7.7444e-39 174 250 0 0 0 -0.70568 -0.23524 -0.66834 0.030048
-0.035018 -0.016963 1.0652 6.9762e-39 231 250.67 0 0 0 0.70704 0.07868 -0.70278 0.018669
-0.032742 -0.016759 1.0655 7.2374e-39 245.5 251 0 0 0 0.68602 0.10211 -0.72038 0.016991
0.045153 -0.016753 1.0651 7.514e-39 179.5 253 0 0 0 -0.71465 -0.17228 -0.67793 0.029793
0.04638 -0.017368 1.0646 6.9147e-39 198 252 0 0 0 -0.71173 -0.20582 -0.67162 0.030324
-0.034582 -0.014876 1.0646 6.1771e-39 201 254 0 0 0 0.70592 0.088394 -0.70275 0.017143
-0.032742 -0.014889 1.0655 6.2693e-39 202.5 254 0 0 0 0.68662 0.11147 -0.71842 0.015551
0.045134 -0.014876 1.0646 7.3757e-39 240 255 0 0 0 -0.72548 -0.16477 -0.66823 0.029757
-0.034582 -0.013008 1.0646 6.2693e-39 180.5 256.5 0 0 0 0.70566 0.089098 -0.70293 0.016503
-0.032742 -0.01302 1.0655 6.2463e-39 187.25 256.5 0 0 0 0.6887 0.11183 -0.71637 0.01498
0.045153 -0.013014 1.0651 7.4218e-39 205 257.5 0 0 0 -0.73284 -0.14127 -0.66557 0.029434
-0.034582 -0.01114 1.0646 5.9005e-39 155 259 0 0 0 0.70678 0.094594 -0.70108 0.015367
-0.032742 -0.011149 1.0655 5.7622e-39 156.5 259 0 0 0 0.69523 0.11411 -0.70967 0.014304
0.045173 -0.011149 1.0655 7.1913e-39 238 260 0 0 0 -0.7363 -0.12256 -0.66546 0.026767
-0.034582 -0.0092714 1.0646 6.3154e-39 192 262 0 0 0 0.71232 0.095331 -0.69535 0.015
-0.032742 -0.0092794 1.0655 6.3845e-39 201 262 0 0 0 0.69529 0.11402 -0.70962 0.014496
0.045153 -0.0092751 1.0651 6.4076e-39 230 264 0 0 0 -0.74362 -0.12131 -0.65751 0.02679
-0.032735 -0.0067848 1.0653 5.9005e-39 220 266.5 0 0 0 0.71 0.11204 -0.69523 0.014005
-0.042055 0.061103 1.0646 9.9571e-39 466 298 0 0 0 -0.95276 0.15625 -0.26045 0.018835
-0.042092 0.063649 1.0655 1.0234e-38 368 299 0 0 0 -0.94616 0.11975 -0.30073 0.020817
-0.04081 0.066085 1.0646 6.6381e-39 183 300 0 0 0 -0.9362 0.10369 -0.33583 0.020755
-0.042678 0.069822 1.0646 7.1913e-39 153.5 301 0 0 0 -0.90806 0.044924 -0.41643 0.01925
-0.040845 0.069882 1.0655 6.7303e-39 155 301 0 0 0 -0.90658 0.047505 -0.41934 0.018953
-0.039598 0.073622 1.0655 7.56e-39 469 301 0 0 0 -0.87857 0.063007 -0.47344 0.015031
-0.039598 0.074869 1.0655 6.7303e-39 198 302 0 0 0 -0.87451 0.064721 -0.48068 0.014416
-0.042715 0.077362 1.0655 1.0556e-38 425.5 302 0 0 0 -0.8607 0.065782 -0.50485 0.013423
-0.040845 0.077362 1.0655 1.0049e-38 427 302 0 0 0 -0.85465 0.077556 -0.51338 0.013917
-0.039598 0.076116 1.0655 6.5459e-39 276 302 0 0 0 -0.863 0.073042 -0.49989 0.013611
-0.042507 0.079025 1.0655 7.8059e-39 178.33 303 0 0 0 -0.84889 0.075539 -0.52315 0.01329
-0.040827 0.079198 1.0651 8.4359e-39 193 303 0 0 0 -0.84811 0.088162 -0.52243 0.013744
-0.042092 0.081102 1.0655 1.0695e-38 385 303 0 0 0 -0.83536 0.090475 -0.5422 0.015147
-0.04081 0.081032 1.0646 1.0971e-38 386 303 0 0 0 -0.83772 0.097965 -0.53724 0.014848
-0.039598 0.081102 1.0655 1.0602e-38 387 303 0 0 0 -0.83427 0.10001 -0.54222 0.015219
-0.042092 0.082972 1.0655 6.4998e-39 327.5 303.5 0 0 0 -0.82611 0.09303 -0.55577 0.016379
-0.04081 0.0829 1.0646 6.5459e-39 328.5 303.5 0 0 0 -0.82804 0.10439 -0.55086 0.0164
-0.039598 0.082972 1.0655 6.7764e-39 329.5 303.5 0 0 0 -0.82778 0.10925 -0.55032 0.016718
-0.042092 0.084842 1.0655 1.0787e-38 272 304 0 0 0 -0.8145 0.10213 -0.5711 0.018595
-0.04081 0.084769 1.0646 1.0326e-38 273 304 0 0 0 -0.8175 0.12633 -0.56191 0.018571
-0.039598 0.084842 1.0655 9.5883e-39 274 304 0 0 0 -0.81604 0.1318 -0.56277 0.018943
-0.04081 0.086637 1.0646 7.0068e-39 300.5 304.5 0 0 0 -0.80086 0.15166 -0.57933 0.019525
-0.039598 0.086712 1.0655 7.053e-39 301.5 304.5 0 0 0 -0.8031 0.1661 -0.57223 0.020943
-0.042055 0.089128 1.0646 1.0279e-38 330 305 0 0 0 -0.78249 0.20459 -0.5881 0.020068
-0.039598 0.089206 1.0655 1.0741e-38 332 305 0 0 0 -0.78498 0.23325 -0.57394 0.020191
-0.04081 0.090997 1.0646 6.4537e-39 147 306 0 0 0 -0.77491 0.2533 -0.57909 0.019711
-0.040845 0.092322 1.0655 9.3118e-39 235 306 0 0 0 -0.77385 0.28987 -0.56315 0.021161
-0.038319 0.093488 1.0646 1.0879e-38 395 306 0 0 0 -0.76876 0.31244 -0.55802 0.017349
0.050117 0.094734 1.0646 9.8649e-39 215 307 0 0 0 0.89285 0.12013 -0.43404 0.010946
0.050117 0.097225 1.0646 7.7444e-39 438 307 0 0 0 0.88613 0.11832 -0.44808 0.01102
0.050117 0.10096 1.0646 1.1156e-38 389 308 0 0 0 0.87787 0.1187 -0.46396 0.010681
-0.032091 0.10221 1.0646 1.2631e-38 395 308 0 0 0 -0.77296 0.37258 -0.51354 0.012874
-0.030872 0.10354 1.0655 6.2693e-39 494 308 0 0 0 -0.77937 0.36387 -0.51008 0.013873
0.050117 0.10283 1.0646 8.021e-39 333 308.5 0 0 0 0.87285 0.12649 -0.47132 0.011036
0.050117 0.10719 1.0646 7.3757e-39 145 310 0 0 0 0.85296 0.1583 -0.49739 0.010119
0.048871 0.10968 1.0646 1.1432e-38 287 310 0 0 0 0.83457 0.18936 -0.51734 0.010783
0.05016 0.10853 1.0655 1.1156e-38 218 310 0 0 0 0.85447 0.16206 -0.49358 0.010545
0.048913 0.11102 1.0655 9.9571e-39 423 310 0 0 0 0.83453 0.19778 -0.51424 0.010883
0.051495 -0.021159 1.0674 6.1771e-39 182 245 0 0 0 -0.68433 -0.35824 -0.63511 0.029678
-0.035266 -0.018645 1.0665 7.6983e-39 171.5 248 0 0 0 0.70261 0.07004 -0.70812 0.019194
-0.033394 -0.018645 1.0665 7.8366e-39 173 248 0 0 0 0.68682 0.093108 -0.72084 0.018613
-0.030899 -0.018645 1.0665 7.8366e-39 175 248 0 0 0 0.68314 0.10219 -0.72311 0.016733
0.045251 -0.018661 1.0674 7.3757e-39 172 250 0 0 0 -0.69888 -0.17686 -0.69303 0.033019
0.04646 -0.018645 1.0665 7.4678e-39 173 250 0 0 0 -0.70893 -0.21737 -0.67095 0.031945
-0.030912 -0.016781 1.0669 7.2374e-39 247 251 0 0 0 0.68276 0.11147 -0.72209 0.015098
-0.030925 -0.014915 1.0674 6.7303e-39 204 254 0 0 0 0.6834 0.12174 -0.71983 0.013755
0.042754 -0.014915 1.0674 7.2835e-39 238 255 0 0 0 -0.71937 -0.10482 -0.68667 0.030761
0.044003 -0.014915 1.0674 7.56e-39 239 255 0 0 0 -0.7205 -0.1131 -0.68416 0.031086
-0.030925 -0.013042 1.0674 6.5919e-39 194 256.5 0 0 0 0.68466 0.12687 -0.71774 0.013223
-0.030925 -0.011169 1.0674 5.6239e-39 158 259 0 0 0 0.68798 0.13909 -0.71228 0.013176
-0.030925 -0.0092955 1.0674 6.2693e-39 202.5 262 0 0 0 0.69038 0.14055 -0.70966 0.013484
-0.030912 -0.0067952 1.0669 6.131e-39 221.5 266.5 0 0 0 0.69882 0.1404 -0.70139 0.013867
-0.030925 -0.0049247 1.0674 6.7303e-39 369 269 0 0 0 0.70573 0.15316 -0.69172 0.013767
-0.030912 -0.0030505 1.0669 6.6381e-39 219 271.5 0 0 0 0.71489 0.14005 -0.68506 0.013358
-0.030925 -0.0011783 1.0674 7.56e-39 243 273 0 0 0 0.72493 0.13338 -0.67578 0.013099
-0.042147 0.059363 1.0669 9.496e-39 298.5 298 0 0 0 -0.95426 0.14248 -0.26286 0.024232
-0.044624 0.06308 1.0665 9.2197e-39 287 299 0 0 0 -0.94442 0.11432 -0.30822 0.02397
-0.043394 0.063107 1.0669 9.3116e-39 288.5 299 0 0 0 -0.94327 0.097238 -0.31747 0.024562
-0.044662 0.065008 1.0674 1.0695e-38 446 299 0 0 0 -0.92752 0.061979 -0.36859 0.025658
-0.042789 0.065008 1.0674 1.0649e-38 447.5 299 0 0 0 -0.93759 0.077897 -0.33892 0.024004
-0.044662 0.066882 1.0674 8.1593e-39 220.5 300 0 0 0 -0.92191 0.053651 -0.38368 0.023093
-0.043413 0.066882 1.0674 8.2054e-39 221.5 300 0 0 0 -0.91978 0.053604 -0.38875 0.022766
-0.040916 0.067506 1.0674 8.8508e-39 264 300 0 0 0 -0.91913 0.060172 -0.38934 0.020869
-0.044624 0.068695 1.0665 1.1432e-38 420 300 0 0 0 -0.91039 0.043962 -0.41141 0.021417
-0.04277 0.068724 1.0669 9.7725e-39 421.5 300 0 0 0 -0.91026 0.044206 -0.41166 0.021116
-0.040916 0.068754 1.0674 9.5883e-39 423 300 0 0 0 -0.90935 0.045807 -0.41349 0.020938
-0.039633 0.07119 1.0665 8.6664e-39 238 301 0 0 0 -0.89761 0.043067 -0.43868 0.017733
-0.039633 0.072438 1.0665 1.0879e-38 392 301 0 0 0 -0.88401 0.039187 -0.46583 0.015463
-0.039633 0.077429 1.0665 9.9571e-39 428 302 0 0 0 -0.85318 0.077518 -0.51582 0.013521
-0.043376 0.079925 1.0665 7.8366e-39 231 303 0 0 0 -0.84206 0.076459 -0.53394 0.014124
-0.039633 0.079301 1.0665 8.4359e-39 194 303 0 0 0 -0.84116 0.081302 -0.53464 0.013659
-0.043376 0.081172 1.0665 1.0326e-38 384 303 0 0 0 -0.83531 0.074539 -0.5447 0.014386
-0.044662 0.08374 1.0674 6.9147e-39 193 304 0 0 0 -0.82501 0.06627 -0.56122 0.017344
-0.043394 0.08308 1.0669 6.7303e-39 326.5 303.5 0 0 0 -0.82527 0.075896 -0.55961 0.016297
-0.044662 0.084989 1.0674 1.1063e-38 270 304 0 0 0 -0.8223 0.068038 -0.56497 0.018076
-0.043413 0.084989 1.0674 1.1432e-38 271 304 0 0 0 -0.81726 0.077809 -0.57099 0.018243
-0.045871 0.087411 1.0665 6.8225e-39 166 305 0 0 0 -0.79916 0.10551 -0.59179 0.019564
-0.042556 0.086604 1.0668 7.5908e-39 342.67 304.33 0 0 0 -0.80533 0.12151 -0.58023 0.020097
-0.044662 0.088735 1.0674 1.1432e-38 249 305 0 0 0 -0.78333 0.14263 -0.60503 0.021196
-0.043394 0.08932 1.0669 1.0787e-38 329 305 0 0 0 -0.77989 0.17989 -0.59951 0.023151
-0.042128 0.091154 1.0665 6.4537e-39 146 306 0 0 0 -0.77071 0.25456 -0.58413 0.022655
-0.039633 0.091154 1.0665 6.4537e-39 148 306 0 0 0 -0.77768 0.2714 -0.56706 0.022711
-0.042165 0.092482 1.0674 1.0602e-38 234 306 0 0 0 -0.76951 0.29235 -0.56779 0.024925
-0.04088 0.093649 1.0665 1.134e-38 393 306 0 0 0 -0.77543 0.32882 -0.53906 0.022012
0.050203 0.093649 1.0665 7.0991e-39 491 306 0 0 0 0.89766 0.11089 -0.4265 0.011339
0.050203 0.099264 1.0665 9.1735e-39 209.5 308 0 0 0 0.88753 0.10592 -0.44841 0.010784
0.048976 0.11304 1.0669 1.0234e-38 177.5 311 0 0 0 0.84374 0.20598 -0.49566 0.010757
0.048998 0.11496 1.0674 1.2907e-38 278 311 0 0 0 0.84178 0.22045 -0.49275 0.01109
0.048998 0.11621 1.0674 1.3461e-38 407 311 0 0 0 0.83727 0.23822 -0.49217 0.011298
0.050334 -0.022447 1.0692 5.5317e-39 187 243 0 0 0 -0.65388 -0.36967 -0.66014 0.032221
-0.029103 -0.021196 1.0692 6.4537e-39 221 243 0 0 0 0.68816 0.080314 -0.7211 0.014416
0.049083 -0.021196 1.0692 6.2693e-39 180 245 0 0 0 -0.6679 -0.31529 -0.67417 0.032564
-0.033452 -0.019927 1.0683 5.9927e-39 185 245 0 0 0 0.68441 0.085405 -0.72408 0.019126
-0.030952 -0.019927 1.0683 7.4678e-39 248 245 0 0 0 0.68492 0.093647 -0.72257 0.016013
-0.029096 -0.019315 1.069 7.9749e-39 216.5 246.5 0 0 0 0.6883 0.096386 -0.71899 0.013242
-0.027226 -0.018694 1.0692 7.3757e-39 178 248 0 0 0 0.69074 0.10605 -0.71528 0.011668
0.042828 -0.018694 1.0692 7.56e-39 170 250 0 0 0 -0.70343 -0.11932 -0.70068 0.032763
0.044079 -0.018694 1.0692 7.3757e-39 171 250 0 0 0 -0.69895 -0.13017 -0.70323 0.03314
0.047206 -0.019945 1.0692 7.0069e-39 213 247.5 0 0 0 -0.68967 -0.21988 -0.68993 0.032943
-0.029103 -0.016817 1.0692 6.6611e-39 201 251.5 0 0 0 0.68927 0.11383 -0.71551 0.012423
-0.027226 -0.017443 1.0692 6.4537e-39 157 251 0 0 0 0.69056 0.11148 -0.71463 0.01143
0.041577 -0.016817 1.0692 7.6061e-39 165.5 253 0 0 0 -0.71159 -0.080736 -0.69794 0.031649
0.042791 -0.016803 1.0683 7.8366e-39 166.5 253 0 0 0 -0.70974 -0.11057 -0.69573 0.031479
0.044041 -0.016803 1.0683 8.0671e-39 167.5 253 0 0 0 -0.70994 -0.12104 -0.69378 0.031872
0.041577 -0.014941 1.0692 6.8225e-39 237 255 0 0 0 -0.7207 -0.073129 -0.68938 0.030528
0.041577 -0.013064 1.0692 6.7764e-39 202 257.5 0 0 0 -0.7286 -0.055553 -0.68269 0.029908
0.042791 -0.013053 1.0683 6.8225e-39 203 257.5 0 0 0 -0.72372 -0.078944 -0.68556 0.030409
0.044041 -0.013053 1.0683 7.1913e-39 204 257.5 0 0 0 -0.72822 -0.099279 -0.67811 0.029429
0.041577 -0.011188 1.0692 6.6381e-39 235 260 0 0 0 -0.73491 -0.0555 -0.67589 0.029181
0.042791 -0.011178 1.0683 6.9147e-39 236 260 0 0 0 -0.73377 -0.077667 -0.67494 0.027487
0.044079 -0.011188 1.0692 7.1913e-39 237 260 0 0 0 -0.73634 -0.090408 -0.67055 0.029498
0.041577 -0.009937 1.0692 6.4537e-39 168 263 0 0 0 -0.73565 -0.048071 -0.67566 0.027142
0.04281 -0.0093073 1.0688 6.592e-39 199.5 264 0 0 0 -0.74309 -0.062509 -0.66627 0.026687
0.044079 -0.0093116 1.0692 6.4998e-39 203.5 264 0 0 0 -0.74193 -0.077147 -0.66602 0.027176
0.042828 -0.0074351 1.0692 6.7303e-39 239 267 0 0 0 -0.74729 -0.054046 -0.66229 0.024503
-0.030965 0.00069609 1.0688 7.514e-39 229.5 274.5 0 0 0 0.73602 0.15027 -0.66007 0.010884
-0.04222 0.056965 1.0688 1.0325e-38 418.5 297 0 0 0 -0.96128 0.14977 -0.23134 0.033
-0.044701 0.061315 1.0683 9.9571e-39 464 298 0 0 0 -0.95067 0.10998 -0.29006 0.027765
-0.043451 0.061315 1.0683 1.0142e-38 465 298 0 0 0 -0.95067 0.10998 -0.29006 0.027765
-0.042201 0.066939 1.0683 8.0671e-39 222.5 300 0 0 0 -0.92191 0.053651 -0.38368 0.023093
-0.039736 0.066372 1.0692 6.8225e-39 184 300 0 0 0 -0.92289 0.057547 -0.38075 0.023409
-0.039736 0.068873 1.0692 9.8649e-39 424 300 0 0 0 -0.89904 0.030061 -0.43683 0.021093
-0.039701 0.070064 1.0683 6.4537e-39 156 301 0 0 0 -0.88993 0.024217 -0.45545 0.018756
-0.044701 0.086937 1.0683 7.8827e-39 297.5 304.5 0 0 0 -0.80561 0.087441 -0.58596 0.021167
-0.043451 0.087562 1.0683 6.8225e-39 168 305 0 0 0 -0.79393 0.12834 -0.59432 0.021198
0.05154 0.086312 1.0683 5.2552e-39 162 305 0 0 0 0.92959 0.081733 -0.35941 0.010164
0.050334 0.088889 1.0692 1.3368e-38 403 305 0 0 0 0.92063 0.06995 -0.38411 0.010777
-0.043451 0.091312 1.0683 6.5459e-39 145 306 0 0 0 -0.769 0.25302 -0.58704 0.027717
-0.042201 0.093811 1.0683 1.1156e-38 392 306 0 0 0 -0.77589 0.34184 -0.53023 0.027613
-0.039701 0.093186 1.0683 1.0141e-38 315 306 0 0 0 -0.78605 0.3462 -0.51213 0.024785
0.050334 0.092642 1.0692 9.8649e-39 387 306 0 0 0 0.91481 0.081109 -0.39567 0.010402
-0.040951 0.095061 1.0683 6.3615e-39 497 306 0 0 0 -0.78104 0.38898 -0.48854 0.022911
-0.039736 0.095144 1.0692 6.5459e-39 498 306 0 0 0 -0.78121 0.39061 -0.48697 0.021341
0.051584 0.095144 1.0692 1.0787e-38 216 307 0 0 0 0.91171 0.082317 -0.40251 0.0097092
-0.040987 0.09702 1.0692 1.1939e-38 294.5 307 0 0 0 -0.77604 0.41312 -0.47655 0.020791
0.051562 0.096979 1.0688 8.2516e-39 401 307 0 0 0 0.9046 0.088373 -0.41699 0.0097107
-0.030952 0.10506 1.0683 1.1617e-38 210 309 0 0 0 -0.79264 0.37985 -0.4769 0.016684
-0.030979 0.1064 1.0692 1.0602e-38 281 309 0 0 0 -0.80298 0.38303 -0.45663 0.017811
0.050312 0.11073 1.0688 1.0695e-38 356 310 0 0 0 0.86441 0.16955 -0.47334 0.01091
-0.026635 -0.019344 1.0706 7.8827e-39 218.5 246.5 0 0 0 0.68507 0.10145 -0.72138 0.010265
0.041219 -0.019138 1.0708 7.6522e-39 194.67 249 0 0 0 -0.68612 -0.06747 -0.72435 0.03283
0.042902 -0.019979 1.0711 7.2835e-39 248 247 0 0 0 -0.68593 -0.10873 -0.7195 0.034124
0.044781 -0.019979 1.0711 7.4218e-39 256 247 0 0 0 -0.68822 -0.14495 -0.71087 0.034374
-0.02643 -0.016633 1.0708 7.0991e-39 218.33 251.67 0 0 0 0.69155 0.12215 -0.71193 0.010172
0.040361 -0.016832 1.0702 7.6522e-39 164.5 253 0 0 0 -0.69842 -0.04778 -0.71409 0.031517
-0.029128 -0.014954 1.0702 6.3615e-39 205.5 254 0 0 0 0.69111 0.13088 -0.7108 0.011444
-0.026635 -0.01496 1.0706 6.0849e-39 207.5 254 0 0 0 0.6931 0.14076 -0.70697 0.0104
0.040361 -0.014954 1.0702 6.6381e-39 236 255 0 0 0 -0.71477 -0.041417 -0.69813 0.030559
-0.029128 -0.013076 1.0702 6.2693e-39 196.5 256.5 0 0 0 0.69269 0.14273 -0.70697 0.011408
-0.02684 -0.012871 1.0705 6.6688e-39 211 256.67 0 0 0 0.69415 0.15002 -0.70402 0.010512
0.040361 -0.013076 1.0702 6.592e-39 201 257.5 0 0 0 -0.72158 -0.037518 -0.69131 0.03003
-0.02914 -0.011203 1.0706 5.8083e-39 159.5 259 0 0 0 0.69329 0.15492 -0.70381 0.011552
-0.02725 -0.011198 1.0702 6.2693e-39 161 259 0 0 0 0.69331 0.16137 -0.70235 0.01084
0.040361 -0.011198 1.0702 6.6381e-39 234 260 0 0 0 -0.72956 -0.026073 -0.68342 0.029513
-0.02914 -0.0093237 1.0706 6.2923e-39 214 262 0 0 0 0.69278 0.17048 -0.70071 0.011708
-0.026848 -0.0095337 1.0708 6.4844e-39 240.67 261.67 0 0 0 0.69129 0.1707 -0.70213 0.010523
0.040778 -0.0091109 1.0702 6.423e-39 200 264.33 0 0 0 -0.74309 -0.026287 -0.66868 0.026417
-0.029345 -0.0070264 1.0705 6.1464e-39 305.67 266 0 0 0 0.693 0.17786 -0.69865 0.011554
-0.027273 -0.0068214 1.0711 5.9005e-39 276 266.5 0 0 0 0.69133 0.18178 -0.6993 0.010595
0.041005 -0.0068182 1.0706 7.0529e-39 236 268 0 0 0 -0.75049 -0.027003 -0.66033 0.023795
0.042865 -0.0061895 1.0702 7.4678e-39 236 269 0 0 0 -0.75388 -0.046572 -0.65536 0.02546
-0.02978 -0.0049418 1.0711 6.4537e-39 370 269 0 0 0 0.69535 0.17878 -0.69608 0.011428
0.041023 -0.0049418 1.0711 5.9927e-39 180.5 271 0 0 0 -0.75882 -0.0259 -0.65079 0.023493
0.042865 -0.0049375 1.0702 6.0849e-39 182 271 0 0 0 -0.76456 -0.058907 -0.64186 0.024572
-0.029754 -0.0030594 1.0702 6.7303e-39 220 271.5 0 0 0 0.7049 0.16807 -0.68911 0.01213
0.041649 -0.0036886 1.0711 6.2693e-39 200 272 0 0 0 -0.76682 0.0072322 -0.64182 0.017497
0.042865 -0.0036854 1.0702 6.8225e-39 201 272 0 0 0 -0.76285 -0.0047861 -0.64656 0.018802
-0.029754 -0.0011813 1.0702 7.6522e-39 244 273 0 0 0 0.71743 0.16332 -0.67722 0.01175
0.042902 -0.0011824 1.0711 7.1913e-39 220 274 0 0 0 -0.76602 0.072597 -0.6387 0.010147
-0.029345 0.0009058 1.0705 7.4371e-39 232.33 274.67 0 0 0 0.71374 0.20118 -0.6709 0.0087888
0.042902 7.0768e-05 1.0711 6.3615e-39 201 275 0 0 0 -0.76276 0.10489 -0.63811 0.0085464
-0.031006 0.0032008 1.0702 6.1771e-39 180 276.5 0 0 0 0.7381 0.18629 -0.64846 0.0086547
-0.029153 0.0032036 1.0711 6.3615e-39 181.5 276.5 0 0 0 0.71055 0.20949 -0.67174 0.0071891
-0.029153 0.0050833 1.0711 7.053e-39 250.5 277 0 0 0 0.71796 0.21082 -0.66339 0.0067999
-0.044817 0.060221 1.0711 9.6805e-39 379 298 0 0 0 -0.95953 0.1226 -0.25351 0.034214
-0.043526 0.060169 1.0702 9.6805e-39 380 298 0 0 0 -0.95673 0.11985 -0.26514 0.03138
-0.03977 0.067681 1.0702 8.5742e-39 265 300 0 0 0 -0.91305 0.037372 -0.40613 0.022024
0.051652 0.093388 1.0706 8.2976e-39 440 306 0 0 0 0.91841 0.068061 -0.38974 0.0094749
-0.042274 0.095226 1.0702 6.2693e-39 496 306 0 0 0 -0.78285 0.40134 -0.47546 0.028215
-0.042311 0.096562 1.0711 9.4961e-39 220 307 0 0 0 -0.77948 0.42374 -0.46136 0.024427
-0.03977 0.096478 1.0702 1.0142e-38 222 307 0 0 0 -0.78142 0.40619 -0.4737 0.021295
0.051629 0.098982 1.0702 6.9147e-39 171 308 0 0 0 0.90392 0.086529 -0.41887 0.0094658
0.051629 0.10086 1.0702 1.1617e-38 320 308 0 0 0 0.90253 0.08611 -0.42193 0.009642
0.051629 0.10337 1.0702 8.2054e-39 334 308.5 0 0 0 0.89896 0.093587 -0.42791 0.010258
-0.032286 0.10408 1.0711 6.8225e-39 491 308 0 0 0 -0.7944 0.41337 -0.44504 0.017089
0.051629 0.10524 1.0702 1.1156e-38 276 309 0 0 0 0.89643 0.10332 -0.43097 0.010631
-0.031006 0.10775 1.0702 9.2196e-39 421 309 0 0 0 -0.81842 0.37331 -0.43684 0.019204
0.051652 0.10717 1.0706 8.4359e-39 280.5 309.5 0 0 0 0.8929 0.11107 -0.43635 0.01149
-0.031006 0.109 1.0702 8.3898e-39 150 310 0 0 0 -0.8271 0.36803 -0.42481 0.019424
-0.031033 0.11097 1.0711 9.7729e-39 291 310 0 0 0 -0.84661 0.34501 -0.40524 0.02022
-0.031033 0.11285 1.0711 1.051e-38 428 310 0 0 0 -0.86323 0.31736 -0.39258 0.019525
0.050377 0.11275 1.0702 8.943e-39 144 311 0 0 0 0.86668 0.18326 -0.46399 0.010846
0.050377 0.11463 1.0702 1.2123e-38 246 311 0 0 0 0.86441 0.20294 -0.46001 0.010873
0.049253 -0.022525 1.073 5.6239e-39 186 243 0 0 0 -0.64285 -0.32268 -0.69471 0.037041
-0.02481 -0.020014 1.073 8.2054e-39 262 245 0 0 0 0.65689 0.12274 -0.74393 0.007493
-0.022937 -0.020023 1.0734 7.8827e-39 263.5 245 0 0 0 0.63974 0.13361 -0.75689 0.0073114
-0.021062 -0.020031 1.0739 5.8083e-39 164 246 0 0 0 0.62589 0.15276 -0.7648 0.0077583
0.037558 -0.020444 1.0736 6.1464e-39 178 246.33 0 0 0 -0.63344 -0.016164 -0.77362 0.033571
0.039228 -0.020651 1.0734 6.2232e-39 177.5 246 0 0 0 -0.64381 -0.038401 -0.76422 0.034459
0.041129 -0.021288 1.0739 6.6842e-39 173.5 245 0 0 0 -0.65243 -0.084367 -0.75314 0.035589
0.042977 -0.021269 1.073 6.4537e-39 175 245 0 0 0 -0.66323 -0.12672 -0.73761 0.036243
0.044859 -0.021269 1.073 6.0849e-39 176.5 245 0 0 0 -0.66436 -0.1661 -0.72872 0.036821
0.047329 -0.021251 1.072 6.0849e-39 178.5 245 0 0 0 -0.67132 -0.21255 -0.71004 0.036821
-0.026043 -0.019997 1.072 8.2054e-39 259 245 0 0 0 0.67273 0.10807 -0.73195 0.0088387
-0.024788 -0.018742 1.072 7.0069e-39 180 248 0 0 0 0.66788 0.12479 -0.73373 0.0082586
-0.022916 -0.01875 1.0725 6.2693e-39 181.5 248 0 0 0 0.65179 0.1338 -0.7465 0.0071885
-0.021044 -0.018759 1.073 5.9005e-39 183 248 0 0 0 0.63515 0.14307 -0.75902 0.0073539
0.037327 -0.018759 1.073 8.2054e-39 165.5 250 0 0 0 -0.64564 0.011052 -0.76356 0.031719
0.039211 -0.018759 1.073 8.2976e-39 167 250 0 0 0 -0.6599 -0.0014502 -0.75136 0.03301
0.040431 -0.019997 1.072 5.8083e-39 184 247 0 0 0 -0.67023 -0.064662 -0.73933 0.03404
-0.024788 -0.016861 1.072 6.6381e-39 156 252 0 0 0 0.67315 0.14282 -0.72559 0.008585
-0.022916 -0.016868 1.0725 7.1221e-39 157.5 252 0 0 0 0.65974 0.14801 -0.73678 0.0080878
-0.021044 -0.016876 1.073 7.6983e-39 159 252 0 0 0 0.64241 0.16168 -0.74911 0.0077021
0.037327 -0.016876 1.073 7.1452e-39 162 253 0 0 0 -0.64746 0.032828 -0.76139 0.031254
0.039177 -0.016861 1.072 7.4218e-39 163.5 253 0 0 0 -0.68199 -0.0088885 -0.73131 0.032278
-0.024788 -0.01498 1.072 7.2835e-39 231 254 0 0 0 0.67511 0.15363 -0.72154 0.008557
-0.022927 -0.014993 1.073 6.6842e-39 235.5 254 0 0 0 0.65764 0.16809 -0.73434 0.0085525
-0.021062 -0.015006 1.0739 6.8225e-39 237 254 0 0 0 0.63389 0.18206 -0.75169 0.008717
0.037327 -0.014993 1.073 7.0069e-39 232.5 255 0 0 0 -0.65926 0.046959 -0.75045 0.03051
0.039177 -0.01498 1.072 6.5459e-39 235 255 0 0 0 -0.69551 0.0051591 -0.7185 0.03115
-0.026043 -0.013726 1.072 7.1913e-39 161 256 0 0 0 0.68505 0.1518 -0.7125 0.0093345
-0.02481 -0.013109 1.073 7.6061e-39 200 256.5 0 0 0 0.67016 0.16936 -0.72263 0.0085331
-0.022937 -0.013115 1.0734 7.8366e-39 201.5 256.5 0 0 0 0.66071 0.17543 -0.72985 0.0086264
0.037327 -0.013109 1.073 6.5458e-39 198.5 257.5 0 0 0 -0.67395 0.051814 -0.73696 0.02927
0.039177 -0.013098 1.072 6.4537e-39 200 257.5 0 0 0 -0.70375 0.011306 -0.71036 0.0299
-0.026043 -0.011217 1.072 6.4537e-39 162 259 0 0 0 0.6875 0.16909 -0.70622 0.0094448
-0.02481 -0.011227 1.073 6.4537e-39 163 259 0 0 0 0.67121 0.17443 -0.72045 0.0086267
-0.023575 -0.011237 1.0739 6.4537e-39 164 259 0 0 0 0.66229 0.17972 -0.72737 0.0085595
0.037311 -0.011222 1.0725 7.0991e-39 230.5 260 0 0 0 -0.68721 0.047379 -0.72491 0.028742
0.039177 -0.011217 1.072 7.2835e-39 232 260 0 0 0 -0.71147 0.016226 -0.70253 0.029062
-0.026043 -0.0087087 1.072 5.8083e-39 262 263 0 0 0 0.68591 0.17759 -0.70568 0.0096211
-0.02481 -0.009344 1.073 6.592e-39 301 262 0 0 0 0.66908 0.18789 -0.71905 0.0087591
-0.023575 -0.009352 1.0739 6.7303e-39 302 262 0 0 0 0.66514 0.18727 -0.72285 0.0084931
0.037327 -0.0093437 1.073 6.1771e-39 159.5 264 0 0 0 -0.68534 0.045729 -0.72679 0.028361
0.039194 -0.0093396 1.0725 6.131e-39 161 264 0 0 0 -0.72224 0.013632 -0.69151 0.028434
-0.028551 -0.0062003 1.072 5.9005e-39 181 268 0 0 0 0.69204 0.18461 -0.69785 0.010881
-0.026043 -0.0068274 1.072 6.0388e-39 277 266.5 0 0 0 0.68541 0.18474 -0.70433 0.0095683
-0.024832 -0.0068392 1.0739 5.9005e-39 161.5 267 0 0 0 0.66496 0.19864 -0.71998 0.0086497
-0.023575 -0.0074674 1.0739 6.1771e-39 169 266 0 0 0 0.66026 0.19587 -0.72505 0.0082747
0.037344 -0.0068362 1.0734 6.9607e-39 233 268 0 0 0 -0.69524 0.051538 -0.71693 0.024042
0.039211 -0.0068333 1.073 6.8685e-39 234.5 268 0 0 0 -0.72 0.021858 -0.69363 0.025618
-0.028551 -0.004946 1.072 5.9927e-39 175 270 0 0 0 0.69342 0.18593 -0.69613 0.010805
-0.02667 -0.004946 1.072 5.9466e-39 176.5 270 0 0 0 0.68747 0.19502 -0.69954 0.0096286
0.037988 -0.0049546 1.0739 5.7161e-39 178 271 0 0 0 -0.70508 0.055822 -0.70693 0.019341
0.039211 -0.0049503 1.073 5.9927e-39 179 271 0 0 0 -0.7237 0.039531 -0.68899 0.020764
-0.028551 -0.0030647 1.072 6.8686e-39 221 271.5 0 0 0 0.69344 0.19089 -0.69477 0.010606
-0.026675 -0.0030652 1.0723 7.0991e-39 222.5 271.5 0 0 0 0.68163 0.20002 -0.70383 0.0091449
0.037988 -0.0036982 1.0739 5.7161e-39 197 272 0 0 0 -0.70612 0.067116 -0.7049 0.015505
0.039228 -0.0030684 1.0734 6.6842e-39 213.5 272.5 0 0 0 -0.72191 0.069481 -0.68849 0.013749
0.040849 -0.0028557 1.072 7.2834e-39 220 272.67 0 0 0 -0.75963 0.054588 -0.64806 0.013507
-0.028551 -0.0011834 1.072 7.6522e-39 245 273 0 0 0 0.69206 0.19406 -0.69527 0.010024
-0.026704 -0.0011849 1.0734 6.9608e-39 246.5 273 0 0 0 0.67096 0.20935 -0.71133 0.0072256
0.039211 -0.0011844 1.073 6.2693e-39 205 274 0 0 0 -0.72726 0.10685 -0.678 0.0081471
0.041058 -0.0011834 1.072 7.1913e-39 208.5 274 0 0 0 -0.75847 0.071275 -0.64779 0.010659
-0.028551 7.0829e-05 1.072 7.3757e-39 241 274 0 0 0 0.69439 0.20827 -0.68881 0.0073033
-0.026704 0.00069886 1.0734 7.5139e-39 236.5 274.5 0 0 0 0.67558 0.22443 -0.7023 0.0064895
0.037988 0.0013274 1.0739 6.3615e-39 183 276 0 0 0 -0.70928 0.13867 -0.69115 0.0066361
0.039228 0.00069915 1.0734 6.0849e-39 191 275.5 0 0 0 -0.72508 0.13664 -0.67498 0.0063164
0.041076 0.00069851 1.0725 5.9697e-39 192.5 275.5 0 0 0 -0.75172 0.10684 -0.65077 0.0077136
-0.026716 0.0032119 1.0739 6.4768e-39 183.5 276.5 0 0 0 0.68049 0.21246 -0.70128 0.0077328
0.039245 0.0025838 1.0739 6.0849e-39 376 276 0 0 0 -0.72412 0.1352 -0.6763 0.006455
-0.043678 0.057865 1.0739 1.0142e-38 462 297 0 0 0 -0.96078 0.15422 -0.23048 0.045589
-0.044895 0.05907 1.073 8.1132e-39 214 298 0 0 0 -0.96254 0.11408 -0.24597 0.043396
-0.043602 0.059019 1.072 8.7586e-39 215 298 0 0 0 -0.96167 0.13304 -0.23977 0.036067
0.051719 0.087866 1.072 9.8649e-39 245 305 0 0 0 0.93443 0.043561 -0.35346 0.0099285
0.050912 0.091263 1.0727 9.0662e-39 198.67 306 0 0 0 0.92891 0.04877 -0.36707 0.009085
0.055578 0.09116 1.0739 9.1733e-39 187.5 306 0 0 0 0.94261 0.025893 -0.33288 0.0095196
0.056834 0.09116 1.0739 9.1735e-39 188.5 306 0 0 0 0.94324 0.020631 -0.33147 0.0097454
0.055578 0.093044 1.0739 1.051e-38 391 306 0 0 0 0.93913 0.032765 -0.34199 0.0084963
0.05553 0.094847 1.073 7.9288e-39 357 306.5 0 0 0 0.93084 0.044354 -0.36273 0.0084772
-0.042348 0.0979 1.072 1.6134e-38 367 307 0 0 0 -0.77427 0.44732 -0.44767 0.02179
0.055578 0.096814 1.0739 1.5581e-38 366 307 0 0 0 0.93565 0.058629 -0.34801 0.0079552
0.055578 0.098698 1.0739 7.2835e-39 312.5 307.5 0 0 0 0.93399 0.060662 -0.35212 0.0077834
-0.03237 0.10561 1.0739 1.1801e-38 209 309 0 0 0 -0.80556 0.45308 -0.38183 0.019336
0.053065 0.10561 1.0739 1.1432e-38 277 309 0 0 0 0.91533 0.084797 -0.39368 0.00957
0.053065 0.10686 1.0739 9.1274e-39 416 309 0 0 0 0.91427 0.090252 -0.39492 0.010116
0.051764 0.10928 1.073 1.0234e-38 219 310 0 0 0 0.89749 0.13437 -0.42006 0.011145
0.038684 -0.022584 1.0758 6.0849e-39 178.5 243 0 0 0 -0.61266 -0.05766 -0.78824 0.035238
0.040572 -0.022584 1.0758 6.3615e-39 180 243 0 0 0 -0.62129 -0.080654 -0.77942 0.035806
0.043089 -0.022584 1.0758 6.3615e-39 182 243 0 0 0 -0.63362 -0.13538 -0.7617 0.038481
0.044309 -0.022564 1.0748 6.0849e-39 183 243 0 0 0 -0.64725 -0.16629 -0.74392 0.037823
0.046865 -0.022584 1.0758 5.8083e-39 185 243 0 0 0 -0.62896 -0.23554 -0.7409 0.042729
0.03302 -0.020066 1.0758 6.1771e-39 178 247 0 0 0 -0.58442 0.045064 -0.8102 0.031091
0.034901 -0.020691 1.0755 6.4998e-39 174 246 0 0 0 -0.60137 0.0050942 -0.79895 0.032612
0.036764 -0.021306 1.0748 6.6381e-39 170 245 0 0 0 -0.61727 -0.028606 -0.78623 0.034231
0.03302 -0.018808 1.0758 7.7444e-39 162 250 0 0 0 -0.59169 0.066027 -0.80345 0.030464
0.034878 -0.018791 1.0748 8.2976e-39 163.5 250 0 0 0 -0.61161 0.04152 -0.79007 0.03139
-0.019415 -0.016705 1.0755 8.2054e-39 159.33 252.33 0 0 0 0.61186 0.19661 -0.76614 0.0097168
-0.017323 -0.016291 1.0758 8.1132e-39 159 253 0 0 0 0.58371 0.21425 -0.78318 0.01153
0.03302 -0.01692 1.0758 7.2835e-39 158.5 253 0 0 0 -0.59191 0.087713 -0.80122 0.02941
