# .PCD v.7 - Point Cloud Data file format
VERSION .7
FIELDS x y z rgb u v vx vy vz normal_x normal_y normal_z curvature
SIZE 4 4 4 4 4 4 4 4 4 4 4 4 4
TYPE F F F F F F F F F F F F F
COUNT 1 1 1 1 1 1 1 1 1 1 1 1 1
WIDTH 551
HEIGHT 1
VIEWPOINT 0 0 0 1 0 0 0
POINTS 551
DATA ascii
0.0089015 0.13478 1.0515 6.4537e-39 384.5 288 0 0 0 -0.16725 0.54695 -0.82029 0.023014
0.010751 0.13545 1.0519 6.4537e-39 401.5 288 0 0 0 -0.087458 0.58331 -0.80753 0.023801
0.012587 0.1341 1.051 8.482e-39 372 288 0 0 0 -0.035509 0.57658 -0.81627 0.022159
0.017505 0.1341 1.051 8.7586e-39 373 288 0 0 0 0.11226 0.57192 -0.81259 0.018918
0.018751 0.13422 1.0519 8.2976e-39 374 288 0 0 0 0.16074 0.56878 -0.80663 0.018232
0.038475 -0.02087 1.0528 5.0708e-39 224 248 0 0 0 -0.55645 0.20653 -0.8048 0.016793
-0.018201 -0.018423 1.0537 6.4537e-39 455 248 0 0 0 0.61295 0.0083843 -0.79008 0.036838
-0.016969 -0.018423 1.0537 5.8083e-39 223 249 0 0 0 0.59849 0.010265 -0.80106 0.035793
0.036651 -0.019035 1.0535 6.1771e-39 395.5 248.5 0 0 0 -0.53662 0.26804 -0.80012 0.01733
0.038492 -0.019031 1.0533 6.5459e-39 397 248.5 0 0 0 -0.56157 0.24755 -0.78953 0.018355
-0.018186 -0.017175 1.0528 8.2054e-39 403 249 0 0 0 0.61328 0.01035 -0.7898 0.035751
-0.016969 -0.01719 1.0537 8.1132e-39 404 249 0 0 0 0.59504 0.0066948 -0.80367 0.034528
-0.015736 -0.01719 1.0537 7.9288e-39 405 249 0 0 0 0.58713 0.0045059 -0.80948 0.034066
0.036659 -0.01719 1.0537 6.0388e-39 227.5 250 0 0 0 -0.53361 0.29429 -0.79288 0.018793
-0.018186 -0.015328 1.0528 7.514e-39 398.5 250 0 0 0 0.60535 0.0059069 -0.79594 0.034633
-0.016962 -0.015334 1.0533 7.3296e-39 399.5 250 0 0 0 0.58745 0.014702 -0.80913 0.034089
-0.015736 -0.01534 1.0537 7.0529e-39 400.5 250 0 0 0 0.58407 0.0033118 -0.8117 0.033087
0.036659 -0.015341 1.0537 8.1593e-39 389 250.5 0 0 0 -0.53523 0.30859 -0.78632 0.018327
-0.018186 -0.012864 1.0528 6.0849e-39 305 251.5 0 0 0 0.60239 0.0051372 -0.79818 0.03378
-0.016954 -0.012864 1.0528 6.0849e-39 306 251.5 0 0 0 0.58785 0.011098 -0.8089 0.033487
-0.015729 -0.012869 1.0533 6.3154e-39 307 251.5 0 0 0 0.57768 0.0093472 -0.81621 0.031615
0.036864 -0.01308 1.0537 6.0849e-39 417 251.33 0 0 0 -0.5542 0.2984 -0.77706 0.019698
-0.018186 -0.011016 1.0528 8.021e-39 401 252 0 0 0 0.60102 0.003301 -0.79923 0.034274
-0.016954 -0.011016 1.0528 8.2054e-39 402 252 0 0 0 0.58681 0.0017103 -0.80972 0.032736
-0.015722 -0.011016 1.0528 8.3898e-39 403 252 0 0 0 0.58129 0.0090051 -0.81364 0.031556
0.037275 -0.011026 1.0537 7.4678e-39 230 253 0 0 0 -0.57494 0.27837 -0.76939 0.02038
-0.018186 -0.0097845 1.0528 7.0991e-39 248 253 0 0 0 0.58592 0.062143 -0.80798 0.04688
-0.015722 -0.0097845 1.0528 6.3615e-39 250 253 0 0 0 0.58212 0.010735 -0.81303 0.031218
-0.014503 -0.0073273 1.0537 5.6239e-39 281 254 0 0 0 0.54265 0.057498 -0.83799 0.036939
0.038886 -0.0064999 1.0528 6.7303e-39 304.67 254.67 0 0 0 -0.63196 0.22177 -0.7426 0.022195
0.040939 -0.0060893 1.0528 6.5459e-39 257 255 0 0 0 -0.66175 0.18944 -0.7254 0.024879
0.042171 -0.0060893 1.0528 6.6381e-39 258 255 0 0 0 -0.68046 0.17244 -0.71221 0.025935
0.039125 -0.0048616 1.0537 6.2232e-39 426.5 255 0 0 0 -0.63358 0.21768 -0.74243 0.021541
0.040939 -0.0048575 1.0528 6.0849e-39 428 255 0 0 0 -0.67071 0.17778 -0.7201 0.024605
0.042207 -0.0048616 1.0537 6.5459e-39 429 255 0 0 0 -0.67544 0.17195 -0.71708 0.024655
-0.018186 -0.0030099 1.0528 7.0069e-39 303 256 0 0 0 0.44957 0.35186 -0.82102 0.082519
-0.016962 -0.0030108 1.0533 6.9147e-39 304 256 0 0 0 0.48111 0.27525 -0.83233 0.075374
-0.015722 -0.002394 1.0528 6.2693e-39 383 256 0 0 0 0.4985 0.19241 -0.84527 0.063766
0.039741 -0.0036288 1.0537 6.5459e-39 282 256 0 0 0 -0.65603 0.18772 -0.73102 0.023882
0.040974 -0.0036288 1.0537 8.2976e-39 362 256 0 0 0 -0.67213 0.17101 -0.72041 0.023817
0.042805 -0.0030114 1.0533 6.9607e-39 413.5 256 0 0 0 -0.69319 0.15415 -0.70408 0.024937
-0.018186 -0.0011622 1.0528 7.7444e-39 230 257 0 0 0 0.43622 0.37273 -0.81901 0.084311
-0.016969 -0.0011632 1.0537 8.2054e-39 231 257 0 0 0 0.40655 0.36176 -0.83895 0.081686
-0.015722 -0.0011622 1.0528 8.7586e-39 232 257 0 0 0 0.43889 0.28742 -0.85133 0.069082
-0.018201 6.962e-05 1.0537 6.4537e-39 383 257 0 0 0 0.38485 0.42302 -0.82033 0.087953
-0.016969 6.962e-05 1.0537 6.6381e-39 384 257 0 0 0 0.4107 0.36774 -0.83432 0.079807
-0.015722 6.9561e-05 1.0528 6.8225e-39 385 257 0 0 0 0.42872 0.31949 -0.84506 0.067024
0.045481 0.00048053 1.0534 7.222e-39 432.67 257.33 0 0 0 -0.73033 0.11901 -0.67265 0.027782
0.053302 0.028424 1.0537 6.6381e-39 440 267 0 0 0 -0.99894 -0.04012 0.022616 0.040691
0.053302 0.03089 1.0537 7.6522e-39 405 268 0 0 0 -0.99905 -0.035839 0.024639 0.041328
0.053256 0.032095 1.0528 5.8083e-39 182 269 0 0 0 0.99465 0.011045 -0.10271 0.044265
-0.023113 0.07028 1.0528 7.7444e-39 209 278 0 0 0 -0.92786 0.30791 -0.2104 0.01783
0.045905 0.081435 1.0537 8.2976e-39 273 280 0 0 0 0.91984 0.17371 -0.35172 0.019517
0.047098 0.085061 1.0528 6.3615e-39 174 281 0 0 0 0.90929 0.19019 -0.37016 0.023504
0.047138 0.086367 1.0537 6.0849e-39 238 281 0 0 0 0.90801 0.2023 -0.36687 0.023494
0.049603 0.086367 1.0537 5.4395e-39 240 281 0 0 0 0.92418 0.17083 -0.34162 0.02065
-0.016954 0.097379 1.0528 5.9927e-39 505 282 0 0 0 -0.66047 0.35357 -0.66239 0.0085293
-0.015722 0.098611 1.0528 8.1132e-39 212 283 0 0 0 -0.63388 0.36304 -0.68293 0.0087856
-0.015722 0.10107 1.0528 7.7444e-39 384 283 0 0 0 -0.63526 0.36714 -0.67945 0.0086463
-0.015736 0.10239 1.0537 8.943e-39 435 283 0 0 0 -0.64675 0.36669 -0.66877 0.0082642
-0.014491 0.10477 1.0528 7.8366e-39 212 284 0 0 0 -0.62704 0.3672 -0.68701 0.0082587
-0.01327 0.10856 1.0537 8.3898e-39 428 284 0 0 0 -0.63376 0.36623 -0.68134 0.0074489
-0.012037 0.11102 1.0537 7.0069e-39 206 285 0 0 0 -0.61902 0.37092 -0.69227 0.0076967
-0.010805 0.11226 1.0537 5.7161e-39 254 285 0 0 0 -0.61065 0.37351 -0.69829 0.0074125
-0.0095635 0.11339 1.0528 7.8366e-39 370 285 0 0 0 -0.59117 0.3748 -0.71417 0.0077228
0.038908 0.11264 1.0534 8.0518e-39 378 285 0 0 0 0.65478 0.33517 -0.67744 0.018442
-0.0089517 0.11529 1.0533 7.6522e-39 455 285 0 0 0 -0.59286 0.37629 -0.71198 0.007536
0.037243 0.11586 1.0528 6.7303e-39 179 286 0 0 0 0.57979 0.37023 -0.72579 0.012527
-0.0083318 0.11709 1.0528 6.9147e-39 196 286 0 0 0 -0.58098 0.3799 -0.71982 0.0075397
0.036644 0.11714 1.0533 6.9608e-39 232.5 286 0 0 0 0.57566 0.36947 -0.72946 0.011994
-0.0083389 0.11842 1.0537 5.8083e-39 243 286 0 0 0 -0.5886 0.38522 -0.71074 0.0075588
-0.0071 0.11955 1.0528 8.6664e-39 361 286 0 0 0 -0.56652 0.38662 -0.72772 0.0078628
-0.0052524 0.11955 1.0528 8.2976e-39 362.5 286 0 0 0 -0.54764 0.38229 -0.74427 0.0086742
0.034795 0.11898 1.0533 6.7303e-39 336.5 286 0 0 0 0.53125 0.38368 -0.75536 0.0071598
0.036042 0.11842 1.0537 7.8366e-39 279 286 0 0 0 0.55952 0.37335 -0.73997 0.0096921
-0.0071 0.12078 1.0528 7.0991e-39 408 286 0 0 0 -0.57227 0.38775 -0.7226 0.008185
-0.0052524 0.12078 1.0528 7.5601e-39 409.5 286 0 0 0 -0.55 0.38197 -0.7427 0.0084805
0.033548 0.12078 1.0528 8.5742e-39 456 286 0 0 0 0.51771 0.39009 -0.76145 0.0077325
-0.0071061 0.12274 1.0537 5.8083e-39 318 286.5 0 0 0 -0.58177 0.38738 -0.71518 0.0084043
-0.0052569 0.12212 1.0537 6.1771e-39 471.5 286 0 0 0 -0.56561 0.38859 -0.72738 0.0088631
-0.0034062 0.12268 1.0533 6.2693e-39 321 286.5 0 0 0 -0.52736 0.3895 -0.7551 0.010124
0.033157 0.12291 1.0534 6.9147e-39 188 287 0 0 0 0.51813 0.39301 -0.75966 0.0080602
-0.0034076 0.12458 1.0537 7.2835e-39 222 287 0 0 0 -0.53824 0.39028 -0.74698 0.0098313
0.031098 0.12515 1.0533 6.4076e-39 307 287 0 0 0 0.49513 0.39495 -0.77386 0.010122
0.032344 0.1252 1.0537 6.3615e-39 308 287 0 0 0 0.51449 0.39315 -0.76206 0.0088882
-0.002173 0.12694 1.0528 8.3898e-39 381 287 0 0 0 -0.51086 0.38925 -0.76649 0.010161
-0.0021748 0.12828 1.0537 7.9288e-39 424 287 0 0 0 -0.51252 0.39319 -0.76337 0.01005
-0.00094159 0.12885 1.0533 7.4218e-39 453.5 287 0 0 0 -0.4898 0.39832 -0.77552 0.011655
0.00029057 0.1294 1.0528 6.5459e-39 483 287 0 0 0 -0.45106 0.40886 -0.79334 0.013805
0.027389 0.1294 1.0528 6.7303e-39 152 288 0 0 0 0.42068 0.43732 -0.79485 0.013188
0.029262 0.1289 1.0537 6.3615e-39 308.5 287.5 0 0 0 0.46829 0.41541 -0.77983 0.012498
0.0011122 0.13112 1.0534 6.6073e-39 188 288 0 0 0 -0.43045 0.42991 -0.79366 0.015705
0.00337 0.13187 1.0528 7.4218e-39 220.5 288 0 0 0 -0.36252 0.46562 -0.80733 0.021688
0.024937 0.13131 1.0533 7.0069e-39 218.5 288 0 0 0 0.35589 0.48442 -0.79917 0.016409
0.026584 0.13112 1.0534 7.2527e-39 213.33 288 0 0 0 0.39749 0.46153 -0.79309 0.014933
0.028646 0.13075 1.0537 7.0991e-39 202 288 0 0 0 0.45273 0.43061 -0.78078 0.011452
0.0015236 0.13321 1.0537 5.5317e-39 258 288 0 0 0 -0.41059 0.44861 -0.79383 0.020024
0.0033712 0.13316 1.0533 6.5459e-39 259.5 288 0 0 0 -0.36004 0.47445 -0.80329 0.023179
0.021231 0.1331 1.0528 7.56e-39 273 288 0 0 0 0.23799 0.5434 -0.80503 0.018783
0.023078 0.1331 1.0528 7.7905e-39 274.5 288 0 0 0 0.29487 0.53328 -0.79289 0.019125
0.0033729 0.13445 1.0537 7.6522e-39 364.5 288 0 0 0 -0.35622 0.4841 -0.79922 0.023801
0.0052176 0.13556 1.0528 5.3473e-39 397 288 0 0 0 -0.28815 0.52417 -0.80139 0.025436
0.0070653 0.13556 1.0528 5.3012e-39 398.5 288 0 0 0 -0.22514 0.53852 -0.81198 0.024613
0.019999 0.13433 1.0528 7.7444e-39 375 288 0 0 0 0.19242 0.57737 -0.79349 0.018691
0.020632 0.13507 1.0537 7.0991e-39 389.5 288 0 0 0 0.20624 0.587 -0.78288 0.01823
0.023098 0.13445 1.0537 7.1913e-39 377.5 288 0 0 0 0.29118 0.559 -0.77636 0.018728
0.0052221 0.13691 1.0537 7.9288e-39 423 288 0 0 0 -0.28322 0.54072 -0.79209 0.026667
0.0070713 0.13691 1.0537 8.1132e-39 424.5 288 0 0 0 -0.21929 0.55601 -0.80173 0.025782
0.0089129 0.1368 1.0528 8.482e-39 426 288 0 0 0 -0.15781 0.5705 -0.80599 0.024641
0.0052221 0.13814 1.0537 7.56e-39 455 288 0 0 0 -0.27338 0.53868 -0.79692 0.025913
-0.015749 -0.019055 1.0546 5.4395e-39 225 248.5 0 0 0 0.58916 0.010148 -0.80795 0.035828
0.031164 -0.019072 1.0555 6.4076e-39 391 248.5 0 0 0 -0.44196 0.32451 -0.83628 0.013991
0.033003 -0.019063 1.0551 6.4537e-39 392.5 248.5 0 0 0 -0.47145 0.30566 -0.82723 0.014392
0.034839 -0.019055 1.0546 6.2232e-39 394 248.5 0 0 0 -0.49893 0.29512 -0.81484 0.01546
0.031164 -0.017219 1.0555 5.9005e-39 457 249 0 0 0 -0.44905 0.33435 -0.82859 0.013937
0.033016 -0.017219 1.0555 5.4856e-39 224.5 250 0 0 0 -0.47132 0.32605 -0.81948 0.014073
0.034839 -0.017204 1.0546 5.4395e-39 226 250 0 0 0 -0.5044 0.30442 -0.80803 0.01546
-0.014528 -0.015367 1.0555 6.9608e-39 401.5 250 0 0 0 0.5516 -0.0018565 -0.83411 0.029108
-0.012058 -0.014749 1.0555 5.7161e-39 436 250 0 0 0 0.51959 -0.0020544 -0.85441 0.023297
0.033016 -0.015984 1.0555 8.3898e-39 407.5 250 0 0 0 -0.47501 0.33288 -0.81459 0.014255
0.034839 -0.015354 1.0546 8.7125e-39 387.5 250.5 0 0 0 -0.50487 0.32525 -0.79958 0.016027
-0.014528 -0.012897 1.0555 6.4998e-39 308 251.5 0 0 0 0.55325 0.0052542 -0.833 0.027692
-0.012673 -0.012894 1.0553 6.7303e-39 309.5 251.5 0 0 0 0.52764 3.1099e-05 -0.84947 0.022706
-0.010823 -0.012279 1.0555 7.1913e-39 242 252 0 0 0 0.51225 0.015261 -0.8587 0.022626
0.034869 -0.012897 1.0555 6.1771e-39 407 251.5 0 0 0 -0.50745 0.32377 -0.79854 0.015625
0.036073 -0.012269 1.0546 6.2693e-39 383 252 0 0 0 -0.53633 0.3053 -0.78686 0.018073
-0.014515 -0.011035 1.0546 8.2054e-39 404 252 0 0 0 0.56662 0.011392 -0.8239 0.029759
-0.012671 -0.01104 1.0551 8.2054e-39 405.5 252 0 0 0 0.52819 0.00011805 -0.84913 0.022784
-0.010823 -0.011045 1.0555 8.482e-39 407 252 0 0 0 0.51617 0.014406 -0.85636 0.022153
0.034869 -0.011045 1.0555 7.0069e-39 228 253 0 0 0 -0.51553 0.3172 -0.796 0.015696
0.036073 -0.011035 1.0546 7.1913e-39 229 253 0 0 0 -0.54206 0.30081 -0.78465 0.01784
-0.014515 -0.0091844 1.0546 7.0991e-39 337 253 0 0 0 0.55329 0.012142 -0.8329 0.026932
-0.012671 -0.0091882 1.0551 6.4767e-39 338.5 253 0 0 0 0.53261 0.0034995 -0.84636 0.022721
-0.010823 -0.0091922 1.0555 5.9005e-39 340 253 0 0 0 0.5224 0.019757 -0.85247 0.021937
0.034869 -0.0091922 1.0555 6.7302e-39 313.5 253.5 0 0 0 -0.51973 0.31395 -0.79455 0.014997
0.03669 -0.0091844 1.0546 6.8916e-39 315 253.5 0 0 0 -0.56402 0.28513 -0.77497 0.018808
-0.014515 -0.0060997 1.0546 6.7303e-39 435 254 0 0 0 0.52528 0.085335 -0.84664 0.045515
-0.012671 -0.0067195 1.0551 7.0299e-39 379.25 254 0 0 0 0.52795 0.037635 -0.84844 0.027251
-0.010823 -0.0073398 1.0555 8.021e-39 363 254 0 0 0 0.52754 0.015809 -0.84938 0.021743
-0.0095881 -0.0073398 1.0555 8.021e-39 364 254 0 0 0 0.51982 0.025849 -0.85388 0.02142
0.034869 -0.0073398 1.0555 8.021e-39 400 254 0 0 0 -0.52207 0.31495 -0.79262 0.014626
0.036706 -0.0067192 1.0551 6.9607e-39 327.5 254.5 0 0 0 -0.57792 0.2745 -0.76854 0.018363
-0.014515 -0.0048658 1.0546 6.6381e-39 375 255 0 0 0 0.51122 0.1007 -0.85353 0.045593
-0.012671 -0.0048678 1.0551 6.6381e-39 376.5 255 0 0 0 0.52534 0.056261 -0.84903 0.030393
0.036721 -0.0048699 1.0555 6.3615e-39 424.5 255 0 0 0 -0.58242 0.26929 -0.76699 0.017753
-0.014528 -0.0030175 1.0555 7.0068e-39 306 256 0 0 0 0.48589 0.17013 -0.8573 0.054154
-0.01247 -0.0032234 1.0555 7.4986e-39 281.67 256 0 0 0 0.50979 0.1075 -0.85356 0.041459
0.037339 -0.003635 1.0555 5.9005e-39 280 256 0 0 0 -0.60232 0.25404 -0.75675 0.018017
0.038952 -0.0028094 1.0546 6.3922e-39 382 256 0 0 0 -0.6387 0.21196 -0.73968 0.020864
0.041009 -0.0023981 1.0546 6.3615e-39 434 256 0 0 0 -0.67126 0.17043 -0.72136 0.02375
0.042243 -0.0023981 1.0546 6.3615e-39 437 256 0 0 0 -0.67963 0.1611 -0.71564 0.024855
-0.014528 -0.0011652 1.0555 8.2976e-39 233 257 0 0 0 0.42078 0.32025 -0.84875 0.075492
-0.012058 -0.0011652 1.0555 7.56e-39 235 257 0 0 0 0.48732 0.15815 -0.85878 0.047453
0.041044 -0.0011652 1.0555 8.8508e-39 361 257 0 0 0 -0.66043 0.19298 -0.72567 0.021678
0.043476 -0.0011642 1.0546 8.021e-39 363 257 0 0 0 -0.69504 0.14518 -0.70416 0.025244
0.043514 6.9739e-05 1.0555 6.2693e-39 467 257 0 0 0 -0.69516 0.16076 -0.70065 0.02618
0.04471 0.0013035 1.0546 6.9147e-39 283 258 0 0 0 -0.71478 0.14558 -0.68403 0.028959
0.04471 0.0025374 1.0546 7.9288e-39 406 258 0 0 0 -0.7155 0.18156 -0.67461 0.026294
-0.028088 0.013642 1.0546 5.9005e-39 268 262 0 0 0 -0.82415 -0.43969 -0.357 0.021702
-0.029322 0.014876 1.0546 6.0849e-39 425 262 0 0 0 -0.87289 -0.33915 -0.35076 0.018015
0.053347 0.029683 1.0546 8.482e-39 246 268 0 0 0 -0.99897 -0.036436 0.026932 0.043615
-0.024407 0.064286 1.0555 6.6381e-39 170 277 0 0 0 -0.93754 0.29426 -0.18556 0.020397
0.047178 0.082739 1.0546 6.6381e-39 398 280 0 0 0 0.92702 0.15865 -0.33981 0.020272
0.048412 0.083973 1.0546 8.021e-39 478 280 0 0 0 0.93008 0.16544 -0.328 0.018935
0.048412 0.085207 1.0546 6.1771e-39 175 281 0 0 0 0.92597 0.16582 -0.33924 0.02044
0.047218 0.087749 1.0555 8.6664e-39 362 281 0 0 0 0.9203 0.19452 -0.33942 0.020824
0.04905 0.087094 1.0551 7.0529e-39 301.5 281 0 0 0 0.92993 0.17636 -0.32269 0.019242
0.049688 0.088984 1.0555 6.2693e-39 422 281 0 0 0 0.93209 0.19004 -0.30838 0.01785
-0.016998 0.098864 1.0555 7.6522e-39 211 283 0 0 0 -0.69213 0.35335 -0.62937 0.007888
-0.016998 0.1001 1.0555 7.9288e-39 265 283 0 0 0 -0.6874 0.35816 -0.63182 0.0078092
-0.014522 0.10684 1.0551 7.8366e-39 321 284 0 0 0 -0.64907 0.36401 -0.66799 0.0078717
-0.013281 0.10988 1.0546 6.2693e-39 500 284 0 0 0 -0.64394 0.37003 -0.66964 0.0070061
0.041009 0.10988 1.0546 7.1913e-39 202 285 0 0 0 0.78933 0.28596 -0.54331 0.02624
-0.013293 0.11121 1.0555 7.0069e-39 205 285 0 0 0 -0.64765 0.37113 -0.66544 0.006707
-0.012058 0.11245 1.0555 5.4395e-39 253 285 0 0 0 -0.63563 0.37581 -0.67434 0.007114
-0.010814 0.11359 1.0546 7.7444e-39 369 285 0 0 0 -0.62213 0.37535 -0.68707 0.007035
0.039775 0.11359 1.0546 6.8225e-39 410 285 0 0 0 0.6874 0.33411 -0.64487 0.01727
-0.010823 0.11492 1.0555 8.6664e-39 417 285 0 0 0 -0.63477 0.37633 -0.67486 0.0069794
0.039175 0.11487 1.0551 7.1452e-39 481.5 285 0 0 0 0.62867 0.36579 -0.68627 0.011139
-0.009584 0.11672 1.0551 6.4998e-39 343 285.5 0 0 0 -0.61888 0.37929 -0.68784 0.0076113
0.038975 0.11653 1.0552 6.3615e-39 200.67 286 0 0 0 0.62977 0.36309 -0.6867 0.011081
-0.008346 0.11975 1.0546 8.5742e-39 360 286 0 0 0 -0.59687 0.3907 -0.70079 0.0079836
0.036906 0.11938 1.0549 6.4229e-39 357.67 286 0 0 0 0.59232 0.36915 -0.71616 0.011776
-0.0083531 0.12109 1.0555 6.7303e-39 407 286 0 0 0 -0.60572 0.38562 -0.69599 0.0075121
0.034839 0.12099 1.0546 7.9288e-39 458 286 0 0 0 0.54092 0.38889 -0.74577 0.0069375
0.036073 0.12099 1.0546 7.8366e-39 459 286 0 0 0 0.55509 0.38658 -0.7365 0.0065731
-0.0083531 0.12233 1.0555 5.9005e-39 469 286 0 0 0 -0.60491 0.38692 -0.69597 0.007655
-0.0052613 0.12346 1.0546 5.6239e-39 167.5 287 0 0 0 -0.57037 0.3897 -0.72306 0.0088275
0.034854 0.12289 1.0551 7.1913e-39 180.5 287 0 0 0 0.54274 0.3929 -0.74234 0.0072518
0.036104 0.12233 1.0555 6.0849e-39 155 287 0 0 0 0.55876 0.38863 -0.73263 0.0066589
-0.0071121 0.12469 1.0546 7.2835e-39 219 287 0 0 0 -0.58961 0.38446 -0.71031 0.0078575
-0.0052613 0.12469 1.0546 7.2374e-39 220.5 287 0 0 0 -0.56958 0.39019 -0.72342 0.0086141
-0.0034105 0.12592 1.0546 7.3757e-39 266 287 0 0 0 -0.54712 0.39056 -0.74035 0.0099853
0.033605 0.12469 1.0546 5.163e-39 252 287 0 0 0 0.53083 0.39492 -0.74984 0.0079554
0.034869 0.1248 1.0555 5.5317e-39 253 287 0 0 0 0.55004 0.39259 -0.73711 0.0074791
-0.0071182 0.12665 1.0555 7.514e-39 320 287 0 0 0 -0.58892 0.38175 -0.71235 0.0077809
-0.0052659 0.12665 1.0555 7.3757e-39 321.5 287 0 0 0 -0.57013 0.38545 -0.72552 0.0086871
-0.0034105 0.12716 1.0546 7.9288e-39 380 287 0 0 0 -0.54264 0.39184 -0.74297 0.009946
0.031138 0.12716 1.0546 7.8366e-39 408 287 0 0 0 0.51019 0.39798 -0.76245 0.010221
0.033213 0.12682 1.0552 8.3283e-39 395 287 0 0 0 0.5351 0.39303 -0.74779 0.0083823
0.034869 0.12603 1.0555 7.4678e-39 367 287 0 0 0 0.55104 0.39416 -0.73552 0.0077742
-0.0030002 0.12925 1.0549 7.3757e-39 461.33 287 0 0 0 -0.5384 0.39235 -0.74577 0.010672
0.029904 0.12963 1.0546 6.1771e-39 154 288 0 0 0 0.48995 0.41087 -0.76885 0.011242
0.031164 0.12912 1.0555 6.1771e-39 310 287.5 0 0 0 0.50912 0.40465 -0.75964 0.011202
0.032399 0.1285 1.0555 6.1771e-39 466 287 0 0 0 0.5343 0.39313 -0.74831 0.0090546
-0.002796 0.13097 1.0555 6.3154e-39 169.5 288 0 0 0 -0.53597 0.39705 -0.74504 0.010965
-0.0009428 0.13086 1.0546 6.4537e-39 171 288 0 0 0 -0.49605 0.40291 -0.76915 0.011439
0.029904 0.13086 1.0546 6.9147e-39 203 288 0 0 0 0.47426 0.42656 -0.77015 0.011701
0.031164 0.13097 1.0555 6.9147e-39 204 288 0 0 0 0.50312 0.41069 -0.7604 0.011039
-0.0021785 0.13221 1.0555 7.6522e-39 216 288 0 0 0 -0.52318 0.39762 -0.75378 0.011058
-0.0009436 0.13283 1.0555 6.638e-39 236.5 288 0 0 0 -0.50312 0.4046 -0.76365 0.013505
0.00029107 0.13271 1.0546 6.3615e-39 237.5 288 0 0 0 -0.46097 0.4244 -0.77935 0.015743
0.024968 0.13333 1.0546 7.56e-39 276 288 0 0 0 0.36193 0.50801 -0.78162 0.01669
0.027033 0.13295 1.0549 7.1606e-39 265 288 0 0 0 0.41994 0.46607 -0.77874 0.013292
0.029098 0.13258 1.0552 6.5151e-39 254 288 0 0 0 0.46639 0.43816 -0.76844 0.012056
-0.0009436 0.13468 1.0555 8.2976e-39 361 288 0 0 0 -0.49855 0.40632 -0.76574 0.013023
0.00090805 0.13521 1.0548 7.3987e-39 378 288 0 0 0 -0.43321 0.43918 -0.78706 0.018544
0.0033758 0.1358 1.0546 6.131e-39 395.5 288 0 0 0 -0.35483 0.50238 -0.78849 0.025838
0.021267 0.1358 1.0546 7.0069e-39 404 288 0 0 0 0.23541 0.60091 -0.76386 0.01792
0.023118 0.1358 1.0546 7.4218e-39 405.5 288 0 0 0 0.29185 0.58286 -0.75835 0.018511
0.024979 0.13524 1.0551 7.7905e-39 393 288 0 0 0 0.35547 0.53044 -0.76959 0.017012
0.026843 0.13468 1.0555 8.2976e-39 380.5 288 0 0 0 0.40769 0.48992 -0.77056 0.015063
0.028695 0.13468 1.0555 7.9288e-39 382 288 0 0 0 0.45368 0.4526 -0.76768 0.012111
0.00090876 0.13715 1.0555 8.482e-39 419.5 288 0 0 0 -0.4414 0.44016 -0.78194 0.019604
0.0033758 0.13703 1.0546 8.2515e-39 421.5 288 0 0 0 -0.35771 0.50453 -0.78581 0.026813
0.023138 0.13715 1.0555 8.2976e-39 427.5 288 0 0 0 0.29916 0.58806 -0.75146 0.018119
0.0015262 0.13838 1.0555 8.1132e-39 452 288 0 0 0 -0.41891 0.46334 -0.78092 0.022034
0.0033774 0.13832 1.0551 7.6061e-39 453.5 288 0 0 0 -0.35854 0.5126 -0.78019 0.027244
-0.014553 -0.019104 1.0573 5.5779e-39 226 248.5 0 0 0 0.51787 -0.019427 -0.85524 0.025903
-0.012697 -0.018486 1.0573 5.6239e-39 226.5 249 0 0 0 0.49976 -0.0083773 -0.86612 0.022307
0.022558 -0.019723 1.0573 5.9927e-39 380 248 0 0 0 -0.28741 0.40648 -0.86728 0.010653
0.02627 -0.018486 1.0573 6.5459e-39 382 249 0 0 0 -0.36046 0.37957 -0.85206 0.013704
0.029362 -0.019104 1.0573 6.3154e-39 388 248.5 0 0 0 -0.40781 0.35025 -0.84322 0.013907
-0.01454 -0.017234 1.0564 8.021e-39 406 249 0 0 0 0.52779 -0.013644 -0.84926 0.026553
-0.012686 -0.017234 1.0564 8.4359e-39 407.5 249 0 0 0 0.51808 -0.0097794 -0.85527 0.024263
-0.010842 -0.016631 1.0573 7.3296e-39 390.5 249.5 0 0 0 0.48417 0.01423 -0.87486 0.021853
0.02627 -0.017249 1.0573 6.4537e-39 453 249 0 0 0 -0.36436 0.38342 -0.84866 0.013702
0.029362 -0.01663 1.0573 7.0068e-39 430 249.5 0 0 0 -0.41542 0.36209 -0.83446 0.012956
-0.012892 -0.015586 1.0564 6.3308e-39 392 250 0 0 0 0.52386 -0.0076354 -0.85177 0.023492
-0.010832 -0.014762 1.0564 5.5317e-39 437 250 0 0 0 0.50156 0.019126 -0.86491 0.023283
-0.0096045 -0.014775 1.0573 5.5317e-39 438 250 0 0 0 0.47449 0.044195 -0.87915 0.021861
-0.0071304 -0.014775 1.0573 5.7161e-39 451 250 0 0 0 0.44576 0.074738 -0.89202 0.024094
0.031191 -0.01538 1.0564 7.9288e-39 384.5 250.5 0 0 0 -0.44333 0.35108 -0.82474 0.013233
0.033045 -0.014762 1.0564 8.5281e-39 364.5 251 0 0 0 -0.4765 0.33775 -0.81171 0.014014
-0.010832 -0.013526 1.0564 6.0849e-39 389 251 0 0 0 0.50802 0.015144 -0.86121 0.022901
-0.0089818 -0.012914 1.0568 6.4306e-39 317 251.5 0 0 0 0.48986 0.046156 -0.87058 0.023598
-0.0071304 -0.01292 1.0573 6.5459e-39 318.5 251.5 0 0 0 0.44949 0.083393 -0.88939 0.022958
-0.0058934 -0.01292 1.0573 6.6842e-39 319.5 251.5 0 0 0 0.42595 0.094807 -0.89976 0.024895
0.031218 -0.01292 1.0573 6.6842e-39 404 251.5 0 0 0 -0.4485 0.35595 -0.81985 0.01283
0.033066 -0.012916 1.0571 6.569e-39 405.5 251.5 0 0 0 -0.47789 0.33962 -0.81011 0.013515
-0.0089818 -0.011059 1.0568 8.2976e-39 408.5 252 0 0 0 0.49669 0.043838 -0.86682 0.023148
-0.0071304 -0.011063 1.0573 8.3898e-39 410 252 0 0 0 0.4598 0.06762 -0.88544 0.022529
-0.0058934 -0.011063 1.0573 8.3898e-39 411 252 0 0 0 0.43715 0.091074 -0.89476 0.023201
0.031218 -0.011063 1.0573 6.1771e-39 225 253 0 0 0 -0.45854 0.34938 -0.81712 0.012813
0.033073 -0.011063 1.0573 6.4998e-39 226.5 253 0 0 0 -0.47774 0.3379 -0.81092 0.013055
-0.0089783 -0.0092 1.0564 5.9927e-39 341.5 253 0 0 0 0.50053 0.043377 -0.86463 0.022857
-0.0071304 -0.0092079 1.0573 6.2232e-39 343 253 0 0 0 0.46685 0.064827 -0.88196 0.022431
-0.0058934 -0.0092079 1.0573 6.2693e-39 344 253 0 0 0 0.45183 0.071954 -0.8892 0.021311
0.031218 -0.0098264 1.0573 6.2693e-39 386 253 0 0 0 -0.45814 0.35344 -0.81559 0.012436
0.033073 -0.0092079 1.0573 6.7764e-39 312 253.5 0 0 0 -0.48304 0.34056 -0.80665 0.012978
-0.010832 -0.0061101 1.0564 6.4537e-39 438 254 0 0 0 0.52583 0.027438 -0.85014 0.020115
-0.008777 -0.0065259 1.057 6.9454e-39 422 254 0 0 0 0.50544 0.033609 -0.86221 0.021108
-0.0071304 -0.0067339 1.0573 7.099e-39 414.5 254 0 0 0 0.47079 0.0534 -0.88063 0.020629
0.03328 -0.00694 1.0573 7.4986e-39 349.33 254.33 0 0 0 -0.49849 0.32821 -0.80236 0.013388
0.034899 -0.0061101 1.0564 6.3615e-39 252 255 0 0 0 -0.52334 0.3129 -0.7926 0.013658
-0.010832 -0.0048741 1.0564 6.4537e-39 378 255 0 0 0 0.52429 0.04535 -0.85033 0.024455
-0.0089818 -0.0048762 1.0568 6.7303e-39 379.5 255 0 0 0 0.51073 0.030657 -0.8592 0.019388
0.034899 -0.0048741 1.0564 6.9147e-39 423 255 0 0 0 -0.52768 0.30668 -0.79215 0.013451
-0.013304 -0.0024022 1.0564 6.4537e-39 385 256 0 0 0 0.48285 0.16984 -0.85907 0.050893
-0.010837 -0.0030211 1.0568 7.6061e-39 309 256 0 0 0 0.51869 0.057573 -0.85302 0.027116
-0.0095963 -0.0030202 1.0564 7.6522e-39 310 256 0 0 0 0.52403 0.019728 -0.85147 0.019474
0.034929 -0.0030227 1.0573 6.0849e-39 353.5 256 0 0 0 -0.52991 0.30591 -0.79096 0.012891
0.036557 -0.0028148 1.0567 6.3922e-39 380 256 0 0 0 -0.57499 0.27402 -0.77091 0.016032
-0.013304 -0.0011662 1.0564 7.9288e-39 234 257 0 0 0 0.45625 0.24155 -0.85644 0.067114
-0.010842 -0.0011672 1.0573 7.6522e-39 236 257 0 0 0 0.49937 0.10316 -0.86023 0.037864
-0.0096045 -0.0011672 1.0573 7.56e-39 237 257 0 0 0 0.50307 0.058964 -0.86223 0.024897
0.037403 -0.0011672 1.0573 6.3615e-39 281 257 0 0 0 -0.57839 0.2826 -0.76525 0.015221
0.039225 -0.0011662 1.0564 6.9608e-39 282.5 257 0 0 0 -0.63149 0.24024 -0.73723 0.018352
0.042315 -0.0011662 1.0564 8.482e-39 362 257 0 0 0 -0.66627 0.18765 -0.72171 0.022072
-0.01454 6.9799e-05 1.0564 7.0069e-39 386 257 0 0 0 0.38645 0.39239 -0.83468 0.083637
-0.013316 6.9859e-05 1.0573 7.0069e-39 387 257 0 0 0 0.40372 0.36355 -0.83955 0.080886
-0.010842 6.9859e-05 1.0573 6.5459e-39 388 257 0 0 0 0.47587 0.15904 -0.86502 0.042157
-0.0096045 6.9859e-05 1.0573 6.1771e-39 389 257 0 0 0 0.50329 0.10204 -0.85807 0.026199
0.039259 6.9859e-05 1.0573 6.592e-39 431.5 257 0 0 0 -0.61672 0.26018 -0.74294 0.018187
0.041114 0.00068838 1.0573 6.0388e-39 356.5 257.5 0 0 0 -0.64365 0.25055 -0.72315 0.019173
0.042951 0.00068783 1.0568 6.2693e-39 374 257.5 0 0 0 -0.67682 0.21921 -0.70275 0.023464
0.043151 0.0033668 1.0567 6.9454e-39 286 258.67 0 0 0 -0.67876 0.25928 -0.68707 0.024954
-0.026923 0.0074921 1.0573 6.1771e-39 430 259 0 0 0 -0.76653 -0.57899 -0.27785 0.055184
-0.0269 0.0099576 1.0564 5.9927e-39 424 260 0 0 0 -0.76879 -0.5608 -0.30737 0.044388
-0.0269 0.011194 1.0564 5.9005e-39 268 261 0 0 0 -0.78647 -0.52579 -0.32406 0.03781
-0.029397 0.013677 1.0573 5.9927e-39 267 262 0 0 0 -0.82675 -0.45081 -0.33654 0.018956
-0.030634 0.014914 1.0573 5.7161e-39 424 262 0 0 0 -0.86827 -0.38083 -0.31793 0.019824
0.048495 0.08288 1.0564 6.5459e-39 399 280 0 0 0 0.94338 0.14802 -0.29687 0.017436
0.048536 0.087899 1.0573 8.5742e-39 363 281 0 0 0 0.93787 0.20232 -0.28191 0.01659
0.047299 0.089137 1.0573 6.3615e-39 420 281 0 0 0 0.9329 0.20592 -0.29546 0.016454
-0.01454 0.10884 1.0564 8.5742e-39 427 284 0 0 0 -0.67073 0.36769 -0.64415 0.0064303
-0.014553 0.11017 1.0573 5.9927e-39 499 284 0 0 0 -0.67386 0.37129 -0.63879 0.0064381
0.041079 0.11131 1.0564 5.163e-39 249 285 0 0 0 0.83183 0.26452 -0.48794 0.024362
-0.012896 0.1134 1.0567 6.9454e-39 329 285 0 0 0 -0.66018 0.37618 -0.65012 0.0063179
0.041114 0.11264 1.0573 8.021e-39 364 285 0 0 0 0.83609 0.25837 -0.48394 0.023311
-0.012697 0.11511 1.0573 8.2054e-39 415.5 285 0 0 0 -0.65987 0.37716 -0.64987 0.0068528
-0.012079 0.11635 1.0573 6.2693e-39 489 285 0 0 0 -0.65335 0.37697 -0.65652 0.0073705
-0.010832 0.11687 1.0564 6.8224e-39 342 285.5 0 0 0 -0.6375 0.37952 -0.67049 0.0074736
0.039843 0.11749 1.0564 6.7303e-39 235 286 0 0 0 0.64543 0.3606 -0.67334 0.010648
-0.010842 0.11883 1.0573 5.5317e-39 241 286 0 0 0 -0.63588 0.38214 -0.67054 0.0075979
-0.0095963 0.11872 1.0564 5.5317e-39 242 286 0 0 0 -0.62346 0.38612 -0.67986 0.0072471
0.039242 0.11878 1.0568 7.6983e-39 281.5 286 0 0 0 0.64434 0.35536 -0.67716 0.010964
-0.0096045 0.12068 1.0573 7.1452e-39 382.5 286 0 0 0 -0.6284 0.37971 -0.67892 0.007373
0.037371 0.1212 1.0564 7.8366e-39 460 286 0 0 0 0.59854 0.37515 -0.70782 0.0089543
0.03864 0.12068 1.0573 6.4076e-39 429.5 286 0 0 0 0.63872 0.35651 -0.68186 0.011365
-0.0083603 0.12367 1.0564 5.8083e-39 165 287 0 0 0 -0.61256 0.38135 -0.69234 0.0072014
0.03697 0.12329 1.0567 7.0376e-39 191 287 0 0 0 0.57647 0.38625 -0.72006 0.0064539
-0.0083603 0.1249 1.0564 7.56e-39 218 287 0 0 0 -0.60869 0.38035 -0.6963 0.0073161
0.036769 0.12495 1.0568 5.9927e-39 254.5 287 0 0 0 0.57133 0.39123 -0.72147 0.0074906
-0.0083674 0.12625 1.0573 8.021e-39 262 287 0 0 0 -0.61299 0.37301 -0.69649 0.007109
0.034899 0.12738 1.0564 9.0352e-39 411 287 0 0 0 0.55708 0.39164 -0.73231 0.0084006
0.036151 0.12681 1.0568 8.1132e-39 390 287 0 0 0 0.56686 0.3904 -0.72543 0.0080443
-0.0071274 0.12929 1.0568 7.1913e-39 448.5 287 0 0 0 -0.58897 0.38005 -0.71322 0.0082361
-0.0052703 0.12923 1.0564 7.4448e-39 450 287 0 0 0 -0.57214 0.38373 -0.72485 0.0090385
0.033261 0.12947 1.0567 6.1771e-39 260 287.67 0 0 0 0.54788 0.39134 -0.73938 0.0092397
0.034929 0.12934 1.0573 6.2693e-39 313 287.5 0 0 0 0.56172 0.39007 -0.7296 0.009314
-0.0052748 0.1312 1.0573 5.5778e-39 167.5 288 0 0 0 -0.57324 0.38774 -0.72184 0.0097326
0.03306 0.13114 1.0568 7.2835e-39 205.5 288 0 0 0 0.54419 0.39567 -0.7398 0.0097026
-0.0046563 0.13243 1.0573 8.2054e-39 214 288 0 0 0 -0.56592 0.39035 -0.72619 0.010707
-0.0030044 0.13315 1.0564 6.6381e-39 241.33 288 0 0 0 -0.5453 0.39526 -0.7392 0.011544
0.029955 0.13356 1.0564 8.021e-39 280 288 0 0 0 0.48364 0.43652 -0.75864 0.011325
0.031191 0.13294 1.0564 6.638e-39 262 288 0 0 0 0.50452 0.42118 -0.7537 0.010845
0.032858 0.13281 1.057 6.0234e-39 257 288 0 0 0 0.5377 0.40329 -0.74043 0.0099981
-0.0027984 0.13479 1.0564 7.8366e-39 359.5 288 0 0 0 -0.53738 0.39607 -0.74455 0.011299
0.029955 0.13479 1.0564 6.7303e-39 383 288 0 0 0 0.48406 0.43823 -0.75739 0.012055
0.031218 0.13491 1.0573 6.0849e-39 384 288 0 0 0 0.50554 0.42525 -0.75073 0.010644
0.032455 0.13491 1.0573 5.6239e-39 385 288 0 0 0 0.52818 0.40898 -0.74415 0.010135
-0.0028008 0.13676 1.0573 7.5831e-39 403.5 288 0 0 0 -0.54268 0.39057 -0.74361 0.01218
-0.00094441 0.13665 1.0564 7.8827e-39 405 288 0 0 0 -0.49574 0.40413 -0.76871 0.013342
0.025011 0.13726 1.0564 8.2054e-39 429 288 0 0 0 0.35501 0.5561 -0.75148 0.017693
0.026871 0.13668 1.0566 8.3437e-39 419.5 288 0 0 0 0.42275 0.49121 -0.76157 0.014393
0.029356 0.13673 1.0571 8.7816e-39 421.5 288 0 0 0 0.47513 0.45066 -0.75575 0.012405
0.031218 0.13614 1.0573 8.8508e-39 412 288 0 0 0 0.50571 0.4278 -0.74917 0.011283
-0.0021823 0.13862 1.0573 8.6664e-39 449 288 0 0 0 -0.53408 0.38989 -0.75016 0.013253
-0.00094441 0.1385 1.0564 8.482e-39 450 288 0 0 0 -0.50175 0.39839 -0.76781 0.013699
0.00029157 0.1385 1.0564 8.2976e-39 451 288 0 0 0 -0.46841 0.41325 -0.7809 0.015806
0.029981 0.13862 1.0573 7.2835e-39 456 288 0 0 0 0.47914 0.44375 -0.7573 0.011922
-0.012708 -0.01974 1.0582 6.3154e-39 228.5 248 0 0 0 0.49103 -0.023198 -0.87083 0.023245
-0.010851 -0.018502 1.0582 6.1771e-39 228 249 0 0 0 0.4687 0.0098153 -0.8833 0.021397
-0.0071426 -0.018517 1.0592 6.0849e-39 230 249 0 0 0 0.40042 0.048728 -0.91504 0.021186
0.011445 -0.019137 1.0592 6.8225e-39 371.5 248.5 0 0 0 -0.02464 0.40708 -0.91306 0.026641
0.013923 -0.018517 1.0592 6.4537e-39 372 249 0 0 0 -0.092327 0.43838 -0.89403 0.020726
0.017641 -0.019137 1.0592 6.7303e-39 374.5 248.5 0 0 0 -0.17145 0.43684 -0.88305 0.013273
0.018864 -0.019121 1.0582 6.3615e-39 376.5 248.5 0 0 0 -0.20639 0.42765 -0.88007 0.011218
0.020721 -0.019121 1.0582 6.131e-39 378 248.5 0 0 0 -0.24362 0.41205 -0.87799 0.010456
0.023403 -0.018915 1.0582 6.0849e-39 380 248.67 0 0 0 -0.30187 0.41495 -0.85831 0.011842
0.025054 -0.019121 1.0582 6.2693e-39 381.5 248.5 0 0 0 -0.33088 0.39677 -0.85621 0.012845
0.027117 -0.019327 1.0582 6.1156e-39 384 248.33 0 0 0 -0.36631 0.37873 -0.84993 0.013664
-0.0092052 -0.016447 1.0589 6.7917e-39 386.67 249.67 0 0 0 0.45467 0.055045 -0.88896 0.021305
-0.0071396 -0.016652 1.0587 7.0991e-39 395 249.5 0 0 0 0.41506 0.074798 -0.90671 0.021721
-0.0059035 -0.016039 1.0592 6.6381e-39 376 250 0 0 0 0.39698 0.10949 -0.91127 0.023542
-0.00094684 -0.016039 1.0592 6.4537e-39 380 250 0 0 0 0.30064 0.18388 -0.93584 0.028096
0.017641 -0.016658 1.0592 6.2232e-39 415.5 249.5 0 0 0 -0.17759 0.44279 -0.87886 0.015076
0.01888 -0.016658 1.0592 6.131e-39 416.5 249.5 0 0 0 -0.20145 0.4378 -0.87621 0.013287
0.020734 -0.016655 1.059 5.8544e-39 418 249.5 0 0 0 -0.24603 0.4209 -0.8731 0.011807
0.023197 -0.016644 1.0582 6.3154e-39 425 249.5 0 0 0 -0.31131 0.40949 -0.85756 0.012601
0.025054 -0.016644 1.0582 6.8686e-39 426.5 249.5 0 0 0 -0.34555 0.3984 -0.84963 0.013639
0.027117 -0.016438 1.0582 7.7444e-39 419.67 249.67 0 0 0 -0.37367 0.38491 -0.84393 0.013004
-0.0083746 -0.014787 1.0582 5.9005e-39 439 250 0 0 0 0.45554 0.064357 -0.88789 0.02267
-0.0052814 -0.014794 1.0587 6.0388e-39 452.5 250 0 0 0 0.39667 0.11085 -0.91124 0.023603
-0.0028056 -0.0148 1.0592 6.131e-39 454.5 250 0 0 0 0.34763 0.15382 -0.92493 0.025656
-0.00094684 -0.0148 1.0592 5.9005e-39 456 250 0 0 0 0.30774 0.1949 -0.93129 0.028615
0.020739 -0.0148 1.0592 6.3615e-39 248.5 251 0 0 0 -0.24599 0.41679 -0.87509 0.0131
0.023217 -0.0148 1.0592 5.9005e-39 250.5 251 0 0 0 -0.30755 0.40132 -0.86276 0.01303
0.025075 -0.0148 1.0592 5.5317e-39 278 251 0 0 0 -0.35052 0.39376 -0.84976 0.012897
0.026923 -0.014794 1.0587 5.3934e-39 279.5 251 0 0 0 -0.36966 0.38486 -0.84572 0.012512
0.028768 -0.014787 1.0582 6.5459e-39 281 251 0 0 0 -0.40709 0.36942 -0.83535 0.012371
0.030006 -0.014787 1.0582 8.021e-39 362 251 0 0 0 -0.41572 0.36814 -0.83166 0.012093
-0.0046603 -0.01293 1.0582 6.9147e-39 320.5 251.5 0 0 0 0.4041 0.11826 -0.90704 0.023422
-0.0028056 -0.012942 1.0592 6.7073e-39 322 251.5 0 0 0 0.36086 0.15624 -0.91944 0.024829
-0.00094603 -0.01293 1.0582 6.3154e-39 323.5 251.5 0 0 0 0.3306 0.1846 -0.92554 0.027175
0.022597 -0.013561 1.0592 7.9288e-39 422 251 0 0 0 -0.30304 0.40217 -0.86396 0.013198
0.026728 -0.013148 1.0592 7.2527e-39 408.67 251.33 0 0 0 -0.3711 0.38061 -0.84701 0.0115
0.02878 -0.012936 1.0587 6.6842e-39 402 251.5 0 0 0 -0.40496 0.37316 -0.83472 0.011195
0.030006 -0.01293 1.0582 6.4537e-39 403 251.5 0 0 0 -0.41949 0.37063 -0.82865 0.011866
-0.0046603 -0.011073 1.0582 8.021e-39 412 252 0 0 0 0.41261 0.11629 -0.90346 0.022246
-0.0028056 -0.011082 1.0592 7.6983e-39 413.5 252 0 0 0 0.37042 0.14246 -0.91787 0.022988
-0.00094603 -0.011073 1.0582 8.021e-39 422 252 0 0 0 0.34379 0.17575 -0.92245 0.025696
0.026315 -0.011082 1.0592 5.9927e-39 462 252 0 0 0 -0.3694 0.37933 -0.84832 0.011523
0.028793 -0.011082 1.0592 6.1771e-39 223 253 0 0 0 -0.40366 0.36893 -0.83722 0.010868
0.030006 -0.011073 1.0582 6.0849e-39 224 253 0 0 0 -0.42991 0.3633 -0.82655 0.011838
-0.0046603 -0.0092159 1.0582 5.8544e-39 354.5 253 0 0 0 0.41522 0.10929 -0.90313 0.021901
-0.0028056 -0.0092237 1.0592 5.6931e-39 356 253 0 0 0 0.38537 0.13849 -0.91231 0.022281
-0.00094684 -0.0092237 1.0592 6.0388e-39 357.5 253 0 0 0 0.34724 0.16992 -0.92225 0.025167
0.028793 -0.0092237 1.0592 7.053e-39 308.5 253.5 0 0 0 -0.40625 0.36786 -0.83645 0.011013
0.030419 -0.0090095 1.0582 7.0069e-39 284.67 253.67 0 0 0 -0.44025 0.3577 -0.82355 0.011669
-0.0052803 -0.006741 1.0584 6.5689e-39 416 254 0 0 0 0.43913 0.072636 -0.89548 0.019956
-0.0028056 -0.007365 1.0592 6.6381e-39 369.5 254 0 0 0 0.39038 0.12699 -0.91185 0.021093
0.030632 -0.006741 1.0584 7.4909e-39 322.5 254.5 0 0 0 -0.44929 0.34919 -0.82231 0.012545
0.032483 -0.0061206 1.0582 7.2835e-39 250 255 0 0 0 -0.47692 0.33765 -0.81151 0.01234
-0.0071365 -0.0048825 1.0582 6.4537e-39 381 255 0 0 0 0.47707 0.04166 -0.87788 0.019116
-0.0052839 -0.0048867 1.0592 6.1771e-39 382.5 255 0 0 0 0.44086 0.06884 -0.89493 0.018693
0.030651 -0.0048867 1.0592 7.8827e-39 415.5 255 0 0 0 -0.44313 0.34684 -0.82664 0.010835
0.033102 -0.0048825 1.0582 7.4218e-39 421.5 255 0 0 0 -0.50121 0.32392 -0.80241 0.013753
-0.0083746 -0.0030254 1.0582 7.3296e-39 311 256 0 0 0 0.49644 0.029843 -0.86756 0.016574
-0.0071396 -0.0030263 1.0587 6.9147e-39 312 256 0 0 0 0.47984 0.041857 -0.87636 0.016474
-0.0059035 -0.0030279 1.0592 6.8224e-39 313 256 0 0 0 0.46009 0.05205 -0.88634 0.01825
0.031271 -0.0036475 1.0592 6.0849e-39 270 256 0 0 0 -0.45777 0.33975 -0.82159 0.011527
0.033123 -0.0030271 1.059 6.0158e-39 350.75 256 0 0 0 -0.49617 0.3188 -0.80758 0.0123
-0.0083746 -0.0011682 1.0582 7.8366e-39 238 257 0 0 0 0.50747 0.028587 -0.8612 0.016896
-0.0071426 -0.0011692 1.0592 8.2054e-39 239 257 0 0 0 0.48205 0.045487 -0.87496 0.015016
-0.0059035 -0.0011692 1.0592 8.2054e-39 240 257 0 0 0 0.47099 0.061928 -0.87996 0.015655
0.03375 -0.0011692 1.0592 5.8083e-39 278 257 0 0 0 -0.50578 0.31567 -0.80284 0.012102
0.034959 -0.0011682 1.0582 5.7161e-39 279 257 0 0 0 -0.53161 0.30876 -0.78871 0.012761
0.036197 -0.0011682 1.0582 5.9005e-39 280 257 0 0 0 -0.54885 0.30001 -0.78023 0.012071
-0.0083818 6.9979e-05 1.0592 6.2693e-39 390 257 0 0 0 0.49823 0.067169 -0.86444 0.018968
0.034989 0.00068954 1.0592 5.9927e-39 347.5 257.5 0 0 0 -0.52625 0.31899 -0.78823 0.011704
0.036824 0.00068923 1.0584 6.2232e-39 349 257.5 0 0 0 -0.55847 0.31024 -0.76932 0.011907
0.039292 0.001308 1.0582 5.7622e-39 278.5 258 0 0 0 -0.59399 0.2902 -0.75031 0.014397
0.042387 0.001308 1.0582 6.3615e-39 281 258 0 0 0 -0.64521 0.26171 -0.71778 0.020489
0.037467 0.0025483 1.0592 8.7586e-39 400 258 0 0 0 -0.55606 0.31963 -0.76723 0.011849
0.039308 0.0025472 1.0587 8.2976e-39 401.5 258 0 0 0 -0.57423 0.31262 -0.75666 0.012206
0.041149 0.0025461 1.0582 8.021e-39 403 258 0 0 0 -0.61988 0.28259 -0.73204 0.018141
0.042387 0.0025461 1.0582 8.1132e-39 404 258 0 0 0 -0.63493 0.27767 -0.72094 0.020299
-0.028184 0.012451 1.0582 6.1771e-39 425 261 0 0 0 -0.7875 -0.50885 -0.34772 0.024683
-0.031898 0.014927 1.0582 5.7161e-39 423 262 0 0 0 -0.88514 -0.37161 -0.28007 0.017308
-0.02447 0.065689 1.0582 5.8083e-39 236 277 0 0 0 -0.9336 0.31865 -0.16383 0.018815
-0.023252 0.071941 1.0592 7.6522e-39 268 278 0 0 0 -0.95456 0.25002 -0.16219 0.0061915
0.048578 0.089213 1.0582 6.4537e-39 421 281 0 0 0 0.93927 0.20515 -0.27509 0.015608
0.044864 0.094165 1.0582 7.4678e-39 373 282 0 0 0 0.91469 0.24746 -0.31954 0.016876
-0.015803 0.10778 1.0582 7.56e-39 378 284 0 0 0 -0.70094 0.36384 -0.61343 0.0063633
-0.015817 0.10912 1.0592 8.482e-39 426 284 0 0 0 -0.70534 0.36608 -0.60703 0.0063568
-0.015191 0.11093 1.0587 6.5459e-39 351 284.5 0 0 0 -0.69077 0.37463 -0.61846 0.0065282
-0.014565 0.11274 1.0582 5.163e-39 251 285 0 0 0 -0.6823 0.37388 -0.62823 0.0063426
0.041149 0.11397 1.0582 7.0069e-39 411 285 0 0 0 0.83838 0.25411 -0.48223 0.023238
-0.014578 0.11469 1.0592 7.6061e-39 390 285 0 0 0 -0.6903 0.37072 -0.62133 0.0067962
0.041149 0.11521 1.0582 7.0991e-39 483 285 0 0 0 0.83208 0.25084 -0.49469 0.024089
-0.012914 0.11728 1.0582 7.2834e-39 291 285.67 0 0 0 -0.66492 0.37477 -0.64609 0.0072327
0.041185 0.11717 1.0592 6.131e-39 212.5 286 0 0 0 0.78409 0.28929 -0.54911 0.023757
-0.012708 0.11893 1.0582 5.4395e-39 239.5 286 0 0 0 -0.65856 0.37523 -0.6523 0.0074427
0.041185 0.11903 1.0592 7.4678e-39 283 286 0 0 0 0.68544 0.33732 -0.64528 0.011766
-0.012713 0.12084 1.0587 6.7995e-39 345 286 0 0 0 -0.65469 0.37429 -0.65673 0.0074856
-0.010851 0.12078 1.0582 7.053e-39 381.5 286 0 0 0 -0.6409 0.37553 -0.6695 0.007435
0.039911 0.12078 1.0582 6.2693e-39 430.5 286 0 0 0 0.65731 0.35099 -0.6669 0.01187
-0.01086 0.12337 1.0592 6.3615e-39 315 286.5 0 0 0 -0.64454 0.36459 -0.67205 0.0069304
-0.0096168 0.12331 1.0587 6.1771e-39 316 286.5 0 0 0 -0.63095 0.36889 -0.68251 0.0068205
0.039309 0.12331 1.0587 7.0069e-39 184 287 0 0 0 0.63474 0.35919 -0.68417 0.0095903
-0.009621 0.12523 1.0592 7.2835e-39 217 287 0 0 0 -0.6315 0.36615 -0.68348 0.0068203
0.038706 0.12523 1.0592 5.5317e-39 256 287 0 0 0 0.60695 0.37447 -0.70099 0.0065016
-0.0083746 0.12759 1.0582 7.3757e-39 376 287 0 0 0 -0.61251 0.3703 -0.69837 0.0073677
0.037451 0.12703 1.0587 8.1132e-39 391 287 0 0 0 0.58596 0.38343 -0.71389 0.0084873
0.038706 0.12646 1.0592 7.3757e-39 370 287 0 0 0 0.6004 0.37436 -0.70667 0.0075497
-0.0083746 0.12883 1.0582 8.6664e-39 419 287 0 0 0 -0.60726 0.37255 -0.70175 0.0075404
0.036197 0.12883 1.0582 5.9005e-39 469 287 0 0 0 0.57335 0.3858 -0.72279 0.0091348
-0.0083818 0.1308 1.0592 6.0388e-39 320.5 287.5 0 0 0 -0.60329 0.37316 -0.70483 0.0083958
-0.0071365 0.13131 1.0582 5.7161e-39 166 288 0 0 0 -0.58967 0.3797 -0.71283 0.0089875
0.034959 0.13131 1.0582 7.6522e-39 207 288 0 0 0 0.56224 0.38999 -0.72924 0.010148
0.036228 0.1308 1.0592 7.2835e-39 183.5 288 0 0 0 0.57069 0.38428 -0.7257 0.010329
-0.0071396 0.13322 1.0587 6.5459e-39 231.5 288 0 0 0 -0.59033 0.37871 -0.7128 0.0099708
-0.0054857 0.13337 1.0582 6.3307e-39 239.33 288 0 0 0 -0.57347 0.38658 -0.72228 0.011027
0.033721 0.13378 1.0582 7.1913e-39 283 288 0 0 0 0.54213 0.40156 -0.73813 0.01057
0.034959 0.13317 1.0582 6.2693e-39 265 288 0 0 0 0.55008 0.39585 -0.73534 0.010473
-0.0071426 0.13514 1.0592 7.0991e-39 286 288 0 0 0 -0.58878 0.37744 -0.71476 0.011113
-0.0052819 0.13508 1.0587 7.514e-39 322.5 288 0 0 0 -0.56844 0.39095 -0.7239 0.01211
0.033721 0.13502 1.0582 5.6239e-39 386 288 0 0 0 0.53431 0.40409 -0.74245 0.010483
0.034989 0.13514 1.0592 5.5317e-39 387 288 0 0 0 0.54437 0.39021 -0.74256 0.011767
-0.0052819 0.13632 1.0587 5.7161e-39 388.5 288 0 0 0 -0.57006 0.38837 -0.72402 0.012524
0.031244 0.1375 1.0582 8.482e-39 434 288 0 0 0 0.50602 0.41939 -0.75369 0.0099513
0.032905 0.13671 1.0585 8.3591e-39 425 288 0 0 0 0.5213 0.40668 -0.75023 0.01024
0.034989 0.13638 1.0592 8.2976e-39 415 288 0 0 0 0.53704 0.39559 -0.74505 0.011141
-0.0083962 -0.018549 1.061 6.0849e-39 229 249 0 0 0 0.40667 0.042975 -0.91256 0.020216
-0.0071549 -0.019791 1.061 6.0849e-39 230 248 0 0 0 0.38122 0.039733 -0.92363 0.021214
-0.0059136 -0.018549 1.061 6.2693e-39 231 249 0 0 0 0.37192 0.088482 -0.92404 0.022761
-0.00094847 -0.018549 1.061 7.9288e-39 362 249 0 0 0 0.2849 0.18008 -0.94149 0.029144
0.00091359 -0.018557 1.0615 8.1593e-39 363.5 249 0 0 0 0.24356 0.22311 -0.94388 0.031864
0.0077472 -0.018565 1.0619 8.7586e-39 367 249 0 0 0 0.065255 0.38216 -0.92179 0.031821
0.0089896 -0.018565 1.0619 8.3898e-39 368 249 0 0 0 0.040925 0.39069 -0.91961 0.030731
0.010223 -0.01917 1.061 7.4218e-39 370.5 248.5 0 0 0 0.0042537 0.40289 -0.91524 0.028044
0.012695 -0.018533 1.0601 6.6381e-39 371 249 0 0 0 -0.050374 0.42476 -0.9039 0.024737
0.015175 -0.018533 1.0601 6.2693e-39 373 249 0 0 0 -0.11901 0.43601 -0.89204 0.019484
0.016415 -0.018533 1.0601 6.5459e-39 374 249 0 0 0 -0.14164 0.44829 -0.8826 0.015512
-0.008389 -0.017293 1.0601 7.56e-39 414 249 0 0 0 0.41502 0.058912 -0.9079 0.021256
-0.005083 -0.016885 1.0604 7.2527e-39 403.67 249.33 0 0 0 0.37755 0.11233 -0.91915 0.023276
-0.0028092 -0.01668 1.0605 7.1682e-39 399 249.5 0 0 0 0.33509 0.16045 -0.92842 0.025683
-0.00094765 -0.017293 1.0601 7.9288e-39 421 249 0 0 0 0.29029 0.2008 -0.93564 0.029459
0.00091314 -0.016684 1.0608 7.2604e-39 402 249.5 0 0 0 0.25811 0.2374 -0.93649 0.031169
0.0027778 -0.01608 1.0619 6.3615e-39 383 250 0 0 0 0.22188 0.26587 -0.93813 0.033124
0.0077472 -0.016702 1.0619 7.0068e-39 407.5 249.5 0 0 0 0.078869 0.38373 -0.92007 0.031266
0.0089896 -0.016702 1.0619 6.8686e-39 408.5 249.5 0 0 0 0.049946 0.39738 -0.9163 0.029994
0.010844 -0.016687 1.061 6.1541e-39 410 249.5 0 0 0 0.0072147 0.41058 -0.9118 0.027361
0.013321 -0.01668 1.0605 5.8083e-39 412 249.5 0 0 0 -0.054034 0.42464 -0.90375 0.025368
0.015182 -0.01668 1.0605 6.0388e-39 413.5 249.5 0 0 0 -0.10815 0.4312 -0.89575 0.020742
0.016415 -0.016673 1.0601 6.2232e-39 414.5 249.5 0 0 0 -0.13893 0.44067 -0.88685 0.017355
0.00091346 -0.014825 1.061 5.8083e-39 457.5 250 0 0 0 0.27189 0.23289 -0.93372 0.030564
0.0027778 -0.014838 1.0619 6.2693e-39 459 250 0 0 0 0.22992 0.26605 -0.93614 0.032451
0.0077472 -0.014838 1.0619 5.4395e-39 225 251 0 0 0 0.095613 0.37544 -0.9219 0.031911
0.0089896 -0.014838 1.0619 5.5317e-39 226 251 0 0 0 0.062628 0.38651 -0.92016 0.030475
0.010848 -0.014832 1.0615 6.0388e-39 227.5 251 0 0 0 0.011976 0.40875 -0.91257 0.027384
0.013321 -0.014819 1.0605 6.0849e-39 229.5 251 0 0 0 -0.046013 0.4237 -0.90463 0.025453
0.015188 -0.014825 1.061 6.1771e-39 231 251 0 0 0 -0.10548 0.42551 -0.89879 0.021656
0.017043 -0.014819 1.0605 6.9607e-39 244 251 0 0 0 -0.14523 0.43663 -0.88784 0.017837
0.018896 -0.014813 1.0601 6.3615e-39 247 251 0 0 0 -0.20351 0.42639 -0.88135 0.013773
0.00091346 -0.012963 1.061 6.3845e-39 325 251.5 0 0 0 0.27595 0.23845 -0.93112 0.029862
0.0027754 -0.012963 1.061 6.638e-39 326.5 251.5 0 0 0 0.23827 0.25863 -0.93613 0.03246
0.0073331 -0.012767 1.0619 6.1771e-39 321 251.67 0 0 0 0.12258 0.35506 -0.92677 0.032227
0.0089896 -0.013596 1.0619 7.9288e-39 405 251 0 0 0 0.074051 0.38092 -0.92164 0.030709
0.011053 -0.013174 1.0613 8.0825e-39 392 251.33 0 0 0 0.01923 0.39905 -0.91673 0.028312
0.013332 -0.012969 1.0615 8.4128e-39 386.5 251.5 0 0 0 -0.042625 0.41089 -0.91069 0.026745
0.015201 -0.012975 1.0619 8.482e-39 388 251.5 0 0 0 -0.097535 0.42041 -0.90208 0.022232
0.017047 -0.012961 1.0608 8.021e-39 389.5 251.5 0 0 0 -0.14526 0.42786 -0.89209 0.019129
0.018904 -0.012958 1.0605 7.1452e-39 391 251.5 0 0 0 -0.20484 0.42134 -0.88347 0.015574
0.020756 -0.012952 1.0601 6.8916e-39 392.5 251.5 0 0 0 -0.25142 0.40932 -0.87707 0.013692
0.023444 -0.012745 1.0601 6.761e-39 389.33 251.67 0 0 0 -0.31444 0.39473 -0.86332 0.01298
0.025097 -0.012952 1.0601 7.1913e-39 399 251.5 0 0 0 -0.35262 0.38791 -0.85158 0.01222
0.027577 -0.012332 1.0601 6.7303e-39 376 252 0 0 0 -0.38179 0.37167 -0.84623 0.011038
0.00091346 -0.011101 1.061 8.1593e-39 423.5 252 0 0 0 0.2854 0.22966 -0.93049 0.029023
0.0027754 -0.011101 1.061 7.3757e-39 425 252 0 0 0 0.24874 0.24969 -0.93583 0.030929
0.011474 -0.011111 1.0619 6.0849e-39 432 252 0 0 0 0.017179 0.3938 -0.91904 0.029934
0.013959 -0.011111 1.0619 6.5459e-39 434 252 0 0 0 -0.062122 0.411 -0.90952 0.024784
0.017058 -0.011106 1.0615 6.0388e-39 436.5 252 0 0 0 -0.14556 0.41208 -0.89945 0.020996
0.018928 -0.011111 1.0619 5.9005e-39 438 252 0 0 0 -0.20424 0.40209 -0.89253 0.016445
0.020774 -0.011101 1.061 6.0849e-39 448.5 252 0 0 0 -0.24304 0.39583 -0.88558 0.014488
0.023247 -0.011096 1.0605 6.4076e-39 459.5 252 0 0 0 -0.3141 0.38462 -0.86799 0.012645
0.025097 -0.011092 1.0601 6.2693e-39 461 252 0 0 0 -0.3537 0.38477 -0.85255 0.011907
0.027577 -0.011092 1.0601 5.9927e-39 463 252 0 0 0 -0.38264 0.37412 -0.84476 0.010748
0.00091379 -0.0092414 1.0612 7.2604e-39 378.75 253 0 0 0 0.29549 0.21682 -0.93042 0.028601
0.0027766 -0.0092432 1.0615 7.1452e-39 400 253 0 0 0 0.25015 0.24874 -0.93571 0.029843
0.017686 -0.0098687 1.0619 6.6381e-39 375 253 0 0 0 -0.1612 0.40097 -0.9018 0.021261
0.020993 -0.0094517 1.0616 6.6381e-39 327.33 253.33 0 0 0 -0.25541 0.38376 -0.88741 0.014069
0.023477 -0.0094517 1.0616 7.0683e-39 329.33 253.33 0 0 0 -0.30888 0.37749 -0.87298 0.012384
0.02513 -0.0092432 1.0615 7.1913e-39 305.5 253.5 0 0 0 -0.34625 0.37808 -0.85859 0.012243
0.026957 -0.0092316 1.0601 7.2143e-39 307 253.5 0 0 0 -0.37997 0.37504 -0.84556 0.010771
-0.002808 -0.0061311 1.0601 6.2232e-39 344 254.5 0 0 0 0.38959 0.12591 -0.91234 0.020984
-0.00094765 -0.0067512 1.0601 6.7764e-39 297 254.5 0 0 0 0.35151 0.16729 -0.92112 0.024619
0.00029307 -0.0067628 1.0619 6.8224e-39 298 254.5 0 0 0 0.32489 0.18045 -0.92838 0.02616
0.026981 -0.0067569 1.061 7.1913e-39 319.5 254.5 0 0 0 -0.37626 0.37081 -0.84908 0.01111
0.028818 -0.0067512 1.0601 7.4679e-39 321 254.5 0 0 0 -0.40395 0.36284 -0.83974 0.010221
-0.002808 -0.0048909 1.0601 6.2693e-39 384.5 255 0 0 0 0.39462 0.11551 -0.91155 0.020233
-0.00094765 -0.0048909 1.0601 6.5459e-39 386 255 0 0 0 0.36125 0.1479 -0.92066 0.0235
0.00029307 -0.0048993 1.0619 6.6381e-39 387 255 0 0 0 0.33926 0.17489 -0.92429 0.025071
0.027004 -0.0048993 1.0619 8.2054e-39 408.5 255 0 0 0 -0.3768 0.36531 -0.85122 0.010894
0.028842 -0.0048951 1.061 7.7444e-39 410 255 0 0 0 -0.40658 0.35846 -0.84036 0.010125
-0.0046683 -0.0030305 1.0601 6.9147e-39 314 256 0 0 0 0.43456 0.078336 -0.89723 0.017989
-0.0028099 -0.0030323 1.0608 7.7214e-39 315.5 256 0 0 0 0.40169 0.11464 -0.90857 0.019249
-0.00094847 -0.0030331 1.061 8.1593e-39 317 256 0 0 0 0.37201 0.14018 -0.91758 0.021931
0.027625 -0.0036569 1.0619 5.8083e-39 262 256 0 0 0 -0.38858 0.35878 -0.8487 0.0104
0.028867 -0.0030358 1.0619 5.9005e-39 346 256 0 0 0 -0.41004 0.35312 -0.84094 0.0099495
0.030471 -0.0028238 1.0601 6.1464e-39 373.33 256 0 0 0 -0.44257 0.34432 -0.82799 0.010968
-0.0046723 -0.0011712 1.061 7.9288e-39 241 257 0 0 0 0.44278 0.089753 -0.89213 0.01557
-0.0028104 -0.0011712 1.061 7.8366e-39 242.5 257 0 0 0 0.4142 0.12153 -0.90204 0.016812
-0.00094928 -0.0011722 1.0619 7.7444e-39 244 257 0 0 0 0.38365 0.1395 -0.91288 0.018322
0.030691 -0.0011707 1.0605 6.1771e-39 270.5 257 0 0 0 -0.44642 0.33795 -0.82855 0.010133
0.032538 -0.0011702 1.0601 5.8083e-39 277 257 0 0 0 -0.48262 0.3252 -0.81322 0.011132
-0.0071488 7.0039e-05 1.0601 6.6381e-39 391 257 0 0 0 0.48814 0.059291 -0.87075 0.01432
-0.0054995 0.00048387 1.061 7.6522e-39 340 257.33 0 0 0 0.46385 0.095623 -0.88074 0.012553
-0.0028128 7.0159e-05 1.0619 8.2515e-39 394.5 257 0 0 0 0.42207 0.1335 -0.89668 0.014571
