# .PCD v.7 - Point Cloud Data file format
VERSION .7
FIELDS x y z rgb u v vx vy vz normal_x normal_y normal_z curvature
SIZE 4 4 4 4 4 4 4 4 4 4 4 4 4
TYPE F F F F F F F F F F F F F
COUNT 1 1 1 1 1 1 1 1 1 1 1 1 1
WIDTH 554
HEIGHT 1
VIEWPOINT 0 0 0 1 0 0 0
POINTS 554
DATA ascii
0.040221 0.05497 1.0665 6.2693e-39 382 275 0 0 0 0.93262 0.19749 -0.30201 0.011853
0.03899 0.056866 1.0669 6.7303e-39 334.5 275.5 0 0 0 0.93664 0.17856 -0.30136 0.010555
0.040238 0.056866 1.0669 6.592e-39 335.5 275.5 0 0 0 0.93521 0.18393 -0.30257 0.010616
0.037726 0.058713 1.0665 5.9005e-39 362 276 0 0 0 0.93903 0.17311 -0.29709 0.0089694
0.037759 0.060013 1.0674 6.7303e-39 438 276 0 0 0 0.94082 0.15373 -0.30203 0.0090919
0.036478 0.069943 1.0665 5.9005e-39 184 279 0 0 0 0.92505 0.12539 -0.35856 0.0084243
0.03523 0.073686 1.0665 6.6381e-39 447 279 0 0 0 0.90815 0.1508 -0.39053 0.01055
0.035261 0.074998 1.0674 6.0849e-39 187 280 0 0 0 0.89997 0.15656 -0.40687 0.012024
0.03523 0.076181 1.0665 6.2693e-39 255 280 0 0 0 0.89186 0.17316 -0.41786 0.012638
0.03651 0.081242 1.0674 6.3615e-39 263 281 0 0 0 0.86789 0.2017 -0.45397 0.014879
0.03651 0.082491 1.0674 6.0849e-39 400 281 0 0 0 0.85831 0.19808 -0.47335 0.016779
0.03523 0.089282 1.0665 7.053e-39 215 283 0 0 0 0.82209 0.21724 -0.52628 0.015166
0.032763 0.091233 1.0674 6.2693e-39 396 283 0 0 0 0.81243 0.21433 -0.54223 0.014212
0.034012 0.091233 1.0674 6.3615e-39 397 283 0 0 0 0.81471 0.21073 -0.54022 0.014878
0.030877 0.092442 1.0669 9.3118e-39 457.5 283 0 0 0 0.80245 0.22419 -0.55301 0.013332
-0.030925 0.097477 1.0674 6.8225e-39 435 284 0 0 0 -0.87669 0.2173 -0.42917 0.03571
0.028992 0.097393 1.0665 7.8366e-39 151 285 0 0 0 0.77044 0.22574 -0.5962 0.014009
0.029017 0.10372 1.0674 6.5459e-39 256 286 0 0 0 0.75458 0.21186 -0.62107 0.01355
0.040221 0.10238 1.0665 7.8366e-39 199 286 0 0 0 0.79853 0.17362 -0.57638 0.018257
0.028992 0.10488 1.0665 6.1771e-39 389 286 0 0 0 0.73627 0.22401 -0.63853 0.0143
0.028992 0.11237 1.0665 6.0849e-39 149 288 0 0 0 0.69067 0.26398 -0.67327 0.015964
0.027768 0.11496 1.0674 5.3473e-39 358 288 0 0 0 0.67279 0.28561 -0.68248 0.016338
-0.02904 0.11616 1.0669 5.67e-39 363.5 288 0 0 0 -0.63042 0.3966 -0.66729 0.027023
-0.027155 0.11611 1.0665 5.5317e-39 365 288 0 0 0 -0.58529 0.39871 -0.70602 0.023194
-0.02593 0.11746 1.0674 7.0991e-39 417 288 0 0 0 -0.56017 0.41492 -0.71697 0.020974
0.026496 0.11673 1.0665 8.2974e-39 433.5 288 0 0 0 0.63574 0.31537 -0.70454 0.014631
-0.024681 0.11871 1.0674 9.3118e-39 468 288 0 0 0 -0.53397 0.42622 -0.73021 0.0171
-0.023003 0.11905 1.0668 8.144e-39 366 288.33 0 0 0 -0.51296 0.42404 -0.74637 0.01634
0.022753 0.11985 1.0665 8.2976e-39 213 289 0 0 0 0.57167 0.36362 -0.73551 0.011378
0.024647 0.11996 1.0674 8.2515e-39 214.5 289 0 0 0 0.60347 0.35603 -0.71349 0.011781
0.026519 0.11871 1.0674 6.1771e-39 150 289 0 0 0 0.63811 0.33474 -0.69337 0.012712
-0.020917 0.1211 1.0665 6.1771e-39 227 289 0 0 0 -0.49164 0.43698 -0.75322 0.015061
-0.019669 0.1211 1.0665 5.8083e-39 228 289 0 0 0 -0.48288 0.43194 -0.76175 0.014871
0.022773 0.1212 1.0674 5.9927e-39 270 289 0 0 0 0.57144 0.38149 -0.72658 0.010366
-0.019054 0.12302 1.0669 6.2693e-39 388 289 0 0 0 -0.4793 0.45281 -0.75182 0.013966
0.021096 0.12321 1.0668 9.4961e-39 428.33 289 0 0 0 0.53789 0.40371 -0.74006 0.0088548
-0.018437 0.12495 1.0674 9.2196e-39 462 289 0 0 0 -0.47815 0.46975 -0.7421 0.012448
0.020275 0.12495 1.0674 7.2835e-39 494 289 0 0 0 0.5274 0.42488 -0.73575 0.0081464
-0.017182 0.12677 1.0669 7.053e-39 172 290 0 0 0 -0.46945 0.47276 -0.74573 0.012608
-0.015308 0.12677 1.0669 7.3296e-39 173.5 290 0 0 0 -0.45771 0.46527 -0.75764 0.013482
0.017762 0.12672 1.0665 7.1451e-39 202 290 0 0 0 0.49637 0.43698 -0.75011 0.0088353
0.019019 0.12677 1.0669 7.1452e-39 203 290 0 0 0 0.51308 0.43784 -0.73827 0.0074818
-0.013431 0.12859 1.0665 6.2693e-39 240 290 0 0 0 -0.44778 0.46135 -0.76593 0.013406
0.017778 0.1287 1.0674 5.6239e-39 271 290 0 0 0 0.50281 0.45449 -0.73527 0.0073733
0.019027 0.1287 1.0674 5.7161e-39 272 290 0 0 0 0.51793 0.45109 -0.72682 0.0067102
0.0077941 -0.026177 1.0683 7.56e-39 257 242 0 0 0 -0.20357 0.10698 -0.9732 0.017737
0.009044 -0.026177 1.0683 7.2835e-39 258 242 0 0 0 -0.22318 0.11277 -0.96823 0.017393
0.011554 -0.02745 1.0692 1.3829e-38 258 241 0 0 0 -0.27955 0.12854 -0.95149 0.017677
0.012799 -0.026813 1.0688 8.8967e-39 243.5 242 0 0 0 -0.30906 0.14091 -0.94055 0.018882
0.014681 -0.0262 1.0692 1.0372e-38 236 243 0 0 0 -0.34187 0.16203 -0.92567 0.020008
0.016558 -0.0262 1.0692 1.4106e-38 244 243 0 0 0 -0.3696 0.17976 -0.91164 0.020791
-0.015967 -0.024949 1.0692 1.2354e-38 245 243 0 0 0 0.20775 -0.15524 -0.96578 0.046892
0.0078009 -0.024949 1.0692 4.8864e-39 257 243 0 0 0 -0.19149 0.1253 -0.97346 0.018396
0.0090518 -0.024949 1.0692 5.5317e-39 258 243 0 0 0 -0.21599 0.12966 -0.96775 0.017784
0.012805 -0.024949 1.0692 5.6239e-39 261 243 0 0 0 -0.30699 0.15418 -0.93914 0.018329
0.014056 -0.024949 1.0692 5.4395e-39 228 244 0 0 0 -0.33066 0.15911 -0.93024 0.019221
0.016558 -0.024949 1.0692 8.6664e-39 230 244 0 0 0 -0.37812 0.19288 -0.90544 0.020789
-0.015967 -0.023072 1.0692 6.9608e-39 242.5 244.5 0 0 0 0.25058 -0.078179 -0.96494 0.052834
0.0090518 -0.023698 1.0692 6.3615e-39 257 244 0 0 0 -0.21612 0.13762 -0.96662 0.017778
0.012805 -0.023698 1.0692 7.0069e-39 260 244 0 0 0 -0.30587 0.1632 -0.93798 0.018144
0.014056 -0.023698 1.0692 7.0069e-39 261 244 0 0 0 -0.33463 0.17459 -0.92603 0.018519
0.017184 -0.023072 1.0692 6.5689e-39 247 245 0 0 0 -0.3821 0.2161 -0.8985 0.019258
0.022812 -0.022447 1.0692 4.0566e-39 230 246 0 0 0 -0.46344 0.27873 -0.84115 0.022381
-0.020953 -0.021177 1.0683 5.0708e-39 239 246 0 0 0 0.34809 -0.12066 -0.92966 0.08573
-0.015967 -0.021196 1.0692 6.6381e-39 243 246 0 0 0 0.27521 0.0089474 -0.96134 0.053052
0.017184 -0.021196 1.0692 7.8827e-39 266.5 246 0 0 0 -0.37365 0.21538 -0.90222 0.018547
0.020926 -0.021187 1.0688 3.8261e-39 224.5 247 0 0 0 -0.43921 0.2654 -0.85829 0.021893
0.024667 -0.021177 1.0683 3.5956e-39 227.5 247 0 0 0 -0.52337 0.30157 -0.79696 0.023012
-0.028477 -0.018694 1.0692 7.6522e-39 239 248 0 0 0 0.056844 -0.75867 -0.649 0.17601
-0.027226 -0.019945 1.0692 5.3473e-39 235 247 0 0 0 0.18277 -0.534 -0.8255 0.15916
-0.025328 -0.019927 1.0683 5.4395e-39 236.5 247 0 0 0 0.32256 -0.31678 -0.89197 0.12421
-0.022838 -0.019312 1.0688 7.4679e-39 241 247.5 0 0 0 0.3506 -0.15665 -0.92333 0.10273
-0.020953 -0.019927 1.0683 6.5459e-39 240 247 0 0 0 0.36926 -0.11285 -0.92245 0.083455
-0.019303 -0.019111 1.0692 7.8674e-39 244.67 247.67 0 0 0 0.34574 -0.044977 -0.93725 0.072802
-0.015546 -0.019106 1.0689 8.4513e-39 247.67 247.67 0 0 0 0.30037 0.042149 -0.95289 0.047148
-0.013465 -0.018694 1.0692 8.3898e-39 251 248 0 0 0 0.24821 0.078832 -0.96549 0.04154
0.01718 -0.019315 1.069 5.8774e-39 232.75 248.25 0 0 0 -0.37418 0.21769 -0.90144 0.018521
0.01906 -0.01932 1.0692 5.67e-39 221.5 248.5 0 0 0 -0.41236 0.24236 -0.87819 0.020655
0.020301 -0.019311 1.0688 5.4856e-39 222.5 248.5 0 0 0 -0.43159 0.24968 -0.86682 0.021804
-0.029728 -0.017443 1.0692 8.482e-39 245 249 0 0 0 -0.078905 -0.92048 -0.38274 0.17978
-0.022203 -0.016803 1.0683 8.7586e-39 245.5 249.5 0 0 0 0.37681 -0.15081 -0.91393 0.10049
-0.019095 -0.016817 1.0692 8.8278e-39 248 249.5 0 0 0 0.35187 -0.045433 -0.93494 0.072473
-0.017218 -0.017443 1.0692 8.3898e-39 255 249 0 0 0 0.33018 0.0056199 -0.9439 0.055654
-0.015129 -0.017021 1.0689 8.4513e-39 253 249.33 0 0 0 0.29782 0.05415 -0.95309 0.045042
-0.013465 -0.017443 1.0692 8.2976e-39 258 249 0 0 0 0.25447 0.071786 -0.96441 0.041491
0.017392 -0.017026 1.0692 5.839e-39 244.33 250 0 0 0 -0.37223 0.20938 -0.90421 0.018854
0.01906 -0.017443 1.0692 5.5317e-39 197 250 0 0 0 -0.41369 0.23293 -0.88012 0.020898
0.020293 -0.016803 1.0683 5.8544e-39 280 250 0 0 0 -0.432 0.23748 -0.87004 0.022712
-0.038451 -0.014928 1.0683 5.2552e-39 181 251 0 0 0 -0.39021 -0.88364 -0.25867 0.13789
-0.022203 -0.014928 1.0683 5.7161e-39 201 251 0 0 0 0.38387 -0.15104 -0.91095 0.098938
-0.020953 -0.014928 1.0683 5.5317e-39 202 251 0 0 0 0.38464 -0.10864 -0.91665 0.084887
-0.019095 -0.014941 1.0692 5.9005e-39 203.5 251 0 0 0 0.36843 -0.059558 -0.92775 0.072603
-0.014716 -0.014941 1.0692 6.1771e-39 207 251 0 0 0 0.29408 0.049469 -0.9545 0.045037
0.017809 -0.014941 1.0692 8.6664e-39 245 251 0 0 0 -0.3753 0.20786 -0.9033 0.019774
0.020293 -0.014928 1.0683 9.0352e-39 247 251 0 0 0 -0.44074 0.22725 -0.86839 0.024336
-0.020953 -0.013053 1.0683 7.3296e-39 306 251.5 0 0 0 0.39614 -0.073328 -0.91526 0.080284
-0.019095 -0.013065 1.0692 7.3526e-39 307.5 251.5 0 0 0 0.37778 -0.040961 -0.92499 0.064163
-0.014716 -0.013064 1.0692 7.514e-39 335.5 251.5 0 0 0 0.29658 0.051302 -0.95363 0.044563
0.020721 -0.012852 1.0689 5.839e-39 308.67 252 0 0 0 -0.44878 0.20832 -0.86902 0.025807
-0.020953 -0.011178 1.0683 5.9927e-39 194 253 0 0 0 0.40124 -0.051179 -0.91454 0.077856
-0.019095 -0.011188 1.0692 5.5317e-39 195.5 253 0 0 0 0.39129 -0.032981 -0.91968 0.059164
0.020926 -0.011183 1.0688 8.0671e-39 236.5 253 0 0 0 -0.46165 0.19412 -0.86556 0.02684
-0.022203 -0.0093035 1.0683 7.0069e-39 299 253.5 0 0 0 0.4068 -0.053384 -0.91196 0.088715
-0.020962 -0.0093073 1.0688 7.0069e-39 300 253.5 0 0 0 0.40573 -0.052993 -0.91246 0.076368
-0.018469 -0.009937 1.0692 6.3615e-39 367 253 0 0 0 0.39616 -0.022826 -0.9179 0.056713
0.021543 -0.0093035 1.0683 5.5779e-39 276 254 0 0 0 -0.48088 0.16895 -0.86035 0.028521
0.022793 -0.0093035 1.0683 6.131e-39 278 254 0 0 0 -0.50404 0.17559 -0.84564 0.02817
-0.039701 -0.0061788 1.0683 7.8366e-39 259 255 0 0 0 -0.25907 -0.96333 -0.069798 0.15471
-0.022222 -0.0074351 1.0692 5.9927e-39 195 255 0 0 0 0.41158 -0.061486 -0.9093 0.089493
0.021561 -0.0068096 1.0692 6.6381e-39 206 255.5 0 0 0 -0.46907 0.14443 -0.87127 0.02769
0.022812 -0.0068096 1.0692 6.8224e-39 212 255.5 0 0 0 -0.50606 0.14808 -0.84969 0.028244
0.024678 -0.0068064 1.0688 7.3295e-39 214.5 255.5 0 0 0 -0.54556 0.14438 -0.82554 0.027929
0.027178 -0.0061815 1.0688 6.0388e-39 193 256 0 0 0 -0.58574 0.16318 -0.7939 0.025865
-0.024724 -0.0049332 1.0692 6.6381e-39 223 256 0 0 0 0.37523 -0.23506 -0.89663 0.14617
-0.023473 -0.0049332 1.0692 6.7303e-39 224 256 0 0 0 0.40518 -0.079356 -0.91079 0.1131
0.027816 -0.0049332 1.0692 6.2693e-39 354 256 0 0 0 -0.59012 0.15097 -0.79307 0.026624
0.030292 -0.0036791 1.0683 6.0849e-39 202 257 0 0 0 -0.63988 0.18401 -0.74612 0.022947
0.041541 0.05319 1.0683 6.4076e-39 360 274.5 0 0 0 0.90954 0.22489 -0.34952 0.013219
0.041541 0.055065 1.0683 6.6381e-39 383 275 0 0 0 0.91703 0.20258 -0.34354 0.0121
0.041541 0.05694 1.0683 6.4998e-39 336.5 275.5 0 0 0 0.9284 0.19475 -0.31646 0.011492
0.039041 0.058815 1.0683 5.6239e-39 363 276 0 0 0 0.93755 0.16965 -0.30366 0.010358
0.040916 0.058815 1.0683 5.3012e-39 364.5 276 0 0 0 0.93395 0.17591 -0.3111 0.01076
0.037791 0.061315 1.0683 5.3473e-39 182 277 0 0 0 0.94019 0.14221 -0.30954 0.010009
0.039075 0.060117 1.0692 7.1913e-39 439 276 0 0 0 0.93806 0.1532 -0.31077 0.011009
0.040951 0.060117 1.0692 6.8686e-39 440.5 276 0 0 0 0.93406 0.15649 -0.32101 0.011374
0.036541 0.071314 1.0683 5.9927e-39 253 279 0 0 0 0.92225 0.1153 -0.36901 0.0087943
0.036557 0.07322 1.0688 6.1771e-39 416.5 279 0 0 0 0.91533 0.12555 -0.38264 0.010284
0.036573 0.075128 1.0692 5.6239e-39 188 280 0 0 0 0.90638 0.13939 -0.3988 0.011723
0.03699 0.077213 1.0692 5.839e-39 344.33 280 0 0 0 0.89644 0.15655 -0.41459 0.012684
0.037166 0.078813 1.0683 7.4218e-39 451.5 280 0 0 0 0.88705 0.17569 -0.42694 0.013444
0.037374 0.08048 1.0683 5.962e-39 219 281 0 0 0 0.8794 0.18244 -0.43974 0.014408
0.040731 0.080526 1.0689 6.4844e-39 221.67 281 0 0 0 0.88265 0.16097 -0.44161 0.015009
0.037385 0.08342 1.0686 7.683e-39 442 281 0 0 0 0.85496 0.18674 -0.48392 0.01797
0.040326 0.082634 1.0692 5.9005e-39 403 281 0 0 0 0.87239 0.16091 -0.46157 0.018733
0.036573 0.085136 1.0692 6.3615e-39 214 282 0 0 0 0.8417 0.19725 -0.50262 0.017509
-0.032202 0.087562 1.0683 5.6239e-39 369 282 0 0 0 -0.91938 0.17082 -0.35434 0.017978
0.036573 0.086387 1.0692 6.1771e-39 361 282 0 0 0 0.83362 0.20132 -0.51434 0.0176
0.035291 0.091312 1.0683 6.3615e-39 398 283 0 0 0 0.81534 0.2055 -0.54128 0.015689
-0.03223 0.093893 1.0692 5.4395e-39 599 283 0 0 0 -0.91979 0.17633 -0.35057 0.022403
0.030931 0.093852 1.0688 5.9466e-39 216.5 284 0 0 0 0.80332 0.20748 -0.55823 0.013551
0.032792 0.092562 1.0683 9.3118e-39 459 283 0 0 0 0.80988 0.20837 -0.54833 0.01447
0.034042 0.092562 1.0683 9.4961e-39 460 283 0 0 0 0.81099 0.20812 -0.5468 0.014812
-0.030952 0.098811 1.0683 6.8225e-39 173 285 0 0 0 -0.8782 0.20243 -0.43334 0.037078
0.029042 0.098811 1.0683 5.9927e-39 237 285 0 0 0 0.77451 0.2127 -0.59573 0.013122
-0.030952 0.10069 1.0683 6.0849e-39 325.5 285 0 0 0 -0.87108 0.20681 -0.44547 0.036684
0.029042 0.10069 1.0683 7.0529e-39 411.5 285 0 0 0 0.7684 0.2096 -0.60468 0.013019
-0.030979 0.10265 1.0692 9.404e-39 451 285 0 0 0 -0.87155 0.21628 -0.44002 0.035641
0.029042 0.10256 1.0683 6.9147e-39 174 286 0 0 0 0.76083 0.20679 -0.61513 0.013235
-0.030979 0.1064 1.0692 5.7161e-39 398 286 0 0 0 -0.83988 0.25422 -0.47955 0.036119
0.03282 0.11079 1.0692 7.4218e-39 412.5 287 0 0 0 0.75116 0.21589 -0.62382 0.01558
0.034071 0.11079 1.0692 7.606e-39 413.5 287 0 0 0 0.76052 0.20972 -0.61451 0.01625
0.029042 0.11381 1.0683 7.0991e-39 223 288 0 0 0 0.69172 0.27114 -0.66933 0.016904
0.03282 0.11266 1.0692 6.9147e-39 152 288 0 0 0 0.74397 0.23125 -0.62692 0.016979
0.029042 0.11506 1.0683 5.3473e-39 359 288 0 0 0 0.68374 0.28457 -0.67196 0.0167
-0.027226 0.11766 1.0692 6.5459e-39 416 288 0 0 0 -0.60977 0.41976 -0.67229 0.024108
0.027804 0.11699 1.0688 8.5743e-39 434.5 288 0 0 0 0.66838 0.30564 -0.67812 0.01624
0.029067 0.11641 1.0692 7.0069e-39 410 288 0 0 0 0.68381 0.29708 -0.66644 0.017274
0.027816 0.11891 1.0692 6.4537e-39 151 289 0 0 0 0.65811 0.3306 -0.67646 0.013277
-0.024724 0.12016 1.0692 5.9927e-39 158 289 0 0 0 -0.54779 0.45169 -0.7042 0.016373
-0.02262 0.12089 1.0683 6.8225e-39 203.67 289 0 0 0 -0.52449 0.44698 -0.72465 0.015553
0.024667 0.12131 1.0683 5.6239e-39 271.5 289 0 0 0 0.60255 0.37161 -0.70629 0.011317
0.026565 0.12016 1.0692 7.8366e-39 216 289 0 0 0 0.64294 0.34046 -0.68609 0.013122
-0.020962 0.12324 1.0688 6.6842e-39 386.5 289 0 0 0 -0.5084 0.47356 -0.71921 0.013588
-0.019703 0.12381 1.0683 6.8225e-39 412 289 0 0 0 -0.49674 0.47194 -0.72837 0.01286
0.022803 0.12324 1.0688 8.2974e-39 421.5 289 0 0 0 0.57307 0.40458 -0.71267 0.007925
0.024689 0.12329 1.0692 7.8136e-39 423 289 0 0 0 0.59315 0.40002 -0.69868 0.0089775
-0.01972 0.12517 1.0692 9.8649e-39 461 289 0 0 0 -0.50233 0.48991 -0.7125 0.012016
0.021543 0.12506 1.0683 7.2835e-39 495 289 0 0 0 0.5505 0.42547 -0.71828 0.0071166
0.022812 0.12517 1.0692 7.0069e-39 496 289 0 0 0 0.56807 0.42441 -0.7051 0.0064909
-0.018461 0.12699 1.0688 6.9607e-39 171 290 0 0 0 -0.49536 0.49573 -0.71335 0.011438
-0.015954 0.12756 1.0683 8.1132e-39 202 290 0 0 0 -0.47704 0.47834 -0.73731 0.011501
0.020721 0.1268 1.0689 7.0683e-39 195.33 290 0 0 0 0.54435 0.44219 -0.71284 0.005948
-0.017203 0.12881 1.0683 5.9927e-39 239 290 0 0 0 -0.4917 0.49644 -0.71539 0.010519
0.02031 0.12892 1.0692 6.0849e-39 273 290 0 0 0 0.54532 0.45016 -0.7071 0.0057874
0.0053035 -0.026848 1.0702 1.2631e-38 254 241.5 0 0 0 -0.14864 0.10017 -0.98381 0.019388
0.0065584 -0.026859 1.0706 1.1202e-38 255 241.5 0 0 0 -0.1713 0.099962 -0.98013 0.01863
0.010938 -0.026222 1.0702 5.9466e-39 259.5 242 0 0 0 -0.26005 0.13417 -0.95623 0.017907
0.0053081 -0.024992 1.0711 4.7942e-39 255 243 0 0 0 -0.13199 0.12733 -0.98304 0.020373
0.0065613 -0.024992 1.0711 4.7942e-39 256 243 0 0 0 -0.16111 0.11958 -0.97967 0.018849
0.010938 -0.02497 1.0702 5.7161e-39 259.5 243 0 0 0 -0.25748 0.13822 -0.95635 0.017718
0.01532 -0.02497 1.0702 5.9005e-39 229 244 0 0 0 -0.34897 0.17146 -0.92131 0.018909
0.017824 -0.02497 1.0702 1.2262e-38 231 244 0 0 0 -0.38718 0.19797 -0.9005 0.020811
0.020346 -0.024992 1.0711 1.3461e-38 235 244 0 0 0 -0.40948 0.21815 -0.88585 0.022191
-0.020999 -0.023102 1.0706 1.111e-38 238.5 244.5 0 0 0 0.29843 -0.17284 -0.93865 0.079394
-0.019123 -0.023108 1.0709 8.3668e-39 240 244.5 0 0 0 0.29323 -0.11954 -0.94854 0.072646
-0.017248 -0.023113 1.0711 6.9147e-39 241.5 244.5 0 0 0 0.25573 -0.067672 -0.96438 0.061443
0.0048904 -0.022904 1.0711 6.884e-39 254.33 244.67 0 0 0 -0.12165 0.14487 -0.98194 0.020389
0.0073922 -0.023308 1.0705 6.7303e-39 256 244.33 0 0 0 -0.17805 0.14056 -0.97393 0.017941
0.0090597 -0.022466 1.0702 8.6664e-39 258 245 0 0 0 -0.21156 0.15092 -0.96564 0.01751
0.010945 -0.023107 1.0709 7.7905e-39 259 244.5 0 0 0 -0.25549 0.15592 -0.95416 0.017759
0.012816 -0.022466 1.0702 8.1132e-39 261 245 0 0 0 -0.30308 0.17014 -0.93765 0.018039
0.014903 -0.022883 1.0702 7.8981e-39 262.67 244.67 0 0 0 -0.34197 0.18577 -0.92116 0.018306
0.019085 -0.023102 1.0706 5.624e-39 228.5 245.5 0 0 0 -0.39761 0.23228 -0.88767 0.01969
0.020963 -0.023102 1.0706 7.6291e-39 230 245.5 0 0 0 -0.42518 0.26002 -0.86695 0.02149
-0.027273 -0.021232 1.0711 5.6239e-39 234 246 0 0 0 0.1572 -0.48836 -0.85836 0.15464
-0.025372 -0.021214 1.0702 4.4715e-39 235.5 246 0 0 0 0.30176 -0.261 -0.91696 0.12496
-0.022867 -0.021214 1.0702 4.8403e-39 237.5 246 0 0 0 0.32534 -0.15666 -0.93253 0.10292
-0.019111 -0.021214 1.0702 5.4856e-39 240.5 246 0 0 0 0.3207 -0.050516 -0.94583 0.071277
-0.017233 -0.021214 1.0702 6.1771e-39 242 246 0 0 0 0.30864 -0.016924 -0.95103 0.064699
-0.0097294 -0.021232 1.0711 6.9147e-39 245 246 0 0 0 0.15902 0.16061 -0.97412 0.026518
0.0053081 -0.021232 1.0711 9.3118e-39 257 246 0 0 0 -0.1307 0.15857 -0.97866 0.018979
0.0078076 -0.021214 1.0702 9.1274e-39 259 246 0 0 0 -0.18526 0.15525 -0.97035 0.017367
0.0090597 -0.021214 1.0702 8.6664e-39 260 246 0 0 0 -0.2111 0.16117 -0.96409 0.017477
0.010947 -0.021232 1.0711 8.3898e-39 261.5 246 0 0 0 -0.25118 0.17099 -0.95272 0.017352
0.012816 -0.021214 1.0702 8.3898e-39 263 246 0 0 0 -0.3073 0.18002 -0.93443 0.017194
0.014694 -0.021214 1.0702 8.2054e-39 264.5 246 0 0 0 -0.33722 0.19193 -0.92165 0.017505
0.019076 -0.021214 1.0702 7.56e-39 268 246 0 0 0 -0.39407 0.2326 -0.88916 0.018958
-0.028502 -0.019962 1.0702 5.3473e-39 234 247 0 0 0 0.0042293 -0.79461 -0.60711 0.17568
-0.018485 -0.019962 1.0702 7.56e-39 242 247 0 0 0 0.32161 -0.025226 -0.94654 0.066363
-0.017233 -0.019336 1.0702 8.4359e-39 245.5 247.5 0 0 0 0.31153 -0.01412 -0.95013 0.061024
-0.012236 -0.019352 1.0711 8.1593e-39 249 247.5 0 0 0 0.20105 0.10668 -0.97375 0.033308
-0.010983 -0.019352 1.0711 8.2054e-39 250 247.5 0 0 0 0.19778 0.13639 -0.97071 0.027211
-0.0097294 -0.019352 1.0711 8.3898e-39 251 247.5 0 0 0 0.17314 0.16693 -0.97065 0.025595
0.0053081 -0.019979 1.0711 8.5742e-39 260 247 0 0 0 -0.13186 0.16391 -0.97762 0.017953
0.0078144 -0.019352 1.0711 7.9749e-39 265 247.5 0 0 0 -0.17959 0.15997 -0.97065 0.016199
0.0090636 -0.019344 1.0706 6.8224e-39 223 248 0 0 0 -0.20823 0.16419 -0.9642 0.016597
0.010947 -0.019352 1.0711 6.8225e-39 224.5 248 0 0 0 -0.24984 0.17303 -0.9527 0.016586
0.012816 -0.019336 1.0702 7.1913e-39 235.5 248 0 0 0 -0.3011 0.18172 -0.93612 0.016455
0.014694 -0.019336 1.0702 6.7994e-39 240.25 248 0 0 0 -0.33466 0.19236 -0.9225 0.016718
-0.031006 -0.017458 1.0702 8.8508e-39 244 249 0 0 0 -0.14956 -0.9256 -0.34771 0.18358
-0.017233 -0.016206 1.0702 8.7586e-39 244 250 0 0 0 0.32491 -0.0072385 -0.94572 0.060989
-0.015981 -0.016206 1.0702 8.6664e-39 245 250 0 0 0 0.30932 0.025723 -0.95061 0.051554
-0.01265 -0.016633 1.0708 8.6664e-39 251.33 249.67 0 0 0 0.22513 0.097098 -0.96948 0.036028
-0.010983 -0.016847 1.0711 8.482e-39 254.5 249.5 0 0 0 0.20732 0.13798 -0.96849 0.027001
-0.0097294 -0.016847 1.0711 8.2976e-39 255.5 249.5 0 0 0 0.1951 0.15909 -0.96779 0.023962
0.0078144 -0.016847 1.0711 6.8685e-39 221.5 250 0 0 0 -0.17429 0.16131 -0.97139 0.015247
0.0090675 -0.016847 1.0711 6.7303e-39 222.5 250 0 0 0 -0.2098 0.16544 -0.96365 0.015534
0.011156 -0.017055 1.0711 6.1771e-39 210 250 0 0 0 -0.24884 0.1704 -0.95344 0.015664
0.012827 -0.016847 1.0711 6.3154e-39 225.5 250 0 0 0 -0.29689 0.17415 -0.9389 0.015874
0.014697 -0.016835 1.0704 6.2002e-39 249 250 0 0 0 -0.33042 0.18698 -0.92513 0.015879
0.016572 -0.016206 1.0702 6.5459e-39 359 250 0 0 0 -0.34812 0.20257 -0.9153 0.017677
0.019076 -0.016206 1.0702 6.2693e-39 361 250 0 0 0 -0.39716 0.22042 -0.89089 0.020072
-0.017233 -0.014954 1.0702 6.4537e-39 205 251 0 0 0 0.3307 0.012381 -0.94365 0.054266
-0.015981 -0.014954 1.0702 6.3615e-39 206 251 0 0 0 0.31395 0.042563 -0.94849 0.044866
-0.012857 -0.01496 1.0706 5.5317e-39 220.5 251 0 0 0 0.24474 0.086933 -0.96568 0.038203
-0.010983 -0.014967 1.0711 5.9927e-39 222 251 0 0 0 0.21214 0.13105 -0.96841 0.026601
-0.0097294 -0.014967 1.0711 6.2693e-39 223 251 0 0 0 0.19759 0.14985 -0.96876 0.023305
0.0090675 -0.014967 1.0711 8.5742e-39 238 251 0 0 0 -0.21047 0.16401 -0.96374 0.015296
0.012827 -0.014967 1.0711 9.1274e-39 241 251 0 0 0 -0.29623 0.17467 -0.93901 0.015488
0.014701 -0.01496 1.0706 8.9891e-39 242.5 251 0 0 0 -0.32295 0.18321 -0.92851 0.015465
0.016572 -0.014954 1.0702 8.7586e-39 244 251 0 0 0 -0.34999 0.19617 -0.91598 0.017684
0.019076 -0.014954 1.0702 8.6664e-39 246 251 0 0 0 -0.40058 0.21589 -0.89046 0.020978
-0.017233 -0.013076 1.0702 7.1913e-39 319 251.5 0 0 0 0.33808 0.035049 -0.94047 0.048111
-0.015981 -0.013076 1.0702 7.2835e-39 320 251.5 0 0 0 0.31575 0.042778 -0.94788 0.044815
-0.01286 -0.013084 1.0709 7.2374e-39 337 251.5 0 0 0 0.27061 0.084905 -0.95894 0.034998
-0.010983 -0.013714 1.0711 5.6239e-39 425 251 0 0 0 0.22702 0.13187 -0.96492 0.024845
0.012827 -0.013714 1.0711 5.163e-39 188 252 0 0 0 -0.2911 0.16766 -0.94189 0.014627
0.014498 -0.013296 1.0711 6.1771e-39 246.67 252 0 0 0 -0.3124 0.18285 -0.93219 0.015449
0.017202 -0.013079 1.0704 5.9696e-39 278 252 0 0 0 -0.3577 0.19511 -0.91323 0.018148
0.019076 -0.013076 1.0702 5.6239e-39 279.5 252 0 0 0 -0.39899 0.20479 -0.89379 0.021394
-0.03977 -0.011198 1.0702 5.6239e-39 175 253 0 0 0 -0.39643 -0.89737 -0.19383 0.15271
-0.017233 -0.011198 1.0702 5.5317e-39 197 253 0 0 0 0.3388 0.037835 -0.9401 0.047619
-0.015362 -0.011203 1.0706 6.1771e-39 198.5 253 0 0 0 0.29671 0.052213 -0.95354 0.044809
-0.013489 -0.011207 1.0711 6.4537e-39 200 253 0 0 0 0.28174 0.073336 -0.95669 0.035157
0.017205 -0.011203 1.0706 8.2515e-39 233.5 253 0 0 0 -0.35343 0.18972 -0.91602 0.017867
0.019093 -0.011207 1.0711 7.9288e-39 235 253 0 0 0 -0.38216 0.19533 -0.90322 0.01986
-0.03977 -0.0093196 1.0702 7.0069e-39 237.5 253.5 0 0 0 -0.3501 -0.92461 -0.15009 0.161
-0.01932 -0.0091109 1.0702 7.3756e-39 279.67 253.67 0 0 0 0.39855 -0.03723 -0.91639 0.057971
-0.017248 -0.0093277 1.0711 7.2835e-39 303 253.5 0 0 0 0.33066 0.039343 -0.94293 0.049411
-0.01516 -0.0095366 1.0711 6.761e-39 333.67 253.33 0 0 0 0.29794 0.061533 -0.9526 0.040961
0.017839 -0.0093277 1.0711 5.624e-39 272 254 0 0 0 -0.35918 0.18265 -0.91522 0.018786
0.019093 -0.0093277 1.0711 5.5778e-39 273 254 0 0 0 -0.39075 0.17346 -0.90401 0.021492
0.020328 -0.0093196 1.0702 5.5779e-39 275 254 0 0 0 -0.4411 0.16671 -0.88184 0.025527
-0.041058 -0.0061949 1.0711 8.1132e-39 258 255 0 0 0 -0.30367 -0.95173 -0.044724 0.14641
-0.03977 -0.0074416 1.0702 5.163e-39 172 255 0 0 0 -0.27793 -0.95733 -0.079211 0.16775
-0.022241 -0.0061895 1.0702 6.1771e-39 368 255 0 0 0 0.39176 -0.03301 -0.91947 0.093704
-0.020999 -0.0068182 1.0706 5.7622e-39 282.5 255 0 0 0 0.38765 -0.011319 -0.92174 0.073754
-0.019127 -0.0068214 1.0711 5.7392e-39 295 255 0 0 0 0.37703 0.00033603 -0.9262 0.056342
0.017839 -0.007448 1.0711 8.7586e-39 233 255 0 0 0 -0.35352 0.1693 -0.91998 0.018774
0.019093 -0.007448 1.0711 8.1132e-39 234 255 0 0 0 -0.395 0.16145 -0.90438 0.021952
0.020337 -0.0068182 1.0706 6.3154e-39 205 255.5 0 0 0 -0.42863 0.14984 -0.89097 0.024113
-0.03977 -0.0049375 1.0702 5.9927e-39 210 256 0 0 0 0.12994 0.99117 -0.026566 0.15726
-0.022261 -0.0049418 1.0711 6.9147e-39 225 256 0 0 0 0.37433 -0.014544 -0.92718 0.091307
0.02158 -0.0049375 1.0702 7.56e-39 260 256 0 0 0 -0.46368 0.1481 -0.87353 0.027029
0.022832 -0.0049375 1.0702 7.3757e-39 261 256 0 0 0 -0.49272 0.14548 -0.85794 0.026959
0.02471 -0.0049375 1.0702 7.3296e-39 268.5 256 0 0 0 -0.52428 0.14745 -0.83868 0.027543
0.026588 -0.0049375 1.0702 7.8366e-39 270 256 0 0 0 -0.55492 0.155 -0.81733 0.027334
-0.024746 -0.0036854 1.0702 5.9927e-39 426 256 0 0 0 0.39381 -0.044354 -0.91812 0.13332
-0.023504 -0.0030604 1.0706 6.4998e-39 327.5 256.5 0 0 0 0.39636 -0.012828 -0.91801 0.10633
0.021599 -0.0036886 1.0711 6.1771e-39 196 257 0 0 0 -0.45453 0.13338 -0.88069 0.025577
0.022852 -0.0036886 1.0711 6.1771e-39 197 257 0 0 0 -0.49043 0.13902 -0.86032 0.02804
0.02472 -0.003687 1.0706 6.6381e-39 198.5 257 0 0 0 -0.52409 0.14833 -0.83865 0.027554
0.026588 -0.0036854 1.0702 6.8225e-39 200 257 0 0 0 -0.5536 0.15212 -0.81877 0.027089
0.039109 0.061421 1.0702 5.4395e-39 183 277 0 0 0 0.93812 0.14784 -0.31317 0.011697
0.040987 0.061421 1.0702 5.8544e-39 184.5 277 0 0 0 0.93325 0.1509 -0.32599 0.012836
0.037873 0.063327 1.0706 6.5459e-39 333.5 277 0 0 0 0.94063 0.128 -0.31437 0.011019
0.039143 0.062727 1.0711 6.6381e-39 266 277 0 0 0 0.9366 0.13623 -0.32282 0.011667
0.040396 0.062727 1.0711 6.5459e-39 267 277 0 0 0 0.93633 0.13422 -0.32446 0.012413
0.03789 0.075259 1.0711 5.9005e-39 189 280 0 0 0 0.90638 0.12771 -0.40271 0.011747
0.040396 0.075259 1.0711 5.9927e-39 191 280 0 0 0 0.91035 0.10528 -0.40023 0.010591
0.037857 0.076445 1.0702 7.0069e-39 257 280 0 0 0 0.9067 0.13437 -0.3998 0.01172
0.039143 0.077138 1.0711 6.3615e-39 324 280 0 0 0 0.9033 0.13338 -0.40774 0.012977
0.041014 0.077121 1.0709 6.131e-39 325.5 280 0 0 0 0.90157 0.12592 -0.4139 0.012863
0.039109 0.078949 1.0702 6.9147e-39 453 280 0 0 0 0.89484 0.15001 -0.42043 0.012957
0.040987 0.078949 1.0702 6.0849e-39 454.5 280 0 0 0 0.90156 0.13802 -0.41004 0.012877
0.039109 0.080828 1.0702 6.3615e-39 231.5 281 0 0 0 0.88011 0.16701 -0.44442 0.015178
0.039109 0.082706 1.0702 5.9927e-39 402 281 0 0 0 0.87138 0.16797 -0.46097 0.017061
0.040361 0.083958 1.0702 8.482e-39 465 281 0 0 0 0.86373 0.16414 -0.47648 0.019485
0.037857 0.08521 1.0702 5.8083e-39 215 282 0 0 0 0.8478 0.18953 -0.4953 0.018933
0.039143 0.08403 1.0711 8.482e-39 464 281 0 0 0 0.86202 0.16681 -0.47865 0.019296
0.041023 0.085284 1.0711 6.2232e-39 217.5 282 0 0 0 0.85405 0.1735 -0.49041 0.020415
0.037451 0.087322 1.0705 6.3e-39 403.67 282 0 0 0 0.82833 0.19553 -0.52501 0.018604
-0.032286 0.089043 1.0711 7.2835e-39 433 282 0 0 0 -0.92808 0.18059 -0.32565 0.014453
0.036636 0.089043 1.0711 7.1913e-39 172 283 0 0 0 0.8174 0.19725 -0.54124 0.017762
0.036636 0.090296 1.0711 6.7303e-39 260 283 0 0 0 0.81619 0.19512 -0.54385 0.017262
-0.032258 0.092722 1.0702 6.8225e-39 407 283 0 0 0 -0.91924 0.19763 -0.34049 0.019867
0.032849 0.093974 1.0702 6.7303e-39 218 284 0 0 0 0.80507 0.20016 -0.55838 0.015373
0.034727 0.093348 1.0702 7.8366e-39 340 283.5 0 0 0 0.80702 0.19739 -0.55656 0.016096
-0.032258 0.095226 1.0702 5.9005e-39 228 284 0 0 0 -0.92096 0.17672 -0.34728 0.022832
0.03097 0.095226 1.0702 6.0388e-39 361.5 284 0 0 0 0.79932 0.20088 -0.56634 0.014017
0.032877 0.095309 1.0711 5.7161e-39 363 284 0 0 0 0.80188 0.19791 -0.56375 0.01507
0.034757 0.094682 1.0711 5.67e-39 292 284 0 0 0 0.80417 0.19405 -0.56184 0.016488
0.030997 0.096562 1.0711 6.2693e-39 423.5 284 0 0 0 0.79934 0.19691 -0.5677 0.014378
0.032877 0.096562 1.0711 6.3615e-39 425 284 0 0 0 0.8009 0.1979 -0.56515 0.01492
0.040396 0.10157 1.0711 9.5883e-39 450 285 0 0 0 0.79725 0.1755 -0.57757 0.020489
-0.031006 0.10399 1.0702 8.2054e-39 200 286 0 0 0 -0.8755 0.21173 -0.43435 0.033899
0.032877 0.10283 1.0711 7.6522e-39 177 286 0 0 0 0.79131 0.18316 -0.58334 0.013151
0.03413 0.10283 1.0711 7.6522e-39 178 286 0 0 0 0.79425 0.18264 -0.5795 0.013807
-0.031006 0.10524 1.0702 6.3615e-39 265 286 0 0 0 -0.86813 0.23102 -0.4393 0.034307
0.032877 0.1047 1.0711 6.5459e-39 325.5 286 0 0 0 0.78868 0.18366 -0.58673 0.013159
0.03413 0.1047 1.0711 6.592e-39 326.5 286 0 0 0 0.79063 0.17929 -0.58546 0.013493
-0.031006 0.10775 1.0702 9.3118e-39 455 286 0 0 0 -0.85005 0.2601 -0.458 0.033113
0.032863 0.10717 1.0706 8.3437e-39 311 286.5 0 0 0 0.77567 0.18883 -0.60223 0.013536
0.034116 0.10717 1.0706 8.3437e-39 312 286.5 0 0 0 0.78448 0.18531 -0.59182 0.013722
-0.031006 0.109 1.0702 7.7444e-39 177 287 0 0 0 -0.83578 0.27358 -0.47605 0.03104
0.031624 0.10909 1.0711 6.1771e-39 253 287 0 0 0 0.76695 0.20437 -0.60829 0.015097
0.032849 0.109 1.0702 6.7303e-39 254 287 0 0 0 0.77019 0.19724 -0.60655 0.014996
0.034101 0.109 1.0702 6.8225e-39 255 287 0 0 0 0.77443 0.19185 -0.60287 0.014949
-0.031033 0.11097 1.0711 6.0388e-39 323.5 287 0 0 0 -0.83311 0.28365 -0.47483 0.030195
0.030984 0.11092 1.0706 7.6984e-39 411 287 0 0 0 0.74563 0.22406 -0.62757 0.015944
0.035383 0.11097 1.0711 7.7447e-39 414.5 287 0 0 0 0.78082 0.19894 -0.59223 0.016615
-0.031006 0.11275 1.0702 1.3461e-38 444 287 0 0 0 -0.79895 0.31883 -0.50993 0.032894
0.030997 0.11285 1.0711 6.4076e-39 150.5 288 0 0 0 0.73875 0.23907 -0.63016 0.017439
0.034101 0.11275 1.0702 6.9147e-39 153 288 0 0 0 0.75821 0.2254 -0.61181 0.01764
-0.031006 0.11401 1.0702 6.6381e-39 154 288 0 0 0 -0.79171 0.3337 -0.5117 0.035098
0.030371 0.11473 1.0711 6.2693e-39 292 288 0 0 0 0.71629 0.26503 -0.64551 0.018321
0.032849 0.11401 1.0702 5.9927e-39 226 288 0 0 0 0.74124 0.24241 -0.62594 0.018356
-0.029128 0.11776 1.0702 6.2232e-39 414.5 288 0 0 0 -0.65723 0.41433 -0.62958 0.02803
0.029092 0.11776 1.0702 1.0142e-38 461 288 0 0 0 0.67894 0.31248 -0.66438 0.017193
-0.025998 0.11901 1.0702 9.6805e-39 467 288 0 0 0 -0.58767 0.43837 -0.68006 0.021216
0.029118 0.11912 1.0711 6.7303e-39 152 289 0 0 0 0.67336 0.32568 -0.66372 0.015016
-0.02602 0.12037 1.0711 5.9927e-39 157 289 0 0 0 -0.57406 0.4654 -0.67368 0.016975
-0.024746 0.12152 1.0702 7.4678e-39 224 289 0 0 0 -0.55579 0.46494 -0.68915 0.016576
0.027431 0.12114 1.0705 6.4229e-39 254.67 289 0 0 0 0.64766 0.35154 -0.67599 0.012508
-0.024767 0.12288 1.0711 5.4395e-39 359 289 0 0 0 -0.56671 0.48804 -0.66382 0.015384
-0.022867 0.12277 1.0702 5.7622e-39 360.5 289 0 0 0 -0.53787 0.47855 -0.69403 0.014045
0.027226 0.12282 1.0706 6.5459e-39 400.5 289 0 0 0 0.6362 0.37323 -0.67524 0.011044
-0.022888 0.12475 1.0711 8.3898e-39 434 289 0 0 0 -0.54043 0.50684 -0.6716 0.012239
-0.020989 0.12528 1.0702 9.9571e-39 460 289 0 0 0 -0.52266 0.50263 -0.68862 0.011336
0.02471 0.12528 1.0702 6.0849e-39 502.5 289 0 0 0 0.59525 0.41229 -0.68971 0.0076421
0.026611 0.12475 1.0711 7.1913e-39 476.5 289 0 0 0 0.61204 0.40393 -0.67989 0.008452
-0.022261 0.12664 1.0711 3.2268e-39 602 289 0 0 0 -0.53993 0.51938 -0.66236 0.011403
-0.020999 0.12721 1.0706 7.0068e-39 169 290 0 0 0 -0.52781 0.51831 -0.67288 0.010659
-0.019737 0.12716 1.0702 7.099e-39 170 290 0 0 0 -0.51692 0.50225 -0.69321 0.010659
0.02158 0.12778 1.0702 5.9005e-39 232 290 0 0 0 0.5609 0.44653 -0.69713 0.0051142
0.022832 0.12653 1.0702 7.4678e-39 179 290 0 0 0 0.57223 0.43202 -0.69707 0.0064008
0.024721 0.12721 1.0706 6.7533e-39 209.5 290 0 0 0 0.58751 0.42437 -0.68902 0.0066421
0.0028067 -0.026919 1.073 1.4982e-38 255 241 0 0 0 -0.049699 0.13497 -0.9896 0.027587
0.0040585 -0.026895 1.072 1.3829e-38 253 241.5 0 0 0 -0.11543 0.099402 -0.98833 0.020527
-0.0059804 -0.025035 1.073 1.0695e-38 246 243 0 0 0 0.085692 0.15803 -0.98371 0.025531
0.0028043 -0.025014 1.072 6.6381e-39 253 243 0 0 0 -0.042358 0.1576 -0.98659 0.02557
0.0040585 -0.025014 1.072 5.6239e-39 254 243 0 0 0 -0.077222 0.15156 -0.98543 0.025365
0.019109 -0.025014 1.072 1.3553e-38 232 244 0 0 0 -0.39484 0.20828 -0.89483 0.021756
-0.026704 -0.022535 1.0734 9.7266e-39 235.5 245 0 0 0 0.16078 -0.34148 -0.92604 0.14099
-0.02228 -0.022505 1.072 9.7727e-39 237 245 0 0 0 0.27698 -0.15884 -0.94766 0.092365
-0.008491 -0.022525 1.073 5.5317e-39 244 245 0 0 0 0.13011 0.17819 -0.97536 0.0234
-0.0072357 -0.022525 1.073 5.5317e-39 245 245 0 0 0 0.11827 0.18308 -0.97596 0.023016
-0.0053548 -0.023162 1.0734 5.6931e-39 246 244.5 0 0 0 0.084817 0.19642 -0.97684 0.023667
-0.0022164 -0.023173 1.0739 5.3473e-39 248.5 244.5 0 0 0 0.038742 0.19982 -0.97907 0.023008
-0.00096001 -0.023173 1.0739 5.2551e-39 249.5 244.5 0 0 0 0.016739 0.1963 -0.9804 0.02296
0.0015528 -0.023173 1.0739 6.085e-39 251.5 244.5 0 0 0 -0.018887 0.18627 -0.98232 0.022928
0.0028043 -0.023132 1.072 6.5919e-39 252.5 244.5 0 0 0 -0.043863 0.1807 -0.98256 0.024027
0.0040585 -0.023759 1.072 6.0849e-39 253 244 0 0 0 -0.078715 0.16815 -0.98261 0.023774
0.006567 -0.022505 1.072 7.8366e-39 256 245 0 0 0 -0.15659 0.1506 -0.97611 0.017675
-0.028551 -0.021251 1.072 6.4537e-39 233 246 0 0 0 0.0069881 -0.70548 -0.7087 0.16903
-0.008491 -0.021269 1.073 6.6381e-39 246 246 0 0 0 0.14487 0.18985 -0.97107 0.023357
-0.0072357 -0.021269 1.073 6.9147e-39 247 246 0 0 0 0.12553 0.19157 -0.97342 0.0228
-0.0051463 -0.020863 1.0736 7.7445e-39 249.67 246.33 0 0 0 0.089921 0.20636 -0.97434 0.021538
-0.0026346 -0.020444 1.0736 8.6049e-39 252.67 246.67 0 0 0 0.053775 0.20957 -0.97631 0.020844
-0.00096001 -0.020659 1.0739 8.7125e-39 253.5 246.5 0 0 0 0.020068 0.21249 -0.97696 0.020609
0.00092459 -0.020659 1.0739 9.1043e-39 255 246.5 0 0 0 -0.0054082 0.20463 -0.97882 0.020474
0.0028043 -0.021251 1.072 8.482e-39 255 246 0 0 0 -0.038701 0.19271 -0.98049 0.022177
0.0040585 -0.021251 1.072 9.1274e-39 256 246 0 0 0 -0.080587 0.1789 -0.98056 0.022065
0.006567 -0.021251 1.072 9.3118e-39 258 246 0 0 0 -0.15381 0.15402 -0.97602 0.017353
-0.031087 -0.018759 1.073 6.8225e-39 237 248 0 0 0 -0.20146 -0.94012 -0.27495 0.19193
-0.029805 -0.018742 1.072 7.2835e-39 238 248 0 0 0 -0.13768 -0.93093 -0.33826 0.1853
-0.0084837 -0.01937 1.072 8.482e-39 252 247.5 0 0 0 0.15359 0.19232 -0.96924 0.023387
-0.0072294 -0.01937 1.072 8.7586e-39 253 247.5 0 0 0 0.13912 0.1962 -0.97064 0.022612
-0.0055585 -0.019166 1.0723 8.9737e-39 255.33 247.67 0 0 0 0.10371 0.20328 -0.97361 0.02097
-0.0028437 -0.018767 1.0734 8.482e-39 259.5 248 0 0 0 0.055366 0.20733 -0.9767 0.019677
-0.00095918 -0.018759 1.073 8.2054e-39 261 248 0 0 0 0.020323 0.20567 -0.97841 0.01944
0.0009239 -0.018767 1.0734 8.4359e-39 262.5 248 0 0 0 -0.0073106 0.20191 -0.97938 0.018959
0.0028043 -0.01937 1.072 8.9891e-39 261 247.5 0 0 0 -0.04319 0.19807 -0.97924 0.020433
0.0044766 -0.01916 1.072 8.6357e-39 263.33 247.67 0 0 0 -0.09941 0.17958 -0.97871 0.01933
0.006567 -0.01937 1.072 8.1593e-39 264 247.5 0 0 0 -0.15247 0.1663 -0.97422 0.016482
-0.0084837 -0.016861 1.072 8.482e-39 256.5 249.5 0 0 0 0.16366 0.18125 -0.96972 0.022784
-0.0072294 -0.016861 1.072 8.482e-39 257.5 249.5 0 0 0 0.14816 0.19503 -0.96954 0.021307
-0.0053502 -0.016868 1.0725 8.3437e-39 259 249.5 0 0 0 0.10706 0.19669 -0.9746 0.020095
-0.0028421 -0.016876 1.073 7.9519e-39 261 249.5 0 0 0 0.060003 0.20295 -0.97735 0.019271
-0.00095918 -0.016876 1.073 7.7444e-39 262.5 249.5 0 0 0 0.021721 0.19961 -0.97963 0.019038
0.00092383 -0.01688 1.0732 6.615e-39 334.75 249.5 0 0 0 -0.0092216 0.19625 -0.98051 0.01845
0.0028043 -0.016861 1.072 6.592e-39 345.5 249.5 0 0 0 -0.050469 0.1906 -0.98037 0.019655
0.0046856 -0.016861 1.072 6.7994e-39 283 249.75 0 0 0 -0.11573 0.1679 -0.97899 0.017697
0.006567 -0.016861 1.072 7.0068e-39 220.5 250 0 0 0 -0.15215 0.16438 -0.97459 0.016236
0.01033 -0.016234 1.072 7.56e-39 266 250 0 0 0 -0.23279 0.16482 -0.95846 0.014677
-0.0084837 -0.01498 1.072 6.1771e-39 224 251 0 0 0 0.16712 0.16285 -0.97239 0.021299
-0.0072294 -0.01498 1.072 6.0849e-39 225 251 0 0 0 0.16048 0.17667 -0.9711 0.021047
-0.0053481 -0.01498 1.072 6.3154e-39 226.5 251 0 0 0 0.11435 0.18762 -0.97556 0.02045
-0.0028422 -0.014993 1.073 7.0069e-39 228.5 251 0 0 0 0.061883 0.19611 -0.97863 0.019032
-0.00095918 -0.014993 1.073 7.1913e-39 230 251 0 0 0 0.022364 0.1941 -0.98073 0.018991
0.00092377 -0.014993 1.073 7.6061e-39 231.5 251 0 0 0 -0.012788 0.19204 -0.9813 0.018484
0.0028043 -0.01498 1.072 7.8366e-39 233 251 0 0 0 -0.057266 0.17954 -0.98208 0.018902
0.0046856 -0.01498 1.072 7.8827e-39 234.5 251 0 0 0 -0.11517 0.16529 -0.9795 0.017375
0.0071941 -0.01498 1.072 8.1593e-39 236.5 251 0 0 0 -0.16514 0.16227 -0.97283 0.015506
0.010957 -0.01498 1.072 8.9891e-39 239.5 251 0 0 0 -0.24269 0.16679 -0.95566 0.015027
-0.039873 -0.01311 1.073 7.4679e-39 248 251.5 0 0 0 -0.44272 -0.86997 -0.21714 0.15488
-0.010992 -0.012471 1.072 8.1132e-39 252 252 0 0 0 0.22386 0.12328 -0.96679 0.023375
-0.0091108 -0.013098 1.072 6.7303e-39 277.25 251.75 0 0 0 0.19757 0.14944 -0.96883 0.021672
-0.0072325 -0.013104 1.0725 6.7303e-39 213.5 252 0 0 0 0.16098 0.16236 -0.97351 0.020212
-0.0053502 -0.013104 1.0725 6.6842e-39 215 252 0 0 0 0.11819 0.16922 -0.97847 0.019934
-0.0028426 -0.013112 1.0732 6.8455e-39 217 252 0 0 0 0.061728 0.18524 -0.98075 0.019074
-0.00095918 -0.013109 1.073 6.7302e-39 218.5 252 0 0 0 0.023507 0.18752 -0.98198 0.019261
0.00092446 -0.013115 1.0734 6.4998e-39 220.25 252 0 0 0 -0.01673 0.18162 -0.98323 0.018642
0.0028067 -0.013109 1.073 6.4076e-39 222 252 0 0 0 -0.064832 0.17003 -0.9833 0.018068
0.0046898 -0.013109 1.073 6.2232e-39 223.5 252 0 0 0 -0.10802 0.15842 -0.98144 0.016882
0.0071987 -0.013107 1.0727 6.2693e-39 225.5 252 0 0 0 -0.16569 0.15706 -0.97359 0.014906
0.0090794 -0.013104 1.0725 6.4998e-39 227 252 0 0 0 -0.20146 0.15643 -0.96693 0.013909
0.010962 -0.013104 1.0725 5.7162e-39 271.5 252 0 0 0 -0.23536 0.16287 -0.95816 0.013679
0.012838 -0.012471 1.072 6.4537e-39 358 252 0 0 0 -0.28369 0.16527 -0.94456 0.014335
0.015346 -0.012471 1.072 6.6381e-39 360 252 0 0 0 -0.31624 0.1871 -0.93004 0.015016
-0.012246 -0.011217 1.072 6.0849e-39 201 253 0 0 0 0.24799 0.10227 -0.96335 0.028344
-0.010992 -0.011217 1.072 5.9005e-39 202 253 0 0 0 0.23411 0.12235 -0.96448 0.023606
-0.0091144 -0.011222 1.0725 6.1771e-39 203.5 253 0 0 0 0.20369 0.14012 -0.96896 0.021359
-0.0072357 -0.011227 1.073 6.5459e-39 205 253 0 0 0 0.16419 0.14635 -0.97551 0.019943
-0.0053527 -0.011227 1.073 6.2693e-39 206.5 253 0 0 0 0.1292 0.15799 -0.97895 0.019478
-0.0028431 -0.011232 1.0734 5.8544e-39 208.5 253 0 0 0 0.066573 0.17296 -0.98268 0.018839
-0.00095918 -0.011227 1.073 5.5317e-39 212 253 0 0 0 0.025153 0.18049 -0.98326 0.019611
0.00029613 -0.011227 1.073 6.3615e-39 220 253 0 0 0 -0.0015506 0.1752 -0.98453 0.019565
0.0028067 -0.011227 1.073 6.2693e-39 222 253 0 0 0 -0.069878 0.16105 -0.98447 0.017683
0.0046938 -0.011237 1.0739 6.5459e-39 223.5 253 0 0 0 -0.11921 0.15667 -0.98043 0.015307
0.0072066 -0.011237 1.0739 6.2693e-39 225.5 253 0 0 0 -0.15974 0.15404 -0.97507 0.014413
0.0090833 -0.011227 1.073 6.4537e-39 227 253 0 0 0 -0.19823 0.15614 -0.96764 0.01303
0.010967 -0.011227 1.073 7.053e-39 228.5 253 0 0 0 -0.22965 0.1582 -0.96033 0.012665
0.012849 -0.011227 1.073 7.3757e-39 230 253 0 0 0 -0.26898 0.16805 -0.94837 0.012924
0.014719 -0.011217 1.072 8.1593e-39 231.5 253 0 0 0 -0.30762 0.18021 -0.93429 0.014264
-0.016009 -0.0087087 1.072 9.0352e-39 239 254 0 0 0 0.29887 0.049467 -0.95301 0.04636
-0.012876 -0.0093377 1.0723 7.1451e-39 333.5 253.5 0 0 0 0.26779 0.10694 -0.95752 0.027202
-0.011002 -0.009344 1.073 7.2835e-39 336.5 253.5 0 0 0 0.23974 0.12714 -0.96248 0.020348
-0.0091205 -0.0093458 1.0732 7.2604e-39 270.25 253.75 0 0 0 0.20441 0.13528 -0.96949 0.020654
-0.007242 -0.009352 1.0739 7.6522e-39 204 254 0 0 0 0.16624 0.13508 -0.97679 0.019302
-0.0053561 -0.0093499 1.0737 7.7444e-39 205.5 254 0 0 0 0.12427 0.1469 -0.98131 0.01885
-0.0034728 -0.009352 1.0739 7.6061e-39 207 254 0 0 0 0.083057 0.15572 -0.9843 0.018812
-0.00096001 -0.0099802 1.0739 6.3615e-39 167 254 0 0 0 0.027012 0.16491 -0.98594 0.019762
0.00029639 -0.009352 1.0739 7.2835e-39 210 254 0 0 0 -0.0051039 0.15372 -0.9881 0.019177
0.0028092 -0.0099802 1.0739 5.6239e-39 170 254 0 0 0 -0.065119 0.15679 -0.98548 0.017953
0.0040656 -0.009352 1.0739 6.4997e-39 213 254 0 0 0 -0.097468 0.15 -0.98387 0.016731
0.0072066 -0.009352 1.0739 6.6381e-39 215.5 254 0 0 0 -0.15804 0.15685 -0.9749 0.01401
0.0090912 -0.009352 1.0739 6.592e-39 217 254 0 0 0 -0.19584 0.15563 -0.96821 0.012444
0.010974 -0.0093499 1.0737 6.4767e-39 218.5 254 0 0 0 -0.2229 0.16547 -0.9607 0.011055
0.012854 -0.0093477 1.0734 6.4075e-39 223 254 0 0 0 -0.2576 0.16736 -0.95165 0.012115
0.014726 -0.0093399 1.0725 6.1541e-39 246 254 0 0 0 -0.29108 0.17857 -0.93989 0.013201
0.016601 -0.0093358 1.072 5.6701e-39 269 254 0 0 0 -0.33045 0.17603 -0.92726 0.016749
-0.042421 -0.006211 1.0739 8.1132e-39 257 255 0 0 0 -0.70437 -0.68484 -0.18667 0.11523
-0.041165 -0.0074674 1.0739 5.163e-39 171 255 0 0 0 -0.50324 -0.85524 -0.12375 0.1522
-0.016643 -0.0068304 1.0725 6.1541e-39 297.5 255 0 0 0 0.31691 0.063325 -0.94634 0.041026
-0.014755 -0.0068274 1.072 6.0388e-39 299.5 255 0 0 0 0.30221 0.094469 -0.94855 0.032076
-0.012887 -0.0068346 1.0732 5.9927e-39 301 255 0 0 0 0.27008 0.13709 -0.95303 0.021533
-0.011011 -0.0068392 1.0739 5.9927e-39 302.5 255 0 0 0 0.23581 0.14454 -0.96099 0.018619
-0.009336 -0.0070486 1.0739 6.3308e-39 278.67 255 0 0 0 0.20642 0.14902 -0.96705 0.01802
-0.0059856 -0.0074674 1.0739 6.0849e-39 208 255 0 0 0 0.13689 0.13972 -0.98068 0.017906
0.0078348 -0.0074674 1.0739 6.5459e-39 225 255 0 0 0 -0.1639 0.17272 -0.97124 0.010956
0.0090912 -0.0074674 1.0739 6.6381e-39 226 255 0 0 0 -0.18991 0.17534 -0.96602 0.010181
0.010976 -0.0068392 1.0739 6.3615e-39 197.5 255.5 0 0 0 -0.21954 0.17575 -0.95964 0.0092958
0.01286 -0.0068392 1.0739 6.2693e-39 199 255.5 0 0 0 -0.25103 0.16812 -0.95327 0.011304
0.014732 -0.0068333 1.073 6.4768e-39 200.5 255.5 0 0 0 -0.28363 0.16868 -0.94398 0.013215
0.017024 -0.0066201 1.0723 6.0542e-39 192.33 255.67 0 0 0 -0.33624 0.16229 -0.92769 0.017345
0.019109 -0.0062003 1.072 4.9786e-39 174 256 0 0 0 -0.37751 0.15838 -0.91236 0.020234
-0.021044 -0.0049503 1.073 6.9147e-39 226 256 0 0 0 0.32451 0.056509 -0.94419 0.068848
-0.019145 -0.004946 1.072 7.053e-39 227.5 256 0 0 0 0.34851 0.034717 -0.93666 0.051502
-0.016658 -0.0049524 1.0734 7.4218e-39 229.5 256 0 0 0 0.32282 0.090674 -0.94211 0.033539
-0.014768 -0.0049503 1.073 8.2054e-39 231 256 0 0 0 0.31431 0.11739 -0.94203 0.026827
-0.012896 -0.0049546 1.0739 8.8969e-39 232.5 256 0 0 0 0.25941 0.15825 -0.95271 0.019005
0.010976 -0.0049546 1.0739 8.021e-39 251.5 256 0 0 0 -0.21712 0.19838 -0.95577 0.0089786
0.01286 -0.0049546 1.0739 7.1913e-39 253 256 0 0 0 -0.24486 0.19452 -0.94984 0.0092872
0.014732 -0.0049503 1.073 7.2835e-39 254.5 256 0 0 0 -0.28901 0.18396 -0.93949 0.012424
0.017235 -0.0049481 1.0725 7.6061e-39 256.5 256 0 0 0 -0.33364 0.1773 -0.92588 0.016038
0.019109 -0.004946 1.072 7.9288e-39 258 256 0 0 0 -0.37104 0.17538 -0.91191 0.018586
0.020363 -0.004946 1.072 7.7444e-39 259 256 0 0 0 -0.41015 0.15813 -0.8982 0.021991
-0.02228 -0.0036918 1.072 5.9005e-39 428 256 0 0 0 0.37907 0.033939 -0.92474 0.083657
-0.021062 -0.0036982 1.0739 6.2693e-39 429 256 0 0 0 0.3259 0.065705 -0.94312 0.065927
-0.018952 -0.0032766 1.073 6.9761e-39 363.67 256.33 0 0 0 0.36449 0.071537 -0.92846 0.042352
-0.016869 -0.0032783 1.0736 7.2835e-39 271.67 256.67 0 0 0 0.34477 0.14465 -0.92748 0.027595
-0.014774 -0.0030684 1.0734 7.9288e-39 192.5 257 0 0 0 0.28653 0.17903 -0.9412 0.020434
-0.012896 -0.0036982 1.0739 7.053e-39 154.5 257 0 0 0 0.26466 0.17787 -0.9478 0.017908
0.011604 -0.00307 1.0739 6.2694e-39 213 257 0 0 0 -0.22476 0.20732 -0.9521 0.0085079
0.01286 -0.0036982 1.0739 4.9786e-39 175 257 0 0 0 -0.2442 0.1984 -0.94921 0.0089585
0.014745 -0.00307 1.0739 6.4767e-39 222.5 257 0 0 0 -0.27534 0.20918 -0.93831 0.010065
0.017242 -0.003695 1.073 5.9466e-39 192.5 257 0 0 0 -0.32935 0.16743 -0.92925 0.015676
0.019126 -0.003695 1.073 6.4537e-39 194 257 0 0 0 -0.35914 0.16792 -0.91805 0.016679
0.020363 -0.0036918 1.072 6.3615e-39 195 257 0 0 0 -0.41166 0.15106 -0.89873 0.022616
0.041685 0.062782 1.072 6.5459e-39 268 277 0 0 0 0.93069 0.1432 -0.33663 0.012613
0.037922 0.06529 1.072 4.1488e-39 605 277 0 0 0 0.93922 0.10343 -0.32737 0.010939
0.039211 0.06472 1.073 4.8403e-39 504.5 277 0 0 0 0.93418 0.11001 -0.33941 0.012104
0.041094 0.06472 1.073 6.7533e-39 271.5 277.5 0 0 0 0.93421 0.11046 -0.33919 0.012653
0.037988 0.067289 1.0739 5.9927e-39 303.5 278 0 0 0 0.92947 0.089189 -0.35796 0.01233
0.037955 0.069113 1.073 6.6381e-39 441 278 0 0 0 0.92664 0.088312 -0.36543 0.010842
0.039245 0.069173 1.0739 6.7303e-39 442 278 0 0 0 0.92322 0.08294 -0.37522 0.011515
0.041112 0.069143 1.0734 7.0069e-39 443.5 278 0 0 0 0.92354 0.082258 -0.37459 0.012129
0.037955 0.070995 1.073 6.131e-39 219.5 279 0 0 0 0.92182 0.085747 -0.37801 0.0098355
0.039211 0.070995 1.073 6.1771e-39 220.5 279 0 0 0 0.92039 0.083294 -0.38203 0.0097965
0.041112 0.071026 1.0734 6.2002e-39 222 279 0 0 0 0.92003 0.079831 -0.38362 0.010297
0.037922 0.072815 1.072 5.5317e-39 386 279 0 0 0 0.91334 0.098921 -0.395 0.010224
0.039211 0.072879 1.073 5.5317e-39 387 279 0 0 0 0.91107 0.090521 -0.40219 0.010156
0.041093 0.072879 1.073 5.7161e-39 388.5 279 0 0 0 0.91969 0.081623 -0.38406 0.0099511
0.037922 0.07407 1.072 6.8225e-39 449 279 0 0 0 0.90938 0.10652 -0.40209 0.010781
0.039177 0.074697 1.072 6.5459e-39 320 279.5 0 0 0 0.91009 0.10462 -0.40099 0.010782
0.041279 0.074509 1.0723 6.7918e-39 365 279.33 0 0 0 0.90631 0.095155 -0.41177 0.010407
0.039211 0.085432 1.073 5.8083e-39 216 282 0 0 0 0.84605 0.17067 -0.50505 0.021422
0.039211 0.086687 1.073 5.8083e-39 363 282 0 0 0 0.83811 0.1722 -0.5176 0.021105
0.040449 0.087277 1.0725 6.131e-39 395.5 282 0 0 0 0.83162 0.17978 -0.52544 0.021944
0.037922 0.08912 1.072 7.1913e-39 173 283 0 0 0 0.81734 0.19425 -0.54242 0.0195
0.039245 0.088019 1.0739 7.0069e-39 426 282 0 0 0 0.82342 0.17781 -0.53886 0.021637
0.040501 0.089275 1.0739 6.9147e-39 175 283 0 0 0 0.81324 0.1867 -0.55116 0.022905
-0.032328 0.091041 1.0725 6.7303e-39 232.5 283 0 0 0 -0.93063 0.20141 -0.30556 0.013772
0.037526 0.091264 1.0727 6.4537e-39 353.33 283 0 0 0 0.80785 0.2001 -0.55438 0.018857
0.03736 0.093044 1.0739 9.8649e-39 462.5 283 0 0 0 0.80434 0.19893 -0.55988 0.020312
0.035445 0.095474 1.073 5.3473e-39 365 284 0 0 0 0.80048 0.19764 -0.56583 0.018222
-0.032342 0.09673 1.073 6.1771e-39 373 284 0 0 0 -0.92929 0.15339 -0.33601 0.020464
0.031024 0.0979 1.072 7.7905e-39 152.5 285 0 0 0 0.79868 0.18998 -0.57097 0.014885
0.032906 0.0979 1.072 7.9288e-39 156 285 0 0 0 0.80058 0.19219 -0.56756 0.015647
0.034599 0.09712 1.0726 7.222e-39 336.67 284.33 0 0 0 0.79976 0.19479 -0.56783 0.017276
0.031052 0.09924 1.073 5.9005e-39 238.5 285 0 0 0 0.79872 0.18339 -0.57308 0.015297
0.032906 0.099154 1.072 5.6239e-39 240 285 0 0 0 0.79986 0.18864 -0.56977 0.014983
0.034189 0.09924 1.073 5.5317e-39 241 285 0 0 0 0.79914 0.18436 -0.57217 0.016489
0.041721 0.09924 1.073 6.8225e-39 255 285 0 0 0 0.79182 0.17861 -0.58405 0.026003
0.031045 0.1011 1.0727 7.4218e-39 413 285 0 0 0 0.79717 0.1807 -0.57608 0.014183
0.032906 0.10103 1.072 8.2514e-39 414.5 285 0 0 0 0.79699 0.18097 -0.57625 0.01419
0.034818 0.10112 1.073 7.9289e-39 416 285 0 0 0 0.7968 0.1776 -0.57756 0.016967
0.040501 0.10058 1.0739 6.2693e-39 391 285 0 0 0 0.79517 0.16942 -0.58224 0.025966
0.031038 0.10296 1.0725 7.2835e-39 175.5 286 0 0 0 0.79139 0.18073 -0.58399 0.01344
0.035476 0.1031 1.0739 7.4678e-39 195 286 0 0 0 0.79615 0.16664 -0.5817 0.017851
0.031044 0.10487 1.0727 6.4076e-39 324 286 0 0 0 0.78491 0.18413 -0.59162 0.013507
0.035461 0.10494 1.0734 6.8225e-39 327.5 286 0 0 0 0.794 0.16947 -0.58382 0.015536
0.039245 0.10561 1.0739 5.9005e-39 397 286 0 0 0 0.79214 0.15822 -0.58947 0.020457
0.031251 0.10716 1.0726 9.6192e-39 355.67 286.33 0 0 0 0.77608 0.19065 -0.60112 0.014328
0.035445 0.10677 1.073 9.404e-39 451 286 0 0 0 0.79302 0.17186 -0.58446 0.015095
0.039211 0.10677 1.073 9.1274e-39 454 286 0 0 0 0.79655 0.15673 -0.58391 0.019284
0.030411 0.10861 1.0725 6.8224e-39 207.5 287 0 0 0 0.76702 0.20438 -0.6082 0.015308
0.03543 0.10861 1.0725 6.9607e-39 215.5 287 0 0 0 0.79043 0.18114 -0.58516 0.015424
0.031665 0.11488 1.0725 6.131e-39 293 288 0 0 0 0.73486 0.25183 -0.62973 0.019702
0.032906 0.11546 1.072 5.9927e-39 362 288 0 0 0 0.73721 0.25854 -0.62424 0.019827
0.03416 0.1142 1.072 5.6239e-39 227 288 0 0 0 0.75587 0.23296 -0.61187 0.019401
0.031052 0.11682 1.073 6.8225e-39 411.5 288 0 0 0 0.72019 0.27946 -0.635 0.019908
0.032934 0.11681 1.073 6.3615e-39 413 288 0 0 0 0.72853 0.27296 -0.62828 0.020101
