# .PCD v.7 - Point Cloud Data file format
VERSION .7
FIELDS x y z rgb u v vx vy vz normal_x normal_y normal_z curvature
SIZE 4 4 4 4 4 4 4 4 4 4 4 4 4
TYPE F F F F F F F F F F F F F
COUNT 1 1 1 1 1 1 1 1 1 1 1 1 1
WIDTH 552
HEIGHT 1
VIEWPOINT 0 0 0 1 0 0 0
POINTS 552
DATA ascii
0.199 0.16094 0.84107 6.4076e-39 347 304.5 0 0 0 -0.59481 0.30768 -0.74266 0.0014076
0.20081 0.16082 0.8404 6.8225e-39 349 304.5 0 0 0 -0.59322 0.30884 -0.74345 0.0015027
0.19933 0.16274 0.84107 6.1464e-39 361 305.33 0 0 0 -0.59359 0.31263 -0.74156 0.0017023
0.20105 0.16291 0.84058 6.1587e-39 312.2 305.6 0 0 0 -0.59329 0.31266 -0.74178 0.001752
0.19918 0.16454 0.84183 7.0991e-39 407 306 0 0 0 -0.59432 0.31621 -0.73945 0.0019572
0.20095 0.16486 0.84098 6.3615e-39 313.5 306.5 0 0 0 -0.59402 0.31539 -0.74004 0.0019005
0.20271 0.16518 0.84012 6.0849e-39 220 307 0 0 0 -0.59419 0.31693 -0.73925 0.0019919
0.20151 0.16639 0.84126 8.943e-39 392.5 307 0 0 0 -0.59243 0.32006 -0.73931 0.0021105
0.20302 0.16685 0.84058 7.2097e-39 276 307.6 0 0 0 -0.59376 0.32019 -0.73819 0.0021529
0.20318 0.16875 0.84126 8.2423e-39 293.4 308.4 0 0 0 -0.59335 0.32074 -0.73829 0.0022909
0.20467 0.16862 0.84012 8.2515e-39 275 308.5 0 0 0 -0.59374 0.32221 -0.73732 0.0022163
0.20397 0.17033 0.84126 6.1771e-39 294 309 0 0 0 -0.59286 0.32171 -0.73826 0.0023759
0.2053 0.1707 0.84069 6.7072e-39 237.25 309.5 0 0 0 -0.59124 0.32373 -0.73867 0.0022608
0.20544 0.1723 0.84126 5.6239e-39 272.5 310 0 0 0 -0.58963 0.32209 -0.74067 0.0023902
0.2065 0.17287 0.84088 9.0349e-39 393 310 0 0 0 -0.59011 0.32359 -0.73963 0.002375
0.20758 0.17459 0.84126 7.9903e-39 314.67 311 0 0 0 -0.5885 0.32193 -0.74163 0.0025072
0.2091 0.17501 0.84012 1.0188e-38 440.5 311 0 0 0 -0.59045 0.32358 -0.73937 0.0024644
0.20909 0.17663 0.84126 7.9289e-39 330.6 312 0 0 0 -0.58996 0.32125 -0.74077 0.002527
0.21057 0.17796 0.84012 6.1771e-39 274 313 0 0 0 -0.59553 0.31706 -0.73811 0.0026812
0.20987 0.1782 0.84126 5.8083e-39 273 313 0 0 0 -0.59325 0.31762 -0.73971 0.0026254
0.21076 0.1791 0.84088 6.1771e-39 146 314 0 0 0 -0.59495 0.31655 -0.7388 0.0027602
0.21135 0.18067 0.84126 6.131e-39 225 314.5 0 0 0 -0.59938 0.31411 -0.73626 0.0028828
0.21254 0.1814 0.84012 9.2659e-39 258.5 315 0 0 0 -0.60615 0.30963 -0.73261 0.002929
0.21166 0.18259 0.84183 9.6498e-39 291.67 315.33 0 0 0 -0.60366 0.3129 -0.73327 0.0028353
0.2131 0.18343 0.84041 8.2974e-39 263.5 316 0 0 0 -0.60933 0.30766 -0.7308 0.0029009
0.21339 0.18534 0.84088 7.7443e-39 236.67 317 0 0 0 -0.61168 0.30795 -0.7287 0.0029458
0.2145 0.18533 0.84012 8.482e-39 270 317 0 0 0 -0.61456 0.30605 -0.72708 0.0028679
0.21325 0.18682 0.84164 8.1438e-39 238.33 317.67 0 0 0 -0.61314 0.3073 -0.72776 0.0029718
0.21465 0.18743 0.84069 8.9431e-39 276 318 0 0 0 -0.61633 0.3059 -0.72565 0.0029678
0.21389 0.1886 0.84154 8.4359e-39 277 318.5 0 0 0 -0.61655 0.30567 -0.72556 0.0030384
0.21531 0.18923 0.84069 8.3283e-39 246.33 319 0 0 0 -0.61737 0.30235 -0.72625 0.002908
0.21696 0.18975 0.84012 9.7266e-39 377.5 319 0 0 0 -0.61942 0.30034 -0.72534 0.0026231
0.21545 0.191 0.84126 9.2195e-39 306.67 319.67 0 0 0 -0.61934 0.30021 -0.72546 0.0029076
0.21703 0.1913 0.8404 9.3578e-39 274 320 0 0 0 -0.61979 0.29782 -0.72606 0.0026066
0.21844 0.19172 0.84012 1.134e-38 369 320 0 0 0 -0.6203 0.2959 -0.72641 0.0024454
0.21593 0.1931 0.84183 1.0602e-38 175 321 0 0 0 -0.62167 0.29749 -0.72459 0.0029115
0.21714 0.19336 0.84083 1.1363e-38 268.5 321 0 0 0 -0.62225 0.29504 -0.72509 0.0026312
0.21844 0.1932 0.84012 1.0649e-38 270 321 0 0 0 -0.61892 0.29484 -0.72802 0.0024432
0.21742 0.19526 0.84126 1.0818e-38 229.67 322 0 0 0 -0.6229 0.29257 -0.72553 0.0026491
0.21858 0.1953 0.84069 1.2308e-38 260.5 322 0 0 0 -0.61915 0.2927 -0.72868 0.0024913
0.21719 0.19666 0.84164 9.957e-39 196.67 322.67 0 0 0 -0.62442 0.292 -0.72446 0.0026944
0.21904 0.19723 0.84055 1.2769e-38 209.25 323 0 0 0 -0.61694 0.29297 -0.73045 0.0025711
0.27483 0.19789 0.84126 1.1156e-38 372 323 0 0 0 0.71328 0.37207 -0.59397 0.0030932
0.2179 0.19802 0.84183 1.512e-38 269 323 0 0 0 -0.6225 0.29404 -0.72528 0.0026477
0.21922 0.19937 0.84126 9.0352e-39 333 323.5 0 0 0 -0.61763 0.29699 -0.72824 0.0026245
0.22089 0.19909 0.84012 9.7958e-39 335 323.5 0 0 0 -0.60853 0.29723 -0.73576 0.002529
0.27385 0.19986 0.84126 1.3461e-38 289 324 0 0 0 0.73125 0.36569 -0.57579 0.0038288
0.21926 0.20136 0.8414 1.1386e-38 288 324.5 0 0 0 -0.61521 0.30276 -0.72791 0.0025694
0.22093 0.20109 0.84026 1.051e-38 290 324.5 0 0 0 -0.60565 0.30155 -0.73638 0.0025067
0.27151 0.20155 0.84012 1.2539e-38 236 325 0 0 0 0.752 0.33857 -0.56557 0.0047273
0.27277 0.20126 0.84098 1.0188e-38 343 324.5 0 0 0 0.7517 0.34448 -0.56239 0.0046014
0.21944 0.20318 0.84145 1.2139e-38 322.33 325 0 0 0 -0.61475 0.30933 -0.72553 0.00265
0.221 0.20312 0.84055 9.5881e-39 346.75 325 0 0 0 -0.60653 0.30763 -0.73313 0.0025804
0.22237 0.20302 0.84012 9.1734e-39 348.5 325 0 0 0 -0.60073 0.30755 -0.73793 0.0024846
0.27122 0.20314 0.84126 1.091e-38 295.67 325.33 0 0 0 0.76841 0.32016 -0.55411 0.0051225
0.21987 0.20541 0.84183 1.3876e-38 219.5 326 0 0 0 -0.61335 0.31378 -0.72481 0.0027746
0.22116 0.20524 0.84112 1.4659e-38 221 326 0 0 0 -0.60671 0.31493 -0.72988 0.0026735
0.22293 0.20506 0.84041 1.2907e-38 223 326 0 0 0 -0.59954 0.3136 -0.73635 0.0025496
0.22433 0.20548 0.84012 1.2723e-38 266 326 0 0 0 -0.59543 0.31105 -0.74075 0.0024078
0.26973 0.20464 0.84069 1.0418e-38 229 326 0 0 0 0.78564 0.28938 -0.54683 0.0057357
0.22127 0.20731 0.84154 8.9891e-39 259.5 326.5 0 0 0 -0.60706 0.31811 -0.7282 0.0027793
0.22301 0.20709 0.84069 9.45e-39 261.5 326.5 0 0 0 -0.60012 0.3159 -0.73489 0.0025872
0.22433 0.20696 0.84012 8.8046e-39 263 326.5 0 0 0 -0.59581 0.31425 -0.73909 0.0024673
0.26875 0.20709 0.84069 9.2659e-39 308.5 326.5 0 0 0 0.80173 0.27115 -0.53264 0.004967
0.22151 0.20919 0.84183 1.1647e-38 241.67 327 0 0 0 -0.60731 0.32077 -0.72683 0.0028842
0.22309 0.20913 0.84097 1.1202e-38 256.5 327 0 0 0 -0.60184 0.31912 -0.73209 0.0027607
0.22449 0.20907 0.84069 1.1479e-38 258 327 0 0 0 -0.59855 0.3163 -0.736 0.0025627
0.26875 0.20857 0.84069 1.2907e-38 266 327 0 0 0 0.80344 0.2772 -0.52692 0.0046662
0.2232 0.21121 0.8414 9.2887e-39 281 327.5 0 0 0 -0.60339 0.32138 -0.72981 0.0028735
0.2249 0.21096 0.84041 8.2745e-39 283 327.5 0 0 0 -0.5969 0.31622 -0.73737 0.0025976
0.2263 0.21138 0.84012 1.0142e-38 159 328 0 0 0 -0.59518 0.31266 -0.74027 0.0026503
0.22332 0.2128 0.84183 1.4521e-38 227.5 328 0 0 0 -0.6041 0.32152 -0.72917 0.0031183
0.22502 0.21303 0.84083 1.2123e-38 263 328 0 0 0 -0.59899 0.31553 -0.73597 0.0027969
0.22668 0.21306 0.84031 1.26e-38 276 328 0 0 0 -0.59741 0.31003 -0.73958 0.0028137
0.2254 0.21505 0.84164 6.6996e-39 405.33 328 0 0 0 -0.60272 0.31682 -0.73236 0.0031992
0.22706 0.21508 0.84112 6.8686e-39 417.5 328 0 0 0 -0.59895 0.30937 -0.73862 0.0030257
0.22875 0.21531 0.84012 6.4537e-39 450.5 328 0 0 0 -0.59426 0.30088 -0.74587 0.002877
0.22775 0.21674 0.84183 1.0142e-38 177 329 0 0 0 -0.60072 0.30862 -0.73749 0.0033828
0.22887 0.21689 0.84055 1.2124e-38 205 329 0 0 0 -0.59606 0.3024 -0.74382 0.0031517
0.23023 0.21728 0.84012 1.3461e-38 233 329 0 0 0 -0.59356 0.3001 -0.74674 0.0031708
0.22934 0.21899 0.84164 8.2054e-39 301.67 329 0 0 0 -0.597 0.30723 -0.74108 0.0035775
0.23066 0.21901 0.8405 8.3591e-39 324.33 329 0 0 0 -0.59584 0.30239 -0.744 0.0034621
0.2322 0.21875 0.84012 8.8047e-39 315.5 329 0 0 0 -0.59095 0.29721 -0.74996 0.0033573
0.23088 0.22037 0.84069 6.4076e-39 382.5 329 0 0 0 -0.59711 0.30435 -0.74218 0.0036848
0.2329 0.2206 0.84031 6.9147e-39 395.67 329 0 0 0 -0.5878 0.30182 -0.7506 0.0037382
0.16975 0.095657 0.84241 5.3473e-39 365 269 0 0 0 0.55117 -0.36034 -0.75257 0.20299
0.17091 0.095262 0.84327 5.9466e-39 399 268.5 0 0 0 0.52548 -0.43399 -0.7318 0.19584
0.1679 0.096708 0.84298 6.5459e-39 233 270 0 0 0 0.59003 -0.19829 -0.78266 0.1936
0.169 0.096774 0.84356 6.2693e-39 234 270 0 0 0 0.6021 -0.26685 -0.7525 0.18965
0.18128 0.097728 0.84327 5.9466e-39 161.5 271 0 0 0 -0.08921 -0.73625 -0.6708 0.12548
0.20255 0.097761 0.84356 6.0849e-39 183 271 0 0 0 -0.030015 -0.90473 -0.42492 0.0034868
0.20551 0.097761 0.84356 6.7303e-39 186 271 0 0 0 -0.026957 -0.9074 -0.41941 0.0031795
0.20706 0.097388 0.84318 6.1464e-39 216 270.67 0 0 0 -0.028065 -0.9084 -0.41716 0.0032705
0.20882 0.097201 0.84299 5.8774e-39 232 270.5 0 0 0 -0.027437 -0.90973 -0.41429 0.0034973
0.21086 0.097728 0.84327 5.7622e-39 191.5 271 0 0 0 -0.025597 -0.91186 -0.4097 0.0038386
0.21687 0.097761 0.84356 6.4537e-39 219.5 271 0 0 0 -0.0063372 -0.917 -0.39883 0.0051012
0.21834 0.097761 0.84356 6.1771e-39 221 271 0 0 0 0.0012885 -0.91756 -0.3976 0.0050434
0.22624 0.097761 0.84356 6.4537e-39 229 271 0 0 0 0.026559 -0.9272 -0.37363 0.0040692
0.17546 0.099338 0.84298 6.5459e-39 292 271.67 0 0 0 0.20459 -0.43794 -0.87541 0.20983
0.17706 0.098987 0.84279 7.1605e-39 345 271.33 0 0 0 0.091457 -0.52331 -0.84722 0.20022
0.17911 0.098614 0.84241 7.8366e-39 398.5 271 0 0 0 -0.0011505 -0.62807 -0.77816 0.1755
0.18158 0.098614 0.84241 7.6522e-39 401 271 0 0 0 -0.15104 -0.69697 -0.70101 0.12353
0.18256 0.098614 0.84241 7.9288e-39 402 271 0 0 0 -0.16163 -0.70863 -0.68682 0.11229
0.18503 0.098614 0.84241 7.7905e-39 404.5 271 0 0 0 -0.16525 -0.73966 -0.65237 0.081158
0.18663 0.098681 0.84298 7.4678e-39 406 271 0 0 0 -0.1562 -0.76738 -0.62188 0.064052
0.18897 0.099599 0.84241 8.6203e-39 255 272 0 0 0 -0.17033 -0.76958 -0.61541 0.051814
0.19762 0.098748 0.84356 6.1771e-39 422 271 0 0 0 -0.073365 -0.8776 -0.47374 0.012747
0.19896 0.098681 0.84298 5.9005e-39 423.5 271 0 0 0 -0.063497 -0.8851 -0.46106 0.0092077
0.20094 0.098681 0.84298 5.9005e-39 425.5 271 0 0 0 -0.048345 -0.89329 -0.44686 0.0055827
0.20302 0.098987 0.84279 6.7917e-39 375 271.33 0 0 0 -0.035375 -0.90032 -0.43378 0.0040144
0.20495 0.099208 0.84327 6.9147e-39 350.5 271.5 0 0 0 -0.030903 -0.90413 -0.42614 0.0033975
0.20622 0.099106 0.84241 6.5459e-39 352 271.5 0 0 0 -0.031738 -0.90459 -0.4251 0.0032566
0.21087 0.098965 0.8426 5.9927e-39 383 271.33 0 0 0 -0.023834 -0.90793 -0.41844 0.0037674
0.21294 0.099009 0.84298 6.4537e-39 385 271.33 0 0 0 -0.022694 -0.91087 -0.41207 0.0044148
0.21482 0.098715 0.84327 6.9147e-39 439.5 271 0 0 0 -0.018284 -0.91214 -0.40946 0.0047558
0.21656 0.098614 0.84241 6.0388e-39 441.5 271 0 0 0 -0.0090419 -0.91078 -0.41279 0.0049465
0.21903 0.098614 0.84241 5.9927e-39 444 271 0 0 0 0.00044178 -0.91333 -0.40721 0.0053122
0.22066 0.098681 0.84298 6.592e-39 445.5 271 0 0 0 0.0069529 -0.91667 -0.39958 0.005271
0.22278 0.098748 0.84356 6.1771e-39 447.5 271 0 0 0 0.014457 -0.91983 -0.39204 0.0051638
0.22453 0.098648 0.84269 6.1771e-39 449.5 271 0 0 0 0.018068 -0.92133 -0.38837 0.0048201
0.22692 0.098614 0.84241 6.0849e-39 454 271 0 0 0 0.018314 -0.92464 -0.38039 0.0046759
0.23611 0.099735 0.84356 6.5459e-39 377 272 0 0 0 0.0011151 -0.9372 -0.34879 0.0025314
0.24137 0.099174 0.84298 6.638e-39 437 271.5 0 0 0 -0.006816 -0.93534 -0.35367 0.0025102
0.24351 0.098748 0.84356 7.0069e-39 493.5 271 0 0 0 -0.013095 -0.93187 -0.36255 0.0026908
0.24523 0.098648 0.84269 6.4537e-39 495.5 271 0 0 0 -0.008845 -0.93069 -0.36569 0.002678
0.24729 0.098681 0.84298 6.2693e-39 497.5 271 0 0 0 -0.012825 -0.92707 -0.37466 0.0026498
0.24926 0.098681 0.84299 7.6061e-39 518.5 271 0 0 0 -0.0055546 -0.92497 -0.38 0.0027916
0.25132 0.098715 0.84327 5.7161e-39 138.5 272 0 0 0 -0.00097138 -0.92289 -0.38507 0.0029143
0.25338 0.098748 0.84356 5.6239e-39 146 272 0 0 0 0.0085855 -0.92134 -0.38867 0.0030666
0.2551 0.099633 0.84269 7.9749e-39 396.5 272 0 0 0 0.022825 -0.92016 -0.39089 0.0027822
0.25747 0.099599 0.84241 7.8366e-39 399 272 0 0 0 0.037896 -0.91848 -0.39364 0.0025799
0.26109 0.099667 0.84298 8.021e-39 402.5 272 0 0 0 0.060625 -0.91479 -0.39936 0.0016661
0.26289 0.099599 0.84241 7.8366e-39 404.5 272 0 0 0 0.069219 -0.91292 -0.40222 0.0014745
0.26504 0.099667 0.84299 7.56e-39 406.5 272 0 0 0 0.076895 -0.91163 -0.40376 0.0014041
0.30281 0.099599 0.84241 6.0849e-39 448 272 0 0 0 0.30932 -0.73981 -0.59749 0.070746
0.30597 0.098681 0.84298 6.9147e-39 231 272 0 0 0 0.31735 -0.71681 -0.62086 0.069651
0.17352 0.10133 0.84317 6.9454e-39 400 272.67 0 0 0 0.15871 -0.17868 -0.97102 0.21395
0.17468 0.10058 0.84241 8.1132e-39 462 272 0 0 0 0.13757 -0.30661 -0.94184 0.21719
0.20474 0.10058 0.84241 6.4998e-39 169.5 273 0 0 0 -0.036069 -0.89691 -0.44074 0.0043759
0.23808 0.10072 0.84356 6.1771e-39 220 273 0 0 0 -0.0033349 -0.93677 -0.34992 0.0024452
0.27105 0.10069 0.84327 8.482e-39 253.5 273 0 0 0 0.086318 -0.91088 -0.40354 0.0014107
0.27293 0.10065 0.84298 8.8969e-39 255.5 273 0 0 0 0.08814 -0.91091 -0.40309 0.0014261
0.27509 0.10072 0.84356 8.2976e-39 258.5 273 0 0 0 0.086775 -0.9105 -0.4043 0.0014548
0.27706 0.10072 0.84356 8.021e-39 260.5 273 0 0 0 0.085473 -0.91021 -0.40523 0.0014302
0.27894 0.10069 0.84327 8.7586e-39 262.5 273 0 0 0 0.082371 -0.9097 -0.40702 0.0014329
0.28033 0.10065 0.84298 8.8508e-39 264 273 0 0 0 0.081486 -0.90846 -0.40995 0.0015882
0.2826 0.10157 0.84241 5.5778e-39 152.5 274 0 0 0 0.08823 -0.90247 -0.42162 0.0030745
0.28486 0.10168 0.84327 5.9005e-39 160.5 274 0 0 0 0.092779 -0.89396 -0.43844 0.0070906
0.2973 0.10171 0.84356 5.9005e-39 173 274 0 0 0 0.29092 -0.76302 -0.5772 0.068074
0.29847 0.1016 0.84269 5.5317e-39 174.5 274 0 0 0 0.30836 -0.75275 -0.58161 0.070332
0.30065 0.10069 0.84327 5.4856e-39 284.5 273 0 0 0 0.30116 -0.75153 -0.58695 0.06696
0.17196 0.1027 0.84356 5.7161e-39 188 274 0 0 0 0.064241 -0.037075 -0.99725 0.19833
0.17332 0.10312 0.84299 5.647e-39 306.5 274 0 0 0 -0.054789 -0.036632 -0.99783 0.19411
0.28704 0.10256 0.84241 7.56e-39 394 274 0 0 0 0.12777 -0.87651 -0.46412 0.020385
0.28881 0.10266 0.84327 7.7905e-39 395.5 274 0 0 0 0.15042 -0.85666 -0.49347 0.031564
0.29562 0.10263 0.84299 8.2976e-39 402.5 274 0 0 0 0.3005 -0.75829 -0.57853 0.068195
0.17375 0.10506 0.84269 8.2054e-39 373 275 0 0 0 -0.31313 -0.00257 -0.94971 0.1633
0.17381 0.10706 0.84298 5.67e-39 270 276.5 0 0 0 -0.45524 -0.009566 -0.89032 0.12251
0.17468 0.10699 0.84241 5.4856e-39 271 276.5 0 0 0 -0.45617 -0.0071528 -0.88987 0.1172
0.17393 0.10862 0.84356 7.8366e-39 396 277 0 0 0 -0.50944 -0.031007 -0.85994 0.096884
0.17513 0.1092 0.84298 6.8839e-39 274.67 277.67 0 0 0 -0.5125 -0.020029 -0.85845 0.087554
0.17591 0.11059 0.84356 5.9005e-39 428 278 0 0 0 -0.53538 -0.018842 -0.8444 0.069258
0.17671 0.11097 0.84269 6.0849e-39 336 278.5 0 0 0 -0.5466 -0.01892 -0.83718 0.058872
0.304 0.1115 0.84298 8.8508e-39 443 279 0 0 0 0.71889 -0.27059 -0.64029 0.091859
0.30576 0.11044 0.84241 6.2693e-39 233 279 0 0 0 0.74268 -0.25895 -0.61755 0.08959
0.30104 0.11347 0.84298 6.4537e-39 490 280 0 0 0 0.70104 -0.22957 -0.67516 0.089642
0.17764 0.11537 0.84241 5.8083e-39 367 281 0 0 0 -0.57976 0.087947 -0.81003 0.018845
0.30125 0.11454 0.84356 8.3898e-39 279 281 0 0 0 0.71641 -0.17143 -0.67629 0.081216
0.17776 0.11693 0.84298 6.4998e-39 285.5 282 0 0 0 -0.58218 0.13381 -0.80197 0.01092
0.17862 0.11734 0.84241 7.8366e-39 395 282 0 0 0 -0.5848 0.14015 -0.79898 0.0097422
0.17788 0.11849 0.84356 5.7161e-39 208 283 0 0 0 -0.58378 0.17338 -0.79318 0.0063666
0.17918 0.11886 0.8427 6.6842e-39 316.5 283 0 0 0 -0.58526 0.17716 -0.79125 0.0059266
0.18059 0.11931 0.84241 7.6522e-39 425 283 0 0 0 -0.58646 0.18254 -0.78914 0.005485
0.17973 0.12087 0.84298 6.4537e-39 366.5 284 0 0 0 -0.58562 0.20634 -0.78389 0.004693
0.18059 0.12079 0.84241 6.2232e-39 369.5 284 0 0 0 -0.58476 0.20489 -0.7849 0.0046382
0.17979 0.12289 0.84327 7.2374e-39 220 285.5 0 0 0 -0.5833 0.22302 -0.78104 0.0045124
0.18059 0.12276 0.84241 7.3757e-39 221 285.5 0 0 0 -0.58443 0.2216 -0.7806 0.0043417
0.18066 0.12478 0.84269 6.6842e-39 269.5 286.5 0 0 0 -0.5855 0.23427 -0.77609 0.0042848
0.18164 0.12675 0.84269 6.5459e-39 272 287.5 0 0 0 -0.58655 0.2422 -0.77285 0.0042636
0.18256 0.12671 0.84241 6.6381e-39 273 287.5 0 0 0 -0.58719 0.24089 -0.77277 0.0041108
0.18177 0.1288 0.84327 6.2232e-39 279 288.5 0 0 0 -0.58922 0.25299 -0.76734 0.0044482
0.18269 0.12876 0.84298 6.1771e-39 280 288.5 0 0 0 -0.58693 0.25074 -0.76983 0.0041288
0.18355 0.13114 0.84241 5.9005e-39 194 290 0 0 0 -0.5927 0.25975 -0.76239 0.0035378
0.18368 0.13221 0.84298 5.6239e-39 396 290 0 0 0 -0.59245 0.26615 -0.76037 0.0035367
0.1846 0.13463 0.84269 7.4679e-39 322 291.5 0 0 0 -0.59555 0.2738 -0.75522 0.0029305
0.18532 0.13649 0.84298 7.9596e-39 371.33 292.33 0 0 0 -0.59959 0.28031 -0.74961 0.0026749
0.18651 0.13705 0.84241 7.0991e-39 256 293 0 0 0 -0.60056 0.27941 -0.74917 0.0021145
0.18712 0.13862 0.84298 6.7303e-39 212.5 294 0 0 0 -0.60673 0.28373 -0.74255 0.0017819
0.18738 0.1405 0.84337 7.222e-39 230.33 295 0 0 0 -0.61025 0.2901 -0.73718 0.0017051
0.18848 0.14149 0.84241 7.3296e-39 267.5 295.5 0 0 0 -0.60875 0.28945 -0.73868 0.0015479
0.18848 0.14296 0.84241 7.3757e-39 365 296 0 0 0 -0.61122 0.29087 -0.73608 0.0015389
0.18894 0.14471 0.84298 6.6688e-39 303.33 297 0 0 0 -0.61385 0.29225 -0.73333 0.0015756
0.18972 0.14612 0.84356 5.8083e-39 169 298 0 0 0 -0.61396 0.29462 -0.73229 0.0016573
0.191 0.14794 0.84269 6.6381e-39 143.5 299 0 0 0 -0.60963 0.2953 -0.73563 0.0015914
0.1917 0.14908 0.84356 5.8083e-39 264 299 0 0 0 -0.61114 0.29608 -0.73406 0.0016921
0.19249 0.14942 0.84269 6.131e-39 356 299 0 0 0 -0.60712 0.29506 -0.7378 0.0015899
0.19312 0.15121 0.8426 6.6381e-39 308.33 300 0 0 0 -0.60719 0.29598 -0.73737 0.0016031
0.19318 0.15253 0.84356 6.8225e-39 325.5 300.5 0 0 0 -0.6098 0.29892 -0.73402 0.0017322
0.19502 0.15589 0.84299 9.3579e-39 372.5 302 0 0 0 -0.60714 0.30057 -0.73555 0.0016758
0.19545 0.15731 0.84269 6.1771e-39 229.5 303 0 0 0 -0.60295 0.30454 -0.73737 0.0016382
0.19686 0.15726 0.84241 5.8083e-39 232 303 0 0 0 -0.59837 0.30426 -0.74121 0.0014135
0.19551 0.15884 0.84298 5.9005e-39 144 304 0 0 0 -0.60206 0.30741 -0.7369 0.0016631
0.19699 0.15934 0.84298 5.8313e-39 205.5 304 0 0 0 -0.59953 0.30882 -0.73837 0.0016073
0.19705 0.16136 0.84327 6.592e-39 344.5 304.5 0 0 0 -0.5983 0.31211 -0.73799 0.0018222
0.19762 0.1634 0.84356 6.4537e-39 327 305.5 0 0 0 -0.59533 0.3153 -0.73903 0.0019277
0.19833 0.16317 0.84241 6.4076e-39 328 305.5 0 0 0 -0.59559 0.31457 -0.73913 0.0018206
0.19896 0.16525 0.84298 6.3154e-39 311 306.5 0 0 0 -0.59569 0.31746 -0.73782 0.0020696
0.19959 0.16685 0.84356 8.021e-39 390 307 0 0 0 -0.59482 0.31915 -0.73779 0.0022232
0.20077 0.16739 0.84298 7.0376e-39 259.33 307.67 0 0 0 -0.59375 0.3189 -0.73876 0.0022933
0.20143 0.1687 0.84298 8.8508e-39 372 308 0 0 0 -0.59272 0.31967 -0.73925 0.002417
0.20228 0.16958 0.84241 5.7161e-39 171 309 0 0 0 -0.593 0.32063 -0.73861 0.0024085
0.20302 0.17097 0.84279 5.9312e-39 244.33 309.33 0 0 0 -0.5923 0.32002 -0.73944 0.0025437
0.20425 0.17155 0.84241 6.3615e-39 149 310 0 0 0 -0.59161 0.32102 -0.73956 0.0024825
0.20481 0.17309 0.84269 7.56e-39 360 310 0 0 0 -0.59057 0.3201 -0.74079 0.0025748
0.20664 0.17524 0.84279 9.8037e-39 375.33 311 0 0 0 -0.58866 0.32074 -0.74203 0.0025559
0.20749 0.17672 0.84356 6.8225e-39 252 312 0 0 0 -0.58869 0.32185 -0.74152 0.0025118
0.20833 0.17758 0.84298 1.0326e-38 444 312 0 0 0 -0.58997 0.32171 -0.74057 0.0024925
0.20904 0.17894 0.84318 5.6854e-39 229 313.33 0 0 0 -0.59165 0.32137 -0.73937 0.0025256
0.21023 0.18097 0.84269 6.7764e-39 223.5 314.5 0 0 0 -0.59658 0.31848 -0.73666 0.0026062
0.2108 0.18301 0.84299 8.897e-39 259 315.5 0 0 0 -0.60158 0.31674 -0.73333 0.0027138
0.21136 0.18504 0.84327 8.7588e-39 263.5 316.5 0 0 0 -0.60727 0.31416 -0.72974 0.0029871
0.2122 0.18492 0.84269 8.897e-39 264.5 316.5 0 0 0 -0.6079 0.31263 -0.72988 0.0029088
0.21143 0.18658 0.84356 1.217e-38 362 317 0 0 0 -0.61095 0.31364 -0.72689 0.0030406
0.21242 0.18708 0.84356 9.1733e-39 268.5 317.5 0 0 0 -0.61212 0.31047 -0.72727 0.0031123
0.21289 0.18872 0.84279 9.1579e-39 308 318.33 0 0 0 -0.61575 0.30752 -0.72545 0.0031234
0.21326 0.1904 0.84298 9.1274e-39 373 319 0 0 0 -0.61869 0.30462 -0.72417 0.0032314
0.21448 0.19097 0.8426 8.2976e-39 243 319.67 0 0 0 -0.62006 0.30328 -0.72356 0.0030277
0.21475 0.19286 0.84298 9.8419e-39 269 320.5 0 0 0 -0.62236 0.29991 -0.723 0.003158
0.21538 0.19448 0.84356 1.051e-38 358 321 0 0 0 -0.62573 0.29527 -0.72199 0.0031891
0.21607 0.1947 0.84241 9.957e-39 264 321.5 0 0 0 -0.62529 0.293 -0.7233 0.0029206
0.21622 0.19681 0.84298 9.8648e-39 221.5 322.5 0 0 0 -0.62682 0.29388 -0.72161 0.0028567
0.21721 0.19879 0.84299 1.0787e-38 350 323 0 0 0 -0.62585 0.29552 -0.72179 0.0027705
0.21805 0.19914 0.84241 8.1132e-39 433 323 0 0 0 -0.6234 0.29626 -0.7236 0.0025725
0.21819 0.20076 0.84298 1.1109e-38 311 324 0 0 0 -0.62424 0.30015 -0.72127 0.0025559
0.21834 0.20287 0.84356 1.3692e-38 228.5 325 0 0 0 -0.62215 0.30819 -0.71968 0.0025569
0.27342 0.20322 0.84298 1.0879e-38 374 325 0 0 0 0.75756 0.3456 -0.55377 0.0038257
0.21911 0.20463 0.84269 9.957e-39 294 325.5 0 0 0 -0.61797 0.31233 -0.7215 0.0026411
0.27225 0.20407 0.84241 9.5883e-39 143 326 0 0 0 0.76391 0.33514 -0.55147 0.0043293
0.21933 0.20682 0.84356 1.2216e-38 319.5 326 0 0 0 -0.61664 0.3153 -0.72134 0.0027307
0.22002 0.20703 0.84241 8.943e-39 380 326 0 0 0 -0.61298 0.31729 -0.72359 0.0027971
0.27065 0.20632 0.84356 1.4567e-38 349 326 0 0 0 0.79641 0.29965 -0.52531 0.0050366
0.22002 0.20851 0.84241 1.0003e-38 338 326.5 0 0 0 -0.61223 0.31916 -0.7234 0.0028875
0.2693 0.20998 0.84241 7.2835e-39 376 327 0 0 0 0.81035 0.27179 -0.5191 0.0041533
0.22093 0.21069 0.84287 8.9061e-39 359.4 327 0 0 0 -0.60894 0.32152 -0.72513 0.0029622
0.2206 0.21252 0.84337 1.1494e-38 176.33 328 0 0 0 -0.60831 0.32327 -0.72489 0.0032493
0.22284 0.2133 0.84284 1.323e-38 242.25 328 0 0 0 -0.60618 0.3229 -0.72683 0.0031907
0.26849 0.2121 0.84298 1.4751e-38 201 328 0 0 0 0.81075 0.27898 -0.51464 0.0037296
0.22328 0.21521 0.84356 6.6381e-39 382 328 0 0 0 -0.60519 0.32431 -0.72702 0.0035664
0.22426 0.21521 0.84356 6.4537e-39 383 328 0 0 0 -0.60506 0.3232 -0.72763 0.0035788
0.2251 0.21604 0.84298 6.4537e-39 446 328 0 0 0 -0.60368 0.32092 -0.72978 0.0034339
0.22697 0.21726 0.8426 1.0725e-38 193.67 329 0 0 0 -0.60344 0.31621 -0.73203 0.0036712
0.22723 0.21817 0.84356 1.3461e-38 229 329 0 0 0 -0.603 0.32069 -0.73044 0.0039693
0.22848 0.21942 0.84269 8.3898e-39 311 329 0 0 0 -0.59986 0.31296 -0.73635 0.0038253
0.17231 0.095984 0.84529 5.6239e-39 367 269 0 0 0 0.49472 -0.41843 -0.76169 0.19
0.16885 0.097962 0.84529 6.3154e-39 494.5 270 0 0 0 0.58818 -0.11773 -0.80011 0.18587
0.17074 0.097418 0.84485 6.5689e-39 370.25 270 0 0 0 0.52779 -0.2535 -0.81067 0.19887
0.17231 0.097467 0.84529 6.8225e-39 376 270 0 0 0 0.48416 -0.34426 -0.80441 0.1994
0.17528 0.097962 0.84529 7.8366e-39 518 270 0 0 0 0.26912 -0.46627 -0.84271 0.20187
0.17714 0.097895 0.84471 6.7917e-39 265.33 270.67 0 0 0 0.16517 -0.59354 -0.78768 0.19066
0.17948 0.097828 0.84414 5.7161e-39 150 271 0 0 0 0.035765 -0.69457 -0.71854 0.16553
0.1835 0.097861 0.84442 6.592e-39 163.5 271 0 0 0 -0.15182 -0.76357 -0.62762 0.088354
0.18517 0.097962 0.84529 6.7303e-39 165 271 0 0 0 -0.15484 -0.78156 -0.60431 0.069065
0.18616 0.097962 0.84529 6.9147e-39 166 271 0 0 0 -0.14386 -0.79654 -0.58722 0.058522
0.19888 0.097895 0.84471 5.3166e-39 179 271 0 0 0 -0.043543 -0.89751 -0.43885 0.0058783
0.20118 0.097565 0.84472 6.6995e-39 209.67 270.67 0 0 0 -0.030327 -0.90805 -0.41777 0.003406
0.20318 0.097204 0.84515 7.6753e-39 247 270.25 0 0 0 -0.026 -0.91189 -0.40961 0.0034033
0.20519 0.097258 0.84491 6.6688e-39 242 270.33 0 0 0 -0.023424 -0.91182 -0.40992 0.003318
0.20678 0.096907 0.84471 6.4537e-39 272 270 0 0 0 -0.026855 -0.91214 -0.409 0.0033646
0.20855 0.09605 0.84587 6.4076e-39 424.5 269 0 0 0 -0.023702 -0.91547 -0.40169 0.0037708
0.21084 0.096462 0.84515 5.8774e-39 351.5 269.5 0 0 0 -0.02106 -0.91676 -0.39888 0.004163
0.21324 0.097417 0.84486 6.2923e-39 240.75 270.5 0 0 0 -0.018446 -0.9168 -0.39892 0.0045623
0.21526 0.097434 0.845 6.2463e-39 247.5 270.5 0 0 0 -0.01149 -0.91924 -0.39352 0.0048828
0.21731 0.096973 0.84529 5.67e-39 282.5 270 0 0 0 -0.0010734 -0.92242 -0.38618 0.0050256
0.21921 0.097434 0.84501 5.8544e-39 253 270.5 0 0 0 0.0080208 -0.92263 -0.38561 0.0051016
0.22127 0.097962 0.84529 7.0991e-39 223.5 271 0 0 0 0.017451 -0.92344 -0.38334 0.0046568
0.22556 0.097895 0.84471 6.2693e-39 228 271 0 0 0 0.027886 -0.92758 -0.37259 0.003915
0.22754 0.097895 0.84471 6.7303e-39 230 271 0 0 0 0.027844 -0.92905 -0.3689 0.0036306
0.24294 0.097928 0.845 9.2195e-39 245.5 271 0 0 0 -0.018953 -0.93244 -0.36083 0.0026981
0.24484 0.097895 0.84471 8.8508e-39 247.5 271 0 0 0 -0.019967 -0.92849 -0.37081 0.0027512
0.2467 0.097588 0.84491 8.2976e-39 298 270.67 0 0 0 -0.020854 -0.92539 -0.37845 0.0027903
0.24901 0.097588 0.84491 8.2054e-39 300.33 270.67 0 0 0 -0.014849 -0.92336 -0.38364 0.002919
0.25085 0.097928 0.845 8.3898e-39 253.5 271 0 0 0 -0.0062126 -0.92167 -0.38793 0.0030135
0.25292 0.097962 0.84529 8.6664e-39 255.5 271 0 0 0 -9.5014e-05 -0.91946 -0.39319 0.0032021
0.25439 0.097962 0.84529 8.7586e-39 257 271 0 0 0 0.011853 -0.91869 -0.39481 0.0032427
0.16737 0.09994 0.84529 6.9147e-39 232 272 0 0 0 0.543 0.015454 -0.83959 0.17058
0.16896 0.099019 0.84587 7.2374e-39 387.5 271 0 0 0 0.55598 -0.10344 -0.82474 0.18853
0.17074 0.099394 0.84486 7.1452e-39 312.5 271.5 0 0 0 0.4559 -0.1472 -0.87778 0.203
0.17272 0.099394 0.84486 7.537e-39 314.5 271.5 0 0 0 0.38456 -0.25922 -0.88596 0.21171
0.17446 0.09919 0.84452 7.2527e-39 342 271.33 0 0 0 0.29017 -0.39933 -0.86967 0.21154
0.18757 0.098422 0.84501 7.1913e-39 287 271 0 0 0 -0.13697 -0.80558 -0.57643 0.048617
0.18912 0.098951 0.84529 7.6522e-39 408 271 0 0 0 -0.13308 -0.81587 -0.56272 0.040439
0.19104 0.09867 0.845 7.4448e-39 353 271 0 0 0 -0.11686 -0.83119 -0.54358 0.032978
0.19344 0.098883 0.84471 7.2835e-39 417.5 271 0 0 0 -0.090767 -0.85222 -0.51524 0.023514
0.19528 0.098816 0.84414 6.7764e-39 419.5 271 0 0 0 -0.082032 -0.86398 -0.4968 0.018574
0.19697 0.098422 0.84501 5.9466e-39 299 271 0 0 0 -0.057854 -0.8855 -0.46102 0.010474
0.2234 0.098029 0.84587 7.053e-39 225.5 271 0 0 0 0.025406 -0.92814 -0.37136 0.0039104
0.22488 0.098029 0.84587 6.3615e-39 227 271 0 0 0 0.029302 -0.92899 -0.36894 0.0035876
0.2291 0.098917 0.845 6.3615e-39 455.5 271 0 0 0 0.023363 -0.93191 -0.36194 0.0032696
0.23099 0.098883 0.84471 7.053e-39 457.5 271 0 0 0 0.01639 -0.93414 -0.35654 0.0029464
0.23319 0.099235 0.84491 6.5152e-39 431 271.33 0 0 0 0.010039 -0.93622 -0.35126 0.0026493
0.23487 0.099837 0.84442 6.2693e-39 375.5 272 0 0 0 0.0039704 -0.93729 -0.34854 0.002581
0.2372 0.099258 0.8451 7.4064e-39 435 271.33 0 0 0 -0.0032152 -0.9381 -0.34635 0.002311
0.23899 0.099906 0.845 5.9927e-39 379.5 272 0 0 0 -0.0069127 -0.93745 -0.34804 0.0024159
0.2411 0.098905 0.84491 7.2834e-39 372 271.33 0 0 0 -0.012874 -0.9348 -0.35495 0.0026414
0.25538 0.098951 0.84529 5.9927e-39 159 272 0 0 0 0.02159 -0.91877 -0.39421 0.0031367
0.25692 0.098576 0.84491 6.3307e-39 193.67 271.67 0 0 0 0.0305 -0.91755 -0.39645 0.0029762
0.2591 0.098861 0.84452 6.3e-39 163 272 0 0 0 0.045606 -0.91621 -0.3981 0.0024466
0.26082 0.098456 0.84529 7.514e-39 214 271.5 0 0 0 0.053807 -0.91428 -0.4015 0.0021541
0.26253 0.09885 0.84442 6.5459e-39 166.5 272 0 0 0 0.063923 -0.91337 -0.40209 0.001694
0.26468 0.098917 0.845 6.4076e-39 168.5 272 0 0 0 0.071906 -0.91173 -0.40445 0.0015128
0.26711 0.099394 0.84486 7.076e-39 289.5 272 0 0 0 0.079081 -0.91102 -0.4047 0.0014154
0.2689 0.09928 0.84529 6.8225e-39 252 272 0 0 0 0.083674 -0.90968 -0.40679 0.0014442
0.27062 0.099906 0.845 7.5139e-39 412.5 272 0 0 0 0.086031 -0.9096 -0.40649 0.0014411
0.2722 0.09994 0.84529 7.0991e-39 416 272 0 0 0 0.08763 -0.90926 -0.4069 0.0014524
0.27466 0.09994 0.84529 6.5459e-39 418.5 272 0 0 0 0.08538 -0.90895 -0.40808 0.0014838
0.27665 0.09994 0.84529 6.0849e-39 420.5 272 0 0 0 0.086031 -0.90822 -0.40955 0.0014779
0.27863 0.09994 0.84529 5.7622e-39 422.5 272 0 0 0 0.080048 -0.90795 -0.41137 0.0014713
0.28061 0.09994 0.84529 5.7622e-39 424.5 272 0 0 0 0.072806 -0.90633 -0.41626 0.0015351
0.30186 0.09994 0.84529 6.7303e-39 446 272 0 0 0 0.27616 -0.73511 -0.61916 0.068453
0.30314 0.099377 0.84471 6.3615e-39 337.5 272 0 0 0 0.26289 -0.74023 -0.61882 0.066498
0.30511 0.098883 0.84471 6.3615e-39 229.5 272 0 0 0 0.25652 -0.74125 -0.62028 0.066189
0.30702 0.098029 0.84587 6.9147e-39 386 271 0 0 0 0.28698 -0.7105 -0.64252 0.066449
0.16743 0.10146 0.84558 6.131e-39 408.5 272.5 0 0 0 0.46258 0.018647 -0.88638 0.17587
0.16896 0.10051 0.84587 6.4998e-39 344.5 272 0 0 0 0.53576 -0.074613 -0.84107 0.18521
0.17071 0.10136 0.84471 6.4767e-39 412 272.5 0 0 0 0.34696 -0.086405 -0.93389 0.20228
0.17241 0.10112 0.84414 7.0068e-39 429 272.33 0 0 0 0.27068 -0.17747 -0.94617 0.21163
0.27337 0.10001 0.84587 7.0991e-39 417 272 0 0 0 0.085959 -0.90861 -0.4087 0.0014811
0.2817 0.10079 0.84414 8.7586e-39 265 273 0 0 0 0.074429 -0.90607 -0.41653 0.0017628
0.28302 0.10042 0.84515 7.1682e-39 346.5 272.5 0 0 0 0.067406 -0.90348 -0.4233 0.0020949
0.28499 0.10058 0.8451 7.6215e-39 321.67 272.67 0 0 0 0.071339 -0.89604 -0.43821 0.0049329
0.28716 0.10152 0.84471 7.0991e-39 198.33 273.67 0 0 0 0.10076 -0.88264 -0.45913 0.013817
0.28906 0.10144 0.84543 7.6061e-39 218 273.5 0 0 0 0.11337 -0.87134 -0.47741 0.020526
0.29059 0.10146 0.84558 6.8225e-39 219.5 273.5 0 0 0 0.13834 -0.85729 -0.4959 0.029334
0.29267 0.10199 0.84587 6.3154e-39 167.5 274 0 0 0 0.17936 -0.83206 -0.52488 0.043083
0.29507 0.10197 0.84568 6.4844e-39 170 274 0 0 0 0.23728 -0.79761 -0.55454 0.056695
0.29725 0.10126 0.84529 6.3922e-39 244.33 273.33 0 0 0 0.24865 -0.78459 -0.56797 0.059385
0.29908 0.10082 0.84442 5.8544e-39 282.5 273 0 0 0 0.26969 -0.76892 -0.57968 0.063883
0.30108 0.10001 0.84587 6.4537e-39 445 272 0 0 0 0.26024 -0.74302 -0.6166 0.066979
0.17091 0.10319 0.84491 5.9312e-39 264.67 274 0 0 0 0.19613 -0.020484 -0.98036 0.19143
0.17208 0.10375 0.84414 5.7161e-39 422 274 0 0 0 0.019879 0.00383 -0.9998 0.18334
0.29109 0.10277 0.84414 8.2054e-39 397.5 274 0 0 0 0.18 -0.83858 -0.51418 0.041238
0.29326 0.10284 0.84471 7.8827e-39 399.5 274 0 0 0 0.2418 -0.79878 -0.5509 0.057996
0.29454 0.10277 0.84414 7.8366e-39 401 274 0 0 0 0.27239 -0.78028 -0.563 0.063612
0.17138 0.10542 0.84558 8.2515e-39 370 275 0 0 0 -0.12279 0.0083419 -0.9924 0.16089
0.17268 0.10531 0.84471 8.2515e-39 371.5 275 0 0 0 -0.23996 -0.037317 -0.97007 0.16673
0.17274 0.10732 0.845 5.7391e-39 268.5 276.5 0 0 0 -0.43964 -0.047079 -0.89694 0.11867
0.17289 0.10939 0.84572 7.1221e-39 302.5 277.5 0 0 0 -0.49155 -0.030667 -0.87031 0.092604
0.17405 0.10968 0.84414 6.2693e-39 212 278 0 0 0 -0.5166 -0.013094 -0.85613 0.081709
0.17342 0.11089 0.84587 5.7161e-39 420 278 0 0 0 -0.51043 -0.0016997 -0.85992 0.069451
0.17467 0.11124 0.84471 6.0388e-39 333.5 278.5 0 0 0 -0.53972 0.0016888 -0.84184 0.058217
0.17603 0.11165 0.84414 5.9005e-39 242 279 0 0 0 -0.54129 -0.002234 -0.84084 0.058684
0.3054 0.11165 0.84414 8.6664e-39 444 279 0 0 0 0.7543 -0.24658 -0.60846 0.091487
0.30681 0.11181 0.84529 8.482e-39 445 279 0 0 0 0.77573 -0.24199 -0.58283 0.088165
0.17503 0.11318 0.84568 8.4205e-39 391 279.33 0 0 0 -0.55923 0.031292 -0.82842 0.041989
0.17664 0.11321 0.84471 8.1593e-39 362 279.5 0 0 0 -0.56408 0.025931 -0.82531 0.040571
0.30294 0.11313 0.84414 7.6522e-39 374 280 0 0 0 0.72084 -0.22703 -0.65487 0.088948
0.30444 0.11333 0.84558 7.7444e-39 375 280 0 0 0 0.7507 -0.20843 -0.6269 0.088491
0.1754 0.11535 0.84587 5.9466e-39 253.5 281 0 0 0 -0.5654 0.09657 -0.81915 0.018381
0.17667 0.11521 0.84486 5.9466e-39 255 281 0 0 0 -0.57879 0.085719 -0.81096 0.020338
0.30145 0.1156 0.84414 6.1771e-39 159 282 0 0 0 0.73464 -0.12852 -0.66617 0.077114
0.30275 0.11523 0.845 7.0991e-39 220 281.5 0 0 0 0.73748 -0.12756 -0.66321 0.073772
0.1754 0.11683 0.84587 5.2552e-39 174 282 0 0 0 -0.56891 0.14698 -0.80916 0.0088239
0.17679 0.11727 0.84543 6.6842e-39 284 282 0 0 0 -0.57721 0.15138 -0.80244 0.0084937
0.30156 0.11713 0.84442 7.053e-39 282 282.5 0 0 0 0.74039 -0.059599 -0.66953 0.062642
0.16649 0.1193 0.84587 5.8083e-39 303 283 0 0 0 -0.54384 0.19479 -0.81627 0.0071552
0.17708 0.11934 0.84541 6.3984e-39 335.2 283 0 0 0 -0.57824 0.19404 -0.79246 0.0052682
0.30166 0.11914 0.84471 6.131e-39 315 283.5 0 0 0 0.73639 0.019805 -0.67627 0.043678
0.17738 0.12128 0.84587 6.3154e-39 357 284 0 0 0 -0.57801 0.211 -0.78828 0.0049457
0.17856 0.12108 0.84442 6.5689e-39 358.5 284 0 0 0 -0.58117 0.20948 -0.78636 0.0048952
0.30156 0.12108 0.84442 8.8047e-39 353 284.5 0 0 0 0.73781 0.098598 -0.66777 0.023691
0.30296 0.12124 0.84558 8.6664e-39 362.5 284.5 0 0 0 0.75773 0.17512 -0.62863 0.0094861
0.17738 0.12326 0.84587 6.9607e-39 217 285.5 0 0 0 -0.57697 0.22897 -0.78402 0.0050611
0.17856 0.12305 0.84442 7.1451e-39 218.5 285.5 0 0 0 -0.58049 0.22547 -0.78243 0.0048042
0.17738 0.12475 0.84587 8.2054e-39 364 286 0 0 0 -0.57892 0.241 -0.77896 0.0053806
0.17911 0.12507 0.84471 7.0068e-39 267.5 286.5 0 0 0 -0.58177 0.23907 -0.77742 0.0047398
0.17899 0.12703 0.84568 7.2527e-39 301.67 287.33 0 0 0 -0.58224 0.24935 -0.77384 0.0050996
0.18062 0.12707 0.84486 6.6381e-39 270.5 287.5 0 0 0 -0.58449 0.24875 -0.77233 0.0047772
0.18084 0.12892 0.8451 6.8225e-39 310 288.33 0 0 0 -0.58569 0.25665 -0.76883 0.00483
0.1815 0.1309 0.8451 6.7917e-39 320 289.33 0 0 0 -0.58787 0.2686 -0.76306 0.0047536
0.18251 0.13146 0.84442 5.7622e-39 192.5 290 0 0 0 -0.59232 0.2655 -0.7607 0.004127
0.18134 0.13267 0.84587 5.9005e-39 393 290 0 0 0 -0.59167 0.28082 -0.75569 0.0048305
0.18257 0.13297 0.84471 6.0157e-39 301.5 290.5 0 0 0 -0.59345 0.27398 -0.7568 0.003914
0.1827 0.13505 0.84529 7.3757e-39 320 291.5 0 0 0 -0.59825 0.2862 -0.74846 0.0038366
0.18405 0.13545 0.84471 5.9927e-39 231 292 0 0 0 -0.59833 0.28392 -0.74926 0.003393
0.18298 0.13695 0.84587 7.7444e-39 367.67 292.33 0 0 0 -0.60217 0.29625 -0.74137 0.0037912
0.18438 0.1371 0.84471 7.3142e-39 311.33 292.67 0 0 0 -0.60005 0.2912 -0.74508 0.0032862
0.1851 0.13871 0.845 6.3384e-39 262 293.75 0 0 0 -0.6051 0.29512 -0.73943 0.002982
0.18603 0.1394 0.84471 7.6522e-39 276 294 0 0 0 -0.60594 0.29509 -0.73875 0.0026818
0.18529 0.14058 0.84587 6.8225e-39 163 295 0 0 0 -0.60929 0.30338 -0.73261 0.0029711
0.18636 0.14105 0.84471 7.8059e-39 292.67 295 0 0 0 -0.61327 0.29619 -0.73223 0.0021697
0.18706 0.1429 0.84491 6.5152e-39 268.5 296 0 0 0 -0.61736 0.29712 -0.72842 0.0019725
0.18709 0.14489 0.845 6.6381e-39 270.5 297 0 0 0 -0.62115 0.29867 -0.72455 0.0020354
0.18807 0.14489 0.845 6.5458e-39 271.5 297 0 0 0 -0.61865 0.2983 -0.72683 0.0018764
0.18727 0.14702 0.84587 6.9608e-39 222 298 0 0 0 -0.62594 0.30012 -0.71981 0.0021128
0.18884 0.14695 0.84494 6.6012e-39 235 298 0 0 0 -0.62131 0.2963 -0.72538 0.0018492
0.18915 0.14867 0.84544 6.3384e-39 171 299 0 0 0 -0.62059 0.29788 -0.72535 0.0020161
0.19048 0.14928 0.84471 5.9005e-39 262.5 299 0 0 0 -0.61634 0.29921 -0.72842 0.0018634
0.18925 0.15048 0.84587 6.0849e-39 443 299 0 0 0 -0.62209 0.29936 -0.72345 0.0020829
0.19104 0.15082 0.845 6.4383e-39 345.5 299.5 0 0 0 -0.61561 0.29898 -0.72913 0.0019398
0.19147 0.15272 0.84548 6.5152e-39 357.33 300.33 0 0 0 -0.61579 0.30024 -0.72846 0.0020159
0.19245 0.15323 0.84471 6.3154e-39 222.5 301 0 0 0 -0.6138 0.30055 -0.73001 0.0019073
0.19322 0.15469 0.84506 7.5232e-39 317.6 301.4 0 0 0 -0.61282 0.30219 -0.73016 0.0019088
0.19321 0.15642 0.84587 9.4961e-39 370 302 0 0 0 -0.61474 0.30345 -0.72802 0.0020237
0.19431 0.1569 0.84491 6.8224e-39 237.33 302.67 0 0 0 -0.61083 0.30501 -0.73065 0.0019125
0.19453 0.15876 0.84515 6.6381e-39 214 303.5 0 0 0 -0.60998 0.30739 -0.73037 0.00203
0.19517 0.1606 0.84494 6.6197e-39 333.2 304 0 0 0 -0.60781 0.30778 -0.73201 0.0020604
0.19534 0.16253 0.8451 6.0849e-39 304 305 0 0 0 -0.60494 0.31044 -0.73326 0.0021896
0.19641 0.16312 0.84471 6.2232e-39 420.5 305 0 0 0 -0.60163 0.31243 -0.73514 0.0021183
0.19519 0.16433 0.84587 6.8225e-39 229 306 0 0 0 -0.60519 0.31195 -0.73242 0.0023455
0.19678 0.16477 0.84506 6.7303e-39 334.6 306 0 0 0 -0.59933 0.31523 -0.73582 0.0022532
0.19874 0.16597 0.84414 5.6239e-39 215 307 0 0 0 -0.59461 0.31694 -0.73891 0.0021763
0.19741 0.16657 0.84548 6.9147e-39 271.33 307 0 0 0 -0.59676 0.31705 -0.73712 0.0023643
0.19888 0.1674 0.84471 7.4678e-39 322 307.33 0 0 0 -0.59332 0.31803 -0.73948 0.0023325
0.19905 0.1687 0.84544 7.8136e-39 278.5 308 0 0 0 -0.59319 0.31987 -0.73879 0.0025128
0.20121 0.16943 0.84414 7.2835e-39 270.5 308.5 0 0 0 -0.59317 0.3197 -0.73888 0.0024084
0.19958 0.17021 0.84558 6.0849e-39 167.5 309 0 0 0 -0.59217 0.31813 -0.74035 0.0026373
0.20096 0.17087 0.84514 6.2232e-39 259.75 309 0 0 0 -0.59262 0.31933 -0.73948 0.0025715
0.20269 0.1719 0.84414 6.0849e-39 147 310 0 0 0 -0.5926 0.31984 -0.73927 0.002611
0.20155 0.17219 0.84558 5.7161e-39 145.5 310 0 0 0 -0.59297 0.31894 -0.73937 0.0026272
0.20292 0.17308 0.8451 5.5624e-39 269 310 0 0 0 -0.59179 0.31923 -0.74019 0.0026189
0.20481 0.17399 0.84471 9.8649e-39 448 310 0 0 0 -0.59101 0.32072 -0.74017 0.002667
0.20353 0.17417 0.84558 1.0556e-38 446.5 310 0 0 0 -0.59108 0.32126 -0.73988 0.002635
0.20516 0.17532 0.84515 7.5601e-39 295.75 311 0 0 0 -0.59059 0.32128 -0.74025 0.0027202
0.20688 0.17737 0.8451 8.0518e-39 314.67 312 0 0 0 -0.58996 0.32392 -0.73961 0.002581
0.20735 0.17881 0.84568 7.1913e-39 327 312.67 0 0 0 -0.58972 0.32532 -0.73919 0.0025713
0.20876 0.17992 0.84471 6.0849e-39 143 314 0 0 0 -0.59151 0.32367 -0.73848 0.0025397
0.20791 0.18005 0.84529 6.0849e-39 142 314 0 0 0 -0.59123 0.32471 -0.73825 0.0025422
0.20911 0.18125 0.84514 6.615e-39 254.5 314.25 0 0 0 -0.59478 0.32299 -0.73615 0.002603
0.20943 0.18304 0.84543 1.0441e-38 255.5 315.25 0 0 0 -0.59797 0.32168 -0.73413 0.0027407
0.21059 0.18375 0.84414 6.2693e-39 164 316 0 0 0 -0.60126 0.31877 -0.73272 0.0028151
0.20905 0.18413 0.84587 7.0069e-39 162 316 0 0 0 -0.59906 0.3224 -0.73293 0.0027349
0.2105 0.18528 0.8451 9.7419e-39 293.33 316.33 0 0 0 -0.60429 0.31844 -0.73036 0.00299
0.21068 0.18717 0.84529 8.1683e-39 246.8 317.4 0 0 0 -0.60772 0.31621 -0.72848 0.0030873
0.2113 0.18938 0.845 9.0584e-39 273.5 318.5 0 0 0 -0.61341 0.31037 -0.72622 0.0032475
0.21257 0.18968 0.84414 6.2693e-39 178 319 0 0 0 -0.61635 0.30853 -0.72452 0.0032975
0.21154 0.19125 0.84529 9.7113e-39 305 319.33 0 0 0 -0.61743 0.30689 -0.72429 0.0033168
0.21304 0.19145 0.84471 9.0659e-39 241 319.67 0 0 0 -0.62047 0.30338 -0.72317 0.0033498
0.213 0.19324 0.84506 9.6989e-39 285.8 320.4 0 0 0 -0.62027 0.30177 -0.72402 0.0033744
0.21314 0.19516 0.84564 1.0916e-38 242.4 321.4 0 0 0 -0.62279 0.29818 -0.72334 0.0033328
0.21492 0.19531 0.84433 1.0479e-38 230.67 321.67 0 0 0 -0.62628 0.29548 -0.72143 0.0032226
0.21399 0.19748 0.84587 1.0326e-38 218.5 322.5 0 0 0 -0.62494 0.29728 -0.72185 0.0032141
0.21526 0.19728 0.845 9.6345e-39 220 322.5 0 0 0 -0.62879 0.29391 -0.71989 0.0029362
0.21544 0.19943 0.84572 1.0487e-38 347.5 323 0 0 0 -0.62738 0.29729 -0.71973 0.0027962
0.21659 0.19912 0.84442 1.0234e-38 349 323 0 0 0 -0.62764 0.2971 -0.71958 0.0027129
0.27596 0.19969 0.84471 1.0971e-38 170 324 0 0 0 0.72401 0.38587 -0.57176 0.0022902
0.21716 0.20117 0.84471 1.0902e-38 309.5 324 0 0 0 -0.62686 0.30135 -0.7185 0.0025852
0.27497 0.20166 0.84471 7.0069e-39 450 324 0 0 0 0.72961 0.38121 -0.56776 0.0023557
0.21723 0.20322 0.845 1.2953e-38 227 325 0 0 0 -0.62432 0.3092 -0.71737 0.0024897
0.21747 0.2051 0.84529 9.0659e-39 330.67 325.33 0 0 0 -0.62152 0.31009 -0.71941 0.0025245
0.21857 0.20505 0.84442 1.0049e-38 293 325.5 0 0 0 -0.62047 0.3116 -0.71967 0.0025897
0.27182 0.20548 0.84414 1.0142e-38 230 326 0 0 0 0.7708 0.33782 -0.54013 0.0040134
0.2735 0.20513 0.84471 1.0649e-38 187.5 326 0 0 0 0.74938 0.3671 -0.55106 0.0032044
0.21795 0.20739 0.84587 1.1755e-38 317.5 326 0 0 0 -0.61813 0.31073 -0.72205 0.0026669
0.21871 0.20717 0.845 1.217e-38 318.5 326 0 0 0 -0.61803 0.31336 -0.72101 0.0026329
0.27102 0.20759 0.84471 5.9005e-39 432 326 0 0 0 0.80124 0.29809 -0.51881 0.0046796
0.21795 0.20887 0.84587 7.0069e-39 458 326 0 0 0 -0.61762 0.31197 -0.72196 0.0028376
0.21917 0.20911 0.84486 1.0003e-38 336.25 326.5 0 0 0 -0.61472 0.31617 -0.72261 0.0029087
0.27139 0.20887 0.84587 1.1801e-38 187 327 0 0 0 0.80524 0.29986 -0.51154 0.0044087
0.2194 0.21099 0.8451 1.0879e-38 327.67 327 0 0 0 -0.61251 0.31793 -0.72371 0.0031098
0.27022 0.21169 0.84529 6.7303e-39 454 327 0 0 0 0.81299 0.2864 -0.50697 0.0038983
0.21971 0.2131 0.845 1.1755e-38 187 328 0 0 0 -0.60961 0.32248 -0.72415 0.0034536
0.22146 0.21338 0.84414 1.3184e-38 225 328 0 0 0 -0.60806 0.32371 -0.72489 0.0033434
0.26941 0.21382 0.84587 1.4106e-38 272 328 0 0 0 0.81659 0.28963 -0.49929 0.0036144
0.22127 0.21516 0.84529 9.3118e-39 335.5 328 0 0 0 -0.60771 0.32729 -0.72358 0.0037707
0.22267 0.21508 0.845 9.4498e-39 337 328 0 0 0 -0.60724 0.32612 -0.7245 0.0036967
0.22092 0.21678 0.84587 6.4537e-39 441 328 0 0 0 -0.6077 0.33245 -0.72123 0.0041741
0.22346 0.21701 0.84548 7.8674e-39 353 328.33 0 0 0 -0.60659 0.32932 -0.7236 0.0039626
0.2249 0.21715 0.84471 8.9123e-39 264 328.67 0 0 0 -0.60458 0.32765 -0.72604 0.0040151
0.22538 0.21894 0.84529 1.3553e-38 243 329 0 0 0 -0.60295 0.3375 -0.72287 0.0043073
0.22683 0.21907 0.84452 1.1801e-38 261 329 0 0 0 -0.60447 0.3266 -0.7266 0.0041644
0.22587 0.22074 0.84587 6.8225e-39 342 329 0 0 0 -0.59928 0.34487 -0.72245 0.0046889
0.17266 0.094694 0.84703 7.6061e-39 475.5 267.5 0 0 0 0.51078 -0.48211 -0.71181 0.16417
0.21097 0.095256 0.84761 5.9005e-39 151 269 0 0 0 -0.013771 -0.9225 -0.38576 0.0044053
0.17372 0.096711 0.84732 6.3154e-39 303 269.5 0 0 0 0.43814 -0.47704 -0.76189 0.1785
0.17539 0.096887 0.84742 6.3308e-39 283 269.67 0 0 0 0.32749 -0.57822 -0.74727 0.17561
0.17713 0.097173 0.84703 7.1913e-39 241.5 270 0 0 0 0.22312 -0.65547 -0.72151 0.16912
0.1791 0.097173 0.84703 8.2515e-39 243.5 270 0 0 0 0.018662 -0.75758 -0.65247 0.14247
0.18109 0.097172 0.84703 8.9891e-39 245.5 270 0 0 0 -0.13209 -0.78616 -0.60375 0.10367
0.1827 0.097239 0.84761 8.6664e-39 247 270 0 0 0 -0.14116 -0.8071 -0.57329 0.085608
0.19163 0.097239 0.84761 8.8508e-39 256 270 0 0 0 -0.054661 -0.8811 -0.46977 0.015382
0.19262 0.097239 0.84761 8.943e-39 257 270 0 0 0 -0.049761 -0.88613 -0.46076 0.013446
0.19701 0.097206 0.84732 8.1132e-39 261.5 270 0 0 0 -0.027344 -0.9081 -0.41786 0.0047598
0.19886 0.09714 0.84674 8.4359e-39 263.5 270 0 0 0 -0.025627 -0.91208 -0.40921 0.0038775
0.20028 0.097106 0.84645 8.8508e-39 265 270 0 0 0 -0.024673 -0.91499 -0.40273 0.0035224
0.20303 0.096248 0.84761 7.56e-39 418.5 269 0 0 0 -0.025761 -0.91884 -0.3938 0.0036285
0.20502 0.096248 0.84761 7.9288e-39 420.5 269 0 0 0 -0.025312 -0.91728 -0.39743 0.0036734
0.20699 0.096248 0.84761 7.2374e-39 422.5 269 0 0 0 -0.022114 -0.91749 -0.39715 0.0036672
0.21266 0.096116 0.84645 5.9927e-39 428.5 269 0 0 0 -0.014525 -0.92123 -0.38875 0.0045566
0.21478 0.096182 0.84703 6.5459e-39 430.5 269 0 0 0 -0.0078303 -0.92558 -0.37847 0.0048282
0.21669 0.096149 0.84674 6.2232e-39 432.5 269 0 0 0 -0.001683 -0.92596 -0.37761 0.0049341
0.21882 0.096215 0.84732 5.9927e-39 434.5 269 0 0 0 0.0090592 -0.9288 -0.37047 0.0047524
0.22065 0.09714 0.84674 6.0849e-39 359.5 270 0 0 0 0.016157 -0.92753 -0.3734 0.0044294
0.22271 0.097172 0.84703 5.7622e-39 361.5 270 0 0 0 0.025988 -0.9301 -0.3664 0.0036912
0.22675 0.097206 0.84732 5.4395e-39 365.5 270 0 0 0 0.036343 -0.93316 -0.35763 0.0026543
0.22832 0.097239 0.84761 5.5317e-39 367 270 0 0 0 0.034707 -0.93433 -0.35471 0.0023894
0.24303 0.097173 0.84703 7.9288e-39 391 270 0 0 0 -0.029839 -0.92865 -0.36976 0.0027162
0.24501 0.097173 0.84703 7.8673e-39 393 270 0 0 0 -0.028403 -0.92557 -0.37751 0.0027746
0.24749 0.096677 0.84703 6.6381e-39 445.5 269.5 0 0 0 -0.024534 -0.92255 -0.38509 0.0029135
0.2488 0.097106 0.84645 7.3757e-39 397 270 0 0 0 -0.019434 -0.92183 -0.38712 0.002925
0.25095 0.096842 0.84703 7.3142e-39 438 269.67 0 0 0 -0.013205 -0.91829 -0.39569 0.0030105
0.25293 0.096677 0.84703 7.9519e-39 459.5 269.5 0 0 0 -0.0014246 -0.91704 -0.39878 0.0032712
0.25442 0.096677 0.84703 8.5281e-39 461 269.5 0 0 0 0.0085076 -0.91649 -0.39998 0.0034197
0.25658 0.097239 0.84761 7.7444e-39 404.5 270 0 0 0 0.023538 -0.91485 -0.4031 0.0032722
0.25807 0.097239 0.84761 7.6522e-39 406 270 0 0 0 0.035671 -0.91386 -0.40447 0.0030424
0.26104 0.097239 0.84761 8.021e-39 412 270 0 0 0 0.05365 -0.91157 -0.40763 0.0023354
0.17354 0.098096 0.84645 6.3615e-39 516 270 0 0 0 0.40135 -0.37878 -0.83393 0.20063
0.17453 0.098096 0.84645 6.5459e-39 517 270 0 0 0 0.35965 -0.43946 -0.82312 0.19756
0.18889 0.098096 0.84645 6.4998e-39 168.5 271 0 0 0 -0.11408 -0.83287 -0.54158 0.038211
0.1905 0.098164 0.84703 6.5459e-39 170 271 0 0 0 -0.092935 -0.85687 -0.50708 0.026098
0.19285 0.098096 0.84645 6.5459e-39 172.5 271 0 0 0 -0.07147 -0.87042 -0.48709 0.018824
0.19482 0.098096 0.84645 6.0849e-39 174.5 271 0 0 0 -0.054069 -0.88567 -0.46117 0.012308
0.19631 0.098096 0.84645 5.4395e-39 176 271 0 0 0 -0.047067 -0.89501 -0.44356 0.0087892
0.22915 0.098164 0.84703 6.9147e-39 231 271 0 0 0 0.02921 -0.93488 -0.35377 0.0024396
0.23079 0.098231 0.84761 6.7764e-39 232.5 271 0 0 0 0.024534 -0.93677 -0.34908 0.0022544
0.23262 0.098164 0.84703 6.4076e-39 234.5 271 0 0 0 0.017018 -0.93798 -0.34628 0.0022372
0.23505 0.098802 0.84684 7.0684e-39 386.33 271 0 0 0 0.0057953 -0.93915 -0.34347 0.0022712
0.23666 0.098198 0.84732 6.9147e-39 238.5 271 0 0 0 -0.0043017 -0.93775 -0.34728 0.0024128
0.23902 0.098642 0.84688 7.2604e-39 358.75 271 0 0 0 -0.013945 -0.93618 -0.35123 0.0025558
0.24088 0.099087 0.84645 8.1132e-39 490 271 0 0 0 -0.019423 -0.93405 -0.35663 0.0027447
0.25573 0.098096 0.84645 8.2054e-39 258 271 0 0 0 0.021721 -0.91626 -0.39999 0.003287
0.25672 0.098096 0.84645 7.8366e-39 259 271 0 0 0 0.028567 -0.91576 -0.4007 0.0031189
0.25919 0.098096 0.84645 7.9288e-39 261.5 271 0 0 0 0.044555 -0.91435 -0.40246 0.002698
0.26167 0.098096 0.84645 8.7586e-39 264 271 0 0 0 0.058979 -0.91202 -0.40589 0.0019814
0.26326 0.09813 0.84674 8.8508e-39 265.5 271 0 0 0 0.065633 -0.91114 -0.40684 0.0017541
0.26533 0.098164 0.84703 8.3437e-39 267.5 271 0 0 0 0.07243 -0.90966 -0.40898 0.0016381
0.26749 0.098231 0.84761 8.0671e-39 269.5 271 0 0 0 0.07801 -0.90768 -0.41236 0.001548
0.26947 0.098231 0.84761 6.7303e-39 271.5 271 0 0 0 0.082471 -0.90646 -0.41416 0.0016
0.27127 0.098659 0.84703 6.0388e-39 224 271.5 0 0 0 0.085841 -0.90672 -0.4129 0.0015905
0.27325 0.099155 0.84703 5.5778e-39 176.5 272 0 0 0 0.086175 -0.90606 -0.41429 0.001581
0.27523 0.099155 0.84703 5.2551e-39 178.5 272 0 0 0 0.083494 -0.9055 -0.41605 0.0015893
0.27722 0.099155 0.84703 5.2091e-39 180.5 272 0 0 0 0.083136 -0.90412 -0.41912 0.0015549
0.2792 0.099155 0.84703 5.9005e-39 182.5 272 0 0 0 0.07502 -0.9031 -0.42282 0.0015716
0.28118 0.099155 0.84703 6.5459e-39 184.5 272 0 0 0 0.066628 -0.90233 -0.42586 0.0016846
0.28326 0.099189 0.84732 6.2232e-39 186.5 272 0 0 0 0.057475 -0.8994 -0.43334 0.0018844
0.28534 0.099223 0.84761 5.7161e-39 188.5 272 0 0 0 0.041593 -0.89602 -0.44207 0.002721
0.28683 0.099223 0.84761 5.9005e-39 190 272 0 0 0 0.043613 -0.88983 -0.45421 0.0048622
0.30298 0.099155 0.84703 6.6381e-39 226.5 272 0 0 0 0.21445 -0.75359 -0.62138 0.058828
0.28544 0.10008 0.84645 6.3615e-39 429 272 0 0 0 0.057696 -0.89601 -0.44028 0.0042092
0.28693 0.10008 0.84645 6.7764e-39 430.5 272 0 0 0 0.069988 -0.88574 -0.45888 0.0091611
0.2891 0.10015 0.84703 6.3615e-39 432.5 272 0 0 0 0.082212 -0.8716 -0.48327 0.015328
0.29132 0.1005 0.84722 6.0542e-39 381 272.33 0 0 0 0.12234 -0.85364 -0.50629 0.026955
0.29312 0.10066 0.84717 5.9466e-39 356 272.5 0 0 0 0.14676 -0.83684 -0.5274 0.035775
0.29505 0.10114 0.84703 5.9466e-39 277.5 273 0 0 0 0.19855 -0.80703 -0.55613 0.050109
0.29694 0.1005 0.84722 6.423e-39 386.67 272.33 0 0 0 0.2205 -0.78302 -0.5816 0.057455
0.29891 0.10012 0.84674 5.9466e-39 442.5 272 0 0 0 0.22905 -0.77174 -0.59325 0.058908
0.3003 0.10008 0.84645 6.0849e-39 444 272 0 0 0 0.2384 -0.75432 -0.61169 0.064536
0.16771 0.10312 0.84703 6.0849e-39 183 274 0 0 0 0.50259 0.010138 -0.86447 0.16186
0.16914 0.10259 0.84674 5.9927e-39 274.5 273.5 0 0 0 0.48212 -0.038443 -0.87526 0.17795
0.16783 0.10418 0.84761 6.5459e-39 417 274 0 0 0 0.43093 0.016517 -0.90224 0.16007
0.16948 0.10451 0.84761 7.1298e-39 361.67 274.33 0 0 0 0.28465 -0.033624 -0.95804 0.17167
0.17057 0.10453 0.84645 7.2835e-39 334.5 274.5 0 0 0 0.15471 -0.03147 -0.98746 0.17653
0.16981 0.10616 0.84761 8.2976e-39 465 275 0 0 0 -0.1999 -0.021215 -0.97959 0.1491
