# .PCD v.7 - Point Cloud Data file format
VERSION .7
FIELDS x y z rgb u v vx vy vz normal_x normal_y normal_z curvature
SIZE 4 4 4 4 4 4 4 4 4 4 4 4 4
TYPE F F F F F F F F F F F F F
COUNT 1 1 1 1 1 1 1 1 1 1 1 1 1
WIDTH 555
HEIGHT 1
VIEWPOINT 0 0 0 1 0 0 0
POINTS 555
DATA ascii
-0.2087 0.021265 1.2072 6.1771e-39 260 278 0 0 0 0.20479 0.30947 -0.92859 0.033389
-0.20587 0.021265 1.2072 6.4537e-39 262 278 0 0 0 0.32186 0.29455 -0.8998 0.028066
-0.21929 0.022678 1.2072 6.1771e-39 426.5 278 0 0 0 -0.24446 0.33085 -0.91147 0.031374
-0.21717 0.022678 1.2072 5.8083e-39 428 278 0 0 0 -0.15202 0.32731 -0.93261 0.033999
-0.21011 0.022678 1.2072 5.9005e-39 434 278 0 0 0 0.12832 0.30465 -0.94378 0.034208
-0.2087 0.022678 1.2072 5.6239e-39 435 278 0 0 0 0.19461 0.30441 -0.93245 0.032894
-0.20587 0.022678 1.2072 5.7161e-39 437 278 0 0 0 0.31623 0.29731 -0.90089 0.029158
-0.21717 0.024796 1.2072 6.7303e-39 300 279 0 0 0 -0.16388 0.32233 -0.93234 0.033857
-0.21505 0.025502 1.2072 8.2515e-39 396.5 279 0 0 0 -0.076362 0.31252 -0.94684 0.036082
-0.21294 0.025502 1.2072 8.7586e-39 398 279 0 0 0 0.016495 0.30365 -0.95264 0.035001
-0.21011 0.024796 1.2072 7.6522e-39 305 279 0 0 0 0.13318 0.30465 -0.94311 0.034372
-0.20729 0.024796 1.2072 7.4218e-39 307 279 0 0 0 0.25733 0.30375 -0.91734 0.031405
-0.20587 0.024796 1.2072 7.2835e-39 308 279 0 0 0 0.29883 0.29884 -0.90631 0.029692
-0.21505 0.026915 1.2072 5.67e-39 167.5 280 0 0 0 -0.085403 0.31344 -0.94576 0.035119
-0.21294 0.026915 1.2072 6.1771e-39 169 280 0 0 0 0.015675 0.30723 -0.95151 0.035314
-0.21011 0.026915 1.2072 6.4537e-39 171 280 0 0 0 0.14031 0.30753 -0.94114 0.035478
-0.21482 0.028798 1.2072 5.9927e-39 392.67 280 0 0 0 -0.081336 0.31523 -0.94552 0.03685
-0.21294 0.029034 1.2072 5.9927e-39 410 280 0 0 0 0.016446 0.30635 -0.95178 0.037428
-0.21011 0.028327 1.2072 5.7161e-39 364 280 0 0 0 0.14041 0.31094 -0.94 0.036731
-0.21152 0.031152 1.2072 6.4537e-39 238 281 0 0 0 0.081724 0.31912 -0.94418 0.038581
-0.21152 0.033271 1.2072 6.2693e-39 305.5 281.5 0 0 0 0.081785 0.32586 -0.94187 0.041362
-0.21152 0.035389 1.2072 6.5459e-39 379 282 0 0 0 0.085547 0.33097 -0.93976 0.043633
-0.2268 -0.048035 1.2096 6.9608e-39 417.5 256 0 0 0 -0.20284 -0.80552 -0.55677 0.013396
-0.21901 -0.04945 1.2096 6.6381e-39 218 256 0 0 0 -0.086376 -0.87577 -0.47494 0.0061318
-0.21689 -0.04945 1.2096 6.7764e-39 219.5 256 0 0 0 -0.059216 -0.88605 -0.4598 0.0054785
-0.20062 -0.048035 1.2096 7.1913e-39 449 256 0 0 0 0.17839 -0.84023 -0.51205 0.027074
-0.1992 -0.048035 1.2096 7.1913e-39 450 256 0 0 0 0.20009 -0.82156 -0.53385 0.033143
-0.19708 -0.048035 1.2096 6.2232e-39 451.5 256 0 0 0 0.2249 -0.80134 -0.55432 0.037825
-0.19496 -0.048035 1.2096 5.5317e-39 453 256 0 0 0 0.25216 -0.77591 -0.57826 0.044396
-0.19284 -0.048035 1.2096 5.7622e-39 456 256 0 0 0 0.30554 -0.73211 -0.60882 0.049364
-0.19071 -0.048035 1.2096 6.3615e-39 459 256 0 0 0 0.35365 -0.69335 -0.62785 0.055906
-0.1893 -0.048035 1.2096 6.5459e-39 460 256 0 0 0 0.37876 -0.65588 -0.65296 0.05917
-0.18788 -0.048035 1.2096 6.3615e-39 461 256 0 0 0 0.41257 -0.629 -0.65889 0.059727
-0.23104 -0.04662 1.2096 5.7622e-39 229.5 257 0 0 0 -0.28622 -0.73264 -0.61752 0.023344
-0.22892 -0.04662 1.2096 6.2693e-39 231 257 0 0 0 -0.25825 -0.75816 -0.59874 0.020298
-0.22445 -0.047988 1.2084 7.56e-39 419 256 0 0 0 -0.1809 -0.82508 -0.53527 0.012524
-0.22304 -0.047988 1.2084 7.56e-39 420 256 0 0 0 -0.16994 -0.83229 -0.52765 0.01256
-0.20678 -0.047988 1.2084 8.2054e-39 431.5 256 0 0 0 0.083081 -0.88612 -0.45595 0.0088013
-0.20466 -0.047988 1.2084 7.9288e-39 433 256 0 0 0 0.12662 -0.86364 -0.48794 0.017724
-0.20183 -0.047988 1.2084 6.9147e-39 448 256 0 0 0 0.17153 -0.84159 -0.51216 0.026787
-0.18911 -0.046574 1.2084 5.9005e-39 362 257 0 0 0 0.4315 -0.59413 -0.67884 0.06499
-0.18708 -0.046597 1.209 5.5778e-39 363.5 257 0 0 0 0.48135 -0.53627 -0.69334 0.063726
-0.18363 -0.04662 1.2096 6.6381e-39 366 257 0 0 0 0.5244 -0.47914 -0.70387 0.064045
-0.24095 -0.045205 1.2096 7.9749e-39 427.5 257 0 0 0 -0.4549 -0.54982 -0.70054 0.03789
-0.23883 -0.045205 1.2096 8.2054e-39 429 257 0 0 0 -0.4173 -0.5912 -0.69017 0.034817
-0.23741 -0.045205 1.2096 8.3898e-39 430 257 0 0 0 -0.39918 -0.61577 -0.67933 0.034142
-0.23517 -0.045183 1.209 8.1132e-39 437 257 0 0 0 -0.37686 -0.63633 -0.6731 0.032406
-0.18628 -0.04516 1.2084 3.6878e-39 534 257 0 0 0 0.53974 -0.44494 -0.71464 0.065814
-0.18505 -0.045205 1.2096 3.5956e-39 535 257 0 0 0 0.54213 -0.43799 -0.71712 0.065475
-0.18283 -0.045183 1.209 3.5956e-39 139.5 258 0 0 0 0.58808 -0.36759 -0.72044 0.060426
-0.1808 -0.045205 1.2096 2.9503e-39 141 258 0 0 0 0.60803 -0.33792 -0.71841 0.057728
-0.24449 -0.043081 1.2096 6.0849e-39 339.5 258 0 0 0 -0.54908 -0.42772 -0.71803 0.041866
-0.24307 -0.043081 1.2096 6.2232e-39 340.5 258 0 0 0 -0.52535 -0.46001 -0.71582 0.041174
-0.24142 -0.043747 1.2084 6.2693e-39 233 258 0 0 0 -0.48819 -0.49402 -0.71945 0.039496
-0.18487 -0.043747 1.2084 6.0849e-39 374 258 0 0 0 0.59226 -0.34084 -0.7301 0.064575
-0.18251 -0.043276 1.2084 8.6663e-39 320.67 258.33 0 0 0 0.62928 -0.26119 -0.73197 0.056955
-0.1808 -0.043081 1.2096 8.7584e-39 289.5 258.5 0 0 0 0.64779 -0.22185 -0.7288 0.052866
-0.24449 -0.040959 1.2096 5.7161e-39 237 259 0 0 0 -0.58738 -0.35419 -0.72769 0.041158
-0.24283 -0.040919 1.2084 6.3615e-39 238 259 0 0 0 -0.56465 -0.35255 -0.74624 0.039687
-0.18222 -0.040959 1.2096 6.5459e-39 392 259 0 0 0 0.65981 -0.18238 -0.72896 0.05307
-0.1808 -0.040959 1.2096 6.5459e-39 393 259 0 0 0 0.66747 -0.16285 -0.72661 0.049528
-0.24449 -0.038837 1.2096 5.5779e-39 345.5 259.5 0 0 0 -0.60951 -0.27227 -0.74456 0.038202
-0.24283 -0.038798 1.2084 5.6701e-39 346.5 259.5 0 0 0 -0.5926 -0.28529 -0.75328 0.037701
-0.18222 -0.038837 1.2096 6.5459e-39 280.5 260 0 0 0 0.68388 -0.088688 -0.72419 0.044623
-0.1808 -0.038837 1.2096 6.1771e-39 281.5 260 0 0 0 0.68994 -0.060405 -0.72134 0.038102
-0.24449 -0.036714 1.2096 5.6239e-39 446 260 0 0 0 -0.64425 -0.19613 -0.73924 0.033589
-0.24283 -0.036678 1.2084 5.3473e-39 447 260 0 0 0 -0.61028 -0.2099 -0.76387 0.033674
-0.18222 -0.036714 1.2096 3.0425e-39 153 261 0 0 0 0.6982 -0.016223 -0.71571 0.035046
-0.1808 -0.036714 1.2096 3.1347e-39 154 261 0 0 0 0.69955 -0.0033595 -0.71457 0.031664
-0.24449 -0.035299 1.2096 5.7161e-39 229 261 0 0 0 -0.65574 -0.13115 -0.74351 0.027801
-0.24283 -0.035264 1.2084 5.7161e-39 230 261 0 0 0 -0.63413 -0.13966 -0.76051 0.028634
-0.18487 -0.035264 1.2084 5.9927e-39 361 261 0 0 0 0.69423 -0.011858 -0.71966 0.035071
-0.18283 -0.035282 1.209 5.7161e-39 362.5 261 0 0 0 0.70308 0.010256 -0.71104 0.030479
-0.24449 -0.033175 1.2096 7.2835e-39 320.5 261.5 0 0 0 -0.67005 -0.071177 -0.7389 0.022801
-0.24283 -0.033143 1.2084 7.2835e-39 321.5 261.5 0 0 0 -0.65134 -0.079873 -0.75457 0.023543
-0.18487 -0.033143 1.2084 5.0246e-39 202.5 262 0 0 0 0.7012 0.069765 -0.70954 0.022861
-0.18283 -0.03316 1.209 5.4396e-39 204 262 0 0 0 0.70825 0.086338 -0.70066 0.020146
-0.24283 -0.031023 1.2084 8.2054e-39 415 262 0 0 0 -0.66726 -0.0175 -0.74462 0.017421
-0.18628 -0.031023 1.2084 6.4537e-39 460 262 0 0 0 0.70034 0.10104 -0.70662 0.01882
-0.18487 -0.031023 1.2084 6.4537e-39 461 262 0 0 0 0.70868 0.10169 -0.69816 0.018729
-0.18345 -0.031023 1.2084 6.0849e-39 462 262 0 0 0 0.71249 0.11227 -0.69264 0.01632
-0.24283 -0.028902 1.2084 7.3757e-39 298 263 0 0 0 -0.67722 0.043676 -0.73449 0.011991
-0.18628 -0.028902 1.2084 5.9927e-39 339.5 263 0 0 0 0.70738 0.14182 -0.69246 0.012973
-0.18496 -0.028916 1.209 6.2693e-39 340.5 263 0 0 0 0.71367 0.15103 -0.684 0.011565
-0.18354 -0.028916 1.209 6.4998e-39 341.5 263 0 0 0 0.71779 0.15621 -0.67851 0.010696
-0.24283 -0.026782 1.2084 3.6878e-39 159 264 0 0 0 -0.68267 0.093297 -0.72475 0.0077959
-0.18628 -0.026782 1.2084 6.6381e-39 211 264 0 0 0 0.71166 0.17375 -0.6807 0.0090642
-0.18505 -0.026808 1.2096 7.0069e-39 212 264 0 0 0 0.71881 0.18044 -0.67138 0.0086751
-0.24307 -0.025393 1.2096 5.7161e-39 354 264 0 0 0 -0.69114 0.12567 -0.71171 0.0056841
-0.18628 -0.025368 1.2084 7.8366e-39 411 264 0 0 0 0.71267 0.18334 -0.67711 0.0083532
-0.18505 -0.025393 1.2096 8.3898e-39 412 264 0 0 0 0.72096 0.18822 -0.66692 0.0080641
-0.24307 -0.02327 1.2096 5.9005e-39 348.5 264.5 0 0 0 -0.69425 0.15721 -0.70235 0.0049303
-0.18637 -0.023258 1.209 5.8083e-39 269.5 265 0 0 0 0.71651 0.19648 -0.66933 0.0083058
-0.24307 -0.021147 1.2096 7.56e-39 432 265 0 0 0 -0.69658 0.17452 -0.69593 0.0047653
-0.18708 -0.021137 1.209 3.6418e-39 533.5 265 0 0 0 0.71695 0.19627 -0.66893 0.008257
-0.24142 -0.019006 1.2084 6.9608e-39 296 266 0 0 0 -0.68794 0.18699 -0.70126 0.0047127
-0.18712 -0.01902 1.2093 7.2835e-39 334.5 266 0 0 0 0.71926 0.19575 -0.6666 0.0084268
-0.24166 -0.016902 1.2096 3.1347e-39 159 267 0 0 0 -0.69669 0.20107 -0.68861 0.0047714
-0.18911 -0.016885 1.2084 7.4678e-39 196 267 0 0 0 0.70674 0.19643 -0.67966 0.0084834
-0.18717 -0.016902 1.2096 7.2835e-39 197.5 267 0 0 0 0.72055 0.19809 -0.66451 0.0084749
-0.24001 -0.014765 1.2084 5.8083e-39 351.5 267 0 0 0 -0.69048 0.19993 -0.69518 0.0048707
-0.23859 -0.014765 1.2084 6.0849e-39 352.5 267 0 0 0 -0.68977 0.20037 -0.69576 0.0048645
-0.19052 -0.014765 1.2084 6.0389e-39 264 267.5 0 0 0 0.70139 0.20022 -0.68408 0.0083007
-0.18911 -0.014765 1.2084 5.67e-39 265 267.5 0 0 0 0.70613 0.19891 -0.67957 0.008524
-0.18788 -0.015487 1.2096 6.2693e-39 375 267 0 0 0 0.71892 0.19722 -0.66652 0.0085347
-0.24024 -0.012656 1.2096 6.2693e-39 217 268 0 0 0 -0.7005 0.20892 -0.68239 0.0051197
-0.23859 -0.012644 1.2084 6.1771e-39 218 268 0 0 0 -0.69207 0.20223 -0.69292 0.0049969
-0.23718 -0.012644 1.2084 5.9927e-39 219 268 0 0 0 -0.68726 0.19945 -0.6985 0.0048479
-0.19052 -0.012644 1.2084 6.2693e-39 253 268 0 0 0 0.69997 0.2045 -0.68427 0.0080873
-0.18911 -0.012644 1.2084 6.2693e-39 254 268 0 0 0 0.70527 0.20494 -0.67867 0.0085289
-0.23883 -0.011241 1.2096 7.6522e-39 406 268 0 0 0 -0.7016 0.20677 -0.68191 0.0051525
-0.23718 -0.01123 1.2084 7.3757e-39 407 268 0 0 0 -0.68935 0.19919 -0.69651 0.0050554
-0.19052 -0.01123 1.2084 6.4537e-39 440 268 0 0 0 0.69911 0.20696 -0.68441 0.0080719
-0.18911 -0.01123 1.2084 6.1771e-39 441 268 0 0 0 0.70634 0.20379 -0.6779 0.0084592
-0.23883 -0.0098261 1.2096 5.8083e-39 176 269 0 0 0 -0.70438 0.20758 -0.67879 0.0052328
-0.2373 -0.0091137 1.209 6.0849e-39 268.5 269 0 0 0 -0.69549 0.20293 -0.68929 0.0050714
-0.19052 -0.0091096 1.2084 7.8366e-39 308 269 0 0 0 0.69821 0.2143 -0.68306 0.0079245
-0.18911 -0.0091096 1.2084 7.6061e-39 309 269 0 0 0 0.70653 0.21241 -0.67506 0.0081719
-0.23741 -0.0069958 1.2096 5.5317e-39 531 269 0 0 0 -0.70472 0.20981 -0.67775 0.0050153
-0.19052 -0.0069889 1.2084 6.5459e-39 175 270 0 0 0 0.69623 0.22105 -0.68294 0.0076876
-0.18911 -0.0069889 1.2084 6.4537e-39 176 270 0 0 0 0.70377 0.22104 -0.67517 0.0078015
-0.23576 -0.0041614 1.2084 5.4395e-39 434 270 0 0 0 -0.68748 0.21831 -0.69261 0.0052263
-0.19335 -0.0041614 1.2084 6.6381e-39 465 270 0 0 0 0.68461 0.22304 -0.69395 0.0067278
-0.19132 -0.0048707 1.209 5.9696e-39 446.5 270 0 0 0 0.69758 0.22465 -0.68038 0.0075216
-0.1893 -0.004873 1.2096 5.6239e-39 448 270 0 0 0 0.71073 0.22341 -0.66704 0.0077165
-0.23505 -0.0027477 1.2084 6.4537e-39 204.5 271 0 0 0 -0.68347 0.22346 -0.69493 0.0056549
-0.19274 -0.0027491 1.209 6.2232e-39 241.5 271 0 0 0 0.68858 0.22548 -0.68921 0.0069169
-0.19071 -0.0027504 1.2096 6.0849e-39 243 271 0 0 0 0.70158 0.22403 -0.67646 0.0073958
-0.23517 -0.0013346 1.209 8.3898e-39 391.5 271 0 0 0 -0.68417 0.23095 -0.69179 0.0058124
-0.19476 -0.0013339 1.2084 7.2835e-39 420 271 0 0 0 0.67275 0.23237 -0.70244 0.0073191
-0.19274 -0.0013346 1.209 7.1452e-39 421.5 271 0 0 0 0.68755 0.22497 -0.69041 0.0072561
-0.2349 0.00055112 1.2088 5.6239e-39 197 272 0 0 0 -0.67897 0.2401 -0.69379 0.0061459
-0.19476 0.00078672 1.2084 7.1913e-39 282.5 272 0 0 0 0.6684 0.23698 -0.70504 0.0074929
-0.19307 0.00055164 1.2096 7.3142e-39 253.33 272 0 0 0 0.68398 0.22938 -0.6925 0.0075258
-0.23435 0.0029074 1.2084 5.9927e-39 443 272 0 0 0 -0.66548 0.26008 -0.69964 0.007333
-0.19476 0.0029074 1.2084 3.78e-39 537 272 0 0 0 0.66262 0.24383 -0.70816 0.0081319
-0.19354 0.0029102 1.2096 2.4893e-39 538 272 0 0 0 0.67427 0.2376 -0.69922 0.0078507
-0.23447 0.0050308 1.209 7.1913e-39 312 273 0 0 0 -0.66246 0.27943 -0.69503 0.0074385
-0.23294 0.0057349 1.2084 8.7586e-39 403 273 0 0 0 -0.63844 0.28872 -0.71347 0.0087395
-0.19665 0.0052636 1.2084 5.9312e-39 370.33 273 0 0 0 0.63286 0.25749 -0.7302 0.0090172
-0.19496 0.0050329 1.2096 6.131e-39 342.5 273 0 0 0 0.6595 0.24501 -0.71065 0.0083717
-0.19354 0.0043253 1.2096 6.4537e-39 256 273 0 0 0 0.66952 0.23996 -0.70297 0.0078366
-0.23294 0.0071486 1.2084 6.5459e-39 175 274 0 0 0 -0.63098 0.30033 -0.71531 0.0092451
-0.19688 0.0071486 1.2084 6.2693e-39 200.5 274 0 0 0 0.62052 0.25818 -0.74047 0.0098829
-0.23316 0.0085708 1.2096 5.9005e-39 360 274 0 0 0 -0.63809 0.31204 -0.7039 0.0089498
-0.19901 0.0092693 1.2084 6.9607e-39 270.5 274.5 0 0 0 0.57491 0.2731 -0.77129 0.012944
-0.19703 0.0092762 1.2093 6.9377e-39 272 274.5 0 0 0 0.61595 0.25703 -0.74468 0.010004
-0.23081 0.01139 1.2084 5.9005e-39 233.5 275 0 0 0 -0.58551 0.34175 -0.73511 0.010571
-0.19901 0.01139 1.2084 5.5317e-39 268 275 0 0 0 0.56706 0.2719 -0.7775 0.013075
-0.19708 0.011401 1.2096 6.131e-39 269.5 275 0 0 0 0.60577 0.25901 -0.7523 0.0099562
-0.23093 0.01281 1.209 6.2232e-39 419.5 275 0 0 0 -0.59 0.34561 -0.72969 0.010045
-0.20042 0.012804 1.2084 5.9005e-39 443 275 0 0 0 0.53164 0.27722 -0.80032 0.016623
-0.19901 0.012804 1.2084 6.1771e-39 444 275 0 0 0 0.56372 0.27136 -0.78012 0.013523
-0.19708 0.012816 1.2096 6.4998e-39 445.5 275 0 0 0 0.60014 0.25599 -0.75783 0.010085
-0.23033 0.014231 1.2096 6.3615e-39 196 276 0 0 0 -0.58578 0.35239 -0.72986 0.0097046
-0.2287 0.015631 1.2084 8.5742e-39 388 276 0 0 0 -0.52975 0.36487 -0.76566 0.014306
-0.22728 0.015631 1.2084 8.6664e-39 389 276 0 0 0 -0.50287 0.36129 -0.78523 0.016067
-0.20089 0.01516 1.2084 7.4064e-39 344 276 0 0 0 0.51837 0.27899 -0.80837 0.016185
-0.19901 0.014924 1.2084 6.8224e-39 314.5 276 0 0 0 0.55582 0.26925 -0.78649 0.0131
-0.19708 0.014938 1.2096 6.9838e-39 316 276 0 0 0 0.5924 0.25865 -0.763 0.009784
-0.22892 0.017062 1.2096 6.1771e-39 166 277 0 0 0 -0.55366 0.3609 -0.75048 0.011634
-0.22728 0.017045 1.2084 5.9005e-39 167 277 0 0 0 -0.49915 0.36505 -0.78587 0.016091
-0.22587 0.017045 1.2084 5.7161e-39 168 277 0 0 0 -0.46386 0.36355 -0.80788 0.0177
-0.20122 0.017053 1.209 7.2835e-39 185.5 277 0 0 0 0.50983 0.27555 -0.81495 0.016484
-0.1992 0.017062 1.2096 6.9147e-39 187 277 0 0 0 0.55576 0.26496 -0.78799 0.012655
-0.19779 0.017062 1.2096 7.1913e-39 188 277 0 0 0 0.57542 0.25941 -0.77563 0.011267
-0.2268 0.018477 1.2096 6.0388e-39 358.5 277 0 0 0 -0.50592 0.35725 -0.78512 0.015975
-0.22456 0.019175 1.209 5.7622e-39 407.5 277 0 0 0 -0.43246 0.35968 -0.82681 0.020237
-0.22304 0.019872 1.2084 5.3473e-39 456 277 0 0 0 -0.38831 0.34824 -0.8532 0.023758
-0.22163 0.019872 1.2084 5.6239e-39 457 277 0 0 0 -0.34351 0.34221 -0.87458 0.026459
-0.20244 0.019414 1.2092 6.6688e-39 482.33 277 0 0 0 0.45981 0.27848 -0.84322 0.021944
-0.20062 0.018477 1.2096 8.2054e-39 377 277 0 0 0 0.51968 0.26887 -0.81095 0.016138
-0.22467 0.021307 1.2096 6.3615e-39 239 278 0 0 0 -0.4487 0.34887 -0.82278 0.020567
-0.22304 0.021286 1.2084 6.1771e-39 240 278 0 0 0 -0.39182 0.34308 -0.85368 0.023031
-0.22163 0.021286 1.2084 5.8083e-39 241 278 0 0 0 -0.34257 0.34455 -0.87403 0.028081
-0.20466 0.021286 1.2084 6.5459e-39 263 278 0 0 0 0.37327 0.29435 -0.87979 0.026816
-0.20264 0.021297 1.209 6.0388e-39 264.5 278 0 0 0 0.45102 0.28265 -0.84658 0.022334
-0.22326 0.022722 1.2096 5.8083e-39 424 278 0 0 0 -0.4217 0.33903 -0.84097 0.022881
-0.22184 0.022722 1.2096 6.3615e-39 425 278 0 0 0 -0.35656 0.33609 -0.87173 0.027853
-0.20466 0.0227 1.2084 5.8083e-39 438 278 0 0 0 0.37371 0.29299 -0.88006 0.026557
-0.20264 0.022711 1.209 5.9927e-39 439.5 278 0 0 0 0.45013 0.28539 -0.84613 0.022474
-0.22083 0.024601 1.2092 6.7303e-39 265.33 279 0 0 0 -0.32742 0.33074 -0.8851 0.0274
-0.2188 0.02482 1.2084 6.7764e-39 299 279 0 0 0 -0.23235 0.32876 -0.91539 0.031955
-0.2089 0.02482 1.2084 7.5601e-39 306 279 0 0 0 0.19339 0.30495 -0.93253 0.034444
-0.20466 0.02482 1.2084 7.2374e-39 309 279 0 0 0 0.37119 0.30064 -0.87854 0.027005
-0.20335 0.024833 1.209 6.9608e-39 310 279 0 0 0 0.4176 0.29586 -0.85911 0.02417
-0.22043 0.026968 1.2096 5.9927e-39 164 280 0 0 0 -0.32521 0.32522 -0.88796 0.029301
-0.2188 0.026941 1.2084 5.9005e-39 165 280 0 0 0 -0.23683 0.32545 -0.91542 0.031898
-0.21738 0.026941 1.2084 5.6239e-39 166 280 0 0 0 -0.19071 0.32281 -0.92705 0.036022
-0.2089 0.026941 1.2084 6.0849e-39 172 280 0 0 0 0.20131 0.31511 -0.92746 0.035356
-0.20678 0.026941 1.2084 6.6842e-39 173.5 280 0 0 0 0.27686 0.31371 -0.90826 0.032442
-0.20486 0.026968 1.2096 6.7303e-39 175 280 0 0 0 0.36723 0.30811 -0.87762 0.028177
-0.20345 0.026968 1.2096 6.9147e-39 176 280 0 0 0 0.41861 0.30688 -0.85475 0.025408
-0.22043 0.028383 1.2096 5.8083e-39 357 280 0 0 0 -0.31737 0.32843 -0.88961 0.029978
-0.21901 0.028383 1.2096 5.6239e-39 358 280 0 0 0 -0.25594 0.32699 -0.90971 0.033944
-0.21738 0.029062 1.2084 5.4856e-39 407 280 0 0 0 -0.18883 0.32686 -0.92602 0.033651
-0.21597 0.029769 1.2084 5.0708e-39 456 280 0 0 0 -0.1381 0.32304 -0.93625 0.038098
-0.21032 0.029769 1.2084 5.7161e-39 460 280 0 0 0 0.14417 0.3229 -0.93539 0.03864
-0.2089 0.029062 1.2084 5.9466e-39 413 280 0 0 0 0.19767 0.31421 -0.92855 0.036491
-0.20678 0.029062 1.2084 6.3384e-39 414.5 280 0 0 0 0.27218 0.3128 -0.90998 0.033905
-0.20486 0.02909 1.2096 6.4998e-39 416 280 0 0 0 0.36657 0.31752 -0.87453 0.029331
-0.2176 0.031213 1.2096 5.9927e-39 234 281 0 0 0 -0.21087 0.32653 -0.92137 0.036681
-0.21527 0.031182 1.2084 6.3154e-39 235.5 281 0 0 0 -0.11849 0.3216 -0.93943 0.041173
-0.21314 0.031182 1.2084 6.5459e-39 237 281 0 0 0 0.0015205 0.32354 -0.94621 0.043244
-0.21032 0.031182 1.2084 5.9005e-39 239 281 0 0 0 0.1438 0.32358 -0.93521 0.040069
-0.2089 0.031182 1.2084 5.7161e-39 240 281 0 0 0 0.19145 0.31473 -0.92967 0.038672
-0.20698 0.031213 1.2096 5.9005e-39 241.5 281 0 0 0 0.27425 0.32239 -0.90601 0.036179
-0.2176 0.032628 1.2096 6.4537e-39 419 281 0 0 0 -0.20471 0.33973 -0.91798 0.036939
-0.21527 0.032596 1.2084 6.5459e-39 420.5 281 0 0 0 -0.12158 0.32445 -0.93806 0.041936
-0.21314 0.032596 1.2084 6.2693e-39 422 281 0 0 0 -0.004201 0.32993 -0.944 0.04474
-0.21032 0.032596 1.2084 5.8083e-39 424 281 0 0 0 0.12488 0.32431 -0.93767 0.042396
-0.20911 0.032628 1.2096 6.1771e-39 425 281 0 0 0 0.19291 0.33138 -0.92357 0.043366
-0.20698 0.032628 1.2096 6.4076e-39 426.5 281 0 0 0 0.27787 0.3248 -0.90404 0.037712
-0.21689 0.03475 1.2096 7.4679e-39 280 282 0 0 0 -0.19906 0.34087 -0.91879 0.040658
-0.21503 0.034481 1.2084 6.9147e-39 249.33 282 0 0 0 -0.10403 0.33834 -0.93526 0.042797
-0.21325 0.034734 1.209 6.7303e-39 282.5 282 0 0 0 -0.015627 0.33489 -0.94213 0.04636
-0.21032 0.034717 1.2084 6.5459e-39 284.5 282 0 0 0 0.11681 0.33259 -0.93581 0.042534
-0.20911 0.03475 1.2096 6.6842e-39 285.5 282 0 0 0 0.19795 0.339 -0.91973 0.042812
-0.20769 0.034043 1.2096 6.4537e-39 191 282 0 0 0 0.2591 0.32811 -0.90841 0.03987
-0.21618 0.036874 1.2096 5.9005e-39 538 282 0 0 0 -0.16542 0.35106 -0.92162 0.042676
-0.21477 0.036874 1.2096 5.7161e-39 539 282 0 0 0 -0.087444 0.35462 -0.93091 0.047055
-0.21335 0.036874 1.2096 5.4395e-39 540 282 0 0 0 -0.0053673 0.35908 -0.93329 0.048279
-0.21113 0.036856 1.209 3.9644e-39 541.5 282 0 0 0 0.082726 0.34763 -0.93398 0.045939
-0.21123 0.038289 1.2096 6.0388e-39 244.5 283 0 0 0 0.072014 0.35511 -0.93205 0.046682
-0.21873 -0.050965 1.2119 6.9608e-39 399.5 255 0 0 0 -0.051819 -0.88238 -0.46767 0.0053076
-0.21661 -0.050965 1.2119 6.7303e-39 401 255 0 0 0 -0.035665 -0.89305 -0.44854 0.0045723
-0.2322 -0.048129 1.2119 7.0069e-39 414 256 0 0 0 -0.26312 -0.75451 -0.60123 0.016826
-0.23056 -0.048082 1.2108 6.9147e-39 415 256 0 0 0 -0.24922 -0.76605 -0.5925 0.016494
-0.22914 -0.048082 1.2108 6.7303e-39 416 256 0 0 0 -0.22618 -0.78605 -0.57529 0.01482
-0.22795 -0.049547 1.2119 5.9005e-39 212 256 0 0 0 -0.17966 -0.81896 -0.545 0.0097935
-0.22511 -0.049547 1.2119 6.2693e-39 214 256 0 0 0 -0.13997 -0.84232 -0.52049 0.0079034
-0.22277 -0.049499 1.2108 6.8686e-39 215.5 256 0 0 0 -0.12128 -0.85487 -0.50447 0.0071386
-0.22064 -0.049499 1.2108 6.8225e-39 217 256 0 0 0 -0.098134 -0.86996 -0.48327 0.0061022
-0.21498 -0.049499 1.2108 6.5459e-39 221 256 0 0 0 -0.032152 -0.89498 -0.44494 0.0044971
-0.21295 -0.049523 1.2113 6.4998e-39 222.5 256 0 0 0 -0.0092391 -0.90263 -0.43032 0.003282
-0.21094 -0.049547 1.2119 6.1771e-39 224 256 0 0 0 0.0084443 -0.90692 -0.42122 0.0024729
-0.20881 -0.049547 1.2119 6.0849e-39 225.5 256 0 0 0 0.027105 -0.90766 -0.41883 0.0019797
-0.20668 -0.049547 1.2119 5.7161e-39 227 256 0 0 0 0.048763 -0.90522 -0.42215 0.0023379
-0.20526 -0.049547 1.2119 5.7161e-39 228 256 0 0 0 0.067133 -0.90057 -0.4295 0.0035553
-0.20314 -0.049547 1.2119 5.8083e-39 229.5 256 0 0 0 0.10269 -0.8909 -0.44243 0.0070693
-0.19959 -0.049547 1.2119 6.4537e-39 232 256 0 0 0 0.14051 -0.86726 -0.47762 0.015162
-0.19321 -0.049547 1.2119 5.3934e-39 236.5 256 0 0 0 0.22971 -0.80167 -0.55188 0.034283
-0.19108 -0.049547 1.2119 5.9005e-39 238 256 0 0 0 0.28007 -0.77279 -0.56952 0.04213
-0.18967 -0.049547 1.2119 6.3615e-39 239 256 0 0 0 0.30541 -0.75078 -0.58571 0.046877
-0.18665 -0.048082 1.2108 6.0849e-39 462 256 0 0 0 0.43057 -0.61651 -0.65919 0.05845
-0.18541 -0.048129 1.2119 5.9005e-39 463 256 0 0 0 0.44237 -0.61303 -0.6546 0.060486
-0.18328 -0.048129 1.2119 5.6239e-39 464.5 256 0 0 0 0.49654 -0.5393 -0.68015 0.06132
-0.24213 -0.046711 1.2119 6.2693e-39 222 257 0 0 0 -0.43336 -0.60342 -0.66939 0.03475
-0.24071 -0.046711 1.2119 5.9927e-39 223 257 0 0 0 -0.40897 -0.62517 -0.66476 0.031466
-0.23929 -0.046711 1.2119 5.9927e-39 224 257 0 0 0 -0.38992 -0.64381 -0.65838 0.030483
-0.23504 -0.046711 1.2119 5.8083e-39 227 257 0 0 0 -0.32925 -0.6959 -0.63822 0.025711
-0.23339 -0.046665 1.2108 5.8083e-39 228 257 0 0 0 -0.31547 -0.7098 -0.62981 0.024088
-0.18523 -0.046665 1.2108 6.1771e-39 365 257 0 0 0 0.50228 -0.51717 -0.693 0.063564
-0.1824 -0.046665 1.2108 6.8225e-39 367 257 0 0 0 0.54724 -0.46328 -0.69706 0.062273
-0.18098 -0.046665 1.2108 6.7303e-39 368 257 0 0 0 0.56539 -0.42115 -0.7092 0.056896
-0.17903 -0.046711 1.2119 6.6381e-39 369.5 257 0 0 0 0.58765 -0.36752 -0.72083 0.059784
-0.24497 -0.045293 1.2119 7.7444e-39 425 257 0 0 0 -0.51591 -0.50975 -0.68847 0.041525
-0.24331 -0.045249 1.2108 7.7444e-39 426 257 0 0 0 -0.48644 -0.53684 -0.68933 0.039645
-0.17894 -0.045271 1.2113 2.9503e-39 142.5 258 0 0 0 0.6165 -0.30812 -0.72456 0.057405
-0.24638 -0.042457 1.2119 6.5459e-39 447 258 0 0 0 -0.5941 -0.38059 -0.70866 0.044004
-0.17894 -0.043145 1.2113 8.2516e-39 291 258.5 0 0 0 0.65008 -0.20465 -0.73179 0.051164
-0.24638 -0.04104 1.2119 5.6239e-39 236 259 0 0 0 -0.61318 -0.33095 -0.71727 0.042945
-0.17974 -0.04104 1.2119 7.1913e-39 394 259 0 0 0 0.66643 -0.14259 -0.73181 0.048954
-0.24638 -0.038913 1.2119 5.5317e-39 344.5 259.5 0 0 0 -0.63518 -0.2875 -0.71686 0.043474
-0.17974 -0.038913 1.2119 5.9005e-39 282.5 260 0 0 0 0.68695 -0.075426 -0.72278 0.041492
-0.24638 -0.036786 1.2119 6.1771e-39 445 260 0 0 0 -0.67072 -0.16904 -0.72219 0.035741
-0.17974 -0.036786 1.2119 3.2268e-39 155 261 0 0 0 0.70382 0.010837 -0.71029 0.030833
-0.24638 -0.035368 1.2119 5.6239e-39 228 261 0 0 0 -0.68647 -0.12338 -0.71662 0.029854
-0.18098 -0.035333 1.2108 5.5317e-39 364 261 0 0 0 0.70855 0.038732 -0.7046 0.026531
-0.24638 -0.03395 1.2119 7.9288e-39 424 261 0 0 0 -0.6912 -0.07226 -0.71904 0.024961
-0.18116 -0.033241 1.2119 5.4856e-39 205.5 262 0 0 0 0.71516 0.091678 -0.69292 0.018723
-0.24473 -0.031084 1.2108 8.3898e-39 414 262 0 0 0 -0.68715 0.0061058 -0.72649 0.015218
-0.1824 -0.031084 1.2108 5.9927e-39 463 262 0 0 0 0.71815 0.12133 -0.68522 0.015269
-0.18116 -0.031114 1.2119 5.9005e-39 464 262 0 0 0 0.72036 0.13762 -0.67981 0.012836
-0.24473 -0.028959 1.2108 7.3757e-39 297 263 0 0 0 -0.69676 0.060879 -0.71472 0.010228
-0.18258 -0.029696 1.2119 6.7303e-39 243 263 0 0 0 0.7201 0.15894 -0.67542 0.0098224
-0.24473 -0.026834 1.2108 3.5956e-39 158 264 0 0 0 -0.70171 0.10955 -0.70399 0.0064076
-0.18381 -0.026834 1.2108 7.2835e-39 213 264 0 0 0 0.72269 0.18637 -0.66557 0.0078174
-0.24473 -0.02471 1.2108 5.9005e-39 408 264 0 0 0 -0.70578 0.14707 -0.693 0.0047908
-0.18523 -0.024001 1.2108 4.6098e-39 178 265 0 0 0 0.72194 0.1959 -0.66364 0.0075175
-0.18381 -0.02471 1.2108 6.6842e-39 296 264.5 0 0 0 0.72541 0.19552 -0.65997 0.0073796
-0.24497 -0.022607 1.2119 5.9005e-39 232 265 0 0 0 -0.71213 0.16949 -0.68128 0.0045159
-0.18523 -0.022584 1.2108 5.9005e-39 363 265 0 0 0 0.72338 0.19938 -0.66104 0.0079029
-0.18381 -0.022584 1.2108 5.9005e-39 364 265 0 0 0 0.72841 0.19952 -0.65545 0.0076645
-0.24497 -0.021189 1.2119 7.9288e-39 431 265 0 0 0 -0.71098 0.18094 -0.67953 0.0045023
-0.18523 -0.021168 1.2108 2.0283e-39 535 265 0 0 0 0.72639 0.19928 -0.65775 0.0080818
-0.18381 -0.021168 1.2108 1.9361e-39 536 265 0 0 0 0.72932 0.19832 -0.6548 0.0077291
-0.24497 -0.019771 1.2119 7.3757e-39 198 266 0 0 0 -0.71117 0.19476 -0.6755 0.0044207
-0.24343 -0.019052 1.2113 7.0069e-39 295 266 0 0 0 -0.70441 0.19717 -0.68186 0.0046492
-0.18532 -0.019052 1.2113 6.8686e-39 336 266 0 0 0 0.73021 0.2018 -0.65274 0.0079624
-0.18399 -0.019771 1.2119 6.5459e-39 241 266 0 0 0 0.73383 0.20475 -0.64774 0.0074659
-0.18541 -0.016935 1.2119 6.9147e-39 199 267 0 0 0 0.73443 0.20252 -0.64776 0.0077221
-0.24213 -0.014099 1.2119 5.3473e-39 447 267 0 0 0 -0.71042 0.21853 -0.66899 0.0044389
-0.24189 -0.015502 1.2108 6.2693e-39 254 267 0 0 0 -0.70149 0.2111 -0.6807 0.004883
-0.18806 -0.014085 1.2108 4.4254e-39 157 268 0 0 0 0.72372 0.20109 -0.66014 0.0083052
-0.18665 -0.014794 1.2108 5.6701e-39 274.5 267.5 0 0 0 0.7309 0.19951 -0.65268 0.0081433
-0.18806 -0.012669 1.2108 6.1771e-39 255 268 0 0 0 0.72508 0.20261 -0.65818 0.0083543
-0.18665 -0.012669 1.2108 6.5459e-39 256 268 0 0 0 0.73047 0.20363 -0.65188 0.008352
-0.24048 -0.011252 1.2108 8.8508e-39 405 268 0 0 0 -0.71004 0.21619 -0.67015 0.0049836
-0.18806 -0.011252 1.2108 5.8083e-39 442 268 0 0 0 0.72509 0.20589 -0.65716 0.0081986
-0.18665 -0.011252 1.2108 5.8083e-39 443 268 0 0 0 0.73071 0.20485 -0.65123 0.0079882
-0.2406 -0.0091315 1.2113 6.0849e-39 266.5 269 0 0 0 -0.71613 0.21714 -0.66333 0.004805
-0.23906 -0.0084192 1.2108 5.7161e-39 359 269 0 0 0 -0.71459 0.21427 -0.66591 0.0048665
-0.18815 -0.0091315 1.2113 7.3757e-39 310 269 0 0 0 0.72544 0.21023 -0.6554 0.0077503
-0.18665 -0.0091274 1.2108 7.0991e-39 311 269 0 0 0 0.72807 0.21145 -0.65208 0.007725
-0.23906 -0.0070026 1.2108 5.7161e-39 530 269 0 0 0 -0.71823 0.21516 -0.66171 0.0047678
-0.18825 -0.0070095 1.2119 6.5459e-39 177 270 0 0 0 0.72429 0.21795 -0.65414 0.0071971
-0.18683 -0.0070095 1.2119 6.7303e-39 178 270 0 0 0 0.7287 0.21618 -0.64982 0.0068953
-0.23929 -0.0055916 1.2119 6.9147e-39 246 270 0 0 0 -0.72432 0.22 -0.65342 0.0042861
-0.23764 -0.0048778 1.2108 6.0388e-39 340 270 0 0 0 -0.71458 0.2184 -0.66459 0.0047326
-0.23788 -0.0027558 1.2119 6.8225e-39 203 271 0 0 0 -0.72069 0.22646 -0.65522 0.0042713
-0.18948 -0.0027531 1.2108 6.0849e-39 244 271 0 0 0 0.71253 0.22102 -0.66592 0.0073017
-0.23788 -0.0013378 1.2119 8.1132e-39 390 271 0 0 0 -0.72035 0.22807 -0.65504 0.0041619
-0.1909 -0.0013365 1.2108 6.2693e-39 423 271 0 0 0 0.70623 0.22002 -0.67293 0.0071331
-0.18967 -0.0013378 1.2119 5.9005e-39 424 271 0 0 0 0.71498 0.21592 -0.66496 0.0069813
-0.23623 0.0014965 1.2108 6.6381e-39 265 272 0 0 0 -0.70234 0.24773 -0.66734 0.0048987
-0.19231 0.0014965 1.2108 7.0991e-39 376 272 0 0 0 0.6932 0.22829 -0.68363 0.0071753
-0.19099 0.000789 1.2113 7.0991e-39 285.5 272 0 0 0 0.70348 0.22237 -0.67503 0.0069629
-0.18967 8.0074e-05 1.2119 7.56e-39 195 272 0 0 0 0.71342 0.21774 -0.66605 0.0068984
-0.23623 0.0029131 1.2108 5.9927e-39 442 272 0 0 0 -0.70121 0.25316 -0.6665 0.0052785
-0.19231 0.0029131 1.2108 2.0283e-39 539 272 0 0 0 0.68805 0.23058 -0.68805 0.0074868
-0.19108 0.0029159 1.2119 2.0283e-39 540 272 0 0 0 0.7021 0.22074 -0.67699 0.0067704
-0.23634 0.0050407 1.2113 7.1452e-39 311 273 0 0 0 -0.69654 0.26841 -0.66543 0.0056453
-0.19285 0.0052758 1.2112 6.3e-39 373.33 273 0 0 0 0.67865 0.23425 -0.6961 0.0076491
-0.23646 0.0071697 1.2119 6.3615e-39 173 274 0 0 0 -0.69251 0.28392 -0.66319 0.0056846
-0.23481 0.0071626 1.2108 6.2693e-39 174 274 0 0 0 -0.67248 0.29207 -0.68005 0.0068323
-0.19515 0.0071626 1.2108 6.6381e-39 202 274 0 0 0 0.65428 0.24315 -0.7161 0.0085251
-0.19311 0.0071662 1.2113 6.6381e-39 203.5 274 0 0 0 0.67228 0.23202 -0.703 0.007912
-0.23481 0.0085792 1.2108 6.1771e-39 359 274 0 0 0 -0.66686 0.30252 -0.68101 0.0070015
-0.23339 0.0099957 1.2108 5.3473e-39 454 274 0 0 0 -0.64823 0.31494 -0.69326 0.0076566
-0.19515 0.0085792 1.2108 8.8508e-39 387 274 0 0 0 0.64901 0.24054 -0.72175 0.0083497
-0.19392 0.0085876 1.2119 8.8508e-39 388 274 0 0 0 0.66308 0.23159 -0.71182 0.0078407
-0.23362 0.011423 1.2119 6.1771e-39 232 275 0 0 0 -0.65406 0.32215 -0.68441 0.0071582
-0.19534 0.010715 1.2119 5.7162e-39 215.5 275 0 0 0 0.63984 0.24273 -0.72917 0.0080621
-0.23362 0.012841 1.2119 7.0069e-39 418 275 0 0 0 -0.64217 0.33397 -0.68998 0.0069665
-0.19534 0.012841 1.2119 6.7303e-39 447 275 0 0 0 0.62856 0.24271 -0.73892 0.0079122
-0.23127 0.014953 1.2108 7.2835e-39 291 276 0 0 0 -0.60333 0.35128 -0.71596 0.0084315
-0.19515 0.014953 1.2108 7.099e-39 317.5 276 0 0 0 0.6186 0.24744 -0.74572 0.0077285
-0.23079 0.017095 1.2119 6.0849e-39 165 277 0 0 0 -0.59911 0.35472 -0.7178 0.008557
-0.19656 0.017078 1.2108 7.6522e-39 189 277 0 0 0 0.59983 0.25464 -0.75853 0.0086427
-0.19534 0.017095 1.2119 7.56e-39 190 277 0 0 0 0.61599 0.24913 -0.74732 0.0072807
-0.22914 0.018495 1.2108 6.3615e-39 357 277 0 0 0 -0.56856 0.35747 -0.74092 0.010808
-0.22702 0.019911 1.2108 5.8544e-39 453.5 277 0 0 0 -0.52331 0.36134 -0.77174 0.015302
-0.20081 0.019911 1.2108 5.7161e-39 537 277 0 0 0 0.52367 0.26737 -0.80887 0.015877
-0.19899 0.019446 1.2112 5.9005e-39 485 277 0 0 0 0.56461 0.26286 -0.78238 0.011536
-0.19717 0.01898 1.2115 6.3e-39 433 277 0 0 0 0.59407 0.25677 -0.76234 0.0087513
-0.19534 0.018513 1.2119 8.2976e-39 381 277 0 0 0 0.61414 0.24962 -0.74868 0.0074118
-0.22631 0.021328 1.2108 6.5459e-39 238 278 0 0 0 -0.51526 0.35583 -0.77967 0.016174
-0.20081 0.021328 1.2108 5.7161e-39 266 278 0 0 0 0.51985 0.27342 -0.80932 0.015561
-0.19879 0.021339 1.2113 5.5778e-39 267.5 278 0 0 0 0.5615 0.26623 -0.78348 0.011523
-0.19676 0.021349 1.2119 5.8083e-39 269 278 0 0 0 0.59295 0.25913 -0.76241 0.0082916
-0.22653 0.022767 1.2119 5.6239e-39 422 278 0 0 0 -0.53482 0.35359 -0.76742 0.014441
-0.22489 0.022744 1.2108 5.5317e-39 423 278 0 0 0 -0.47976 0.34805 -0.80541 0.019013
-0.20081 0.022744 1.2108 5.9927e-39 441 278 0 0 0 0.51742 0.27573 -0.81009 0.016063
-0.19879 0.022755 1.2113 6.1771e-39 442.5 278 0 0 0 0.56054 0.26705 -0.78389 0.011376
-0.22511 0.024894 1.2119 7.0991e-39 294.5 279 0 0 0 -0.505 0.34192 -0.79251 0.01719
-0.22301 0.025106 1.2108 7.4371e-39 327.67 279 0 0 0 -0.42851 0.3348 -0.83922 0.024002
-0.20223 0.024869 1.2108 6.638e-39 311 279 0 0 0 0.47091 0.29541 -0.83125 0.0206
-0.20091 0.024882 1.2113 6.3154e-39 312 279 0 0 0 0.50656 0.28751 -0.81286 0.016922
-0.19959 0.024894 1.2119 5.9466e-39 313 279 0 0 0 0.54285 0.28027 -0.79168 0.012188
-0.22288 0.027007 1.2113 5.5317e-39 162.5 280 0 0 0 -0.43847 0.33084 -0.83564 0.023905
-0.20243 0.027021 1.2119 6.9147e-39 177 280 0 0 0 0.47434 0.30516 -0.82576 0.019692
-0.20101 0.027021 1.2119 6.6381e-39 178 280 0 0 0 0.50358 0.29552 -0.81184 0.016464
-0.22275 0.028911 1.2119 6.1464e-39 387.67 280 0 0 0 -0.43803 0.33288 -0.83506 0.02359
-0.22064 0.029827 1.2108 5.9927e-39 453 280 0 0 0 -0.34334 0.33958 -0.87567 0.029916
-0.21923 0.029827 1.2108 5.5317e-39 454 280 0 0 0 -0.27949 0.33313 -0.90051 0.035653
-0.20304 0.029133 1.2113 6.8455e-39 417.5 280 0 0 0 0.43325 0.31612 -0.84402 0.024677
-0.22086 0.031274 1.2119 5.4395e-39 232 281 0 0 0 -0.36091 0.3379 -0.86923 0.02977
-0.21923 0.031244 1.2108 5.7161e-39 233 281 0 0 0 -0.29427 0.33405 -0.89544 0.034863
-0.20506 0.031244 1.2108 5.8083e-39 243 281 0 0 0 0.37715 0.32298 -0.86801 0.028903
-0.20304 0.031259 1.2113 5.8083e-39 244.5 281 0 0 0 0.43672 0.31723 -0.84181 0.023844
-0.22086 0.032692 1.2119 6.2693e-39 417 281 0 0 0 -0.37532 0.33366 -0.86476 0.03012
-0.21923 0.03266 1.2108 6.2693e-39 418 281 0 0 0 -0.29747 0.33657 -0.89344 0.03548
-0.20506 0.03266 1.2108 5.9927e-39 428 281 0 0 0 0.37105 0.32928 -0.86828 0.030533
-0.20365 0.03266 1.2108 5.6239e-39 429 281 0 0 0 0.41105 0.32269 -0.85259 0.026622
-0.22086 0.03411 1.2119 7.1913e-39 182 282 0 0 0 -0.38281 0.33365 -0.86147 0.029633
-0.21944 0.034819 1.2119 7.6983e-39 278.5 282 0 0 0 -0.31662 0.34368 -0.8841 0.036416
-0.21781 0.035493 1.2108 8.2976e-39 375 282 0 0 0 -0.23845 0.34671 -0.90716 0.036796
-0.20702 0.035033 1.2112 7.0069e-39 319 282 0 0 0 0.29655 0.33748 -0.8934 0.038916
-0.20526 0.034819 1.2119 6.2693e-39 288.5 282 0 0 0 0.36928 0.32689 -0.86993 0.031366
-0.20385 0.034819 1.2119 5.8544e-39 289.5 282 0 0 0 0.40792 0.31964 -0.85524 0.0277
-0.21802 0.036946 1.2119 6.1771e-39 537 282 0 0 0 -0.25242 0.35131 -0.90159 0.037543
-0.20931 0.03691 1.2108 2.3971e-39 543 282 0 0 0 0.17832 0.35182 -0.91893 0.045585
-0.20729 0.036928 1.2113 1.9822e-39 544.5 282 0 0 0 0.28928 0.33845 -0.89542 0.040323
-0.20526 0.036946 1.2119 1.8439e-39 546 282 0 0 0 0.36637 0.32918 -0.8703 0.032677
-0.20385 0.036946 1.2119 1.8439e-39 547 282 0 0 0 0.40529 0.31917 -0.85666 0.027986
-0.21802 0.038364 1.2119 5.8083e-39 240 283 0 0 0 -0.26167 0.36435 -0.89375 0.037544
-0.21639 0.039035 1.2108 6.131e-39 332 283 0 0 0 -0.17619 0.36416 -0.91452 0.043266
-0.21498 0.039035 1.2108 6.0849e-39 333 283 0 0 0 -0.097529 0.36894 -0.92432 0.047936
-0.21309 0.039271 1.2108 6.4844e-39 364.67 283 0 0 0 -0.00026655 0.37495 -0.92705 0.049262
-0.21073 0.039743 1.2108 6.3615e-39 427 283 0 0 0 0.10813 0.36867 -0.92325 0.047387
-0.20898 0.039297 1.2115 6.0234e-39 367.67 283 0 0 0 0.19417 0.36052 -0.91232 0.044819
-0.2079 0.038326 1.2108 6.4537e-39 259 283 0 0 0 0.24458 0.35083 -0.90393 0.041353
-0.21639 0.041159 1.2108 6.3615e-39 176 284 0 0 0 -0.18095 0.37133 -0.9107 0.040436
-0.21519 0.0412 1.2119 6.8225e-39 177 284 0 0 0 -0.11675 0.37953 -0.91778 0.046671
-0.21285 0.041159 1.2108 7.0991e-39 178.5 284 0 0 0 0.0042358 0.37724 -0.92611 0.048134
-0.21073 0.041159 1.2108 7.0991e-39 180 284 0 0 0 0.10729 0.36555 -0.92459 0.047283
-0.20881 0.0412 1.2119 6.7764e-39 181.5 284 0 0 0 0.19258 0.36177 -0.91216 0.045675
-0.21661 0.042618 1.2119 6.4537e-39 260 284 0 0 0 -0.19935 0.38488 -0.90118 0.041593
-0.21519 0.042618 1.2119 6.3615e-39 261 284 0 0 0 -0.12437 0.38219 -0.91568 0.044825
-0.21296 0.042597 1.2113 5.9927e-39 262.5 284 0 0 0 -0.0056291 0.37804 -0.92577 0.04774
-0.21073 0.043284 1.2108 6.3615e-39 334 284 0 0 0 0.093506 0.37091 -0.92395 0.045393
-0.20881 0.042618 1.2119 5.9466e-39 265.5 284 0 0 0 0.18714 0.36328 -0.91269 0.045268
-0.21306 0.044036 1.2119 7.4218e-39 402.5 284 0 0 0 -0.012851 0.38121 -0.9244 0.048838
-0.21073 0.045409 1.2108 5.8083e-39 469 284 0 0 0 0.085978 0.37397 -0.92345 0.046365
-0.21094 0.046871 1.2119 6.0849e-39 194 285 0 0 0 0.081441 0.38476 -0.91942 0.04804
-0.21094 0.048289 1.2119 5.9927e-39 266 285 0 0 0 0.059749 0.3805 -0.92285 0.046783
-0.23385 -0.048176 1.2131 7.0991e-39 413 256 0 0 0 -0.28545 -0.7459 -0.60179 0.0177
-0.23101 -0.049596 1.2131 5.6239e-39 210 256 0 0 0 -0.21472 -0.79517 -0.5671 0.011327
-0.22959 -0.049596 1.2131 5.7161e-39 211 256 0 0 0 -0.19305 -0.80874 -0.55559 0.0098782
-0.22676 -0.049596 1.2131 6.0849e-39 213 256 0 0 0 -0.15295 -0.83514 -0.52834 0.0080656
-0.20121 -0.049596 1.2131 6.0849e-39 231 256 0 0 0 0.11758 -0.882 -0.45634 0.0095571
-0.19837 -0.049596 1.2131 6.4537e-39 233 256 0 0 0 0.14807 -0.86079 -0.48695 0.016766
-0.19695 -0.049596 1.2131 5.8083e-39 234 256 0 0 0 0.16939 -0.84833 -0.50165 0.021389
-0.19553 -0.049596 1.2131 5.5317e-39 235 256 0 0 0 0.17708 -0.83226 -0.52534 0.025989
-0.18843 -0.049596 1.2131 6.4537e-39 240 256 0 0 0 0.32163 -0.74287 -0.58711 0.0467
-0.18134 -0.048176 1.2131 5.4395e-39 466 256 0 0 0 0.51374 -0.51408 -0.68687 0.06393
-0.24521 -0.046757 1.2131 6.6381e-39 220 257 0 0 0 -0.47487 -0.576 -0.66538 0.038704
-0.24379 -0.046757 1.2131 6.3615e-39 221 257 0 0 0 -0.45204 -0.59636 -0.66333 0.036722
-0.23811 -0.046757 1.2131 6.0849e-39 225 257 0 0 0 -0.36626 -0.66601 -0.64984 0.028519
-0.23669 -0.046757 1.2131 5.9005e-39 226 257 0 0 0 -0.3482 -0.68209 -0.64305 0.026485
-0.17708 -0.045338 1.2131 3.4112e-39 144 258 0 0 0 0.62876 -0.26072 -0.73259 0.056208
-0.24804 -0.042499 1.2131 7.0069e-39 446 258 0 0 0 -0.60501 -0.3781 -0.70071 0.045261
-0.24663 -0.043919 1.2131 5.9005e-39 230 258 0 0 0 -0.56826 -0.44816 -0.6901 0.046631
-0.17708 -0.043919 1.2131 6.4537e-39 392 258 0 0 0 0.64442 -0.21993 -0.73237 0.054638
-0.24804 -0.04108 1.2131 5.5317e-39 235 259 0 0 0 -0.64212 -0.31737 -0.69783 0.044546
-0.1785 -0.04108 1.2131 7.0991e-39 395 259 0 0 0 0.67622 -0.12013 -0.72684 0.047063
-0.24804 -0.039661 1.2131 5.8083e-39 451 259 0 0 0 -0.65521 -0.27851 -0.70224 0.044405
-0.1785 -0.038951 1.2131 5.8083e-39 283.5 260 0 0 0 0.6933 -0.042425 -0.7194 0.038599
-0.17992 -0.035403 1.2131 5.9927e-39 365 261 0 0 0 0.70816 0.046186 -0.70454 0.027597
-0.24663 -0.032564 1.2131 6.7303e-39 215 262 0 0 0 -0.71085 -0.030354 -0.70269 0.020647
-0.24663 -0.031145 1.2131 8.5742e-39 413 262 0 0 0 -0.71435 0.010653 -0.69971 0.015284
-0.24663 -0.029016 1.2131 7.3296e-39 296 263 0 0 0 -0.71784 0.074612 -0.6922 0.008817
-0.18276 -0.028306 1.2131 6.3615e-39 442 263 0 0 0 0.72369 0.17961 -0.66634 0.0082354
-0.18134 -0.029725 1.2131 6.7303e-39 244 263 0 0 0 0.72356 0.16965 -0.66909 0.0092226
-0.24663 -0.026887 1.2131 3.319e-39 157 264 0 0 0 -0.72243 0.12691 -0.6797 0.005095
-0.24663 -0.025467 1.2131 5.9927e-39 352 264 0 0 0 -0.72323 0.14418 -0.67539 0.0045386
-0.18276 -0.024048 1.2131 4.8864e-39 180 265 0 0 0 0.72776 0.20468 -0.65457 0.0068341
-0.18276 -0.022629 1.2131 6.2693e-39 365 265 0 0 0 0.73034 0.20637 -0.65116 0.0070741
-0.18276 -0.02121 1.2131 1.8439e-39 537 265 0 0 0 0.73289 0.20697 -0.64811 0.007271
-0.24521 -0.018371 1.2131 6.3615e-39 375 266 0 0 0 -0.71915 0.20642 -0.66348 0.0040258
-0.18418 -0.018371 1.2131 6.2693e-39 433 266 0 0 0 0.73563 0.2056 -0.64543 0.0073245
-0.24379 -0.016952 1.2131 3.5956e-39 158 267 0 0 0 -0.71217 0.2144 -0.66846 0.0043057
-0.18418 -0.016952 1.2131 6.8225e-39 200 267 0 0 0 0.73714 0.20357 -0.64435 0.0071635
-0.24379 -0.015532 1.2131 6.4537e-39 253 267 0 0 0 -0.71399 0.22131 -0.66426 0.0041743
-0.18559 -0.015532 1.2131 6.9147e-39 392 267 0 0 0 0.73436 0.20401 -0.64738 0.0073858
-0.24237 -0.012694 1.2131 6.4537e-39 216 268 0 0 0 -0.71616 0.22524 -0.6606 0.0043177
-0.24095 -0.0070164 1.2131 6.0849e-39 529 269 0 0 0 -0.72737 0.2237 -0.64876 0.0039075
-0.23953 -0.0041778 1.2131 5.8083e-39 432 270 0 0 0 -0.72918 0.22612 -0.64588 0.0037597
-0.18843 -0.0048875 1.2131 5.6239e-39 449 270 0 0 0 0.72319 0.21774 -0.65542 0.0066075
-0.18701 -0.0048875 1.2131 5.8544e-39 450 270 0 0 0 0.72679 0.21686 -0.65173 0.0063767
-0.23811 0.00078983 1.2131 5.6239e-39 212.5 272 0 0 0 -0.72405 0.23886 -0.64706 0.0036968
-0.18985 0.0014995 1.2131 6.9147e-39 378 272 0 0 0 0.71081 0.21521 -0.66965 0.0066839
-0.18985 0.0029188 1.2131 1.9361e-39 541 272 0 0 0 0.70809 0.21551 -0.67243 0.0067859
-0.19127 0.0043381 1.2131 6.5459e-39 258 273 0 0 0 0.69936 0.21938 -0.68027 0.0065073
-0.23669 0.008596 1.2131 6.4537e-39 358 274 0 0 0 -0.69527 0.29234 -0.65661 0.0054051
-0.19269 0.008596 1.2131 8.7586e-39 389 274 0 0 0 0.6745 0.22356 -0.70362 0.0074479
-0.23527 0.010015 1.2131 5.6239e-39 453 274 0 0 0 -0.67986 0.30643 -0.66625 0.005813
-0.19411 0.010725 1.2131 5.2091e-39 256.5 275 0 0 0 0.658 0.23046 -0.71688 0.0074579
-0.19269 0.010725 1.2131 5.2551e-39 257.5 275 0 0 0 0.66642 0.22336 -0.71133 0.0072458
-0.19411 0.012854 1.2131 5.9927e-39 448 275 0 0 0 0.64558 0.2324 -0.72747 0.0070234
-0.19269 0.012854 1.2131 5.5317e-39 449 275 0 0 0 0.65708 0.22464 -0.71957 0.0067693
-0.23243 0.015693 1.2131 7.9288e-39 386 276 0 0 0 -0.63027 0.34381 -0.6961 0.0068265
-0.19411 0.014983 1.2131 7.1452e-39 318.5 276 0 0 0 0.6377 0.23808 -0.73257 0.0067981
-0.19269 0.014983 1.2131 7.0069e-39 322.5 276 0 0 0 0.64727 0.22941 -0.72692 0.0067416
-0.19411 0.017112 1.2131 6.6381e-39 191 277 0 0 0 0.63033 0.24169 -0.73775 0.0064816
-0.19269 0.017112 1.2131 6.4537e-39 192 277 0 0 0 0.63933 0.23555 -0.73196 0.0063295
-0.22959 0.019951 1.2131 6.1771e-39 452 277 0 0 0 -0.59734 0.35298 -0.72013 0.0081749
-0.19553 0.019951 1.2131 2.1205e-39 541 277 0 0 0 0.61108 0.25277 -0.75012 0.0068698
-0.22817 0.02137 1.2131 6.5459e-39 237 278 0 0 0 -0.5754 0.35228 -0.73811 0.010108
-0.19553 0.02137 1.2131 6.3615e-39 270 278 0 0 0 0.60789 0.25508 -0.75193 0.0064016
-0.19695 0.022789 1.2131 6.0849e-39 444 278 0 0 0 0.59056 0.2601 -0.76393 0.0077687
-0.22676 0.024918 1.2131 6.9147e-39 293.5 279 0 0 0 -0.54992 0.34105 -0.76241 0.012851
-0.19837 0.024918 1.2131 5.67e-39 314.5 279 0 0 0 0.57028 0.27202 -0.7751 0.0088845
-0.19695 0.024918 1.2131 5.6239e-39 315.5 279 0 0 0 0.5856 0.26439 -0.76627 0.0072728
-0.22534 0.027047 1.2131 5.4395e-39 161 280 0 0 0 -0.53163 0.33138 -0.77946 0.014523
-0.19979 0.027047 1.2131 6.2693e-39 180 280 0 0 0 0.54069 0.28619 -0.79104 0.011795
-0.22534 0.028466 1.2131 5.9005e-39 354 280 0 0 0 -0.53136 0.32642 -0.78173 0.014612
-0.22392 0.029886 1.2131 6.2693e-39 451 280 0 0 0 -0.49533 0.32808 -0.80437 0.018225
-0.20121 0.029176 1.2131 7.0991e-39 419 280 0 0 0 0.49734 0.30257 -0.81309 0.016355
-0.19979 0.028466 1.2131 8.021e-39 372 280 0 0 0 0.53066 0.29085 -0.79612 0.012128
-0.2225 0.031305 1.2131 6.3615e-39 224 281 0 0 0 -0.43657 0.33358 -0.83554 0.024104
-0.20121 0.031305 1.2131 6.5459e-39 246 281 0 0 0 0.49064 0.30498 -0.81625 0.016767
-0.2225 0.032724 1.2131 6.3615e-39 416 281 0 0 0 -0.44787 0.3329 -0.82981 0.023049
-0.20263 0.032724 1.2131 5.6239e-39 430 281 0 0 0 0.45052 0.31741 -0.83443 0.02239
-0.2225 0.034144 1.2131 7.0069e-39 181 282 0 0 0 -0.44732 0.33033 -0.83114 0.02304
-0.22108 0.035563 1.2131 8.2054e-39 373 282 0 0 0 -0.39374 0.34017 -0.85396 0.028948
-0.20263 0.035563 1.2131 6.1771e-39 386 282 0 0 0 0.45138 0.31004 -0.83674 0.021088
-0.22108 0.036982 1.2131 5.6239e-39 469 282 0 0 0 -0.39588 0.34479 -0.85112 0.028594
-0.21966 0.036982 1.2131 5.7161e-39 470 282 0 0 0 -0.34223 0.35129 -0.87148 0.033875
-0.20263 0.036982 1.2131 5.5317e-39 141 283 0 0 0 0.44817 0.31277 -0.83745 0.021885
-0.21824 0.039821 1.2131 7.0991e-39 422 283 0 0 0 -0.27016 0.37113 -0.88841 0.038446
-0.20688 0.038402 1.2131 6.0849e-39 260 283 0 0 0 0.29912 0.34369 -0.89017 0.040294
-0.20476 0.038402 1.2131 5.9005e-39 261.5 283 0 0 0 0.3836 0.32643 -0.86388 0.030901
-0.21824 0.04124 1.2131 6.0849e-39 175 284 0 0 0 -0.27045 0.37291 -0.88758 0.036679
-0.21682 0.044079 1.2131 7.0991e-39 400 284 0 0 0 -0.22504 0.38796 -0.89378 0.041334
-0.2154 0.044079 1.2131 7.1913e-39 401 284 0 0 0 -0.14528 0.39243 -0.90824 0.045511
-0.21327 0.045498 1.2131 5.9005e-39 467.5 284 0 0 0 -0.04383 0.38818 -0.92054 0.049501
-0.20877 0.044552 1.2131 6.3e-39 427.33 284 0 0 0 0.19112 0.36507 -0.91115 0.04717
-0.2083 0.046917 1.2131 5.7161e-39 196 285 0 0 0 0.19398 0.36406 -0.91095 0.047019
-0.21114 0.049756 1.2131 6.7303e-39 400 285 0 0 0 0.048995 0.39457 -0.91756 0.048492
-0.22009 -0.052538 1.2155 3.0425e-39 143 255 0 0 0 -0.036155 -0.88545 -0.46332 0.0047947
-0.21845 -0.052486 1.2143 3.319e-39 144 255 0 0 0 -0.026585 -0.88953 -0.4561 0.004239
-0.21725 -0.052538 1.2155 3.4112e-39 145 255 0 0 0 -0.0093505 -0.89178 -0.45237 0.0034585
-0.23076 -0.051115 1.2155 6.3615e-39 391.5 255 0 0 0 -0.16911 -0.82098 -0.54534 0.0067894
-0.22862 -0.051115 1.2155 6.8225e-39 393 255 0 0 0 -0.1404 -0.83885 -0.52595 0.006125
-0.22496 -0.05109 1.2149 6.7764e-39 395.5 255 0 0 0 -0.10344 -0.85646 -0.50575 0.0058539
-0.22272 -0.051065 1.2143 6.4537e-39 397 255 0 0 0 -0.08052 -0.86861 -0.48891 0.005799
-0.2213 -0.051065 1.2143 6.6381e-39 398 255 0 0 0 -0.067424 -0.87443 -0.48044 0.0054632
-0.215 -0.05109 1.2149 6.0388e-39 402.5 255 0 0 0 -0.00079051 -0.89847 -0.43904 0.0028889
-0.21014 -0.051115 1.2155 6.9147e-39 406 255 0 0 0 0.026791 -0.90621 -0.42197 0.0017411
-0.20851 -0.051065 1.2143 7.3757e-39 407 255 0 0 0 0.032887 -0.90769 -0.41836 0.0016048
-0.20729 -0.051115 1.2155 7.2835e-39 408 255 0 0 0 0.043025 -0.90832 -0.41606 0.0014583
-0.20506 -0.05109 1.2149 6.6842e-39 409.5 255 0 0 0 0.056261 -0.90751 -0.41626 0.0016081
-0.20283 -0.051065 1.2143 6.6381e-39 411 255 0 0 0 0.07987 -0.9004 -0.42767 0.0030005
-0.19449 -0.051115 1.2155 6.5459e-39 417 255 0 0 0 0.15216 -0.85523 -0.49541 0.016493
-0.19288 -0.051065 1.2143 6.9147e-39 418 255 0 0 0 0.18553 -0.83545 -0.51731 0.022198
-0.19165 -0.051115 1.2155 7.0991e-39 419 255 0 0 0 0.20445 -0.82724 -0.52333 0.02537
-0.24486 -0.048248 1.2149 6.4076e-39 405.5 256 0 0 0 -0.44265 -0.61209 -0.6553 0.035986
-0.24284 -0.048271 1.2155 7.2835e-39 407 256 0 0 0 -0.40269 -0.65129 -0.64317 0.031259
-0.24142 -0.048271 1.2155 7.2835e-39 408 256 0 0 0 -0.37766 -0.67086 -0.63822 0.028538
-0.24 -0.048271 1.2155 6.6381e-39 409 256 0 0 0 -0.34815 -0.68976 -0.63484 0.024788
-0.23502 -0.048982 1.2155 6.4076e-39 310 256 0 0 0 -0.26954 -0.75607 -0.59641 0.015328
-0.23266 -0.049645 1.2143 5.7161e-39 209 256 0 0 0 -0.22678 -0.78781 -0.57265 0.011414
-0.1872 -0.049645 1.2143 6.2693e-39 241 256 0 0 0 0.33891 -0.72839 -0.59547 0.04926
-0.18525 -0.049693 1.2155 5.8083e-39 242.5 256 0 0 0 0.35153 -0.71709 -0.60183 0.051317
-0.18294 -0.049645 1.2143 5.8083e-39 244 256 0 0 0 0.42419 -0.64268 -0.63798 0.057315
-0.18089 -0.048958 1.2149 5.7161e-39 356 256 0 0 0 0.50041 -0.52748 -0.68655 0.062692
-0.17867 -0.048224 1.2143 5.5317e-39 468 256 0 0 0 0.54367 -0.46332 -0.69983 0.061016
-0.17672 -0.048271 1.2155 5.5317e-39 469.5 256 0 0 0 0.5506 -0.43031 -0.71531 0.061649
-0.24711 -0.046849 1.2155 6.6381e-39 219 257 0 0 0 -0.5061 -0.5553 -0.65993 0.041417
-0.17725 -0.046803 1.2143 6.2693e-39 371 257 0 0 0 0.59493 -0.34947 -0.72383 0.060212
-0.17583 -0.046803 1.2143 6.1771e-39 372 257 0 0 0 0.60268 -0.30115 -0.73898 0.055359
-0.24853 -0.045427 1.2155 7.4678e-39 423 257 0 0 0 -0.55921 -0.50019 -0.66113 0.046673
-0.24687 -0.045382 1.2143 7.6522e-39 424 257 0 0 0 -0.52908 -0.51038 -0.67793 0.043298
-0.17583 -0.045382 1.2143 3.319e-39 145 258 0 0 0 0.62141 -0.25016 -0.74247 0.056046
-0.24829 -0.043962 1.2143 5.8083e-39 229 258 0 0 0 -0.58216 -0.44269 -0.68199 0.048754
-0.17663 -0.042562 1.2149 6.6842e-39 193.5 259 0 0 0 0.65304 -0.15384 -0.74153 0.051101
-0.17583 -0.043962 1.2143 6.8225e-39 393 258 0 0 0 0.64509 -0.19397 -0.73907 0.051685
-0.17663 -0.041141 1.2149 6.592e-39 396.5 259 0 0 0 0.67273 -0.097026 -0.7335 0.046977
-0.24829 -0.038279 1.2143 5.5317e-39 236 260 0 0 0 -0.69326 -0.21496 -0.68788 0.041814
-0.17743 -0.039028 1.2155 5.7622e-39 284.5 260 0 0 0 0.68647 -0.0486 -0.72553 0.041294
-0.24829 -0.036858 1.2143 6.8225e-39 444 260 0 0 0 -0.70769 -0.1576 -0.68872 0.035081
-0.17867 -0.036858 1.2143 3.4112e-39 156 261 0 0 0 0.70455 0.018759 -0.7094 0.030641
-0.24829 -0.034727 1.2143 6.8224e-39 325 261 0 0 0 -0.72213 -0.089774 -0.6859 0.030039
-0.18009 -0.034017 1.2143 4.5176e-39 146 262 0 0 0 0.71471 0.080636 -0.69475 0.021493
-0.17885 -0.034761 1.2155 5.3934e-39 256.5 261.5 0 0 0 0.7114 0.076821 -0.69857 0.023398
-0.24853 -0.032628 1.2155 7.0069e-39 214 262 0 0 0 -0.73367 -0.017534 -0.67928 0.01928
-0.18009 -0.032596 1.2143 5.8083e-39 267 262 0 0 0 0.71997 0.11649 -0.68416 0.016888
-0.24853 -0.031206 1.2155 8.5742e-39 412 262 0 0 0 -0.73954 0.018863 -0.67284 0.014865
-0.18027 -0.031206 1.2155 6.1771e-39 527 262 0 0 0 0.71816 0.15139 -0.67921 0.01194
-0.24853 -0.029073 1.2155 7.1913e-39 295 263 0 0 0 -0.74457 0.089235 -0.66156 0.0065658
-0.18169 -0.028362 1.2155 5.9927e-39 443 263 0 0 0 0.72441 0.19412 -0.66148 0.0073079
-0.24853 -0.02694 1.2155 2.9503e-39 156 264 0 0 0 -0.74373 0.1294 -0.65584 0.0042475
-0.18294 -0.026913 1.2143 7.0991e-39 214 264 0 0 0 0.72703 0.19922 -0.65707 0.0069065
