# .PCD v.7 - Point Cloud Data file format
VERSION .7
FIELDS x y z rgb u v vx vy vz normal_x normal_y normal_z curvature
SIZE 4 4 4 4 4 4 4 4 4 4 4 4 4
TYPE F F F F F F F F F F F F F
COUNT 1 1 1 1 1 1 1 1 1 1 1 1 1
WIDTH 556
HEIGHT 1
VIEWPOINT 0 0 0 1 0 0 0
POINTS 556
DATA ascii
-0.0057458 0.063386 1.0309 6.4076e-39 315 271.5 0 0 0 -0.44837 0.40178 -0.79846 0.0080199
0.031642 0.063989 1.0309 6.0849e-39 243 272 0 0 0 0.46751 0.37611 -0.79998 0.010335
0.032848 0.063386 1.0309 5.5779e-39 357.5 271.5 0 0 0 0.49121 0.36841 -0.7893 0.010436
0.034657 0.062783 1.0309 5.5318e-39 472.5 271 0 0 0 0.5255 0.35738 -0.77209 0.01256
0.037704 0.062836 1.0317 7.7444e-39 475 271 0 0 0 0.55463 0.34823 -0.75572 0.012836
0.038911 0.062836 1.0317 8.482e-39 476 271 0 0 0 0.56695 0.34537 -0.74786 0.01318
-0.0085671 0.064445 1.0317 6.5459e-39 217 272 0 0 0 -0.4896 0.3875 -0.78111 0.0085318
-0.0069577 0.064646 1.0317 7.0069e-39 232.5 272 0 0 0 -0.4705 0.39643 -0.78834 0.0080396
-0.0057458 0.065195 1.0309 8.482e-39 276 272 0 0 0 -0.44065 0.4032 -0.80203 0.0076351
0.031642 0.065195 1.0309 7.2835e-39 380 272 0 0 0 0.46576 0.3791 -0.79959 0.010083
0.032876 0.06525 1.0317 6.8225e-39 381 272 0 0 0 0.48673 0.37505 -0.78894 0.010083
0.034686 0.064647 1.0317 6.7303e-39 314 272 0 0 0 0.51693 0.36434 -0.77462 0.012096
-0.0051452 0.067032 1.0313 5.647e-39 442 272 0 0 0 -0.43337 0.39832 -0.80841 0.0070253
-0.0033337 0.067607 1.0309 4.5176e-39 473 272 0 0 0 -0.41177 0.40112 -0.81826 0.0072344
0.030847 0.066822 1.0312 5.7776e-39 361 272.33 0 0 0 0.45511 0.38284 -0.80393 0.0097058
0.032876 0.066457 1.0317 6.0849e-39 444 272 0 0 0 0.48437 0.37575 -0.79006 0.010463
-0.0045435 0.068871 1.0317 6.3615e-39 243 273 0 0 0 -0.42839 0.39798 -0.81123 0.0066152
-0.0033337 0.068813 1.0309 6.5459e-39 244 273 0 0 0 -0.40855 0.39891 -0.82095 0.0073266
0.028627 0.068813 1.0309 8.7125e-39 273.5 273 0 0 0 0.40179 0.38965 -0.8287 0.0094963
0.030461 0.068871 1.0317 8.6664e-39 275 273 0 0 0 0.44582 0.38315 -0.80898 0.0098366
-0.0045435 0.070078 1.0317 7.3757e-39 379 273 0 0 0 -0.42739 0.3948 -0.81331 0.0066438
-0.0029335 0.070863 1.0314 6.884e-39 423.67 273 0 0 0 -0.40461 0.39802 -0.82333 0.0069937
-0.00092155 0.071226 1.0309 6.6381e-39 447 273 0 0 0 -0.35789 0.39979 -0.84385 0.0081785
0.00028451 0.071226 1.0309 6.2693e-39 448 273 0 0 0 -0.33409 0.40107 -0.85295 0.0081868
0.026818 0.071226 1.0309 6.1771e-39 470 273 0 0 0 0.37922 0.38922 -0.83946 0.010163
0.028645 0.070667 1.0315 5.7853e-39 441.5 273 0 0 0 0.40362 0.38826 -0.82846 0.0096544
-0.0021294 0.072492 1.0317 5.163e-39 201 274 0 0 0 -0.38324 0.39848 -0.83327 0.0074915
-0.00092193 0.073065 1.0313 7.1452e-39 241 274 0 0 0 -0.3622 0.39991 -0.84195 0.0079662
0.00068662 0.073256 1.0312 7.3756e-39 255.33 274 0 0 0 -0.33166 0.40193 -0.85349 0.0080734
0.025612 0.073638 1.0309 8.2976e-39 375 274 0 0 0 0.35337 0.3916 -0.84957 0.011244
0.026829 0.073065 1.0313 7.7444e-39 309 274 0 0 0 0.37488 0.38898 -0.84152 0.010371
0.028047 0.072492 1.0317 7.1913e-39 243 274 0 0 0 0.39836 0.38762 -0.8313 0.0098479
-0.00092232 0.074906 1.0317 6.8225e-39 418 274 0 0 0 -0.35838 0.40166 -0.84276 0.0075816
0.00088768 0.074875 1.0313 6.2232e-39 419.5 274 0 0 0 -0.32948 0.40305 -0.85381 0.0082535
0.0051087 0.074844 1.0309 5.7161e-39 423 274 0 0 0 -0.23623 0.40892 -0.88146 0.0097264
0.0232 0.074844 1.0309 6.6381e-39 438 274 0 0 0 0.3036 0.39223 -0.86832 0.013986
0.02502 0.074875 1.0313 7.0069e-39 439.5 274 0 0 0 0.34147 0.39264 -0.85395 0.011839
0.0010894 0.076515 1.0317 5.9005e-39 182.67 275 0 0 0 -0.32697 0.40601 -0.85337 0.0078449
0.0032997 0.076653 1.0309 5.9927e-39 202.5 275 0 0 0 -0.27806 0.40813 -0.86955 0.0087348
0.0051087 0.076653 1.0309 5.9466e-39 204 275 0 0 0 -0.23924 0.41206 -0.87919 0.009366
0.0067168 0.076854 1.0309 5.962e-39 223.33 275 0 0 0 -0.20593 0.4094 -0.88881 0.010427
0.009933 0.077256 1.0309 7.0069e-39 262 275 0 0 0 -0.11784 0.41291 -0.90312 0.013602
0.017169 0.077256 1.0309 6.2693e-39 268 275 0 0 0 0.12985 0.40464 -0.90521 0.017045
0.019581 0.076653 1.0309 6.638e-39 230.5 275 0 0 0 0.2051 0.401 -0.89282 0.017487
0.02119 0.076854 1.0309 6.4844e-39 245 275 0 0 0 0.26282 0.39965 -0.87818 0.016206
0.023219 0.076716 1.0317 6.6842e-39 233.5 275 0 0 0 0.30677 0.39795 -0.86459 0.014125
0.024828 0.076515 1.0317 6.7303e-39 221.67 275 0 0 0 0.33835 0.39621 -0.85354 0.012176
0.0014918 0.078528 1.0317 6.8225e-39 390 275 0 0 0 -0.31032 0.41046 -0.85745 0.0078844
0.0033016 0.079115 1.0315 6.9147e-39 424.5 275 0 0 0 -0.27181 0.41572 -0.86793 0.0079446
0.0051109 0.079099 1.0313 6.8225e-39 426 275 0 0 0 -0.23892 0.41803 -0.87645 0.0091257
0.0069192 0.079082 1.0311 6.4767e-39 427.5 275 0 0 0 -0.19681 0.41874 -0.88652 0.010416
0.009531 0.079266 1.0309 6.7303e-39 441.33 275 0 0 0 -0.12571 0.42051 -0.89854 0.013253
0.011139 0.079668 1.0309 6.4537e-39 466 275 0 0 0 -0.074603 0.42752 -0.90092 0.013974
0.013551 0.079668 1.0309 6.3615e-39 468 275 0 0 0 0.001787 0.42805 -0.90376 0.016611
0.01536 0.079668 1.0309 6.6381e-39 469.5 275 0 0 0 0.064302 0.42526 -0.90278 0.017921
0.017177 0.079099 1.0313 6.7764e-39 438.5 275 0 0 0 0.13084 0.4185 -0.89874 0.017814
0.019185 0.079288 1.0312 6.4537e-39 451 275 0 0 0 0.19619 0.41267 -0.8895 0.017925
0.021196 0.078886 1.0312 6.3922e-39 431 275 0 0 0 0.25685 0.40762 -0.87628 0.016791
0.022615 0.079131 1.0317 5.5779e-39 443 275 0 0 0 0.29334 0.40486 -0.86605 0.015153
0.0075271 0.080942 1.0317 7.0991e-39 235 276 0 0 0 -0.18241 0.42871 -0.88484 0.011343
0.0093378 0.080942 1.0317 7.5601e-39 236.5 276 0 0 0 -0.14084 0.43208 -0.89077 0.012286
0.011139 0.080874 1.0309 7.7444e-39 238 276 0 0 0 -0.077082 0.43129 -0.89892 0.013987
0.012948 0.080874 1.0309 7.7905e-39 239.5 276 0 0 0 -0.017657 0.43613 -0.89971 0.01544
0.015367 0.080908 1.0313 7.7905e-39 241.5 276 0 0 0 0.058311 0.43257 -0.89971 0.017571
0.017184 0.080942 1.0317 7.7444e-39 243 276 0 0 0 0.12621 0.42982 -0.89405 0.01773
0.018375 0.080874 1.0309 7.8366e-39 244 276 0 0 0 0.15187 0.42304 -0.89329 0.017023
0.022012 0.080942 1.0317 7.0069e-39 247 276 0 0 0 0.272 0.41405 -0.86867 0.016159
0.0099413 0.082149 1.0317 7.4678e-39 373 276 0 0 0 -0.11869 0.43726 -0.89147 0.012526
0.011148 0.082149 1.0317 7.0069e-39 374 276 0 0 0 -0.075035 0.43999 -0.89486 0.014077
0.012959 0.082149 1.0317 7.3757e-39 375.5 276 0 0 0 -0.020887 0.44145 -0.89704 0.014797
0.015374 0.082149 1.0317 7.0069e-39 377.5 276 0 0 0 0.059637 0.43776 -0.89711 0.017841
0.017184 0.082149 1.0317 6.2693e-39 379 276 0 0 0 0.12817 0.43345 -0.89202 0.018259
0.018391 0.082149 1.0317 6.1771e-39 380 276 0 0 0 0.15259 0.43212 -0.88881 0.017153
0.022012 0.082149 1.0317 7.3757e-39 383 276 0 0 0 0.2674 0.41916 -0.86764 0.016404
0.049858 0.0036955 1.0334 7.0991e-39 250 255 0 0 0 0.95135 -0.057019 -0.30279 0.033569
0.049816 0.0049005 1.0326 6.0849e-39 401 255 0 0 0 0.94502 -0.026333 -0.32595 0.028289
0.049816 0.0067126 1.0326 6.8224e-39 223.5 256 0 0 0 0.93973 0.0039772 -0.3419 0.024403
0.049816 0.0091288 1.0326 6.1771e-39 308.5 256.5 0 0 0 0.9352 0.04126 -0.35171 0.021033
0.049816 0.015773 1.0326 5.9927e-39 436 258 0 0 0 0.91537 0.11629 -0.38545 0.0095811
0.0474 0.018189 1.0326 8.021e-39 374 259 0 0 0 0.9057 0.13228 -0.40274 0.0071527
0.044984 0.031478 1.0326 6.1771e-39 252 263 0 0 0 0.84541 0.19751 -0.49626 0.012114
0.045021 0.033319 1.0334 6.0388e-39 431.5 263 0 0 0 0.84319 0.19466 -0.50114 0.012344
0.045021 0.041177 1.0334 6.3615e-39 227 266 0 0 0 0.81182 0.19243 -0.5513 0.015698
0.046231 0.041177 1.0334 5.9927e-39 228 266 0 0 0 0.81617 0.18111 -0.5487 0.014654
0.045021 0.04299 1.0334 7.0991e-39 403 266 0 0 0 0.80058 0.19693 -0.56594 0.017129
0.046231 0.04299 1.0334 7.1452e-39 404 266 0 0 0 0.80727 0.1881 -0.5594 0.015327
-0.019044 0.045975 1.0326 6.3615e-39 232 267 0 0 0 -0.71395 0.31778 -0.62393 0.014442
-0.017836 0.045371 1.0326 5.67e-39 338.5 266.5 0 0 0 -0.70294 0.32497 -0.63267 0.0141
0.043776 0.045975 1.0326 8.5742e-39 362 267 0 0 0 0.74899 0.23277 -0.62035 0.018499
-0.019044 0.047183 1.0326 8.8508e-39 373 267 0 0 0 -0.70996 0.32205 -0.62629 0.014605
-0.017836 0.047183 1.0326 8.482e-39 374 267 0 0 0 -0.69813 0.32509 -0.63791 0.014197
0.043812 0.047223 1.0334 5.7161e-39 429 267 0 0 0 0.74308 0.23025 -0.62835 0.018178
-0.019052 0.049016 1.033 6.0388e-39 342 267.5 0 0 0 -0.71085 0.31561 -0.62855 0.014859
-0.017843 0.049016 1.033 5.9005e-39 343 267.5 0 0 0 -0.69759 0.32549 -0.6383 0.015683
-0.017851 0.05085 1.0334 7.3757e-39 383 268 0 0 0 -0.69752 0.32461 -0.63882 0.016319
0.042568 0.053224 1.0326 8.2976e-39 374 269 0 0 0 0.67462 0.28009 -0.68296 0.01746
-0.016628 0.05564 1.0326 5.9927e-39 459 269 0 0 0 -0.65156 0.33801 -0.67913 0.015348
0.042585 0.055059 1.033 6.7764e-39 333 269.5 0 0 0 0.66892 0.28727 -0.68558 0.01736
-0.016628 0.056848 1.0326 5.9005e-39 241 270 0 0 0 -0.64858 0.33853 -0.68172 0.015806
-0.01542 0.056848 1.0326 5.9005e-39 242 270 0 0 0 -0.63069 0.34361 -0.69582 0.015691
-0.016642 0.058104 1.0334 6.6381e-39 384 270 0 0 0 -0.64893 0.33381 -0.68371 0.01587
-0.014819 0.058673 1.0328 6.5459e-39 418.5 270 0 0 0 -0.6211 0.34519 -0.70362 0.015387
0.040755 0.059264 1.0326 5.3934e-39 191.5 271 0 0 0 0.6246 0.31803 -0.71325 0.016834
-0.014829 0.060523 1.0334 7.4218e-39 228.5 271 0 0 0 -0.61363 0.34736 -0.70909 0.015185
-0.013004 0.06168 1.0326 9.1274e-39 370 271 0 0 0 -0.56132 0.36418 -0.74316 0.010865
0.040755 0.061076 1.0326 7.2143e-39 346.5 271 0 0 0 0.61739 0.32659 -0.71566 0.016876
-0.011796 0.062888 1.0326 5.8083e-39 434 271 0 0 0 -0.53848 0.37256 -0.7558 0.01068
0.036527 0.062888 1.0326 7.1913e-39 474 271 0 0 0 0.54992 0.35024 -0.75823 0.012407
0.040755 0.062888 1.0326 9.45e-39 477.5 271 0 0 0 0.61157 0.33347 -0.71748 0.016767
-0.011197 0.064728 1.033 7.076e-39 229 272 0 0 0 -0.53511 0.37052 -0.75919 0.010381
-0.0093796 0.065304 1.0326 8.7586e-39 273 272 0 0 0 -0.50213 0.38374 -0.77499 0.0086414
0.037147 0.064728 1.033 6.7073e-39 316 272 0 0 0 0.55272 0.35572 -0.75363 0.012877
0.038959 0.064728 1.033 6.9607e-39 317.5 272 0 0 0 0.57623 0.35097 -0.73809 0.014166
0.040789 0.06415 1.0334 5.9005e-39 253.5 272 0 0 0 0.61668 0.33656 -0.71164 0.016537
-0.011201 0.066568 1.0334 6.131e-39 407.5 272 0 0 0 -0.52599 0.37811 -0.76182 0.0091522
-0.0085768 0.066933 1.0329 5.9927e-39 429.33 272 0 0 0 -0.48741 0.39108 -0.7807 0.0072346
-0.0069664 0.067144 1.033 6.0849e-39 440.5 272 0 0 0 -0.46914 0.39166 -0.79153 0.0070804
0.031695 0.06772 1.0326 4.9786e-39 199 273 0 0 0 0.4691 0.3795 -0.79745 0.010195
0.032903 0.06772 1.0326 5.0708e-39 200 273 0 0 0 0.48348 0.37699 -0.79002 0.01022
0.03473 0.067145 1.033 6.1541e-39 323.5 272.5 0 0 0 0.5103 0.3714 -0.77567 0.010955
-0.0081784 0.068986 1.0334 7.4678e-39 240 273 0 0 0 -0.48809 0.39036 -0.78064 0.0066963
-0.0057554 0.068929 1.0326 6.5459e-39 242 273 0 0 0 -0.44695 0.39482 -0.80272 0.0068657
0.031721 0.068986 1.0334 8.7586e-39 276 273 0 0 0 0.47255 0.37809 -0.79608 0.0096808
0.032931 0.068986 1.0334 8.8508e-39 277 273 0 0 0 0.49191 0.37586 -0.78533 0.0097348
-0.0051538 0.07077 1.033 6.9608e-39 411 273 0 0 0 -0.44061 0.39461 -0.80631 0.0066995
0.030487 0.070137 1.0326 6.0849e-39 413 273 0 0 0 0.45029 0.38205 -0.80702 0.009639
-0.0045511 0.073218 1.0334 7.2835e-39 238 274 0 0 0 -0.43547 0.39443 -0.80919 0.006564
-0.0029375 0.073379 1.0329 7.8674e-39 252.33 274 0 0 0 -0.41173 0.39728 -0.82015 0.007059
0.028884 0.073379 1.0329 7.56e-39 333 274 0 0 0 0.42021 0.38691 -0.82081 0.0094428
-0.0027366 0.075001 1.033 6.8686e-39 416.5 274 0 0 0 -0.40505 0.39949 -0.8224 0.0070445
0.026863 0.074969 1.0326 6.8225e-39 441 274 0 0 0 0.38201 0.38912 -0.83824 0.0098643
-0.00092348 0.076814 1.033 6.0388e-39 199 275 0 0 0 -0.36542 0.4043 -0.83846 0.0071236
0.00028499 0.077385 1.0326 5.9005e-39 254 275 0 0 0 -0.34072 0.40791 -0.84707 0.0077015
0.025655 0.077385 1.0326 9.5883e-39 275 275 0 0 0 0.36057 0.39512 -0.84491 0.010933
0.026885 0.076845 1.0334 7.514e-39 236.5 275 0 0 0 0.37907 0.39293 -0.83781 0.0099497
-0.00092386 0.078659 1.0334 7.56e-39 388 275 0 0 0 -0.3615 0.40714 -0.83878 0.0071132
0.00068777 0.079421 1.0329 6.6688e-39 433.33 275 0 0 0 -0.33103 0.41188 -0.84899 0.007703
0.023238 0.079801 1.0326 4.7942e-39 476 275 0 0 0 0.30587 0.40463 -0.86181 0.014609
0.025056 0.079214 1.0328 5.9927e-39 445 275 0 0 0 0.35011 0.39874 -0.8476 0.011893
0.0033063 0.081043 1.033 7.053e-39 231.5 276 0 0 0 -0.27512 0.42174 -0.86397 0.0082199
0.0051173 0.081009 1.0326 7.2835e-39 233 276 0 0 0 -0.24308 0.4261 -0.87141 0.0088448
0.0063254 0.081009 1.0326 7.0991e-39 234 276 0 0 0 -0.21017 0.42793 -0.87904 0.010147
0.019614 0.081009 1.0326 7.9288e-39 245 276 0 0 0 0.20469 0.42636 -0.88109 0.017766
0.020822 0.081009 1.0326 7.56e-39 246 276 0 0 0 0.25415 0.41861 -0.87188 0.017022
0.023238 0.081009 1.0326 6.5459e-39 248 276 0 0 0 0.30624 0.41133 -0.8585 0.014774
0.024467 0.081077 1.0334 6.1771e-39 249 276 0 0 0 0.32873 0.40571 -0.85284 0.013336
0.0039125 0.082286 1.0334 8.2054e-39 368 276 0 0 0 -0.25831 0.42878 -0.86569 0.0079809
0.0051216 0.082286 1.0334 8.5742e-39 369 276 0 0 0 -0.24174 0.43051 -0.86961 0.0089467
0.0071346 0.082666 1.0331 7.7137e-39 391.67 276 0 0 0 -0.19644 0.43811 -0.8772 0.010222
0.0091466 0.083046 1.0329 6.5459e-39 414.33 276 0 0 0 -0.14507 0.44116 -0.88563 0.011846
0.011158 0.083425 1.0326 6.1771e-39 437 276 0 0 0 -0.074373 0.45 -0.88993 0.014177
0.01297 0.083425 1.0326 6.9147e-39 438.5 276 0 0 0 -0.022334 0.45066 -0.89242 0.015783
0.015386 0.083425 1.0326 6.6381e-39 440.5 276 0 0 0 0.048457 0.4496 -0.89191 0.017798
0.017198 0.083425 1.0326 6.2693e-39 442 276 0 0 0 0.12246 0.44465 -0.88729 0.018482
0.019217 0.083046 1.0329 6.3e-39 422.67 276 0 0 0 0.19425 0.43534 -0.87906 0.018595
0.020831 0.082856 1.033 6.9608e-39 413.5 276 0 0 0 0.24768 0.42645 -0.86994 0.017434
0.022644 0.082856 1.033 7.0991e-39 415 276 0 0 0 0.28342 0.41673 -0.86372 0.015656
0.011167 0.084704 1.0334 5.3473e-39 187 277 0 0 0 -0.073239 0.45645 -0.88673 0.015005
0.013182 0.085107 1.0334 5.7469e-39 214.67 277 0 0 0 -0.0146 0.45928 -0.88817 0.016574
0.014794 0.084704 1.0334 6.2693e-39 190 277 0 0 0 0.041665 0.45514 -0.88945 0.017788
0.016608 0.084704 1.0334 5.6239e-39 191.5 277 0 0 0 0.10579 0.45195 -0.88575 0.018174
0.018422 0.085308 1.0334 6.1772e-39 232 277 0 0 0 0.15715 0.44834 -0.87994 0.018282
0.02084 0.084704 1.0334 5.2552e-39 195 277 0 0 0 0.23962 0.42927 -0.87081 0.01764
0.022049 0.085308 1.0334 6.0389e-39 235 277 0 0 0 0.25199 0.42971 -0.8671 0.017426
0.049941 0.0012795 1.0352 4.9786e-39 463 254 0 0 0 0.96267 -0.106 -0.24907 0.044902
0.051152 0.0012795 1.0352 4.7942e-39 464 254 0 0 0 0.96782 -0.10074 -0.23061 0.046529
0.0499 0.0024885 1.0343 6.1771e-39 206 255 0 0 0 0.95555 -0.087311 -0.28159 0.039389
0.05111 0.0030935 1.0343 6.4076e-39 229 255 0 0 0 0.95302 -0.067533 -0.29528 0.036691
0.05111 0.0049087 1.0343 5.8083e-39 402 255 0 0 0 0.95181 -0.042742 -0.30369 0.0338
0.051131 0.0067269 1.0347 6.8686e-39 229.5 256 0 0 0 0.95323 -0.020655 -0.30153 0.032688
0.051152 0.0091517 1.0352 6.4076e-39 309.5 256.5 0 0 0 0.94368 0.01786 -0.33039 0.027897
0.051152 0.010968 1.0352 8.482e-39 277 257 0 0 0 0.94169 0.046911 -0.33321 0.025837
0.05111 0.012774 1.0343 6.3154e-39 320 257.5 0 0 0 0.92988 0.082789 -0.35842 0.017562
0.051152 0.014602 1.0352 9.2196e-39 367 258 0 0 0 0.922 0.088598 -0.37692 0.015555
0.0499 0.01701 1.0343 5.8083e-39 229 259 0 0 0 0.91331 0.11511 -0.39067 0.0098599
0.047479 0.01943 1.0343 6.2693e-39 439 259 0 0 0 0.90582 0.13005 -0.40321 0.0071346
0.048689 0.01822 1.0343 8.5742e-39 375 259 0 0 0 0.90694 0.12776 -0.40142 0.007635
-0.023937 0.029135 1.0352 6.5459e-39 247 262 0 0 0 -0.8586 0.29628 -0.41836 0.016249
0.046913 0.031557 1.0352 6.1771e-39 253.5 263 0 0 0 0.86373 0.17928 -0.47099 0.010066
0.046874 0.033346 1.0343 5.9466e-39 433.75 263 0 0 0 0.85462 0.18656 -0.48458 0.011345
0.045059 0.035161 1.0343 7.9288e-39 270 264 0 0 0 0.8399 0.18041 -0.51188 0.012904
0.046874 0.035161 1.0343 7.7905e-39 271.5 264 0 0 0 0.85157 0.17746 -0.4933 0.011875
0.045059 0.036976 1.0343 5.3473e-39 293.5 264.5 0 0 0 0.83664 0.17674 -0.51845 0.013043
0.046874 0.036976 1.0343 5.6239e-39 308.75 264.5 0 0 0 0.84375 0.17174 -0.50852 0.012714
0.045059 0.038792 1.0343 8.943e-39 366 265 0 0 0 0.82796 0.17429 -0.53301 0.013936
0.046874 0.038792 1.0343 8.7125e-39 367.5 265 0 0 0 0.83837 0.16926 -0.51816 0.013143
0.045059 0.040002 1.0343 5.5317e-39 432 265 0 0 0 0.82035 0.17862 -0.54325 0.014685
0.047076 0.040405 1.0343 5.4703e-39 366 265.33 0 0 0 0.83406 0.16816 -0.52542 0.012784
0.047479 0.043027 1.0343 7.3296e-39 405 266 0 0 0 0.8289 0.18148 -0.52914 0.012692
0.045059 0.044842 1.0343 7.9288e-39 224 267 0 0 0 0.79564 0.20256 -0.5709 0.01706
0.046269 0.044842 1.0343 7.6522e-39 225 267 0 0 0 0.80671 0.19845 -0.55663 0.015768
0.045097 0.046091 1.0352 8.3898e-39 363 267 0 0 0 0.79873 0.20672 -0.56506 0.016553
0.046308 0.046091 1.0352 8.1132e-39 364 267 0 0 0 0.80995 0.20385 -0.54994 0.015054
0.043849 0.048472 1.0343 7.56e-39 225 268 0 0 0 0.75024 0.23491 -0.61803 0.018394
-0.017873 0.05273 1.0347 6.4076e-39 352.5 268.5 0 0 0 -0.70845 0.31561 -0.63127 0.017443
-0.017866 0.055128 1.0343 6.5459e-39 424 269 0 0 0 -0.69645 0.31907 -0.64277 0.017257
-0.017881 0.056991 1.0352 6.0849e-39 240 270 0 0 0 -0.7069 0.31329 -0.63415 0.018537
0.042639 0.056943 1.0343 8.2054e-39 367 270 0 0 0 0.67038 0.29839 -0.67938 0.017093
-0.01667 0.059413 1.0352 6.2693e-39 450 270 0 0 0 -0.67513 0.32182 -0.6638 0.017213
0.042675 0.058807 1.0352 5.5778e-39 316 270.5 0 0 0 0.68167 0.3107 -0.66242 0.019083
-0.01667 0.060624 1.0352 7.1913e-39 227 271 0 0 0 -0.66718 0.32263 -0.6714 0.01698
-0.014841 0.061783 1.0343 8.5281e-39 368.5 271 0 0 0 -0.61653 0.34791 -0.70629 0.014468
-0.013026 0.062994 1.0343 5.9927e-39 433 271 0 0 0 -0.57872 0.35898 -0.73227 0.012492
-0.013037 0.064257 1.0352 6.2693e-39 185 272 0 0 0 -0.57797 0.36243 -0.73116 0.011592
0.040824 0.065414 1.0343 7.3296e-39 387.5 272 0 0 0 0.62287 0.3402 -0.70449 0.016725
-0.011215 0.067862 1.0347 5.9927e-39 466.5 272 0 0 0 -0.53526 0.37637 -0.7562 0.009358
-0.0093953 0.067834 1.0343 5.8083e-39 468 272 0 0 0 -0.50374 0.38438 -0.77363 0.0078235
0.037002 0.067046 1.0346 6.2693e-39 366 272.33 0 0 0 0.55304 0.36046 -0.75115 0.011954
0.039009 0.066624 1.0343 6.0849e-39 449 272 0 0 0 0.58077 0.35478 -0.73269 0.013915
0.040252 0.06668 1.0352 6.1771e-39 450 272 0 0 0 0.61498 0.34765 -0.70777 0.01617
-0.0094032 0.069102 1.0352 7.9288e-39 239 273 0 0 0 -0.50789 0.38696 -0.76962 0.0070585
-0.0069751 0.069044 1.0343 7.0069e-39 241 273 0 0 0 -0.47511 0.39155 -0.78801 0.0067371
0.034803 0.069102 1.0352 8.8508e-39 278.5 273 0 0 0 0.5185 0.37206 -0.76989 0.010157
-0.0081921 0.070313 1.0352 8.482e-39 376 273 0 0 0 -0.49374 0.39055 -0.77698 0.0066474
-0.006981 0.070313 1.0352 8.021e-39 377 273 0 0 0 -0.47976 0.39223 -0.78485 0.0067043
-0.005765 0.071464 1.0343 5.9005e-39 443 273 0 0 0 -0.4584 0.39146 -0.79789 0.0066684
0.031143 0.070859 1.0343 5.3012e-39 443.5 273 0 0 0 0.46657 0.37862 -0.79934 0.009383
0.032958 0.070254 1.0343 5.9927e-39 415 273 0 0 0 0.49463 0.375 -0.78404 0.0097318
-0.0057674 0.07331 1.0347 7.2835e-39 237 274 0 0 0 -0.45737 0.39451 -0.79698 0.0065289
0.030564 0.072735 1.0352 7.2835e-39 245 274 0 0 0 0.46227 0.38177 -0.80035 0.0089282
-0.0045549 0.075095 1.0343 6.4537e-39 415 274 0 0 0 -0.439 0.39517 -0.80692 0.0065038
0.028723 0.075095 1.0343 6.0388e-39 442.5 274 0 0 0 0.42494 0.3849 -0.81932 0.0095093
-0.0025396 0.076751 1.0349 7.3449e-39 403.67 274.33 0 0 0 -0.41358 0.39937 -0.8182 0.0068852
0.028545 0.076773 1.0352 6.5459e-39 224.67 275 0 0 0 0.4244 0.38681 -0.8187 0.009811
-0.00092464 0.079935 1.0343 6.2693e-39 454 275 0 0 0 -0.36536 0.40895 -0.83622 0.007413
0.026908 0.078725 1.0343 6.9147e-39 414 275 0 0 0 0.3827 0.39187 -0.83665 0.010214
0.00089065 0.081179 1.0347 6.592e-39 220.5 276 0 0 0 -0.33169 0.41547 -0.84698 0.0079644
0.025698 0.081145 1.0343 5.9927e-39 250 276 0 0 0 0.35132 0.39973 -0.84663 0.011751
0.02693 0.080002 1.0352 7.3757e-39 479 275 0 0 0 0.38155 0.39217 -0.83703 0.010578
0.0033107 0.08296 1.0343 7.3296e-39 399 276 0 0 0 -0.27797 0.4285 -0.85972 0.0084215
0.0051259 0.083565 1.0343 6.2693e-39 432 276 0 0 0 -0.23802 0.43454 -0.86863 0.008875
0.006336 0.083565 1.0343 5.9927e-39 433 276 0 0 0 -0.21234 0.43967 -0.8727 0.0099904
0.023277 0.083565 1.0343 7.1913e-39 447 276 0 0 0 0.30093 0.41441 -0.85889 0.015256
0.024905 0.082805 1.0349 6.6381e-39 406.33 276 0 0 0 0.33114 0.40629 -0.85163 0.013446
0.0051302 0.084846 1.0352 5.8083e-39 153 277 0 0 0 -0.23287 0.44029 -0.86713 0.0092617
0.0075524 0.084846 1.0352 5.9005e-39 184 277 0 0 0 -0.17308 0.45211 -0.87501 0.011684
0.0093613 0.084775 1.0343 5.7161e-39 185.5 277 0 0 0 -0.12332 0.4564 -0.88119 0.013038
0.011176 0.085985 1.0343 6.8225e-39 265 277 0 0 0 -0.075044 0.461 -0.88422 0.015144
0.012386 0.085985 1.0343 6.3615e-39 266 277 0 0 0 -0.038035 0.46171 -0.88621 0.016537
0.014807 0.085985 1.0343 6.2693e-39 268 277 0 0 0 0.038276 0.46161 -0.88626 0.017802
0.016622 0.085985 1.0343 7.0069e-39 269.5 277 0 0 0 0.10466 0.45705 -0.88326 0.018291
0.019647 0.084775 1.0343 5.3473e-39 194 277 0 0 0 0.20583 0.43909 -0.87455 0.018785
0.020857 0.085985 1.0343 6.3615e-39 273 277 0 0 0 0.23259 0.43283 -0.87096 0.017939
0.023297 0.084846 1.0352 5.3473e-39 197 277 0 0 0 0.29308 0.41747 -0.86013 0.015752
0.009369 0.086057 1.0352 7.0069e-39 263.5 277 0 0 0 -0.12727 0.45816 -0.87971 0.013172
0.011186 0.087269 1.0352 6.5459e-39 395 277 0 0 0 -0.076067 0.46315 -0.88301 0.01537
0.013002 0.087269 1.0352 7.053e-39 396.5 277 0 0 0 -0.017033 0.46332 -0.88603 0.017437
0.014819 0.087269 1.0352 7.2835e-39 398 277 0 0 0 0.042501 0.46211 -0.8858 0.017969
0.016635 0.087269 1.0352 6.7764e-39 399.5 277 0 0 0 0.099116 0.45842 -0.88319 0.01785
0.019058 0.086663 1.0352 6.4537e-39 336.5 277 0 0 0 0.17912 0.45057 -0.87459 0.019123
0.020857 0.087196 1.0343 7.3757e-39 403 277 0 0 0 0.22296 0.43836 -0.87071 0.017367
0.022682 0.086626 1.0347 7.7905e-39 339.5 277 0 0 0 0.27172 0.42413 -0.86387 0.01743
0.022086 0.08848 1.0352 7.0991e-39 463 277 0 0 0 0.24123 0.42472 -0.87259 0.017906
0.047639 0.0012827 1.0378 5.9005e-39 461 254 0 0 0 0.98979 -0.091975 -0.10893 0.052954
0.048853 6.8567e-05 1.0378 5.9005e-39 399 254 0 0 0 0.98948 -0.10612 -0.098367 0.053039
0.051281 6.8567e-05 1.0378 5.9927e-39 401 254 0 0 0 0.98463 -0.11348 -0.13274 0.050125
0.052496 0.00067563 1.0378 5.2551e-39 433.5 254 0 0 0 0.98026 -0.1154 -0.16052 0.04899
0.054924 6.8567e-05 1.0378 5.6239e-39 404 254 0 0 0 0.98072 -0.12014 -0.1541 0.050683
0.052496 0.0049252 1.0378 5.7161e-39 403 255 0 0 0 0.98288 -0.066199 -0.17196 0.048592
0.051195 0.015826 1.036 6.0849e-39 437 258 0 0 0 0.91777 0.099331 -0.38448 0.0136
0.051281 0.017067 1.0378 5.9005e-39 230 259 0 0 0 0.91244 0.097702 -0.39737 0.013729
0.049377 0.018856 1.036 7.6983e-39 408 259 0 0 0 0.90469 0.12415 -0.40758 0.0080892
0.050025 0.019479 1.0369 7.0069e-39 441 259 0 0 0 0.90249 0.12068 -0.41346 0.0083686
0.047002 0.021304 1.0371 7.1221e-39 303 260 0 0 0 0.90069 0.1369 -0.41234 0.0068556
0.048853 0.020709 1.0378 6.0849e-39 231 260 0 0 0 0.89879 0.13312 -0.41769 0.0077725
-0.023957 0.023099 1.036 7.9288e-39 385 260 0 0 0 -0.88972 0.28334 -0.35793 0.015355
-0.023977 0.024938 1.0369 5.9927e-39 347 260.5 0 0 0 -0.88485 0.2841 -0.36923 0.019044
-0.023967 0.027353 1.0365 6.2232e-39 422 261 0 0 0 -0.87679 0.2883 -0.38488 0.01835
0.047013 0.03041 1.0373 6.131e-39 454.5 262 0 0 0 0.87189 0.16387 -0.46148 0.0084992
0.048791 0.034629 1.0365 7.0529e-39 216 264 0 0 0 0.86111 0.16024 -0.48251 0.010071
0.048791 0.037054 1.0365 6.3615e-39 314.5 264.5 0 0 0 0.85829 0.15141 -0.49032 0.010573
0.048853 0.038922 1.0378 8.3898e-39 369 265 0 0 0 0.86143 0.15701 -0.483 0.010502
0.048812 0.040708 1.0369 5.8083e-39 333 265.5 0 0 0 0.85333 0.16418 -0.49484 0.011576
0.048791 0.043118 1.0365 7.4218e-39 406 266 0 0 0 0.84925 0.17612 -0.49776 0.011558
0.047559 0.044917 1.036 7.0991e-39 226 267 0 0 0 0.83653 0.18985 -0.51398 0.012707
0.045135 0.047342 1.036 6.0849e-39 430 267 0 0 0 0.80013 0.21024 -0.56177 0.017691
0.046386 0.047381 1.0369 6.1771e-39 431 267 0 0 0 0.82567 0.20392 -0.52601 0.015074
-0.020346 0.049222 1.0373 5.9005e-39 341 267.5 0 0 0 -0.7699 0.28137 -0.57278 0.014811
0.043923 0.049766 1.036 8.7586e-39 368 268 0 0 0 0.76942 0.23393 -0.59437 0.019217
0.045211 0.048635 1.0378 7.1913e-39 226 268 0 0 0 0.82735 0.21028 -0.52085 0.016192
0.04396 0.051021 1.0369 5.9927e-39 441 268 0 0 0 0.77916 0.24297 -0.57782 0.020264
-0.019108 0.053402 1.036 6.7303e-39 246 269 0 0 0 -0.73807 0.2985 -0.6051 0.016485
0.04396 0.052841 1.0369 7.9749e-39 303 269 0 0 0 0.77178 0.25992 -0.58034 0.019857
-0.019108 0.05522 1.036 6.4076e-39 423 269 0 0 0 -0.73577 0.30034 -0.60699 0.0169
0.043996 0.054706 1.0378 5.6239e-39 443 269 0 0 0 0.76808 0.27244 -0.57951 0.02068
-0.019124 0.057086 1.0369 6.4537e-39 239 270 0 0 0 -0.74187 0.30234 -0.59852 0.016815
-0.01914 0.058349 1.0378 6.6381e-39 382 270 0 0 0 -0.74973 0.29603 -0.59184 0.016955
-0.017911 0.058907 1.0369 6.4076e-39 416 270 0 0 0 -0.72253 0.30323 -0.62129 0.018
-0.01914 0.060777 1.0378 7.7444e-39 225 271 0 0 0 -0.74671 0.29747 -0.59492 0.016685
-0.017312 0.061358 1.0373 7.7905e-39 296.5 271 0 0 0 -0.71116 0.30842 -0.63177 0.01788
0.042728 0.061307 1.0365 6.9146e-39 348 271 0 0 0 0.689 0.32485 -0.64788 0.019106
-0.014872 0.063125 1.0365 6.5459e-39 431.5 271 0 0 0 -0.63667 0.33972 -0.69227 0.014388
-0.015498 0.064419 1.0378 5.6239e-39 183 272 0 0 0 -0.65683 0.33861 -0.67374 0.014809
-0.013047 0.065523 1.036 7.4678e-39 270 272 0 0 0 -0.58992 0.36129 -0.72212 0.011373
-0.013058 0.066792 1.0369 5.9927e-39 406 272 0 0 0 -0.59919 0.36038 -0.71491 0.011399
0.037862 0.067948 1.036 5.9927e-39 204 273 0 0 0 0.57768 0.35583 -0.73463 0.012916
0.039074 0.067948 1.036 6.3615e-39 205 273 0 0 0 0.59466 0.35436 -0.72167 0.014438
0.041498 0.066736 1.036 6.2693e-39 451 272 0 0 0 0.647 0.34062 -0.68217 0.017242
-0.011229 0.06916 1.036 8.021e-39 237.5 273 0 0 0 -0.544 0.37588 -0.75018 0.0088366
0.037287 0.069218 1.0369 8.6664e-39 280.5 273 0 0 0 0.57674 0.35962 -0.73352 0.012974
0.039107 0.069218 1.0369 7.1913e-39 282 273 0 0 0 0.59594 0.35787 -0.71888 0.013777
0.040337 0.068641 1.0373 6.6381e-39 244.5 273 0 0 0 0.62923 0.34699 -0.69546 0.016829
-0.011243 0.071067 1.0373 7.7214e-39 406 273 0 0 0 -0.55613 0.37631 -0.74102 0.0088194
-0.0090097 0.0712 1.0363 7.6215e-39 418.67 273 0 0 0 -0.50463 0.38762 -0.77143 0.0061658
-0.0069868 0.071584 1.036 6.1771e-39 442 273 0 0 0 -0.48376 0.39024 -0.78338 0.0066173
0.031801 0.071584 1.036 4.1488e-39 474 273 0 0 0 0.48438 0.3798 -0.78812 0.0088994
0.033013 0.071584 1.036 4.7942e-39 475 273 0 0 0 0.50255 0.37413 -0.7794 0.0099218
0.034832 0.070372 1.036 6.2693e-39 416.5 273 0 0 0 0.52007 0.37342 -0.76816 0.010064
0.036711 0.07049 1.0378 6.4537e-39 418 273 0 0 0 0.57134 0.36037 -0.73737 0.012725
-0.0088164 0.072888 1.0373 5.7622e-39 192.5 274 0 0 0 -0.50966 0.38691 -0.76847 0.0061333
-0.0069927 0.072857 1.0369 5.2552e-39 197 274 0 0 0 -0.48747 0.38966 -0.78137 0.0063186
0.031828 0.072857 1.0369 7.0069e-39 246 274 0 0 0 0.48899 0.37774 -0.78626 0.0084831
0.033041 0.072857 1.0369 6.6381e-39 247 274 0 0 0 0.50198 0.3769 -0.77844 0.0088667
-0.0082093 0.074709 1.0373 7.6061e-39 343 274 0 0 0 -0.49965 0.38578 -0.77558 0.0061052
-0.0069957 0.074709 1.0373 7.7444e-39 344 274 0 0 0 -0.48941 0.38813 -0.78092 0.0064538
-0.0057747 0.075221 1.036 6.2693e-39 414 274 0 0 0 -0.4663 0.39278 -0.79265 0.0064092
0.031028 0.074496 1.0372 6.6074e-39 401 274 0 0 0 0.47856 0.38006 -0.79154 0.0085636
-0.0051732 0.077104 1.0369 6.7072e-39 363 274.5 0 0 0 -0.45973 0.39068 -0.7975 0.0064675
-0.0033504 0.077645 1.036 5.8083e-39 250 275 0 0 0 -0.42793 0.39894 -0.811 0.0068775
0.029377 0.077645 1.036 9.3118e-39 278 275 0 0 0 0.44539 0.38352 -0.80904 0.0094036
0.030641 0.076561 1.0378 5.0708e-39 200 275 0 0 0 0.47213 0.37967 -0.79558 0.0085637
-0.0045702 0.078989 1.0378 7.0069e-39 385 275 0 0 0 -0.45393 0.3904 -0.80096 0.0066416
-0.0027458 0.07889 1.0365 7.4218e-39 386.5 275 0 0 0 -0.4205 0.39867 -0.81501 0.0070848
0.028771 0.078857 1.036 7.1452e-39 415.5 275 0 0 0 0.43247 0.38564 -0.81502 0.0098361
-0.002749 0.080204 1.0378 6.7764e-39 452.5 275 0 0 0 -0.42345 0.39699 -0.81431 0.0074423
-0.00092619 0.081281 1.036 6.2693e-39 210 276 0 0 0 -0.3742 0.40706 -0.83323 0.0079384
0.026953 0.081281 1.036 5.8083e-39 252 276 0 0 0 0.3844 0.39206 -0.83578 0.010971
0.028609 0.080586 1.0375 6.8839e-39 404.67 275.33 0 0 0 0.43333 0.38231 -0.81613 0.010263
-0.00092774 0.082632 1.0378 6.7303e-39 364 276 0 0 0 -0.3857 0.40413 -0.82941 0.0083867
0.0008925 0.083169 1.0369 7.1682e-39 397 276 0 0 0 -0.33806 0.41599 -0.84419 0.008649
0.0027102 0.083705 1.036 6.9147e-39 430 276 0 0 0 -0.29778 0.42605 -0.85429 0.0088763
0.025741 0.083705 1.036 6.3615e-39 449 276 0 0 0 0.34485 0.3992 -0.84954 0.012396
0.026987 0.083205 1.0373 6.6842e-39 418.5 276 0 0 0 0.38664 0.39171 -0.83491 0.011794
0.00089351 0.08506 1.0378 5.7161e-39 149.5 277 0 0 0 -0.33684 0.41409 -0.84562 0.0093147
0.0033174 0.084954 1.0365 5.6239e-39 151.5 277 0 0 0 -0.27684 0.42836 -0.86015 0.0088075
0.0063466 0.084918 1.036 5.6239e-39 183 277 0 0 0 -0.20839 0.4434 -0.87176 0.010228
0.025135 0.084918 1.036 5.8544e-39 198.5 277 0 0 0 0.3329 0.40606 -0.85105 0.013628
0.026998 0.08506 1.0378 6.3615e-39 200 277 0 0 0 0.37804 0.38794 -0.84059 0.013015
0.0035231 0.086655 1.0375 6.7303e-39 302 277 0 0 0 -0.26719 0.43022 -0.86228 0.0094513
0.0051431 0.086882 1.0378 6.4076e-39 325 277 0 0 0 -0.22897 0.43836 -0.86914 0.009629
0.0069596 0.086827 1.0371 6.4306e-39 326.5 277 0 0 0 -0.19224 0.44591 -0.87419 0.010979
0.009377 0.087342 1.036 6.3154e-39 393.5 277 0 0 0 -0.12435 0.45677 -0.88085 0.013402
0.01968 0.087342 1.036 6.9147e-39 402 277 0 0 0 0.19062 0.44215 -0.87645 0.019708
0.023336 0.087415 1.0369 6.9147e-39 405 277 0 0 0 0.29001 0.41145 -0.86406 0.016412
0.025166 0.086846 1.0373 8.1593e-39 341.5 277 0 0 0 0.32713 0.40131 -0.85553 0.014134
0.0075683 0.089272 1.0373 6.2233e-39 323.5 277.5 0 0 0 -0.16664 0.44573 -0.87952 0.012066
0.0093887 0.089272 1.0373 6.3615e-39 325 277.5 0 0 0 -0.12229 0.45081 -0.88421 0.014113
0.0112 0.089198 1.0365 6.3615e-39 326.5 277.5 0 0 0 -0.072463 0.45787 -0.88606 0.016016
0.013024 0.089235 1.0369 6.3384e-39 328 277.5 0 0 0 -0.014643 0.46196 -0.88678 0.01708
0.01485 0.089272 1.0373 6.4537e-39 329.5 277.5 0 0 0 0.041484 0.45565 -0.88919 0.018385
0.016657 0.089198 1.0365 6.4076e-39 331 277.5 0 0 0 0.092206 0.45459 -0.88592 0.018011
0.01909 0.089235 1.0369 6.0849e-39 333 277.5 0 0 0 0.16759 0.44403 -0.8802 0.018513
0.020901 0.089198 1.0365 6.4076e-39 334.5 277.5 0 0 0 0.21114 0.43184 -0.87689 0.018028
0.022123 0.089841 1.0369 6.1771e-39 208 278 0 0 0 0.23617 0.42301 -0.8748 0.017777
0.0099998 0.091131 1.0378 8.3898e-39 276 278 0 0 0 -0.10468 0.44808 -0.88784 0.014244
0.011214 0.091131 1.0378 9.2196e-39 277 278 0 0 0 -0.076765 0.44835 -0.89056 0.015412
0.013642 0.091131 1.0378 8.482e-39 279 278 0 0 0 0.0013357 0.44962 -0.89322 0.01766
0.014856 0.091131 1.0378 8.1132e-39 280 278 0 0 0 0.038098 0.44811 -0.89317 0.017413
0.01667 0.091093 1.0373 7.8366e-39 281.5 278 0 0 0 0.097734 0.44477 -0.8903 0.01791
0.019098 0.091093 1.0373 7.6983e-39 283.5 278 0 0 0 0.15827 0.4347 -0.88656 0.018055
0.020927 0.091131 1.0378 7.2835e-39 285 278 0 0 0 0.19923 0.42211 -0.88438 0.017626
0.022123 0.091055 1.0369 6.6381e-39 286 278 0 0 0 0.22611 0.41989 -0.87896 0.017432
0.018499 0.092345 1.0378 6.6381e-39 407 278 0 0 0 0.13737 0.43415 -0.89031 0.017748
0.022141 0.092345 1.0378 6.5459e-39 410 278 0 0 0 0.22764 0.41654 -0.88016 0.016473
0.054993 -0.006618 1.0391 6.3615e-39 306 252.5 0 0 0 -0.98458 0.1429 -0.10092 0.064266
0.05497 -0.0047921 1.0387 7.9288e-39 266 253 0 0 0 -0.98895 0.13732 -0.055926 0.061365
0.052562 -0.0029709 1.0391 6.0849e-39 307 253.5 0 0 0 -0.9885 0.15002 -0.018958 0.057487
0.054993 -0.0029703 1.0391 6.2693e-39 310 253.5 0 0 0 -0.98767 0.15603 0.012781 0.056279
0.05076 -0.0011475 1.0395 7.7444e-39 257.5 254 0 0 0 -0.9915 0.12664 -0.029804 0.053262
0.05317 -0.001147 1.0391 8.7125e-39 259.5 254 0 0 0 -0.98874 0.14104 0.049937 0.052567
0.05497 -0.0011466 1.0387 8.2054e-39 261 254 0 0 0 0.98469 -0.14117 -0.10227 0.052253
0.050109 6.8625e-05 1.0387 5.9927e-39 400 254 0 0 0 0.99262 -0.10833 -0.054552 0.052878
0.053755 0.00067621 1.0387 5.3934e-39 288 254.5 0 0 0 0.98465 -0.11621 -0.13024 0.050507
0.05497 0.0012838 1.0387 5.2552e-39 174 255 0 0 0 0.98278 -0.11206 -0.14692 0.050046
0.05296 0.0029048 1.039 6.0234e-39 223.67 255 0 0 0 0.98765 -0.076404 -0.13677 0.04918
0.055016 0.0025011 1.0395 5.5317e-39 211 255 0 0 0 0.98573 -0.095123 -0.1389 0.048496
0.052562 0.0067553 1.0391 6.8224e-39 230.5 256 0 0 0 0.98427 -0.044226 -0.17106 0.046146
0.052584 0.0097984 1.0395 6.3615e-39 206 257 0 0 0 0.96431 -0.00017953 -0.26477 0.035143
0.052584 0.011015 1.0395 8.3898e-39 278 257 0 0 0 0.96129 0.013005 -0.27524 0.034115
0.052562 0.012834 1.0391 6.4998e-39 321 257.5 0 0 0 0.94426 0.043384 -0.32632 0.027499
0.055016 0.013447 1.0395 5.7161e-39 221 258 0 0 0 0.9372 0.053124 -0.34471 0.024837
0.051368 0.018312 1.0395 8.6664e-39 377 259 0 0 0 0.90391 0.11029 -0.41325 0.011301
0.048894 0.021942 1.0387 8.2976e-39 378 260 0 0 0 0.89451 0.13871 -0.42498 0.0071115
0.050131 0.021343 1.0391 7.4218e-39 305.5 260 0 0 0 0.89547 0.13806 -0.42318 0.007381
0.047072 0.023157 1.0387 6.2693e-39 445.5 260 0 0 0 0.89119 0.14656 -0.42931 0.0072392
0.048894 0.023157 1.0387 6.1771e-39 447 260 0 0 0 0.89259 0.14288 -0.42763 0.0072949
0.047101 0.024996 1.0393 7.6522e-39 307.5 261 0 0 0 0.88864 0.14497 -0.43509 0.007651
0.048935 0.024393 1.0395 5.9927e-39 235 261 0 0 0 0.89353 0.13805 -0.42724 0.0076615
0.047111 0.029258 1.0395 6.2693e-39 388.5 262 0 0 0 0.87706 0.15481 -0.45476 0.0080914
0.048935 0.03169 1.0395 6.2693e-39 255 263 0 0 0 0.88007 0.15346 -0.44936 0.0077564
0.048894 0.032879 1.0387 7.2835e-39 401 263 0 0 0 0.87524 0.15428 -0.45843 0.0080333
0.048935 0.045069 1.0395 6.9147e-39 227 267 0 0 0 0.86661 0.19834 -0.45787 0.010919
0.047679 0.046246 1.0387 8.3898e-39 365 267 0 0 0 0.85522 0.20508 -0.47597 0.012368
0.045249 0.049891 1.0387 9.2196e-39 369 268 0 0 0 0.83355 0.22157 -0.50607 0.016517
0.046484 0.049305 1.0391 8.1132e-39 298.5 268 0 0 0 0.85434 0.2152 -0.47306 0.012512
-0.020389 0.05115 1.0395 7.4678e-39 382 268 0 0 0 -0.7879 0.27422 -0.55138 0.014303
0.045287 0.05115 1.0395 5.6239e-39 442 268 0 0 0 0.83504 0.22757 -0.50092 0.017558
0.045268 0.052951 1.0391 7.7444e-39 304 269 0 0 0 0.82027 0.24517 -0.51677 0.018573
0.044641 0.055359 1.0387 6.6841e-39 334.5 269.5 0 0 0 0.79134 0.27689 -0.54508 0.02047
0.044071 0.057231 1.0395 8.5742e-39 368 270 0 0 0 0.78494 0.29695 -0.54377 0.020886
-0.019156 0.059613 1.0387 5.9005e-39 448 270 0 0 0 -0.75717 0.2952 -0.58271 0.016382
-0.019156 0.062043 1.0387 8.1132e-39 365 271 0 0 0 -0.75491 0.29833 -0.58404 0.016266
-0.017341 0.062677 1.0391 7.2374e-39 398 271 0 0 0 -0.73147 0.30345 -0.61064 0.01723
0.042818 0.063258 1.0387 5.163e-39 150 272 0 0 0 0.73032 0.32568 -0.60047 0.021789
-0.01674 0.064528 1.0395 5.2552e-39 161 272 0 0 0 -0.72047 0.31295 -0.61886 0.016724
-0.014701 0.065284 1.0387 6.6381e-39 240.33 272 0 0 0 -0.65067 0.34411 -0.67691 0.01403
0.042854 0.064528 1.0395 5.9927e-39 255 272 0 0 0 0.7362 0.31749 -0.59767 0.02165
-0.014916 0.06696 1.0395 6.5459e-39 404.5 272 0 0 0 -0.65771 0.34486 -0.66969 0.014253
-0.013085 0.068756 1.0391 7.2374e-39 350.5 272.5 0 0 0 -0.61506 0.36213 -0.7004 0.011339
0.041603 0.068119 1.0387 7.7444e-39 207 273 0 0 0 0.67309 0.33601 -0.65882 0.018616
-0.013091 0.070609 1.0395 8.2976e-39 372 273 0 0 0 -0.61595 0.36275 -0.6993 0.011219
0.03492 0.071765 1.0387 7.4679e-39 476.5 273 0 0 0 0.54097 0.3724 -0.7541 0.009119
0.037573 0.0714 1.0392 7.9903e-39 458.67 273 0 0 0 0.58766 0.35967 -0.72477 0.012626
0.039189 0.071187 1.0391 6.7303e-39 450 273 0 0 0 0.6161 0.35202 -0.70463 0.014786
0.040422 0.070609 1.0395 5.4395e-39 421 273 0 0 0 0.64008 0.34539 -0.68629 0.018135
-0.011257 0.07298 1.0387 6.0388e-39 190.5 274 0 0 0 -0.56609 0.37762 -0.73277 0.0086274
0.034949 0.073041 1.0395 5.9005e-39 248.5 274 0 0 0 0.54299 0.37223 -0.75273 0.0091811
-0.011061 0.074642 1.0392 7.0991e-39 317.67 274 0 0 0 -0.56557 0.37273 -0.73566 0.0087184
-0.0094348 0.074803 1.0387 7.3757e-39 342 274 0 0 0 -0.52749 0.38218 -0.75874 0.0064567
0.031882 0.07541 1.0387 6.7303e-39 445 274 0 0 0 0.49316 0.37536 -0.78479 0.0085697
0.033111 0.074834 1.0391 7.0991e-39 413.5 274 0 0 0 0.51555 0.37301 -0.77141 0.0083432
-0.0086297 0.077074 1.0392 5.3474e-39 398.33 274.33 0 0 0 -0.51698 0.38067 -0.7667 0.0068526
-0.0070074 0.077266 1.0391 5.7622e-39 361.5 274.5 0 0 0 -0.4973 0.38496 -0.77749 0.0065886
0.031494 0.077479 1.0392 7.4064e-39 253.33 275 0 0 0 0.48935 0.37733 -0.78623 0.0084984
-0.0070104 0.079122 1.0395 7.56e-39 383 275 0 0 0 -0.49369 0.38009 -0.78218 0.0071699
-0.0057893 0.079056 1.0387 7.4678e-39 384 275 0 0 0 -0.47091 0.38347 -0.79447 0.006624
0.030666 0.079056 1.0387 7.0991e-39 417 275 0 0 0 0.47189 0.37354 -0.79862 0.0088354
-0.0051842 0.080305 1.0391 6.592e-39 450.5 275 0 0 0 -0.46302 0.38646 -0.79766 0.0068126
-0.0027536 0.081555 1.0395 6.4537e-39 208.5 276 0 0 0 -0.42506 0.39633 -0.81379 0.0078609
0.029451 0.081486 1.0387 5.8083e-39 254 276 0 0 0 0.44495 0.37717 -0.81226 0.010329
0.030679 0.080913 1.0391 5.9466e-39 199.5 276 0 0 0 0.47147 0.37243 -0.79938 0.009608
-0.00092852 0.083917 1.0387 6.1771e-39 427 276 0 0 0 -0.38138 0.405 -0.83098 0.0086021
0.028856 0.083344 1.0391 7.076e-39 420 276 0 0 0 0.43421 0.37272 -0.82009 0.011284
0.030692 0.082771 1.0395 6.8225e-39 390 276 0 0 0 0.46811 0.36197 -0.80613 0.010055
-0.00092852 0.085132 1.0387 5.7161e-39 148 277 0 0 0 -0.37583 0.40447 -0.83376 0.0089931
0.02826 0.085203 1.0395 6.3615e-39 201 277 0 0 0 0.4158 0.3754 -0.82836 0.012985
-0.00092931 0.087028 1.0395 6.0849e-39 320 277 0 0 0 -0.36922 0.39786 -0.83987 0.0094832
0.00089434 0.086973 1.0389 6.3154e-39 321.5 277 0 0 0 -0.33068 0.4103 -0.84988 0.0096397
0.002717 0.087562 1.0387 7.0069e-39 388 277 0 0 0 -0.28628 0.42212 -0.86015 0.0099042
0.027033 0.086992 1.0391 8.2977e-39 343 277 0 0 0 0.37054 0.38494 -0.84529 0.013162
0.02826 0.08642 1.0395 8.5742e-39 279 277 0 0 0 0.41071 0.37174 -0.83254 0.01315
0.0015031 0.088852 1.0395 7.0991e-39 446 277 0 0 0 -0.31246 0.41001 -0.85689 0.0099973
0.0033258 0.088814 1.0391 6.592e-39 447.5 277 0 0 0 -0.26602 0.42523 -0.86511 0.010126
0.0051474 0.089385 1.0387 5.8544e-39 321.5 277.5 0 0 0 -0.22142 0.43458 -0.87299 0.009928
0.0063626 0.088777 1.0387 6.6381e-39 450 277 0 0 0 -0.20166 0.44063 -0.87475 0.011233
0.023375 0.088777 1.0387 7.0991e-39 464 277 0 0 0 0.28929 0.40451 -0.86757 0.016274
0.025208 0.088814 1.0391 6.7764e-39 465.5 277 0 0 0 0.32489 0.39092 -0.86118 0.014433
0.0039355 0.090068 1.0395 5.4395e-39 193 278 0 0 0 -0.24223 0.42586 -0.87176 0.010727
0.0051518 0.091285 1.0395 6.8225e-39 272 278 0 0 0 -0.21659 0.42754 -0.87767 0.010583
0.0067713 0.090854 1.0392 5.962e-39 247.33 278 0 0 0 -0.19071 0.43476 -0.88012 0.011461
0.008793 0.091208 1.0387 7.0069e-39 275 278 0 0 0 -0.13515 0.44399 -0.88578 0.013275
0.012439 0.091208 1.0387 9.2196e-39 278 278 0 0 0 -0.029443 0.44978 -0.89265 0.016817
0.023395 0.090677 1.0395 6.4998e-39 248 278 0 0 0 0.27892 0.39965 -0.87321 0.015782
0.025219 0.090676 1.0395 6.2923e-39 285 278 0 0 0 0.31467 0.39079 -0.86503 0.01386
0.0075842 0.092501 1.0395 7.2835e-39 398 278 0 0 0 -0.16256 0.43165 -0.88727 0.012308
0.0087967 0.09307 1.0391 6.6381e-39 424.5 278 0 0 0 -0.13399 0.43355 -0.89111 0.013321
0.01062 0.09307 1.0391 6.8456e-39 426 278 0 0 0 -0.087596 0.44107 -0.89319 0.014906
0.013256 0.09288 1.0392 7.0069e-39 419.67 278 0 0 0 -0.012783 0.4401 -0.89786 0.017264
0.014869 0.092423 1.0387 7.1913e-39 404 278 0 0 0 0.038375 0.4411 -0.89664 0.016909
0.016699 0.09307 1.0391 6.7764e-39 431 278 0 0 0 0.088426 0.43452 -0.89631 0.017473
0.019335 0.093286 1.0392 7.0683e-39 441.67 278 0 0 0 0.15493 0.42276 -0.8929 0.016848
0.020945 0.092423 1.0387 6.4537e-39 409 278 0 0 0 0.20067 0.42228 -0.88398 0.016525
0.022787 0.093109 1.0395 6.8686e-39 436 278 0 0 0 0.23907 0.40791 -0.88117 0.015803
-0.024058 -0.015755 1.0404 5.5317e-39 451 249 0 0 0 0.81048 0.28582 -0.5113 0.024279
0.053282 -0.008459 1.0413 8.2515e-39 261.5 252 0 0 0 -0.92554 0.089548 -0.36791 0.053556
0.050845 -0.0060225 1.0413 5.67e-39 196.5 253 0 0 0 -0.94828 0.11374 -0.29635 0.054809
0.053248 -0.0066276 1.0406 6.5229e-39 304.5 252.5 0 0 0 -0.95826 0.10709 -0.2651 0.057642
0.050845 -0.0048043 1.0413 8.5281e-39 262.5 253 0 0 0 -0.94861 0.10466 -0.29864 0.054157
0.053237 -0.0048002 1.0404 8.2515e-39 264.5 253 0 0 0 -0.98085 0.12194 -0.15189 0.059975
0.049018 -0.0023677 1.0413 6.1771e-39 198 254 0 0 0 -0.96606 0.091117 -0.2417 0.053146
0.050824 -0.0029759 1.0409 6.4998e-39 305.5 253.5 0 0 0 -0.97226 0.10418 -0.20943 0.056074
0.053869 -0.0029754 1.0409 6.0849e-39 309 253.5 0 0 0 -0.98325 0.11792 -0.13896 0.056195
0.048977 -0.0011485 1.0404 6.3615e-39 256 254 0 0 0 -0.98559 0.11168 -0.12708 0.054896
0.053891 0.0037236 1.0413 6.1771e-39 253 255 0 0 0 0.99569 -0.061335 -0.069523 0.049591
0.052628 0.0085894 1.0404 6.3615e-39 415 256 0 0 0 0.98589 -0.031439 -0.16443 0.046615
0.055109 0.011033 1.0413 7.56e-39 361 257 0 0 0 0.97043 0.0025439 -0.24137 0.037192
0.055063 0.012241 1.0404 6.6381e-39 432 257 0 0 0 0.95499 0.023453 -0.29571 0.031445
0.052651 0.015291 1.0409 7.8366e-39 403 258 0 0 0 0.92658 0.065255 -0.37038 0.022188
0.055063 0.014676 1.0404 8.5742e-39 370 258 0 0 0 0.92725 0.068916 -0.36804 0.021572
0.052673 0.017124 1.0413 6.2693e-39 231 259 0 0 0 0.905 0.097787 -0.41401 0.015602
0.051411 0.019545 1.0404 7.0069e-39 442 259 0 0 0 0.8953 0.11882 -0.42932 0.010943
0.051454 0.021389 1.0413 7.7905e-39 306.5 260 0 0 0 0.88638 0.14346 -0.44018 0.0081228
-0.025296 0.023216 1.0413 8.2054e-39 384 260 0 0 0 -0.94309 0.16699 -0.28758 0.02306
0.050824 0.023206 1.0409 6.4998e-39 448.5 260 0 0 0 0.89049 0.14049 -0.43278 0.0078754
0.048977 0.025631 1.0404 8.5742e-39 383 261 0 0 0 0.89202 0.13943 -0.42995 0.0078382
0.050215 0.025033 1.0409 6.9607e-39 310 261 0 0 0 0.88903 0.14064 -0.43571 0.0080632
-0.025296 0.026871 1.0413 6.5459e-39 388 261 0 0 0 -0.91929 0.21719 -0.32823 0.027882
0.04717 0.026859 1.0409 6.2232e-39 448.5 261 0 0 0 0.8893 0.14176 -0.4348 0.0080141
0.049018 0.026871 1.0413 6.9147e-39 450 261 0 0 0 0.88945 0.14011 -0.43503 0.0077756
0.047151 0.028065 1.0404 6.592e-39 239.5 262 0 0 0 0.88418 0.1476 -0.44322 0.0079316
0.049018 0.030525 1.0413 6.3615e-39 456 262 0 0 0 0.88322 0.14616 -0.4456 0.0074743
0.050236 0.031744 1.0413 6.7303e-39 256 263 0 0 0 0.88406 0.14155 -0.44542 0.0077248
0.050236 0.032962 1.0413 6.9147e-39 402 263 0 0 0 0.88388 0.14373 -0.44509 0.0076741
0.050236 0.034789 1.0413 7.053e-39 217 264 0 0 0 0.88389 0.14564 -0.44443 0.0080441
0.0478 0.047581 1.0413 5.8083e-39 432 267 0 0 0 0.87764 0.2223 -0.42466 0.0098874
-0.021641 0.050018 1.0413 5.9927e-39 237 268 0 0 0 -0.82691 0.24856 -0.50442 0.010749
0.046581 0.051236 1.0413 5.6239e-39 443 268 0 0 0 0.87125 0.2318 -0.43266 0.01091
-0.020423 0.052454 1.0413 6.7303e-39 457 268 0 0 0 -0.80407 0.26593 -0.53175 0.013555
0.045325 0.056062 1.0404 7.2835e-39 226 270 0 0 0 0.83468 0.27585 -0.47667 0.017529
0.044145 0.058545 1.0413 5.8083e-39 435 270 0 0 0 0.81407 0.30308 -0.49542 0.019821
-0.020423 0.060982 1.0413 7.2835e-39 210 271 0 0 0 -0.78391 0.28801 -0.55002 0.015358
-0.019189 0.063365 1.0404 5.9005e-39 428 271 0 0 0 -0.76348 0.29802 -0.57296 0.015169
-0.017971 0.063365 1.0404 5.9927e-39 429 271 0 0 0 -0.75321 0.30118 -0.58478 0.015521
-0.019205 0.064637 1.0413 5.6239e-39 159 272 0 0 0 -0.77199 0.29766 -0.56163 0.014864
-0.01737 0.065218 1.0409 5.9927e-39 213.5 272 0 0 0 -0.74582 0.31081 -0.5892 0.015859
0.04289 0.065799 1.0404 6.7303e-39 389 272 0 0 0 0.75251 0.31511 -0.57831 0.024069
-0.016768 0.067073 1.0413 7.0069e-39 403 272 0 0 0 -0.72503 0.32149 -0.60907 0.016539
0.042927 0.067073 1.0413 6.2693e-39 452 272 0 0 0 0.76046 0.30918 -0.57107 0.024704
-0.014935 0.068872 1.0409 6.8916e-39 349 272.5 0 0 0 -0.67114 0.34848 -0.65432 0.015062
0.041673 0.069451 1.0404 5.5317e-39 284 273 0 0 0 0.70149 0.32615 -0.63367 0.022849
-0.013102 0.071886 1.0404 6.3615e-39 437 273 0 0 0 -0.62186 0.36667 -0.69199 0.011656
0.04049 0.071946 1.0413 5.9005e-39 146 274 0 0 0 0.66917 0.3382 -0.66169 0.020317
-0.013113 0.073165 1.0413 5.9005e-39 189 274 0 0 0 -0.62526 0.36667 -0.68892 0.011496
0.036804 0.073103 1.0404 5.8083e-39 250 274 0 0 0 0.58115 0.35686 -0.73138 0.012875
0.038646 0.073134 1.0409 5.7622e-39 252.5 274 0 0 0 0.61395 0.34808 -0.70845 0.015125
-0.013113 0.074383 1.0413 7.4678e-39 270 274 0 0 0 -0.6186 0.36148 -0.69762 0.011404
-0.011885 0.075537 1.0404 6.8225e-39 409 274 0 0 0 -0.59094 0.36665 -0.71858 0.010395
0.035191 0.074747 1.0407 7.1605e-39 404.33 274 0 0 0 0.55049 0.36683 -0.74993 0.0096558
0.036835 0.074383 1.0413 7.4678e-39 384 274 0 0 0 0.57825 0.36348 -0.73042 0.011744
-0.011281 0.076787 1.0409 5.5318e-39 472.5 274 0 0 0 -0.5846 0.36607 -0.72404 0.010549
-0.0094507 0.077972 1.0404 7.9288e-39 245 275 0 0 0 -0.53784 0.37931 -0.75289 0.0082282
0.033153 0.076755 1.0404 5.8083e-39 202 275 0 0 0 0.51541 0.37122 -0.77236 0.008495
-0.010677 0.078647 1.0413 7.2374e-39 312 275 0 0 0 -0.56143 0.3666 -0.74189 0.0097794
-0.0088461 0.079223 1.0409 7.0991e-39 381.5 275 0 0 0 -0.53121 0.37199 -0.7612 0.0079323
0.031935 0.079189 1.0404 6.9147e-39 418 275 0 0 0 0.49839 0.36919 -0.78442 0.0087942
0.03318 0.078647 1.0413 7.3296e-39 350 275 0 0 0 0.52192 0.36432 -0.77128 0.009241
-0.0086442 0.080857 1.041 6.3922e-39 366.33 275.33 0 0 0 -0.52563 0.36918 -0.76643 0.0086396
-0.0070193 0.081049 1.0409 5.8544e-39 327 275.5 0 0 0 -0.5026 0.37724 -0.77787 0.0086565
-0.0051904 0.081624 1.0404 5.9466e-39 206.5 276 0 0 0 -0.46296 0.38345 -0.79915 0.0071993
0.031962 0.081083 1.0413 6.3615e-39 200.5 276 0 0 0 0.50261 0.36053 -0.78575 0.010011
-0.0082404 0.082911 1.0413 7.1913e-39 286 276 0 0 0 -0.51246 0.36775 -0.77598 0.0090807
-0.0070222 0.082911 1.0413 5.8083e-39 359 276 0 0 0 -0.49801 0.37213 -0.78326 0.0092504
-0.0051904 0.082841 1.0404 6.0388e-39 360.5 276 0 0 0 -0.45725 0.37909 -0.80449 0.0077975
-0.0027559 0.082841 1.0404 5.9005e-39 362.5 276 0 0 0 -0.42689 0.39024 -0.81577 0.0081421
0.031962 0.082911 1.0413 6.5459e-39 391 276 0 0 0 0.49704 0.35662 -0.79106 0.010496
-0.0051948 0.084738 1.0413 6.0849e-39 284 276.5 0 0 0 -0.45629 0.37509 -0.80691 0.0084084
-0.0027559 0.084666 1.0404 6.1541e-39 286 276.5 0 0 0 -0.41888 0.39113 -0.81949 0.0086923
0.029501 0.085275 1.0404 6.0849e-39 202 277 0 0 0 0.44269 0.36377 -0.81957 0.012457
0.030731 0.084702 1.0409 6.2232e-39 328 276.5 0 0 0 0.4676 0.36102 -0.80685 0.011783
-0.0045857 0.086565 1.0413 5.9005e-39 252 277 0 0 0 -0.43967 0.37325 -0.81693 0.0085357
-0.0027583 0.087174 1.0413 6.4537e-39 318.5 277 0 0 0 -0.40795 0.38352 -0.82854 0.0094792
0.029104 0.087329 1.0407 7.222e-39 366.33 277 0 0 0 0.43242 0.36142 -0.82607 0.013697
0.030744 0.086565 1.0413 7.9288e-39 281 277 0 0 0 0.46531 0.35518 -0.81076 0.013158
-0.00093009 0.088927 1.0404 6.5459e-39 444 277 0 0 0 -0.3621 0.39362 -0.84496 0.0098497
0.00028715 0.088927 1.0404 6.8225e-39 445 277 0 0 0 -0.33938 0.40068 -0.85105 0.010227
0.027066 0.088927 1.0404 6.8225e-39 467 277 0 0 0 0.36974 0.3729 -0.85102 0.014254
0.028284 0.088927 1.0404 6.6381e-39 468 277 0 0 0 0.39688 0.36204 -0.84346 0.014105
-0.00093087 0.090829 1.0413 5.9927e-39 228 278 0 0 0 -0.35563 0.38931 -0.84969 0.0096972
0.00089584 0.090772 1.0406 6.1771e-39 229.5 278 0 0 0 -0.32251 0.40128 -0.8573 0.0097823
0.0031281 0.090981 1.0407 6.4844e-39 244.33 278 0 0 0 -0.26501 0.416 -0.86989 0.010419
0.027089 0.090829 1.0413 6.7764e-39 296.5 278 0 0 0 0.36097 0.36835 -0.85675 0.014076
0.028307 0.090829 1.0413 6.9608e-39 297.5 278 0 0 0 0.38692 0.36007 -0.84891 0.014268
0.0015057 0.092657 1.0413 6.2693e-39 393 278 0 0 0 -0.29462 0.40228 -0.86682 0.010566
0.003333 0.092657 1.0413 6.2693e-39 394.5 278 0 0 0 -0.26032 0.41054 -0.87389 0.010808
0.0051561 0.093187 1.0404 6.592e-39 421.5 278 0 0 0 -0.21506 0.4193 -0.88201 0.010644
0.0067809 0.093417 1.0407 6.6688e-39 431.33 278 0 0 0 -0.18468 0.42443 -0.88643 0.011336
