# .PCD v.7 - Point Cloud Data file format
VERSION .7
FIELDS x y z rgb u v vx vy vz normal_x normal_y normal_z curvature
SIZE 4 4 4 4 4 4 4 4 4 4 4 4 4
TYPE F F F F F F F F F F F F F
COUNT 1 1 1 1 1 1 1 1 1 1 1 1 1
WIDTH 553
HEIGHT 1
VIEWPOINT 0 0 0 1 0 0 0
POINTS 553
DATA ascii
-0.018109 0.10432 1.0484 7.7444e-39 379 280 0 0 0 -0.61957 0.36771 -0.69349 0.025679
0.041992 0.10555 1.0484 5.5317e-39 160 281 0 0 0 0.68956 0.27355 -0.67058 0.018243
0.043218 0.10493 1.0484 6.131e-39 301 280.5 0 0 0 0.70991 0.26688 -0.65177 0.018258
0.044445 0.10555 1.0484 5.8083e-39 162 281 0 0 0 0.72063 0.26597 -0.64028 0.01874
-0.016897 0.10687 1.0493 6.0849e-39 168 281 0 0 0 -0.6175 0.37687 -0.69041 0.026812
0.042641 0.10687 1.0493 6.3615e-39 216.5 281 0 0 0 0.70304 0.27951 -0.65392 0.018372
0.044482 0.10687 1.0493 6.5459e-39 218 281 0 0 0 0.72566 0.27191 -0.63204 0.018671
-0.014846 0.10847 1.049 7.3449e-39 243 281 0 0 0 -0.583 0.37717 -0.71962 0.0217
0.039538 0.10923 1.0484 6.7303e-39 393 281 0 0 0 0.64879 0.31175 -0.69418 0.014053
-0.014441 0.11178 1.0493 8.8508e-39 469 281 0 0 0 -0.58019 0.38329 -0.71866 0.021936
0.038743 0.11093 1.049 7.4371e-39 365.33 281.33 0 0 0 0.63626 0.32911 -0.69775 0.01296
0.0408 0.11055 1.0493 8.482e-39 460 281 0 0 0 0.66086 0.31976 -0.67899 0.013803
-0.013203 0.11536 1.0484 5.9927e-39 364 282 0 0 0 -0.59116 0.35786 -0.72282 0.018548
0.035859 0.11536 1.0484 6.2693e-39 415 282 0 0 0 0.58078 0.36265 -0.72882 0.010386
0.037101 0.1148 1.0489 6.592e-39 350 282 0 0 0 0.59912 0.35978 -0.71527 0.01026
-0.013208 0.11726 1.0489 5.9927e-39 283.5 282.5 0 0 0 -0.58845 0.35705 -0.72542 0.016575
0.035061 0.11707 1.049 7.7752e-39 373.67 282.33 0 0 0 0.57541 0.37296 -0.72788 0.010476
-0.013214 0.11914 1.0493 5.5317e-39 198 283 0 0 0 -0.58789 0.3564 -0.7262 0.015747
0.033406 0.11904 1.0484 6.5459e-39 239 283 0 0 0 0.54658 0.384 -0.74417 0.012119
-0.011368 0.12094 1.0489 7.053e-39 313.5 283 0 0 0 -0.55628 0.36161 -0.74819 0.014153
-0.0095229 0.1215 1.0484 8.1132e-39 375 283 0 0 0 -0.52967 0.36791 -0.76426 0.013357
0.033006 0.12112 1.0487 5.962e-39 399 283 0 0 0 0.54424 0.39173 -0.74186 0.012782
-0.0082964 0.12272 1.0484 6.0849e-39 432 283 0 0 0 -0.51372 0.36953 -0.7743 0.013562
0.030953 0.12272 1.0484 8.943e-39 465 283 0 0 0 0.5251 0.39474 -0.75395 0.015174
0.032179 0.12272 1.0484 8.6664e-39 466 283 0 0 0 0.53724 0.39221 -0.74669 0.014501
-0.0083035 0.12405 1.0493 5.8083e-39 141 284 0 0 0 -0.52025 0.37143 -0.76901 0.013679
-0.0070699 0.12518 1.0484 5.2552e-39 195 284 0 0 0 -0.48559 0.38584 -0.78443 0.011689
0.030979 0.12405 1.0493 5.6239e-39 179 284 0 0 0 0.5302 0.39783 -0.74874 0.015998
0.032207 0.12405 1.0493 5.4395e-39 180 284 0 0 0 0.55231 0.38935 -0.73713 0.014573
-0.0070759 0.12651 1.0493 6.5459e-39 243 284 0 0 0 -0.4882 0.38905 -0.78122 0.011932
-0.0050286 0.12688 1.049 6.2693e-39 284.67 284 0 0 0 -0.45169 0.41112 -0.79181 0.011347
0.029739 0.12707 1.0489 7.1451e-39 334.5 284 0 0 0 0.51782 0.40156 -0.75539 0.017003
-0.0033903 0.12886 1.0484 5.9927e-39 413 284 0 0 0 -0.41604 0.43039 -0.80104 0.011149
0.028524 0.12896 1.0493 8.1132e-39 439 284 0 0 0 0.50851 0.40612 -0.75927 0.018207
-0.0027784 0.13013 1.0489 8.6664e-39 461.5 284 0 0 0 -0.40398 0.44459 -0.79946 0.011398
0.026671 0.13075 1.0489 5.9466e-39 170 285 0 0 0 0.45826 0.4397 -0.77244 0.021146
0.03352 -0.018391 1.0519 7.4678e-39 450 248 0 0 0 -0.49462 0.22177 -0.84034 0.016626
0.034721 -0.018376 1.051 7.56e-39 451 248 0 0 0 -0.52093 0.22154 -0.82435 0.018047
0.037212 -0.018391 1.0519 8.021e-39 453 248 0 0 0 -0.56177 0.20937 -0.80037 0.019596
-0.020632 -0.017161 1.0519 6.2693e-39 487 248 0 0 0 0.68349 -0.056777 -0.72774 0.050541
0.032904 -0.017161 1.0519 6.3154e-39 221.5 249 0 0 0 -0.48547 0.23887 -0.84099 0.016927
0.03532 -0.017138 1.0505 5.9927e-39 223.5 249 0 0 0 -0.546 0.23244 -0.80489 0.020637
0.037212 -0.017161 1.0519 7.1913e-39 231 249 0 0 0 -0.56408 0.22884 -0.79338 0.02097
-0.020606 -0.015295 1.0505 6.2232e-39 373.5 249 0 0 0 0.68382 -0.053741 -0.72767 0.050197
-0.018785 -0.014699 1.0519 5.7161e-39 171.5 250 0 0 0 0.64985 -0.016943 -0.75987 0.05255
-0.01694 -0.014699 1.0519 5.5317e-39 173 250 0 0 0 0.60794 0.015237 -0.79384 0.054764
0.03532 -0.015295 1.0505 7.3987e-39 339.5 249.5 0 0 0 -0.54427 0.24687 -0.80176 0.020992
0.037164 -0.015295 1.0505 7.4218e-39 341 249.5 0 0 0 -0.57327 0.23877 -0.7838 0.021999
-0.018554 -0.01304 1.0504 6.4537e-39 326.67 250 0 0 0 0.65222 -0.0012955 -0.75802 0.053811
-0.016918 -0.012837 1.0505 5.9927e-39 369.5 250 0 0 0 0.61631 0.01923 -0.78727 0.054506
-0.015703 -0.012847 1.0515 5.8083e-39 370.5 250 0 0 0 0.5909 0.047681 -0.80533 0.053593
0.035328 -0.012839 1.0508 6.2002e-39 309.25 250.5 0 0 0 -0.54304 0.25835 -0.79898 0.021692
0.037148 -0.012831 1.0501 6.7303e-39 330 250.5 0 0 0 -0.59994 0.22428 -0.76797 0.02572
-0.015696 -0.010998 1.051 6.7303e-39 239 251 0 0 0 0.59468 0.058996 -0.80179 0.052909
0.035335 -0.010998 1.051 5.7622e-39 380.5 251 0 0 0 -0.54948 0.24758 -0.79798 0.023408
0.03718 -0.010998 1.051 5.2552e-39 390 251 0 0 0 -0.59399 0.22612 -0.77204 0.025625
-0.014478 -0.0091609 1.0519 6.7303e-39 340.5 251.5 0 0 0 0.58518 0.07365 -0.80755 0.049917
-0.013248 -0.0085455 1.0519 6.3615e-39 236 252 0 0 0 0.5666 0.077763 -0.82032 0.049033
0.035365 -0.0091609 1.0519 6.7303e-39 287 252 0 0 0 -0.54773 0.23929 -0.8017 0.023553
0.03718 -0.009153 1.051 6.7764e-39 288.5 252 0 0 0 -0.60688 0.21885 -0.76407 0.026891
-0.014478 -0.0073148 1.0519 6.4537e-39 430 252 0 0 0 0.58854 0.059613 -0.80626 0.048798
0.035981 -0.0073148 1.0519 5.7161e-39 192 253 0 0 0 -0.57038 0.22929 -0.78873 0.023594
0.037196 -0.0066963 1.0515 6.8685e-39 278.5 253 0 0 0 -0.59491 0.21158 -0.77544 0.024711
-0.015682 -0.0048451 1.0501 5.6239e-39 386 253 0 0 0 0.62893 0.020856 -0.77718 0.048071
0.03841 -0.0048492 1.051 6.4537e-39 177 254 0 0 0 -0.62924 0.20008 -0.75102 0.026019
-0.015689 -0.0030032 1.0505 6.7302e-39 287.5 254 0 0 0 0.63409 0.0067661 -0.77323 0.046989
0.037212 -0.0030072 1.0519 5.9466e-39 389.5 254 0 0 0 -0.59449 0.19979 -0.77888 0.02457
0.038809 -0.0027991 1.0507 6.0542e-39 431 254 0 0 0 -0.65222 0.17757 -0.73694 0.028191
-0.018155 -0.0011602 1.051 6.3615e-39 185 255 0 0 0 0.67739 -0.022208 -0.73529 0.045533
0.03904 -0.0011607 1.0515 6.6842e-39 241 255 0 0 0 -0.64155 0.17093 -0.7478 0.026694
0.040869 -0.0011602 1.051 6.2693e-39 243 255 0 0 0 -0.69655 0.14155 -0.70341 0.028073
0.042063 -0.0011592 1.0501 6.1771e-39 244 255 0 0 0 -0.74266 0.10694 -0.66108 0.029778
-0.01817 6.9502e-05 1.0519 6.7303e-39 270 255 0 0 0 0.6747 -0.026712 -0.73761 0.043491
0.040904 6.9502e-05 1.0519 6.9147e-39 428 255 0 0 0 -0.66839 0.15166 -0.72819 0.025725
0.042135 6.9502e-05 1.0519 7.6522e-39 429 255 0 0 0 -0.69359 0.13365 -0.70786 0.026247
0.042135 0.0037616 1.0519 5.4395e-39 511 256 0 0 0 -0.69147 0.16602 -0.70307 0.026368
-0.029222 0.043108 1.051 5.5317e-39 208 268 0 0 0 -0.90986 0.19299 -0.36731 0.014263
-0.029222 0.044952 1.051 6.0388e-39 365.5 268 0 0 0 -0.90967 0.18505 -0.37182 0.014099
0.051892 0.044914 1.0501 6.0849e-39 327 268.5 0 0 0 0.93887 0.12305 -0.32152 0.01148
-0.029222 0.046797 1.051 5.7161e-39 208 269 0 0 0 -0.91142 0.17885 -0.37059 0.013802
0.051892 0.046757 1.0501 8.943e-39 273 269 0 0 0 0.94506 0.10819 -0.30848 0.011999
-0.029247 0.048682 1.0519 6.592e-39 359 269 0 0 0 -0.90479 0.16061 -0.39441 0.014954
-0.027354 0.051671 1.0501 8.7125e-39 255.5 270 0 0 0 -0.92795 0.14694 -0.34253 0.013909
0.051526 0.051305 1.051 7.9903e-39 359.67 270 0 0 0 0.95453 0.089631 -0.28433 0.013048
-0.027992 0.052945 1.051 7.4678e-39 419 270 0 0 0 -0.92346 0.15411 -0.3514 0.015966
-0.029247 0.055452 1.0519 6.4537e-39 235 271 0 0 0 -0.91932 0.15909 -0.35991 0.017464
-0.027992 0.054789 1.051 6.4076e-39 198 271 0 0 0 -0.92816 0.14891 -0.34108 0.015491
-0.030478 0.057913 1.0519 6.0849e-39 495 271 0 0 0 -0.92406 0.15466 -0.34955 0.017475
-0.029235 0.057273 1.0515 6.0388e-39 456.5 271 0 0 0 -0.92406 0.15466 -0.34955 0.017475
-0.027968 0.056586 1.0501 5.5317e-39 394 271 0 0 0 -0.93432 0.1521 -0.32237 0.014523
-0.030478 0.059144 1.0519 6.9147e-39 213 272 0 0 0 -0.92696 0.16604 -0.33641 0.018469
-0.029197 0.059043 1.0501 6.6381e-39 214 272 0 0 0 -0.93169 0.14754 -0.33195 0.016552
-0.02921 0.060913 1.0505 6.2693e-39 362 272 0 0 0 -0.93388 0.15907 -0.32027 0.017385
-0.027968 0.0615 1.0501 6.3615e-39 444 272 0 0 0 -0.94646 0.13899 -0.29138 0.015648
-0.025511 0.0615 1.0501 6.7303e-39 446 272 0 0 0 -0.94785 0.13371 -0.28932 0.013773
-0.029247 0.062836 1.0519 6.1771e-39 175 273 0 0 0 -0.93227 0.16148 -0.32373 0.019924
-0.027968 0.062729 1.0501 6.5459e-39 176 273 0 0 0 -0.94797 0.13558 -0.28806 0.015006
-0.025511 0.062729 1.0501 6.1771e-39 178 273 0 0 0 -0.94822 0.13416 -0.2879 0.01427
-0.025555 0.064067 1.0519 6.9147e-39 246 273 0 0 0 -0.94684 0.17755 -0.26827 0.019231
0.04452 0.08853 1.0501 8.482e-39 490 277 0 0 0 0.79582 0.23203 -0.55931 0.02012
0.044596 0.099757 1.0519 8.5742e-39 493 279 0 0 0 0.76209 0.22421 -0.60742 0.018497
0.045788 0.10213 1.051 6.0849e-39 252 280 0 0 0 0.75519 0.23349 -0.61251 0.019409
-0.018155 0.10582 1.051 6.6381e-39 445 280 0 0 0 -0.6877 0.37121 -0.62391 0.03208
-0.01694 0.10837 1.0519 6.7303e-39 223 281 0 0 0 -0.67185 0.37895 -0.63641 0.032315
-0.015682 0.10942 1.0501 7.6522e-39 279 281 0 0 0 -0.60964 0.38067 -0.69529 0.026441
0.042714 0.1089 1.051 7.6292e-39 333.5 281 0 0 0 0.72089 0.29347 -0.62785 0.017205
0.044558 0.10828 1.051 8.2054e-39 273 281 0 0 0 0.74172 0.28429 -0.60748 0.017994
-0.015286 0.11115 1.051 7.4679e-39 432.33 281 0 0 0 -0.61947 0.38294 -0.68528 0.025716
0.039639 0.11197 1.051 5.4395e-39 180 282 0 0 0 0.65746 0.33228 -0.67627 0.012526
0.040834 0.11187 1.0501 5.6239e-39 181 282 0 0 0 0.66366 0.33052 -0.67105 0.012367
-0.015081 0.1132 1.051 5.67e-39 187.5 282 0 0 0 -0.63634 0.36127 -0.68159 0.023478
0.03841 0.1132 1.051 5.9005e-39 233 282 0 0 0 0.63486 0.3469 -0.69037 0.010872
-0.014876 0.11484 1.051 6.1464e-39 282 282 0 0 0 -0.62859 0.35716 -0.69088 0.018472
-0.014466 0.11689 1.051 6.4537e-39 426 282 0 0 0 -0.62993 0.35426 -0.69115 0.018428
0.037148 0.11679 1.0501 8.482e-39 469 282 0 0 0 0.60824 0.36988 -0.7023 0.0094456
-0.014478 0.11884 1.0519 5.6701e-39 349 282.5 0 0 0 -0.63916 0.34234 -0.68868 0.01965
0.03552 0.11887 1.0504 6.0234e-39 222.67 283 0 0 0 0.58333 0.38488 -0.71526 0.010582
0.037212 0.11822 1.0519 5.6239e-39 188 283 0 0 0 0.6113 0.38321 -0.69243 0.0094818
-0.014478 0.12129 1.0519 6.3154e-39 311 283 0 0 0 -0.63202 0.34391 -0.69446 0.01841
-0.013231 0.12114 1.0505 6.3154e-39 312 283 0 0 0 -0.59862 0.35321 -0.71896 0.016439
0.034736 0.12124 1.0515 6.4076e-39 390.5 283 0 0 0 0.58759 0.39122 -0.7083 0.011608
-0.013248 0.12314 1.0519 5.9005e-39 428 283 0 0 0 -0.6027 0.35238 -0.71594 0.015295
-0.011387 0.12298 1.0505 5.7161e-39 429.5 283 0 0 0 -0.57102 0.35633 -0.73957 0.01505
-0.0095391 0.12293 1.0501 5.7161e-39 431 283 0 0 0 -0.54064 0.36526 -0.75782 0.014334
0.033463 0.12293 1.0501 8.5742e-39 467 283 0 0 0 0.5728 0.39368 -0.71897 0.012176
-0.012017 0.12437 1.0519 5.9927e-39 499 283 0 0 0 -0.58941 0.35197 -0.72712 0.016121
-0.010786 0.12437 1.0519 5.9927e-39 500 283 0 0 0 -0.57458 0.35187 -0.73894 0.016151
-0.0091377 0.12509 1.051 5.8083e-39 175.67 284 0 0 0 -0.53327 0.37106 -0.76022 0.014028
0.031005 0.12539 1.0501 6.3615e-39 228 284 0 0 0 0.53579 0.39991 -0.74364 0.016945
0.032876 0.12488 1.051 5.8083e-39 205 284 0 0 0 0.57464 0.39852 -0.71482 0.012969
-0.0083176 0.12673 1.051 6.1771e-39 242 284 0 0 0 -0.51355 0.38626 -0.76621 0.012384
-0.0070879 0.12795 1.051 6.2693e-39 363 284 0 0 0 -0.49093 0.40486 -0.77141 0.011369
-0.0058533 0.12785 1.0501 5.9927e-39 364 284 0 0 0 -0.46613 0.41112 -0.78339 0.010819
0.031032 0.12673 1.051 7.56e-39 277 284 0 0 0 0.55088 0.40448 -0.73002 0.01611
0.032289 0.12683 1.0519 7.8366e-39 278 284 0 0 0 0.58025 0.39495 -0.71227 0.013627
-0.0083247 0.12806 1.0519 6.4537e-39 362 284 0 0 0 -0.51614 0.3994 -0.75768 0.012215
-0.007094 0.12929 1.0519 6.1771e-39 410 284 0 0 0 -0.49649 0.41344 -0.76326 0.010568
-0.0052415 0.12912 1.0505 6.3615e-39 411.5 284 0 0 0 -0.45923 0.4231 -0.78109 0.010489
0.029802 0.12918 1.051 8.3898e-39 440 284 0 0 0 0.55196 0.4002 -0.73156 0.018068
0.031058 0.12806 1.0519 7.0069e-39 394 284 0 0 0 0.56714 0.39878 -0.72064 0.015893
-0.0050427 0.13094 1.0519 7.56e-39 361.33 284.33 0 0 0 -0.4637 0.43955 -0.76927 0.0092904
-0.003396 0.13153 1.0501 5.9927e-39 166 285 0 0 0 -0.4186 0.45388 -0.78662 0.011037
0.029827 0.13053 1.0519 5.8083e-39 149 285 0 0 0 0.56043 0.40637 -0.72165 0.017785
-0.020649 -0.018407 1.0528 6.0849e-39 203 248 0 0 0 0.66112 -0.081909 -0.7458 0.049232
-0.019434 -0.018423 1.0537 6.1771e-39 204 248 0 0 0 0.62612 -0.047361 -0.77828 0.052944
-0.016969 -0.018423 1.0537 6.1771e-39 239 248 0 0 0 0.54427 -0.034926 -0.83818 0.053144
-0.018817 -0.01719 1.0537 6.1771e-39 488.5 248 0 0 0 0.60999 -0.031094 -0.7918 0.051541
-0.016954 -0.017175 1.0528 6.4537e-39 490 248 0 0 0 0.59601 -0.015692 -0.80282 0.054236
-0.015736 -0.01719 1.0537 6.6381e-39 491 248 0 0 0 0.54779 -0.01503 -0.83648 0.050761
0.031085 -0.017175 1.0528 6.5459e-39 220 249 0 0 0 -0.4427 0.24235 -0.8633 0.014383
-0.018802 -0.015943 1.0528 6.9608e-39 241.5 249 0 0 0 0.64406 -0.016251 -0.7648 0.053803
-0.016954 -0.015943 1.0528 6.9147e-39 243 249 0 0 0 0.5978 -0.0011026 -0.80164 0.053738
-0.015729 -0.015334 1.0533 6.3154e-39 209 249.5 0 0 0 0.58445 0.027121 -0.81098 0.054216
0.031098 -0.015333 1.0533 6.6381e-39 336 249.5 0 0 0 -0.43764 0.25831 -0.86124 0.01537
0.032939 -0.015331 1.053 7.0069e-39 337.5 249.5 0 0 0 -0.47653 0.25598 -0.84107 0.016868
-0.014503 -0.012259 1.0537 5.4395e-39 496 250 0 0 0 0.56527 0.077413 -0.82127 0.050372
-0.012653 -0.012259 1.0537 5.8544e-39 508.5 250 0 0 0 0.53455 0.075302 -0.84177 0.046636
0.031111 -0.012875 1.0537 5.9466e-39 302 250.5 0 0 0 -0.44969 0.27525 -0.84971 0.016995
0.033166 -0.01308 1.0537 5.8083e-39 336 250.33 0 0 0 -0.4799 0.2676 -0.83551 0.017576
-0.014491 -0.011016 1.0528 6.9147e-39 240 251 0 0 0 0.57739 0.069616 -0.8135 0.049112
-0.012648 -0.011021 1.0533 6.9147e-39 241.5 251 0 0 0 0.53843 0.079537 -0.83891 0.046465
-0.010805 -0.011026 1.0537 6.6381e-39 243 251 0 0 0 0.50799 0.08791 -0.85687 0.044147
0.033577 -0.011026 1.0537 5.9927e-39 379 251 0 0 0 -0.49585 0.26611 -0.82663 0.019155
-0.012438 -0.0093739 1.0528 6.6381e-39 391 251.33 0 0 0 0.54466 0.080346 -0.8348 0.04678
-0.010805 -0.0091765 1.0537 6.4998e-39 364 251.5 0 0 0 0.50452 0.085802 -0.85913 0.042379
0.033577 -0.0091765 1.0537 6.9147e-39 285.5 252 0 0 0 -0.49978 0.26064 -0.82601 0.019759
-0.014491 -0.0060893 1.0528 6.1771e-39 226 253 0 0 0 0.57926 0.056481 -0.81318 0.046699
-0.012645 -0.0067065 1.053 6.3384e-39 329.5 252.5 0 0 0 0.54792 0.069098 -0.83367 0.044813
-0.010805 -0.0073273 1.0537 7.2835e-39 434 252 0 0 0 0.5084 0.078865 -0.8575 0.041834
0.03478 -0.0067052 1.0528 7.0068e-39 276.5 253 0 0 0 -0.53704 0.23832 -0.80919 0.0233
0.036012 -0.0060893 1.0528 7.6522e-39 363 253 0 0 0 -0.56134 0.22408 -0.79667 0.023678
-0.014491 -0.0048575 1.0528 5.7161e-39 387 253 0 0 0 0.58449 0.042117 -0.8103 0.045932
-0.012653 -0.0048616 1.0537 5.4395e-39 388.5 253 0 0 0 0.53771 0.06182 -0.84086 0.042255
0.03481 -0.0048616 1.0537 5.5317e-39 174 254 0 0 0 -0.53532 0.22891 -0.81304 0.023658
0.036642 -0.0048595 1.0533 5.9927e-39 175.5 254 0 0 0 -0.56917 0.2166 -0.79317 0.02329
-0.014503 -0.0036288 1.0537 5.6239e-39 202 254 0 0 0 0.57752 0.028158 -0.81589 0.042693
-0.012653 -0.0036288 1.0537 5.9927e-39 203.5 254 0 0 0 0.53527 0.051516 -0.84311 0.04184
0.03481 -0.0030124 1.0537 6.9147e-39 354.5 254 0 0 0 -0.53711 0.22099 -0.81405 0.023782
0.036042 -0.0030124 1.0537 6.9608e-39 355.5 254 0 0 0 -0.56127 0.21221 -0.79997 0.024072
-0.016954 -0.0011622 1.0528 5.8083e-39 186 255 0 0 0 0.63782 -0.013006 -0.77008 0.043672
-0.015722 -0.0011622 1.0528 5.4395e-39 187 255 0 0 0 0.61881 -0.0050801 -0.78552 0.04382
0.037243 -0.0011622 1.0528 7.0991e-39 239 255 0 0 0 -0.59671 0.19453 -0.77852 0.025292
-0.018201 0.0013024 1.0537 8.2054e-39 440 255 0 0 0 0.64455 -0.011263 -0.76448 0.042062
-0.015736 6.962e-05 1.0537 6.1771e-39 272 255 0 0 0 0.59891 -0.015084 -0.80067 0.042424
0.039319 0.00048053 1.0534 6.6381e-39 352.67 255.33 0 0 0 -0.62025 0.17961 -0.76356 0.024846
0.040939 0.0013013 1.0528 6.4537e-39 206 256 0 0 0 -0.65119 0.17121 -0.73935 0.024424
0.042171 0.0013013 1.0528 6.2693e-39 207 256 0 0 0 -0.67636 0.15298 -0.72051 0.026182
0.040956 0.0031501 1.0533 7.8366e-39 403 256 0 0 0 -0.6522 0.19905 -0.73144 0.024387
0.042171 0.0025331 1.0528 7.7444e-39 364 256 0 0 0 -0.68372 0.16657 -0.71048 0.02659
-0.03053 0.044451 1.0537 6.2693e-39 278 268 0 0 0 -0.88406 0.17209 -0.43455 0.015573
0.052025 0.048724 1.0528 6.1771e-39 312 269.5 0 0 0 0.95921 0.09923 -0.2647 0.015782
-0.029284 0.05121 1.0533 7.0068e-39 220.5 270 0 0 0 -0.90568 0.15134 -0.39604 0.016563
-0.029297 0.053081 1.0537 7.3757e-39 418 270 0 0 0 -0.90835 0.15322 -0.38914 0.017185
-0.03053 0.05493 1.0537 6.2232e-39 196 271 0 0 0 -0.90946 0.16468 -0.3818 0.018196
-0.029272 0.054267 1.0528 5.9927e-39 159 271 0 0 0 -0.91478 0.16259 -0.36978 0.017511
-0.031334 0.057157 1.0531 6.0849e-39 421 271 0 0 0 -0.91381 0.16247 -0.37223 0.018021
-0.030504 0.061042 1.0528 6.3615e-39 361 272 0 0 0 -0.92234 0.1708 -0.34658 0.020154
-0.028669 0.064149 1.0533 6.6381e-39 244.5 273 0 0 0 -0.93634 0.20594 -0.28435 0.020807
-0.025598 0.065409 1.0537 6.4537e-39 386 273 0 0 0 -0.93212 0.22392 -0.28462 0.021814
0.044634 0.089988 1.0528 5.7161e-39 184 278 0 0 0 0.82025 0.18944 -0.53972 0.018813
0.044672 0.094996 1.0537 5.9005e-39 158 279 0 0 0 0.79557 0.19412 -0.57393 0.018195
0.044653 0.096804 1.0533 7.0991e-39 246.5 279 0 0 0 0.78169 0.19753 -0.59156 0.019025
0.044634 0.098611 1.0528 8.2054e-39 414 279 0 0 0 0.77027 0.21535 -0.60026 0.018294
0.045905 0.10116 1.0537 5.4395e-39 195 280 0 0 0 0.78269 0.21819 -0.58292 0.019232
0.047138 0.10116 1.0537 5.3473e-39 196 280 0 0 0 0.80031 0.20851 -0.56215 0.018795
-0.020667 0.10239 1.0537 5.4395e-39 197 280 0 0 0 -0.79894 0.34981 -0.48922 0.036741
0.045905 0.10609 1.0537 6.2693e-39 163 281 0 0 0 0.77719 0.26814 -0.56927 0.019102
-0.016969 0.10979 1.0537 6.9147e-39 278 281 0 0 0 -0.73864 0.37067 -0.56303 0.034443
0.044672 0.10979 1.0537 6.9147e-39 397 281 0 0 0 0.75827 0.29751 -0.5801 0.016865
-0.016954 0.11093 1.0528 7.4678e-39 413 281 0 0 0 -0.69711 0.37803 -0.60921 0.03374
0.042787 0.11093 1.0528 9.2196e-39 461.5 281 0 0 0 0.71509 0.31648 -0.62329 0.015306
-0.016954 0.11277 1.0528 7.1913e-39 326.5 281.5 0 0 0 -0.71294 0.35628 -0.60398 0.031744
0.039707 0.11339 1.0528 6.4537e-39 234 282 0 0 0 0.67031 0.34426 -0.6574 0.010905
0.040939 0.11339 1.0528 7.0069e-39 235 282 0 0 0 0.67685 0.34525 -0.65014 0.011033
-0.016954 0.11524 1.0528 6.4537e-39 300.5 282 0 0 0 -0.71197 0.33023 -0.61972 0.025888
-0.015722 0.11586 1.0528 6.4537e-39 362 282 0 0 0 -0.68522 0.34135 -0.64339 0.023902
0.038908 0.1151 1.0534 6.6074e-39 329.33 282 0 0 0 0.65392 0.35808 -0.66646 0.0094924
-0.016954 0.11709 1.0528 5.7161e-39 424 282 0 0 0 -0.68668 0.33978 -0.64266 0.021125
-0.015722 0.11709 1.0528 6.0849e-39 425 282 0 0 0 -0.66888 0.3367 -0.66274 0.021649
-0.018201 0.11965 1.0537 5.7161e-39 194 283 0 0 0 -0.72103 0.32353 -0.61274 0.022282
-0.016962 0.11898 1.0533 5.7162e-39 347 282.5 0 0 0 -0.68215 0.33741 -0.64871 0.019621
-0.015736 0.11903 1.0537 5.7162e-39 348 282.5 0 0 0 -0.67274 0.33486 -0.65976 0.020196
0.037275 0.11965 1.0537 6.1771e-39 242 283 0 0 0 0.62265 0.39442 -0.67582 0.0090139
-0.018201 0.12089 1.0537 5.9927e-39 248 283 0 0 0 -0.70027 0.32921 -0.63344 0.020767
-0.016954 0.12078 1.0528 6.0849e-39 249 283 0 0 0 -0.68457 0.33458 -0.64763 0.020233
-0.015736 0.12089 1.0537 6.1771e-39 250 283 0 0 0 -0.67423 0.33594 -0.65769 0.020635
0.036012 0.12078 1.0528 6.5459e-39 362 283 0 0 0 0.607 0.39343 -0.69048 0.010146
-0.015114 0.12269 1.0533 6.3154e-39 398.5 283 0 0 0 -0.65573 0.3337 -0.67725 0.019613
0.03478 0.12325 1.0528 8.3898e-39 488 283 0 0 0 0.61018 0.38946 -0.68993 0.010646
0.036027 0.12268 1.0533 7.4218e-39 455 283 0 0 0 0.6155 0.3946 -0.68224 0.010135
-0.014503 0.12458 1.0537 6.1771e-39 497 283 0 0 0 -0.64591 0.34202 -0.68251 0.018716
-0.012852 0.12534 1.0531 5.7161e-39 293 283.67 0 0 0 -0.61123 0.35447 -0.70764 0.016528
-0.010795 0.12571 1.0528 6.2693e-39 192 284 0 0 0 -0.57785 0.35949 -0.7327 0.015261
0.033548 0.12571 1.0528 6.2693e-39 230 284 0 0 0 0.60142 0.39477 -0.69458 0.011345
0.03481 0.12458 1.0537 5.2552e-39 182 284 0 0 0 0.61785 0.3908 -0.68231 0.010448
-0.012037 0.12705 1.0537 6.2693e-39 239 284 0 0 0 -0.59938 0.36257 -0.71364 0.015226
-0.0095635 0.12694 1.0528 5.9005e-39 241 284 0 0 0 -0.54961 0.37809 -0.74497 0.013313
0.033577 0.12705 1.0537 8.2976e-39 279 284 0 0 0 0.61334 0.38865 -0.68758 0.01104
-0.0089517 0.12884 1.0533 6.4998e-39 385 284 0 0 0 -0.53434 0.40184 -0.74365 0.011021
0.031085 0.1294 1.0528 8.6664e-39 441 284 0 0 0 0.58759 0.39537 -0.70599 0.015134
0.03233 0.12885 1.0533 8.1593e-39 418.5 284 0 0 0 0.60289 0.39424 -0.69361 0.012775
-0.0083389 0.13075 1.0537 8.943e-39 457 284 0 0 0 -0.52108 0.42316 -0.74122 0.0092196
-0.0071031 0.13131 1.0533 7.3757e-39 310.5 284.5 0 0 0 -0.50481 0.42881 -0.74919 0.008888
-0.0058682 0.13187 1.0528 5.9927e-39 164 285 0 0 0 -0.48197 0.4381 -0.75879 0.008863
0.031111 0.13075 1.0537 5.8083e-39 150 285 0 0 0 0.60177 0.39701 -0.69301 0.013867
-0.0071061 0.13321 1.0537 5.5317e-39 202 285 0 0 0 -0.50363 0.44985 -0.73756 0.0072653
-0.0058733 0.13321 1.0537 5.5317e-39 203 285 0 0 0 -0.48658 0.45346 -0.74674 0.0072843
-0.018217 -0.018438 1.0546 6.2693e-39 205 248 0 0 0 0.55688 -0.028538 -0.83011 0.052909
-0.016983 -0.019672 1.0546 6.4537e-39 487 247 0 0 0 0.53405 -0.079163 -0.84174 0.053109
-0.015749 -0.019055 1.0546 6.3615e-39 364 247.5 0 0 0 0.5169 -0.03386 -0.85538 0.053268
0.02746 -0.018454 1.0555 7.0991e-39 447 248 0 0 0 -0.36171 0.23711 -0.90163 0.014063
0.029312 -0.018454 1.0555 7.4218e-39 448.5 248 0 0 0 -0.39782 0.23665 -0.88641 0.014034
-0.014528 -0.017219 1.0555 6.3615e-39 492 248 0 0 0 0.50311 0.021998 -0.86394 0.05011
-0.013293 -0.017219 1.0555 5.9927e-39 493 248 0 0 0 0.48085 0.02464 -0.87646 0.047585
0.02746 -0.017219 1.0555 6.1771e-39 208 249 0 0 0 -0.36291 0.23597 -0.90145 0.013672
0.029312 -0.017219 1.0555 6.3615e-39 211.5 249 0 0 0 -0.39548 0.24438 -0.88537 0.01364
-0.014522 -0.015361 1.0551 6.3154e-39 210 249.5 0 0 0 0.51612 0.04337 -0.85542 0.048814
-0.012676 -0.015367 1.0555 6.2002e-39 211.5 249.5 0 0 0 0.49321 0.053486 -0.86826 0.045843
-0.010823 -0.014749 1.0555 6.0849e-39 178 250 0 0 0 0.46269 0.068321 -0.88388 0.043195
-0.0095881 -0.014749 1.0555 6.7303e-39 184 250 0 0 0 0.42087 0.087737 -0.90287 0.039875
-0.0071182 -0.014749 1.0555 6.1771e-39 186 250 0 0 0 0.36071 0.10795 -0.92641 0.032818
0.029312 -0.015367 1.0555 6.7994e-39 334.5 249.5 0 0 0 -0.39505 0.26207 -0.88049 0.013797
-0.014515 -0.013503 1.0546 6.2693e-39 247 250 0 0 0 0.54355 0.056481 -0.83748 0.048357
-0.012664 -0.013503 1.0546 6.3615e-39 248.5 250 0 0 0 0.52103 0.07024 -0.85064 0.046494
-0.010814 -0.012886 1.0546 6.4537e-39 387 250 0 0 0 0.47675 0.098528 -0.8735 0.043415
-0.0091764 -0.012691 1.0555 6.7917e-39 429.33 250 0 0 0 0.43679 0.11728 -0.89189 0.03977
-0.0071182 -0.012897 1.0555 5.9005e-39 219 250.5 0 0 0 0.36941 0.13999 -0.91866 0.033338
-0.0058833 -0.012897 1.0555 5.8083e-39 220 250.5 0 0 0 0.3463 0.15221 -0.9257 0.031581
0.029312 -0.012896 1.0555 5.8083e-39 300.5 250.5 0 0 0 -0.39401 0.2827 -0.87455 0.01394
0.032372 -0.012269 1.0546 6.4537e-39 206 251 0 0 0 -0.45312 0.2758 -0.84771 0.017003
-0.0089665 -0.01104 1.0551 6.3154e-39 244.5 251 0 0 0 0.44003 0.11768 -0.89024 0.03868
-0.0071182 -0.011045 1.0555 6.4537e-39 246 251 0 0 0 0.38611 0.13767 -0.91212 0.034455
-0.0058833 -0.011045 1.0555 6.5459e-39 247 251 0 0 0 0.34801 0.15109 -0.92524 0.031006
0.029312 -0.011045 1.0555 7.053e-39 373.5 251 0 0 0 -0.39708 0.28322 -0.87299 0.014443
0.031138 -0.011035 1.0546 7.0991e-39 375 251 0 0 0 -0.44124 0.27755 -0.85339 0.016744
0.032372 -0.011035 1.0546 6.9147e-39 376 251 0 0 0 -0.46398 0.27403 -0.8424 0.018356
-0.0089665 -0.0091882 1.0551 6.6151e-39 365.5 251.5 0 0 0 0.44105 0.10519 -0.8913 0.038065
-0.0071182 -0.0091922 1.0555 6.3615e-39 367 251.5 0 0 0 0.39739 0.12411 -0.90922 0.035029
-0.0058833 -0.0091922 1.0555 6.3154e-39 368 251.5 0 0 0 0.35243 0.14275 -0.92489 0.030521
0.029929 -0.0091922 1.0555 6.7764e-39 282.5 252 0 0 0 -0.40623 0.27188 -0.87239 0.015546
0.031138 -0.0091844 1.0546 6.8685e-39 283.5 252 0 0 0 -0.45531 0.26846 -0.84889 0.018686
0.032372 -0.0091844 1.0546 7.0069e-39 284.5 252 0 0 0 -0.47138 0.26585 -0.8409 0.019072
-0.010814 -0.0060997 1.0546 6.9147e-39 229 253 0 0 0 0.50293 0.07441 -0.86112 0.040906
-0.009171 -0.0069243 1.0549 7.3142e-39 367 252.33 0 0 0 0.46139 0.084025 -0.88321 0.038545
-0.0071182 -0.0073398 1.0555 7.6522e-39 437 252 0 0 0 0.40349 0.10613 -0.90881 0.034859
0.031151 -0.0067192 1.0551 5.5318e-39 231 253 0 0 0 -0.45411 0.25666 -0.85318 0.020108
0.032995 -0.0067179 1.0548 6.4306e-39 253.75 253 0 0 0 -0.4765 0.25463 -0.8415 0.019131
-0.010814 -0.0048658 1.0546 5.3473e-39 390 253 0 0 0 0.50203 0.062813 -0.86257 0.040479
-0.0095799 -0.0048658 1.0546 5.2552e-39 391 253 0 0 0 0.47575 0.075429 -0.87634 0.03916
0.031164 -0.0048699 1.0555 8.7586e-39 515 253 0 0 0 -0.44679 0.249 -0.85929 0.02076
0.033002 -0.0048678 1.0551 5.3473e-39 172.5 254 0 0 0 -0.48197 0.24426 -0.84145 0.020972
-0.014515 -0.0023981 1.0546 7.7444e-39 375 254 0 0 0 0.56629 0.023223 -0.82388 0.042139
-0.012664 -0.0023981 1.0546 6.4537e-39 376.5 254 0 0 0 0.53171 0.039069 -0.84603 0.041293
-0.010819 -0.003016 1.0551 6.131e-39 291.5 254 0 0 0 0.50003 0.058154 -0.86405 0.039144
-0.0095881 -0.0030175 1.0555 6.0849e-39 292.5 254 0 0 0 0.47108 0.068115 -0.87946 0.037801
0.031164 -0.003635 1.0555 6.3615e-39 264 254 0 0 0 -0.44739 0.24584 -0.85989 0.021225
0.033016 -0.0030176 1.0555 7.1221e-39 353 254 0 0 0 -0.48364 0.23985 -0.84176 0.02284
-0.014528 -0.0011652 1.0555 5.2552e-39 188 255 0 0 0 0.56482 0.014285 -0.82509 0.042301
-0.012675 -0.0011652 1.0555 5.4856e-39 189.5 255 0 0 0 0.53384 0.028046 -0.84512 0.039943
0.034839 -0.0011642 1.0546 6.3615e-39 237 255 0 0 0 -0.52749 0.221 -0.82031 0.024193
0.036073 -0.0011642 1.0546 6.6381e-39 238 255 0 0 0 -0.55966 0.20959 -0.80178 0.02319
-0.016991 0.00068719 1.0551 7.4218e-39 356 255 0 0 0 0.60701 -0.0098569 -0.79463 0.041688
-0.013293 6.9739e-05 1.0555 5.9005e-39 274 255 0 0 0 0.54359 0.029031 -0.83885 0.039364
0.034869 6.9739e-05 1.0555 5.0708e-39 396 255 0 0 0 -0.5171 0.21864 -0.82753 0.024169
0.036917 0.00048137 1.0552 5.7161e-39 341.67 255.33 0 0 0 -0.55762 0.21392 -0.80206 0.023639
0.038541 0.0013035 1.0546 6.3615e-39 204 256 0 0 0 -0.59787 0.20664 -0.7745 0.025233
0.039174 0.0025385 1.0551 8.1132e-39 361.5 256 0 0 0 -0.60617 0.2314 -0.76092 0.025224
-0.030556 0.045723 1.0546 5.9927e-39 451 268 0 0 0 -0.88099 0.15091 -0.44843 0.016989
-0.030556 0.046957 1.0546 5.7161e-39 207 269 0 0 0 -0.88599 0.1583 -0.43584 0.016201
-0.030569 0.048828 1.0551 7.3757e-39 358 269 0 0 0 -0.89144 0.14641 -0.42883 0.018235
-0.030569 0.051297 1.0551 7.1452e-39 219.5 270 0 0 0 -0.89933 0.14254 -0.41339 0.01857
-0.030556 0.053126 1.0546 7.2835e-39 417 270 0 0 0 -0.90253 0.15415 -0.40208 0.01863
-0.033037 0.055 1.0551 6.7764e-39 194 271 0 0 0 -0.90244 0.16582 -0.39763 0.019931
-0.031803 0.055 1.0551 6.4076e-39 195 271 0 0 0 -0.90606 0.16593 -0.38925 0.018498
-0.025642 0.066756 1.0555 5.6239e-39 455 273 0 0 0 -0.92702 0.26304 -0.26728 0.022877
0.04471 0.091376 1.0546 6.0849e-39 242 278 0 0 0 0.82796 0.16965 -0.5345 0.018613
0.04473 0.093267 1.0551 6.2232e-39 404.5 278 0 0 0 0.82647 0.16524 -0.53818 0.017221
0.045983 0.097629 1.0555 8.482e-39 277 279 0 0 0 0.81526 0.17806 -0.55103 0.017582
0.045983 0.098864 1.0555 7.6522e-39 415 279 0 0 0 0.81224 0.19241 -0.55067 0.018094
0.045944 0.10001 1.0546 8.7586e-39 494 279 0 0 0 0.79675 0.20245 -0.56939 0.019084
0.047218 0.1001 1.0555 8.943e-39 495 279 0 0 0 0.82034 0.18763 -0.54023 0.018652
-0.018217 0.10742 1.0546 5.9005e-39 167 281 0 0 0 -0.78326 0.36995 -0.49964 0.037073
-0.018233 0.11121 1.0555 7.6522e-39 401 281 0 0 0 -0.8134 0.33265 -0.47721 0.034363
-0.018233 0.11307 1.0555 7.1913e-39 325.5 281.5 0 0 0 -0.82695 0.29322 -0.47976 0.031289
0.042878 0.1124 1.0551 5.8083e-39 182.5 282 0 0 0 0.72728 0.33633 -0.59829 0.01268
-0.018217 0.11482 1.0546 6.6381e-39 239 282 0 0 0 -0.81475 0.29846 -0.4971 0.029575
0.041009 0.11482 1.0546 8.3898e-39 356 282 0 0 0 0.68604 0.35832 -0.6332 0.0088038
-0.018225 0.11672 1.0551 5.9005e-39 391.5 282 0 0 0 -0.80787 0.30092 -0.50675 0.029432
0.039174 0.11672 1.0551 7.099e-39 455.5 282 0 0 0 0.66624 0.37491 -0.64465 0.0077694
-0.018217 0.11852 1.0546 6.4537e-39 498 282 0 0 0 -0.77106 0.31332 -0.55434 0.02781
0.037307 0.12099 1.0546 6.4537e-39 363 283 0 0 0 0.63767 0.39939 -0.65868 0.0083151
-0.018217 0.12222 1.0546 5.9927e-39 369 283 0 0 0 -0.7166 0.32608 -0.61657 0.021989
-0.015749 0.12346 1.0546 6.6381e-39 426 283 0 0 0 -0.68563 0.32852 -0.64961 0.022865
0.037339 0.12233 1.0555 6.0849e-39 422 283 0 0 0 0.65507 0.39917 -0.64152 0.0071095
-0.015139 0.12536 1.0551 6.0388e-39 342.5 283.5 0 0 0 -0.66239 0.3435 -0.66577 0.019339
0.034839 0.12592 1.0546 6.1771e-39 231 284 0 0 0 0.62661 0.39432 -0.67221 0.0092342
0.036073 0.12469 1.0546 5.5317e-39 184 284 0 0 0 0.64177 0.39038 -0.66011 0.0087
-0.013293 0.12727 1.0555 6.5459e-39 238 284 0 0 0 -0.63204 0.35828 -0.68714 0.017408
-0.010814 0.12716 1.0546 6.0849e-39 240 284 0 0 0 -0.59218 0.36472 -0.71854 0.015059
0.034869 0.12727 1.0555 8.2054e-39 280 284 0 0 0 0.64251 0.39292 -0.65787 0.0082977
0.036104 0.12603 1.0555 6.0849e-39 232 284 0 0 0 0.65651 0.38966 -0.64587 0.0074377
-0.012058 0.1285 1.0555 5.5317e-39 359 284 0 0 0 -0.60897 0.37406 -0.69946 0.015207
-0.010823 0.1285 1.0555 5.9005e-39 360 284 0 0 0 -0.59661 0.37509 -0.70949 0.014923
-0.0095799 0.12963 1.0546 7.1913e-39 408 284 0 0 0 -0.54699 0.4105 -0.72959 0.010506
0.03362 0.12907 1.0551 8.2515e-39 420.5 284 0 0 0 0.63624 0.39192 -0.66453 0.0094108
-0.0095881 0.13097 1.0555 8.943e-39 456 284 0 0 0 -0.56381 0.41451 -0.71435 0.0098027
0.033003 0.13092 1.0551 5.9466e-39 151.5 285 0 0 0 0.64066 0.38553 -0.66402 0.0097196
-0.008346 0.13271 1.0546 5.8083e-39 181.5 285 0 0 0 -0.52756 0.44207 -0.72543 0.0069986
0.031138 0.13209 1.0546 5.9927e-39 193 285 0 0 0 0.61546 0.40222 -0.67781 0.012993
0.032372 0.13209 1.0546 5.4395e-39 194 285 0 0 0 0.63231 0.39329 -0.66747 0.011221
0.018847 -0.02096 1.0573 7.6522e-39 452 247 0 0 0 -0.16622 0.25884 -0.95151 0.010937
-0.01454 -0.01847 1.0564 6.7303e-39 241 248 0 0 0 0.47717 0.00081956 -0.87881 0.050012
-0.012697 -0.018486 1.0573 7.053e-39 242.5 248 0 0 0 0.42681 0.016222 -0.9042 0.042011
-0.00094522 -0.019104 1.0573 6.3615e-39 368.5 247.5 0 0 0 0.19029 0.12036 -0.97432 0.01634
0.0015289 -0.018486 1.0573 6.1771e-39 249 248 0 0 0 0.15038 0.1552 -0.97637 0.013555
0.010806 -0.019104 1.0573 5.4165e-39 443 247.5 0 0 0 -0.0014881 0.21407 -0.97682 0.010149
0.013899 -0.019104 1.0573 5.7622e-39 284 248 0 0 0 -0.0711 0.23013 -0.97056 0.010207
0.01761 -0.019104 1.0573 5.8544e-39 287 248 0 0 0 -0.14664 0.25741 -0.95511 0.011452
0.018847 -0.019104 1.0573 5.5778e-39 297.5 248 0 0 0 -0.16846 0.26085 -0.95057 0.010959
0.020693 -0.019096 1.0568 5.7622e-39 299 248 0 0 0 -0.2134 0.25094 -0.94419 0.011442
0.022951 -0.018882 1.0564 5.962e-39 335.67 248 0 0 0 -0.26888 0.23387 -0.93435 0.010792
0.025011 -0.01847 1.0564 7.56e-39 445 248 0 0 0 -0.30555 0.23893 -0.92171 0.011836
0.026247 -0.01847 1.0564 7.2835e-39 446 248 0 0 0 -0.32381 0.23564 -0.91631 0.012422
-0.012068 -0.017234 1.0564 5.7161e-39 494 248 0 0 0 0.4475 0.038313 -0.89346 0.043974
-0.010832 -0.017234 1.0564 5.5317e-39 495 248 0 0 0 0.40848 0.042995 -0.91176 0.038853
-0.0089859 -0.016631 1.0573 5.5317e-39 382 248.5 0 0 0 0.35582 0.092227 -0.92999 0.032473
-0.0071243 -0.017234 1.0564 5.6239e-39 173 249 0 0 0 0.33812 0.075049 -0.93811 0.031335
-0.0052748 -0.016631 1.0573 6.2232e-39 222.5 249 0 0 0 0.29941 0.10447 -0.94839 0.026676
-0.0028008 -0.016012 1.0573 6.3615e-39 272.5 249 0 0 0 0.24501 0.1398 -0.95939 0.020305
-0.00094441 -0.017234 1.0564 6.7303e-39 185 249 0 0 0 0.20111 0.13917 -0.96963 0.017069
0.0015275 -0.017234 1.0564 5.7161e-39 187 249 0 0 0 0.16015 0.16445 -0.9733 0.014255
0.0027659 -0.016631 1.0573 5.9928e-39 276.5 249 0 0 0 0.13915 0.17186 -0.97524 0.013534
0.00524 -0.017249 1.0573 5.2552e-39 190 249 0 0 0 0.091015 0.19086 -0.97739 0.012664
0.010806 -0.017249 1.0573 5.7161e-39 194.5 249 0 0 0 -0.0019485 0.22431 -0.97452 0.010339
0.013899 -0.016631 1.0573 5.6239e-39 295.5 249 0 0 0 -0.069759 0.23742 -0.9689 0.01051
0.01761 -0.017249 1.0573 6.0849e-39 200 249 0 0 0 -0.14729 0.25677 -0.95518 0.011488
0.018847 -0.017249 1.0573 5.8083e-39 201 249 0 0 0 -0.16818 0.25954 -0.95097 0.010882
0.020698 -0.016627 1.0571 5.67e-39 301 249 0 0 0 -0.21153 0.24732 -0.94556 0.010989
0.023157 -0.017234 1.0564 6.3615e-39 204.5 249 0 0 0 -0.27183 0.24233 -0.93134 0.010586
0.025011 -0.017234 1.0564 6.3615e-39 206 249 0 0 0 -0.30491 0.23981 -0.9217 0.011706
0.026247 -0.017234 1.0564 6.2693e-39 207 249 0 0 0 -0.32968 0.23401 -0.91463 0.012936
-0.010832 -0.015998 1.0564 6.3615e-39 248 249 0 0 0 0.43315 0.068567 -0.89871 0.040766
-0.0089783 -0.01538 1.0564 6.4537e-39 217 249.5 0 0 0 0.38379 0.09774 -0.91823 0.036191
-0.0071243 -0.015998 1.0564 5.7161e-39 269 249 0 0 0 0.34451 0.10484 -0.93291 0.031139
-0.0054763 -0.015174 1.0564 5.7161e-39 215 249.67 0 0 0 0.31821 0.12658 -0.93953 0.028921
-0.0028008 -0.014775 1.0573 5.0708e-39 189.5 250 0 0 0 0.24852 0.15132 -0.95673 0.020816
-0.00094441 -0.01538 1.0564 6.5919e-39 276 249.5 0 0 0 0.21161 0.16154 -0.96391 0.017649
0.0015282 -0.015386 1.0568 6.1771e-39 278.5 249.5 0 0 0 0.16354 0.18038 -0.96991 0.014747
0.0027659 -0.014775 1.0573 5.9005e-39 194 250 0 0 0 0.14998 0.18394 -0.97143 0.014028
0.020702 -0.014775 1.0573 6.2693e-39 208.5 250 0 0 0 -0.21159 0.24742 -0.94552 0.010645
0.023162 -0.015383 1.0566 6.0158e-39 306.5 249.5 0 0 0 -0.28021 0.24769 -0.92743 0.01153
0.025011 -0.01538 1.0564 6.2693e-39 311.5 249.5 0 0 0 -0.31495 0.24701 -0.9164 0.012606
0.026865 -0.01538 1.0564 6.5689e-39 323.5 249.5 0 0 0 -0.34834 0.25363 -0.9024 0.013277
-0.0083603 -0.013526 1.0564 6.0849e-39 267 250 0 0 0 0.37331 0.13532 -0.91778 0.034671
-0.0046523 -0.012908 1.0564 6.0388e-39 221 250.5 0 0 0 0.31086 0.16144 -0.93664 0.027023
-0.0028008 -0.01292 1.0573 6.0849e-39 222.5 250.5 0 0 0 0.26269 0.16844 -0.95006 0.022858
-0.00094441 -0.012908 1.0564 6.3154e-39 224 250.5 0 0 0 0.22395 0.17423 -0.9589 0.019792
0.0015289 -0.01292 1.0573 6.0849e-39 226 250.5 0 0 0 0.16821 0.18614 -0.96802 0.013613
0.020702 -0.01292 1.0573 5.693e-39 290 250.5 0 0 0 -0.20823 0.25663 -0.94381 0.010651
0.023177 -0.01292 1.0573 5.7622e-39 295.5 250.5 0 0 0 -0.27381 0.25662 -0.92692 0.011315
0.025011 -0.012908 1.0564 5.6239e-39 297 250.5 0 0 0 -0.32086 0.25943 -0.9109 0.012711
0.026865 -0.012908 1.0564 5.8544e-39 298.5 250.5 0 0 0 -0.34462 0.26692 -0.89999 0.012804
-0.0046523 -0.011054 1.0564 6.5459e-39 248 251 0 0 0 0.31843 0.15552 -0.9351 0.027582
-0.0028008 -0.011063 1.0573 6.6842e-39 256 251 0 0 0 0.26207 0.16606 -0.95065 0.022409
-0.00094441 -0.011054 1.0564 7.0069e-39 264 251 0 0 0 0.231 0.17669 -0.95678 0.020131
0.020702 -0.011063 1.0573 8.2054e-39 366.5 251 0 0 0 -0.20944 0.25815 -0.94313 0.010961
0.023177 -0.011063 1.0573 7.8827e-39 368.5 251 0 0 0 -0.27576 0.26707 -0.92338 0.012184
0.025011 -0.011054 1.0564 7.9288e-39 370 251 0 0 0 -0.31968 0.27077 -0.90801 0.012812
0.026865 -0.011054 1.0564 7.3296e-39 371.5 251 0 0 0 -0.33884 0.27112 -0.90093 0.012554
-0.0046523 -0.0092 1.0564 6.0849e-39 369 251.5 0 0 0 0.3259 0.142 -0.93468 0.028159
-0.0028008 -0.0092079 1.0573 6.0618e-39 377 251.5 0 0 0 0.26843 0.1621 -0.94956 0.022833
-0.00094481 -0.0092037 1.0568 6.4076e-39 378.5 251.5 0 0 0 0.23658 0.16836 -0.95691 0.020527
0.021321 -0.0092079 1.0573 7.1452e-39 275.5 252 0 0 0 -0.22389 0.25535 -0.94057 0.010558
0.023383 -0.0094141 1.0573 6.4229e-39 248.67 252 0 0 0 -0.27506 0.266 -0.9239 0.01187
0.025033 -0.0092079 1.0573 6.9147e-39 278.5 252 0 0 0 -0.31884 0.26791 -0.90916 0.012984
0.026877 -0.009204 1.0568 7.0529e-39 280 252 0 0 0 -0.33481 0.26714 -0.90363 0.012642
0.028719 -0.0092 1.0564 7.0068e-39 281.5 252 0 0 0 -0.38101 0.27208 -0.88363 0.015401
-0.0083603 -0.0061101 1.0564 7.0991e-39 231 253 0 0 0 0.41504 0.099543 -0.90434 0.034931
-0.0071243 -0.0061101 1.0564 7.4678e-39 232 253 0 0 0 0.40228 0.099988 -0.91004 0.034022
-0.0052723 -0.006731 1.0568 7.3987e-39 336 252.5 0 0 0 0.32999 0.13295 -0.93458 0.028183
-0.003007 -0.00694 1.0573 7.4986e-39 372 252.33 0 0 0 0.28125 0.14982 -0.94787 0.023377
-0.00094522 -0.0073524 1.0573 8.1132e-39 442 252 0 0 0 0.24305 0.16786 -0.95538 0.020522
0.026889 -0.0067339 1.0573 6.4306e-39 227.5 253 0 0 0 -0.3381 0.25921 -0.90471 0.012481
0.029337 -0.0067281 1.0564 5.8083e-39 229.5 253 0 0 0 -0.39134 0.26008 -0.88273 0.016208
-0.0083603 -0.0048741 1.0564 5.3473e-39 392 253 0 0 0 0.41885 0.091225 -0.90346 0.034566
-0.0071243 -0.0048741 1.0564 5.6239e-39 393 253 0 0 0 0.40284 0.095904 -0.91023 0.034165
-0.0052723 -0.0048762 1.0568 5.3934e-39 394.5 253 0 0 0 0.33732 0.12541 -0.933 0.027974
0.029349 -0.0048762 1.0568 7.4218e-39 513.5 253 0 0 0 -0.39254 0.24822 -0.88561 0.017302
-0.0083639 -0.0030211 1.0568 6.0849e-39 293.5 254 0 0 0 0.42039 0.084277 -0.90342 0.034516
-0.0071274 -0.0030211 1.0568 5.8544e-39 296.5 254 0 0 0 0.39965 0.092132 -0.91203 0.032763
-0.0058934 -0.0030227 1.0573 6.0388e-39 301 254 0 0 0 0.36244 0.11075 -0.9254 0.029195
0.029356 -0.0030219 1.0571 7.3757e-39 350 254 0 0 0 -0.38995 0.24507 -0.88762 0.016928
0.031191 -0.0024022 1.0564 8.2054e-39 439 254 0 0 0 -0.43612 0.23892 -0.86759 0.020643
-0.010832 -0.0011662 1.0564 5.5317e-39 191 255 0 0 0 0.49156 0.050408 -0.86938 0.03743
-0.0089818 -0.0011667 1.0568 6.1771e-39 192.5 255 0 0 0 0.4547 0.080434 -0.88701 0.035539
-0.0071304 -0.0011672 1.0573 6.3615e-39 194 255 0 0 0 0.40697 0.10528 -0.90735 0.031308
-0.0058934 -0.0011672 1.0573 6.0849e-39 195 255 0 0 0 0.37366 0.12028 -0.91974 0.028951
0.029362 -0.0011672 1.0573 7.3757e-39 232.5 255 0 0 0 -0.38605 0.24176 -0.89024 0.017262
0.031191 -0.0011662 1.0564 6.5459e-39 234 255 0 0 0 -0.43574 0.23916 -0.86772 0.021373
0.033045 -0.0011662 1.0564 6.2232e-39 235.5 255 0 0 0 -0.47433 0.23081 -0.84955 0.022837
-0.014547 0.00068835 1.0568 7.1452e-39 357.5 255 0 0 0 0.5652 0.012425 -0.82486 0.040112
-0.01248 0.0008938 1.0564 6.5151e-39 409.33 255 0 0 0 0.53495 0.058852 -0.84283 0.038046
-0.010837 0.00068835 1.0568 5.8083e-39 393.5 255 0 0 0 0.50058 0.069179 -0.86292 0.035944
-0.0096004 0.00068835 1.0568 7.0068e-39 436 255 0 0 0 0.47034 0.091201 -0.87776 0.03417
0.031218 6.9859e-05 1.0573 5.6239e-39 393 255 0 0 0 -0.419 0.24419 -0.87453 0.018997
0.033066 0.00068836 1.0571 5.8544e-39 297 255.5 0 0 0 -0.4608 0.24845 -0.85202 0.022257
0.034899 0.0013058 1.0564 6.0849e-39 201 256 0 0 0 -0.51677 0.24323 -0.82085 0.025273
0.036135 0.0013058 1.0564 5.8083e-39 202 256 0 0 0 -0.52673 0.23748 -0.81619 0.024581
-0.014553 0.0025439 1.0573 5.9927e-39 224 256 0 0 0 0.55326 0.082418 -0.82892 0.035702
-0.012491 0.0029563 1.0573 5.8083e-39 277.67 256 0 0 0 0.52657 0.12462 -0.84095 0.033805
0.034929 0.0025439 1.0573 5.9927e-39 275 256 0 0 0 -0.49705 0.27333 -0.82355 0.023675
0.036969 0.0029545 1.0567 7.3142e-39 359.33 256 0 0 0 -0.54382 0.26107 -0.79756 0.024692
-0.031844 0.051363 1.0564 7.2374e-39 218.5 270 0 0 0 -0.89117 0.1433 -0.43045 0.020593
-0.031844 0.053217 1.0564 7.3757e-39 416 270 0 0 0 -0.89603 0.15573 -0.41578 0.020788
-0.028136 0.065577 1.0564 5.9927e-39 385 273 0 0 0 -0.93344 0.24671 -0.26043 0.022336
-0.025664 0.068049 1.0564 6.0849e-39 178 274 0 0 0 -0.92191 0.27981 -0.26794 0.02239
0.046062 0.090374 1.0573 5.8083e-39 185 278 0 0 0 0.88648 0.10058 -0.4517 0.015322
0.046062 0.095322 1.0573 5.5317e-39 159 279 0 0 0 0.85385 0.13641 -0.50233 0.015907
0.046681 0.097178 1.0573 7.0991e-39 248 279 0 0 0 0.85169 0.15358 -0.50103 0.015997
0.047259 0.098948 1.0564 6.9147e-39 416 279 0 0 0 0.84256 0.17532 -0.50928 0.016945
0.046023 0.1076 1.0564 5.9005e-39 219 281 0 0 0 0.80782 0.28026 -0.51853 0.018737
-0.018248 0.10884 1.0564 6.4537e-39 222 281 0 0 0 -0.81732 0.34796 -0.45925 0.034449
-0.018248 0.11007 1.0564 7.1913e-39 277 281 0 0 0 -0.82159 0.33633 -0.46029 0.03401
0.044825 0.1114 1.0573 9.3118e-39 463 281 0 0 0 0.78646 0.32387 -0.52592 0.014518
0.042951 0.11383 1.0568 7.514e-39 236.5 282 0 0 0 0.74182 0.34764 -0.57346 0.011406
0.039843 0.11749 1.0564 8.3898e-39 494 282 0 0 0 0.67807 0.38375 -0.62687 0.0074327
0.041097 0.11692 1.0568 7.0991e-39 457 282 0 0 0 0.69574 0.38014 -0.60945 0.0071682
0.039242 0.11878 1.0568 5.3934e-39 189.5 283 0 0 0 0.66423 0.40168 -0.63043 0.0063733
-0.019501 0.1213 1.0573 6.3615e-39 247 283 0 0 0 -0.83434 0.29578 -0.46518 0.031476
0.03864 0.12006 1.0573 6.3615e-39 243 283 0 0 0 0.66539 0.40434 -0.62751 0.0066294
0.037371 0.12367 1.0564 7.56e-39 492 283 0 0 0 0.66677 0.39636 -0.63112 0.006555
0.037403 0.12501 1.0573 5.9005e-39 185 284 0 0 0 0.68095 0.38911 -0.6204 0.0055543
-0.015165 0.12681 1.0568 6.1771e-39 212.5 284 0 0 0 -0.66277 0.34597 -0.66411 0.017634
0.036135 0.12738 1.0564 7.8366e-39 281 284 0 0 0 0.66579 0.38822 -0.63719 0.006398
-0.014553 0.12872 1.0573 6.7303e-39 357 284 0 0 0 -0.65383 0.36157 -0.66466 0.018143
-0.012896 0.12947 1.0567 7.0376e-39 389.67 284 0 0 0 -0.61747 0.38258 -0.68729 0.014785
-0.010832 0.12985 1.0564 7.56e-39 407 284 0 0 0 -0.58851 0.39852 -0.70345 0.011845
0.034914 0.12929 1.0568 8.3437e-39 421.5 284 0 0 0 0.66358 0.38928 -0.63885 0.0067531
0.036166 0.12872 1.0573 8.3898e-39 398 284 0 0 0 0.68125 0.38252 -0.62416 0.005147
-0.012692 0.13114 1.0568 8.7586e-39 453.5 284 0 0 0 -0.60663 0.40118 -0.68634 0.012275
-0.010832 0.13108 1.0564 8.7586e-39 455 284 0 0 0 -0.57921 0.4125 -0.70311 0.010124
0.034929 0.1312 1.0573 5.8083e-39 153 285 0 0 0 0.67282 0.3859 -0.63118 0.006478
-0.012079 0.13243 1.0573 6.5459e-39 159 285 0 0 0 -0.59223 0.42365 -0.68541 0.0097406
-0.010842 0.13243 1.0573 6.1771e-39 160 285 0 0 0 -0.5815 0.42232 -0.69534 0.0098915
-0.0095963 0.13294 1.0564 5.9466e-39 180.5 285 0 0 0 -0.55925 0.43165 -0.70776 0.0076543
0.033663 0.13232 1.0564 5.2552e-39 195 285 0 0 0 0.66466 0.38611 -0.63964 0.0077169
-0.0028056 -0.018517 1.0592 6.2693e-39 245.5 248 0 0 0 0.21717 0.11377 -0.96948 0.015802
0.0002922 -0.019129 1.0587 6.4076e-39 369.5 247.5 0 0 0 0.16329 0.139 -0.97674 0.013581
0.0071044 -0.018509 1.0587 5.9466e-39 366 248 0 0 0 0.051469 0.20371 -0.97768 0.011043
0.0089587 -0.019121 1.0582 5.7162e-39 441.5 247.5 0 0 0 0.024043 0.20773 -0.97789 0.010501
0.012673 -0.019121 1.0582 5.67e-39 283 248 0 0 0 -0.039742 0.21935 -0.97484 0.010289
0.015149 -0.019121 1.0582 5.9927e-39 285 248 0 0 0 -0.093715 0.23697 -0.96699 0.010026
0.016387 -0.019121 1.0582 5.9927e-39 286 248 0 0 0 -0.11524 0.24438 -0.96281 0.0098141
-0.0083746 -0.017263 1.0582 5.8083e-39 172 249 0 0 0 0.341 0.071054 -0.93737 0.030277
-0.0046603 -0.017263 1.0582 6.2693e-39 175 249 0 0 0 0.26658 0.11117 -0.95738 0.022732
-0.0028032 -0.017263 1.0582 6.0388e-39 176.5 249 0 0 0 0.2331 0.12063 -0.96494 0.018516
0.00029207 -0.016644 1.0582 6.9147e-39 274 249 0 0 0 0.17849 0.15994 -0.97085 0.014628
0.0044191 -0.016438 1.0582 5.8391e-39 308 249 0 0 0 0.10683 0.19015 -0.97593 0.012407
0.007103 -0.016648 1.0584 6.1079e-39 280.5 249 0 0 0 0.059462 0.21221 -0.97541 0.011485
0.0089587 -0.016644 1.0582 5.9005e-39 282 249 0 0 0 0.028223 0.2208 -0.97491 0.010644
0.010816 -0.016025 1.0582 5.1629e-39 391.5 249 0 0 0 -0.0018916 0.22895 -0.97344 0.010066
0.012673 -0.016644 1.0582 5.4395e-39 294.5 249 0 0 0 -0.039639 0.23148 -0.97203 0.010397
0.015155 -0.016651 1.0587 6.0388e-39 296.5 249 0 0 0 -0.092134 0.23705 -0.96712 0.010129
0.0168 -0.016438 1.0582 5.962e-39 330.67 249 0 0 0 -0.11605 0.24462 -0.96265 0.009932
0.018864 -0.016025 1.0582 5.5317e-39 398 249 0 0 0 -0.17165 0.25421 -0.9518 0.010382
0.00029207 -0.014787 1.0582 5.7161e-39 192 250 0 0 0 0.18035 0.17462 -0.96798 0.013889
0.0046254 -0.014787 1.0582 5.6239e-39 195.5 250 0 0 0 0.11023 0.19545 -0.9745 0.012828
0.0071077 -0.0148 1.0592 6.0388e-39 197.5 250 0 0 0 0.064066 0.21193 -0.97518 0.011214
0.0089664 -0.0148 1.0592 6.2693e-39 199 250 0 0 0 0.030028 0.21743 -0.97561 0.010518
0.010816 -0.014787 1.0582 5.9005e-39 200.5 250 0 0 0 0.00098254 0.22495 -0.97437 0.010026
0.013298 -0.014794 1.0587 5.8544e-39 202.5 250 0 0 0 -0.052419 0.23164 -0.97139 0.01054
0.015162 -0.0148 1.0592 6.2693e-39 204 250 0 0 0 -0.086572 0.23575 -0.96795 0.010042
0.017006 -0.014787 1.0582 6.7764e-39 205.5 250 0 0 0 -0.12345 0.25232 -0.95974 0.010741
0.018864 -0.014787 1.0582 6.5459e-39 207 250 0 0 0 -0.17399 0.25694 -0.95064 0.010664
0.00029207 -0.01293 1.0582 6.0849e-39 225 250.5 0 0 0 0.18883 0.18033 -0.96531 0.015206
0.0027683 -0.01293 1.0582 7.2374e-39 269.5 250.5 0 0 0 0.15037 0.18898 -0.9704 0.01317
0.0046272 -0.012936 1.0587 7.1682e-39 273 250.5 0 0 0 0.11164 0.19601 -0.97423 0.012293
0.0071077 -0.012942 1.0592 7.0299e-39 275 250.5 0 0 0 0.067633 0.20549 -0.97632 0.011556
0.0089664 -0.012942 1.0592 6.8685e-39 276.5 250.5 0 0 0 0.035415 0.21262 -0.97649 0.010674
0.010821 -0.012936 1.0587 6.4306e-39 278 250.5 0 0 0 0.0019892 0.21898 -0.97573 0.010483
0.013298 -0.012936 1.0587 6.3154e-39 280 250.5 0 0 0 -0.050517 0.22781 -0.9724 0.011013
0.015162 -0.012942 1.0592 6.0849e-39 281.5 250.5 0 0 0 -0.087806 0.23161 -0.96884 0.010424
0.017006 -0.01293 1.0582 5.9927e-39 283.5 250.5 0 0 0 -0.12598 0.24959 -0.96012 0.011588
0.018864 -0.01293 1.0582 5.8544e-39 285 250.5 0 0 0 -0.17593 0.25859 -0.94983 0.010955
0.00091113 -0.011073 1.0582 6.3615e-39 265.5 251 0 0 0 0.18075 0.18436 -0.96609 0.01464
0.0027683 -0.011073 1.0582 6.0849e-39 267 251 0 0 0 0.14927 0.18618 -0.97111 0.013076
0.0046294 -0.011082 1.0592 6.131e-39 268.5 251 0 0 0 0.11558 0.19026 -0.97491 0.012254
0.0071077 -0.011082 1.0592 6.5459e-39 270.5 251 0 0 0 0.069677 0.20116 -0.97708 0.011685
0.0089664 -0.011082 1.0592 6.2693e-39 272 251 0 0 0 0.037523 0.20573 -0.97789 0.010586
0.010821 -0.011077 1.0587 5.9466e-39 273.5 251 0 0 0 0.0079305 0.21199 -0.97724 0.010585
0.013298 -0.011077 1.0587 7.2835e-39 318 251 0 0 0 -0.047774 0.22482 -0.97323 0.011154
0.015162 -0.011082 1.0592 8.2054e-39 362 251 0 0 0 -0.087353 0.22982 -0.96931 0.010544
0.017006 -0.011073 1.0582 7.7905e-39 363.5 251 0 0 0 -0.11593 0.24793 -0.96182 0.011634
0.018864 -0.011073 1.0582 8.021e-39 365 251 0 0 0 -0.16588 0.25953 -0.95138 0.011903
0.00091113 -0.0092159 1.0582 7.1221e-39 380 251.5 0 0 0 0.18066 0.18062 -0.96682 0.014439
0.0027683 -0.0092159 1.0582 6.0849e-39 210 252 0 0 0 0.14677 0.1821 -0.97226 0.012581
0.0046294 -0.0092237 1.0592 6.108e-39 214.5 252 0 0 0 0.11474 0.18572 -0.97588 0.01208
0.0071077 -0.0092237 1.0592 6.4537e-39 219.5 252 0 0 0 0.075203 0.19355 -0.9782 0.01164
0.0089664 -0.0092237 1.0592 6.2693e-39 221 252 0 0 0 0.041683 0.19695 -0.97953 0.010762
0.010825 -0.0092237 1.0592 6.1771e-39 222.5 252 0 0 0 0.010423 0.20822 -0.97803 0.010569
0.013298 -0.0092198 1.0587 6.3384e-39 226.5 252 0 0 0 -0.045543 0.22121 -0.97416 0.01093
0.015162 -0.0092237 1.0592 6.3154e-39 228 252 0 0 0 -0.083693 0.23412 -0.9686 0.010263
0.017006 -0.0092159 1.0582 5.8544e-39 229.5 252 0 0 0 -0.11583 0.2424 -0.96324 0.011712
0.01888 -0.0092237 1.0592 5.624e-39 231 252 0 0 0 -0.16181 0.24427 -0.95611 0.011075
0.020102 -0.0092159 1.0582 5.6239e-39 232 252 0 0 0 -0.19783 0.25241 -0.94718 0.010705
0.022578 -0.0085968 1.0582 8.2976e-39 362 252 0 0 0 -0.25354 0.25962 -0.93184 0.012143
-0.0021841 -0.0061206 1.0582 6.5459e-39 236 253 0 0 0 0.26224 0.16011 -0.95163 0.022126
-0.00094603 -0.0061206 1.0582 6.3615e-39 237 253 0 0 0 0.23318 0.16373 -0.95855 0.019458
0.00091191 -0.0067454 1.0592 7.2604e-39 341.25 252.5 0 0 0 0.18379 0.17086 -0.968 0.014493
0.0027706 -0.0067454 1.0592 7.1452e-39 343 252.5 0 0 0 0.14453 0.17747 -0.97346 0.01195
0.013923 -0.007365 1.0592 8.3898e-39 514 252 0 0 0 -0.055779 0.22051 -0.97379 0.010474
0.017228 -0.0069519 1.0592 5.962e-39 202.67 253 0 0 0 -0.12199 0.22792 -0.96601 0.01125
0.01888 -0.007365 1.0592 5.9005e-39 174 253 0 0 0 -0.16044 0.23502 -0.95866 0.011225
