# .PCD v.7 - Point Cloud Data file format
VERSION .7
FIELDS x y z rgb u v vx vy vz normal_x normal_y normal_z curvature
SIZE 4 4 4 4 4 4 4 4 4 4 4 4 4
TYPE F F F F F F F F F F F F F
COUNT 1 1 1 1 1 1 1 1 1 1 1 1 1
WIDTH 553
HEIGHT 1
VIEWPOINT 0 0 0 1 0 0 0
POINTS 553
DATA ascii
0.2673 0.21514 0.87961 1.0556e-38 449.5 340 0 0 0 -0.40323 0.31772 -0.85817 0.0025752
0.26906 0.21491 0.87867 1.1017e-38 451.5 340 0 0 0 -0.40876 0.32513 -0.85276 0.0025314
0.27051 0.21586 0.87836 6.0849e-39 226 341 0 0 0 -0.40697 0.32681 -0.85298 0.0023771
0.26781 0.21617 0.87961 6.6381e-39 223 341 0 0 0 -0.40137 0.31637 -0.85954 0.0025846
0.26921 0.21657 0.87914 7.5831e-39 282 341 0 0 0 -0.40272 0.32188 -0.85686 0.0025473
0.27112 0.21697 0.87867 8.3898e-39 341.5 341 0 0 0 -0.40519 0.32729 -0.85364 0.0023231
0.27257 0.21792 0.87836 1.0234e-38 439 341 0 0 0 -0.40252 0.32809 -0.8546 0.0021681
0.26987 0.21823 0.87961 1.0602e-38 436 341 0 0 0 -0.39965 0.3179 -0.85978 0.0023902
0.27127 0.21863 0.87914 8.4818e-39 327 341.5 0 0 0 -0.4008 0.32167 -0.85784 0.0023301
0.27325 0.21928 0.87836 6.6381e-39 256 342 0 0 0 -0.39792 0.32555 -0.85772 0.0021722
0.27462 0.21997 0.87836 7.9288e-39 332 342 0 0 0 -0.39718 0.32714 -0.85746 0.0020956
0.27193 0.22029 0.87961 8.6664e-39 329 342 0 0 0 -0.39707 0.31782 -0.861 0.0022508
0.2731 0.22082 0.87898 8.8201e-39 391.67 342 0 0 0 -0.39446 0.32057 -0.86118 0.0021717
0.27513 0.221 0.87836 9.2657e-39 424.5 342 0 0 0 -0.395 0.32507 -0.85925 0.0021508
0.2777 0.221 0.87836 9.6805e-39 427 342 0 0 0 -0.39518 0.32866 -0.8578 0.0021859
0.27357 0.22263 0.8794 6.5152e-39 233 343 0 0 0 -0.39153 0.31864 -0.86324 0.0021909
0.27529 0.22266 0.87882 6.0618e-39 249.5 343 0 0 0 -0.39203 0.32305 -0.86136 0.0022501
0.27719 0.22254 0.87836 5.8544e-39 251.5 343 0 0 0 -0.39468 0.32737 -0.85852 0.0022096
0.27873 0.22306 0.87836 5.5317e-39 297 343 0 0 0 -0.39094 0.32993 -0.85925 0.0022635
0.27398 0.2244 0.87961 6.5459e-39 399 343 0 0 0 -0.38985 0.31336 -0.86592 0.0021416
0.27543 0.22484 0.87929 6.2232e-39 290.5 343.5 0 0 0 -0.38905 0.31825 -0.8645 0.002177
0.27724 0.22463 0.87852 6.4307e-39 292.5 343.5 0 0 0 -0.39167 0.32478 -0.86088 0.0022505
0.27873 0.22459 0.87836 6.6381e-39 294 343.5 0 0 0 -0.38877 0.32898 -0.8606 0.0023323
0.2769 0.22684 0.87909 7.5293e-39 318.5 344 0 0 0 -0.38678 0.31794 -0.86563 0.0022799
0.27925 0.22666 0.87836 7.9288e-39 321 344 0 0 0 -0.38442 0.32735 -0.86317 0.0024793
0.28079 0.22717 0.87836 8.1132e-39 375 344 0 0 0 -0.38056 0.33219 -0.86303 0.0026498
0.27762 0.22875 0.87919 9.0658e-39 369.67 344.33 0 0 0 -0.3843 0.31522 -0.86773 0.0023572
0.2793 0.22875 0.87851 8.6664e-39 331.5 344.5 0 0 0 -0.38141 0.32669 -0.86475 0.0026072
0.28079 0.22871 0.87836 8.7127e-39 345.5 344.5 0 0 0 -0.37765 0.33293 -0.86402 0.0029175
0.27898 0.23071 0.87914 7.6292e-39 299.5 345 0 0 0 -0.37731 0.31946 -0.86924 0.0027211
0.28099 0.23118 0.87898 7.8597e-39 344.5 345 0 0 0 -0.37288 0.33106 -0.86681 0.0031564
0.28335 0.23128 0.87836 8.2515e-39 368.5 345 0 0 0 -0.35746 0.34473 -0.86798 0.0042506
0.27913 0.23264 0.87961 9.5883e-39 420 345 0 0 0 -0.37381 0.31442 -0.87259 0.0029342
0.2815 0.23247 0.87898 1.1064e-38 422.5 345 0 0 0 -0.36805 0.33257 -0.8683 0.0035428
0.28289 0.23286 0.87852 8.6435e-39 286.5 345.5 0 0 0 -0.35897 0.33972 -0.86933 0.004041
0.28497 0.23339 0.87857 5.6239e-39 151 346 0 0 0 -0.34147 0.34939 -0.87254 0.0050382
0.28277 0.23493 0.87919 6.884e-39 212 346 0 0 0 -0.35894 0.33696 -0.87041 0.0041518
0.28507 0.23501 0.87888 6.6074e-39 219.5 346 0 0 0 -0.34161 0.34725 -0.87334 0.0049704
0.28729 0.23505 0.87836 6.8225e-39 227 346 0 0 0 -0.31793 0.35694 -0.87836 0.0064171
0.28496 0.23709 0.87961 8.5127e-39 265.67 346 0 0 0 -0.33728 0.34401 -0.8763 0.005252
0.28712 0.23707 0.87888 7.7905e-39 272 346 0 0 0 -0.31902 0.35347 -0.87936 0.0064797
0.28901 0.23744 0.87836 7.4678e-39 286 346 0 0 0 -0.29591 0.36121 -0.88428 0.0084793
0.29004 0.23744 0.87836 7.0069e-39 287 346 0 0 0 -0.27994 0.36387 -0.88839 0.0095618
0.28736 0.23881 0.87961 6.2693e-39 298 346 0 0 0 -0.3123 0.35268 -0.88209 0.006623
0.2886 0.23855 0.87867 6.7764e-39 299.5 346 0 0 0 -0.29949 0.35953 -0.88377 0.0073008
0.29004 0.23899 0.87836 8.0672e-39 317.5 346 0 0 0 -0.27759 0.36419 -0.88899 0.0090262
0.26069 0.12754 0.88107 6.6381e-39 324.33 309 0 0 0 -0.0075868 -0.90812 -0.41863 0.0050153
0.26271 0.12794 0.88149 6.2232e-39 392.5 309 0 0 0 -0.012778 -0.90885 -0.41693 0.0051456
0.26477 0.12794 0.88149 6.131e-39 394.5 309 0 0 0 -0.018208 -0.90964 -0.41499 0.0052597
0.26632 0.12794 0.88149 6.4537e-39 396 309 0 0 0 -0.01948 -0.91051 -0.41304 0.0053662
0.21579 0.13 0.88149 7.2835e-39 189 310 0 0 0 -0.34608 -0.6117 -0.71137 0.059288
0.21682 0.13 0.88149 7.56e-39 190 310 0 0 0 -0.33417 -0.61843 -0.71124 0.060186
0.21991 0.13 0.88149 6.2693e-39 193 310 0 0 0 -0.27491 -0.6642 -0.69517 0.059498
0.22344 0.12995 0.88117 7.1452e-39 196.5 310 0 0 0 -0.22114 -0.70519 -0.67365 0.060227
0.22594 0.12991 0.88086 6.7303e-39 199 310 0 0 0 -0.18851 -0.73072 -0.65613 0.055726
0.2274 0.12987 0.88055 6.4998e-39 200.5 310 0 0 0 -0.17395 -0.73655 -0.65363 0.055853
0.22903 0.12991 0.88086 6.8225e-39 202 310 0 0 0 -0.15763 -0.75593 -0.63539 0.052283
0.2305 0.12987 0.88055 6.9147e-39 203.5 310 0 0 0 -0.13999 -0.76975 -0.6228 0.048414
0.23264 0.1294 0.88086 6.7303e-39 330.5 309.5 0 0 0 -0.11539 -0.7979 -0.59164 0.041313
0.2347 0.1294 0.88086 6.1771e-39 332.5 309.5 0 0 0 -0.10345 -0.81134 -0.57536 0.037779
0.2383 0.12991 0.88086 6.2693e-39 211 310 0 0 0 -0.092262 -0.82469 -0.55801 0.032688
0.25348 0.1296 0.88107 6.6074e-39 315 309.67 0 0 0 0.0057665 -0.89847 -0.439 0.005405
0.25521 0.12935 0.88055 6.7303e-39 360 309.5 0 0 0 -0.00037481 -0.90046 -0.43495 0.0055811
0.25685 0.12939 0.88086 6.5689e-39 361.5 309.5 0 0 0 -0.0029622 -0.90211 -0.4315 0.0053182
0.25892 0.12914 0.88086 6.4998e-39 341.75 309.5 0 0 0 -0.0051952 -0.90682 -0.42149 0.0048763
0.26182 0.12982 0.88024 6.3615e-39 238 310 0 0 0 -0.01544 -0.90837 -0.41789 0.0050372
0.26263 0.12919 0.88065 6.1771e-39 173.33 310 0 0 0 -0.013923 -0.90936 -0.41579 0.0050088
0.265 0.12935 0.88055 5.8775e-39 195 310 0 0 0 -0.018176 -0.90881 -0.41682 0.0052109
0.26688 0.12925 0.88107 5.8698e-39 181.33 310 0 0 0 -0.019001 -0.91011 -0.41393 0.005449
0.2689 0.13 0.88149 6.0388e-39 256.5 310 0 0 0 -0.01613 -0.90897 -0.41656 0.0058
0.271 0.1296 0.88107 5.839e-39 222 310 0 0 0 -0.0081354 -0.90489 -0.42556 0.0059541
0.27283 0.12991 0.88086 6.1771e-39 260.5 310 0 0 0 -0.0023325 -0.89883 -0.4383 0.0059082
0.27508 0.12948 0.88149 6.6842e-39 207.5 310 0 0 0 -0.0042896 -0.89761 -0.44078 0.0061264
0.27715 0.12897 0.88149 5.9466e-39 154.5 310 0 0 0 -0.0070336 -0.89397 -0.44806 0.0056448
0.27891 0.12935 0.88055 7.514e-39 211.5 310 0 0 0 -0.0054314 -0.89301 -0.45001 0.0054139
0.28108 0.12888 0.88086 5.9466e-39 158.5 310 0 0 0 -0.0099379 -0.89166 -0.45261 0.0048177
0.28334 0.12897 0.88149 6.131e-39 160.5 310 0 0 0 -0.013396 -0.89105 -0.45371 0.0042441
0.28519 0.12939 0.88086 7.2835e-39 217.5 310 0 0 0 -0.010013 -0.88694 -0.46177 0.0032738
0.28706 0.12982 0.88024 7.7444e-39 274.5 310 0 0 0 -0.0014328 -0.88371 -0.46803 0.0023699
0.21511 0.13145 0.88086 7.2374e-39 414 310 0 0 0 -0.38561 -0.51172 -0.76775 0.060323
0.21658 0.13141 0.88055 7.8366e-39 415.5 310 0 0 0 -0.36704 -0.51959 -0.77156 0.060975
0.21907 0.13128 0.88086 8.144e-39 402.67 310 0 0 0 -0.31891 -0.57831 -0.7509 0.063833
0.22113 0.13128 0.88086 7.7752e-39 404.67 310 0 0 0 -0.28522 -0.62127 -0.72985 0.06576
0.22321 0.13085 0.88024 8.9891e-39 376.5 310 0 0 0 -0.24634 -0.65737 -0.71216 0.065601
0.22491 0.13094 0.88086 9.404e-39 378 310 0 0 0 -0.21892 -0.68614 -0.69375 0.064004
0.24097 0.13098 0.88117 6.1771e-39 393.5 310 0 0 0 -0.093197 -0.81676 -0.5694 0.034622
0.24276 0.13085 0.88024 6.0388e-39 395.5 310 0 0 0 -0.081944 -0.82143 -0.5644 0.03118
0.245 0.13094 0.88086 6.131e-39 397.5 310 0 0 0 -0.067205 -0.84244 -0.53459 0.023787
0.24716 0.1315 0.88117 6.5459e-39 269 310.5 0 0 0 -0.053723 -0.8536 -0.51815 0.019313
0.24922 0.13098 0.88117 6.6381e-39 401.5 310 0 0 0 -0.024129 -0.87334 -0.48652 0.012229
0.25109 0.1309 0.88055 6.1771e-39 403.5 310 0 0 0 -0.0039852 -0.88573 -0.46418 0.0087153
0.26697 0.13085 0.88024 8.021e-39 419 310 0 0 0 -0.01628 -0.90663 -0.42161 0.0053404
0.26881 0.13125 0.88065 7.5293e-39 334.33 310.33 0 0 0 -0.012377 -0.90369 -0.42801 0.0056231
0.27057 0.13085 0.88024 8.1593e-39 422.5 310 0 0 0 -0.0045526 -0.89982 -0.43623 0.0056071
0.27418 0.13085 0.88024 8.482e-39 426 310 0 0 0 0.0029782 -0.89548 -0.4451 0.005716
0.30477 0.13094 0.88086 8.5742e-39 440.5 310 0 0 0 0.053001 -0.89002 -0.45283 0.0030811
0.30683 0.13094 0.88086 8.5281e-39 442.5 310 0 0 0 0.063992 -0.89332 -0.44484 0.0033454
0.21445 0.13342 0.88024 7.6983e-39 293 311 0 0 0 -0.40641 -0.41578 -0.81361 0.059334
0.21764 0.13297 0.88066 7.0683e-39 351.33 310.67 0 0 0 -0.3647 -0.48532 -0.79464 0.063043
0.21372 0.13465 0.88149 7.6983e-39 434 311 0 0 0 -0.42385 -0.38591 -0.81941 0.061882
0.21445 0.13497 0.88024 6.3615e-39 488 311 0 0 0 -0.42509 -0.33523 -0.84079 0.05447
0.21754 0.13497 0.88024 6.4537e-39 491 311 0 0 0 -0.38931 -0.37972 -0.8392 0.061905
0.21372 0.1367 0.88149 7.4218e-39 323.5 312 0 0 0 -0.44292 -0.27645 -0.85287 0.052737
0.21445 0.13652 0.88024 7.4218e-39 324.5 312 0 0 0 -0.43332 -0.25963 -0.86303 0.050322
0.21754 0.13703 0.88024 8.1132e-39 418 312 0 0 0 -0.40584 -0.26135 -0.87578 0.053069
0.21494 0.13884 0.88086 8.021e-39 309.33 313 0 0 0 -0.43341 -0.19473 -0.87991 0.047093
0.21754 0.13858 0.88024 7.7905e-39 280.5 313 0 0 0 -0.41647 -0.21307 -0.88383 0.050359
0.21563 0.14074 0.88086 6.2693e-39 379 313.5 0 0 0 -0.42853 -0.11393 -0.89632 0.03896
0.21754 0.14063 0.88024 7.1452e-39 381 313.5 0 0 0 -0.42493 -0.11395 -0.89803 0.038524
0.21579 0.14289 0.88149 7.4218e-39 314.5 314.5 0 0 0 -0.43397 -0.051981 -0.89943 0.033232
0.21703 0.14269 0.88024 7.1452e-39 316 314.5 0 0 0 -0.4189 -0.046703 -0.90683 0.031773
0.21857 0.14269 0.88024 6.9608e-39 317.5 314.5 0 0 0 -0.41491 -0.051265 -0.90842 0.03332
0.21714 0.14483 0.8807 8.2285e-39 349 315.25 0 0 0 -0.41686 0.021047 -0.90873 0.024213
0.21901 0.14499 0.88065 7.4679e-39 219 315.67 0 0 0 -0.40602 0.021217 -0.91362 0.023874
0.21722 0.14694 0.88102 7.9288e-39 347.5 316 0 0 0 -0.40882 0.090649 -0.9081 0.015155
0.2192 0.14689 0.88071 8.4359e-39 349.5 316 0 0 0 -0.40126 0.090027 -0.91153 0.015356
0.21734 0.14857 0.88149 6.3615e-39 198.5 317 0 0 0 -0.40386 0.13566 -0.90471 0.010567
0.21928 0.149 0.88102 7.8597e-39 280.5 317 0 0 0 -0.39434 0.14311 -0.90775 0.0097816
0.22063 0.14938 0.88024 8.7586e-39 362 317 0 0 0 -0.39287 0.15213 -0.90692 0.0085176
0.21928 0.15106 0.88102 6.3615e-39 373.5 317.5 0 0 0 -0.39133 0.19305 -0.89977 0.0062208
0.22063 0.15092 0.88024 6.4537e-39 375 317.5 0 0 0 -0.3887 0.19259 -0.90101 0.0057295
0.21983 0.15315 0.88117 6.6381e-39 259.5 318.5 0 0 0 -0.38785 0.22245 -0.89448 0.0053149
0.22126 0.15307 0.8807 6.4306e-39 261 318.5 0 0 0 -0.39125 0.21776 -0.89415 0.0047718
0.21991 0.15475 0.88149 7.8366e-39 240 319 0 0 0 -0.39049 0.23539 -0.89001 0.0055609
0.22138 0.15521 0.88117 7.9749e-39 306.5 319 0 0 0 -0.39632 0.23471 -0.8876 0.0046097
0.22321 0.15556 0.88024 8.943e-39 373.5 319 0 0 0 -0.41201 0.22651 -0.88258 0.0033999
0.22475 0.15556 0.88024 9.0352e-39 375 319 0 0 0 -0.42143 0.22507 -0.87849 0.0029971
0.22197 0.15682 0.88149 5.4395e-39 156 320 0 0 0 -0.4081 0.2408 -0.88061 0.0043739
0.2234 0.15725 0.88102 6.3845e-39 214 320 0 0 0 -0.4151 0.23841 -0.87798 0.0035226
0.22499 0.15727 0.88117 5.9927e-39 215.5 320 0 0 0 -0.4214 0.23452 -0.87603 0.0031239
0.22456 0.15888 0.88149 8.0671e-39 405.5 320 0 0 0 -0.42173 0.24352 -0.87341 0.0032863
0.22586 0.16129 0.88055 6.5459e-39 416 321 0 0 0 -0.42613 0.25141 -0.86903 0.0031781
0.22732 0.16174 0.88024 6.2693e-39 488.5 321 0 0 0 -0.42764 0.25387 -0.86757 0.0031106
0.22594 0.16289 0.88086 6.7303e-39 255 322 0 0 0 -0.4265 0.26007 -0.86629 0.0031601
0.22737 0.16331 0.88039 7.0991e-39 325.5 322 0 0 0 -0.42746 0.26127 -0.86546 0.0031174
0.22727 0.16498 0.88102 6.6151e-39 279.75 322.75 0 0 0 -0.4276 0.26978 -0.86277 0.0030616
0.22887 0.16586 0.88024 5.9927e-39 336 323 0 0 0 -0.42795 0.27316 -0.86153 0.0030883
0.22859 0.16707 0.88117 6.7303e-39 467.5 323 0 0 0 -0.4258 0.27905 -0.86071 0.0029774
0.22907 0.16859 0.88102 7.076e-39 314.5 324 0 0 0 -0.42382 0.28479 -0.85981 0.0029383
0.2304 0.17079 0.88086 7.7137e-39 252.33 325 0 0 0 -0.42359 0.29357 -0.85697 0.0029378
0.23109 0.17216 0.88086 7.3757e-39 425 325 0 0 0 -0.42386 0.298 -0.8553 0.002924
0.2327 0.17277 0.88045 7.7137e-39 292.67 325.67 0 0 0 -0.42479 0.29956 -0.85429 0.0029582
0.23272 0.17428 0.88117 7.5601e-39 357.5 326 0 0 0 -0.4225 0.30601 -0.85314 0.0029034
0.23442 0.17483 0.88045 6.3922e-39 220.67 326.67 0 0 0 -0.42173 0.30799 -0.85281 0.0029333
0.23538 0.17641 0.88149 6.4537e-39 265 327 0 0 0 -0.41942 0.31475 -0.85148 0.0027726
0.23616 0.17674 0.88055 7.5601e-39 330.5 327 0 0 0 -0.41963 0.31575 -0.85101 0.0028191
0.23813 0.17719 0.88024 7.9288e-39 397 327 0 0 0 -0.4211 0.31952 -0.84887 0.0028353
0.23699 0.17873 0.88107 6.7918e-39 233 328 0 0 0 -0.41784 0.31856 -0.85084 0.0028069
0.23821 0.1788 0.88055 7.0991e-39 252.5 328 0 0 0 -0.41805 0.31866 -0.8507 0.0028858
0.23911 0.18084 0.88128 7.4986e-39 377.33 328.33 0 0 0 -0.41438 0.31911 -0.85233 0.0029507
0.24065 0.18105 0.88066 8.4206e-39 304.67 328.67 0 0 0 -0.41438 0.32146 -0.85144 0.002824
0.24225 0.18131 0.88024 9.1274e-39 232 329 0 0 0 -0.41432 0.32309 -0.85085 0.0028428
0.24148 0.18305 0.88117 7.2835e-39 420.5 329 0 0 0 -0.41097 0.31655 -0.85493 0.0027744
0.24271 0.18311 0.88065 7.0069e-39 442.33 329 0 0 0 -0.41434 0.31817 -0.8527 0.0027114
0.24311 0.18487 0.88086 7.2527e-39 290.33 330 0 0 0 -0.40943 0.31495 -0.85626 0.0026457
0.24431 0.18543 0.88024 5.9927e-39 375 330 0 0 0 -0.40918 0.31687 -0.85567 0.0025805
0.24363 0.18724 0.88149 7.2374e-39 201.5 331 0 0 0 -0.40755 0.31005 -0.85894 0.0024887
0.24471 0.18719 0.88045 7.2527e-39 221.67 331 0 0 0 -0.40688 0.31111 -0.85887 0.0024442
0.24637 0.18749 0.88024 7.0069e-39 261 331 0 0 0 -0.41272 0.31315 -0.85534 0.0025719
0.24569 0.18879 0.88149 8.482e-39 384 331 0 0 0 -0.40625 0.30898 -0.85994 0.0025091
0.24689 0.18934 0.88086 6.9761e-39 230.67 331.67 0 0 0 -0.41035 0.3078 -0.85841 0.0026018
0.24724 0.19106 0.88086 6.1156e-39 309.33 332 0 0 0 -0.41021 0.30573 -0.85922 0.0025619
0.24767 0.19335 0.88117 5.5318e-39 216.5 333 0 0 0 -0.4084 0.30184 -0.86145 0.0026237
0.24843 0.19316 0.88024 5.5778e-39 217.5 333 0 0 0 -0.41138 0.30379 -0.85935 0.002629
0.24924 0.19514 0.88065 6.8839e-39 320.33 333.33 0 0 0 -0.41359 0.29949 -0.8598 0.0026196
0.25089 0.19543 0.88045 6.4229e-39 243.67 333.67 0 0 0 -0.41888 0.29788 -0.85779 0.0025383
0.2493 0.19653 0.88149 6.3154e-39 220.5 334 0 0 0 -0.4135 0.29726 -0.86061 0.0027773
0.25128 0.19697 0.88117 7.0069e-39 279.5 334 0 0 0 -0.41904 0.29436 -0.85893 0.0025068
0.25255 0.19779 0.88024 7.2835e-39 405 334 0 0 0 -0.41893 0.29456 -0.85891 0.0024817
0.25188 0.19807 0.88149 7.56e-39 404 334 0 0 0 -0.41812 0.29324 -0.85976 0.0024926
0.25324 0.19948 0.88086 6.4998e-39 230.5 335 0 0 0 -0.41721 0.29383 -0.86 0.0024403
0.25521 0.19941 0.88055 6.2693e-39 234 335 0 0 0 -0.42044 0.2977 -0.85709 0.0025451
0.25394 0.20116 0.88149 6.0849e-39 418 335 0 0 0 -0.41568 0.29383 -0.86074 0.0024216
0.25498 0.20116 0.88149 6.1771e-39 419 335 0 0 0 -0.41561 0.29661 -0.85982 0.0023693
0.25601 0.20116 0.88149 6.4537e-39 420 335 0 0 0 -0.41691 0.2977 -0.85881 0.0024571
0.25634 0.20256 0.88086 6.4998e-39 263.5 336 0 0 0 -0.41331 0.29861 -0.86024 0.0023957
0.25686 0.20462 0.88086 6.5459e-39 333 336.5 0 0 0 -0.40893 0.29912 -0.86215 0.0024224
0.25789 0.20617 0.88086 6.4537e-39 362 337 0 0 0 -0.40324 0.30235 -0.8637 0.0024192
0.2584 0.2072 0.88086 1.0049e-38 478.5 337 0 0 0 -0.40121 0.30547 -0.86355 0.0024181
0.25943 0.20875 0.88086 8.1132e-39 328.5 338 0 0 0 -0.39783 0.30878 -0.86394 0.0024928
0.25995 0.21029 0.88086 6.5459e-39 187 339 0 0 0 -0.39536 0.30639 -0.86592 0.0024918
0.26111 0.21085 0.88061 6.9516e-39 256.6 339 0 0 0 -0.39501 0.30911 -0.86511 0.0025378
0.26285 0.21117 0.88024 6.4537e-39 304 339 0 0 0 -0.39933 0.31205 -0.86207 0.0025428
0.26107 0.21295 0.88117 7.2835e-39 329.5 339.5 0 0 0 -0.39273 0.30469 -0.86771 0.0024971
0.26276 0.21291 0.88061 7.2834e-39 309.2 339.6 0 0 0 -0.39538 0.30888 -0.86503 0.0025491
0.26497 0.215 0.88045 9.8033e-39 413 340 0 0 0 -0.39579 0.31049 -0.86426 0.0025633
0.2652 0.21707 0.88117 6.9146e-39 277.5 341 0 0 0 -0.39046 0.30761 -0.86771 0.0024048
0.26665 0.21699 0.88086 7.1452e-39 279 341 0 0 0 -0.39377 0.31052 -0.86517 0.0024873
0.268 0.21735 0.88024 8.482e-39 338 341 0 0 0 -0.39668 0.31518 -0.86215 0.0025213
0.26735 0.2187 0.88149 9.4961e-39 433 341 0 0 0 -0.39066 0.30906 -0.8671 0.0024573
0.26871 0.21905 0.88086 8.482e-39 324 341.5 0 0 0 -0.39244 0.31189 -0.86528 0.0023674
0.27006 0.21941 0.88024 6.5459e-39 215 342 0 0 0 -0.39484 0.31469 -0.86318 0.0023332
0.26941 0.22076 0.88149 7.0991e-39 306 342 0 0 0 -0.39069 0.30937 -0.86698 0.0022534
0.27077 0.22111 0.88086 8.021e-39 363.5 342 0 0 0 -0.39083 0.3114 -0.86619 0.0021796
0.27212 0.22147 0.88024 8.2054e-39 421 342 0 0 0 -0.392 0.31553 -0.86416 0.0022068
0.27107 0.22311 0.88128 6.8225e-39 230 343 0 0 0 -0.38901 0.31034 -0.86739 0.002126
0.27253 0.22324 0.88045 6.7303e-39 261 343 0 0 0 -0.38894 0.31351 -0.86628 0.0021716
0.27288 0.22528 0.88102 6.4076e-39 281 343.5 0 0 0 -0.38662 0.30988 -0.86862 0.0020909
0.27418 0.22559 0.88024 5.9927e-39 166 344 0 0 0 -0.38695 0.31374 -0.86708 0.0021487
0.27354 0.22747 0.88149 7.9749e-39 314.5 344 0 0 0 -0.38654 0.30698 -0.86968 0.0021047
0.27474 0.22717 0.88039 8.1132e-39 316 344 0 0 0 -0.38511 0.31055 -0.86905 0.0021429
0.275 0.22913 0.88065 9.3732e-39 366.67 344.33 0 0 0 -0.38538 0.30618 -0.87048 0.0021779
0.27665 0.22942 0.88045 7.7135e-39 288.33 344.67 0 0 0 -0.38207 0.30898 -0.87095 0.0023246
0.27457 0.23004 0.88149 6.3615e-39 206 345 0 0 0 -0.38545 0.30439 -0.87108 0.0022136
0.27705 0.23099 0.88117 7.6061e-39 275.5 345 0 0 0 -0.38114 0.30683 -0.87211 0.0024052
0.2783 0.23177 0.88024 9.404e-39 363 345 0 0 0 -0.37669 0.31188 -0.87226 0.0026731
0.27766 0.2321 0.88149 9.1274e-39 362 345 0 0 0 -0.379 0.30498 -0.8737 0.0024938
0.27891 0.2334 0.88055 8.1593e-39 282 345.5 0 0 0 -0.37279 0.30921 -0.87488 0.0029552
0.28077 0.23354 0.88045 7.7137e-39 238 345.67 0 0 0 -0.36856 0.32094 -0.87245 0.0035041
0.27973 0.2352 0.88149 5.8083e-39 198 346 0 0 0 -0.36924 0.30968 -0.87622 0.0032136
0.28118 0.23511 0.88117 6.2693e-39 199.5 346 0 0 0 -0.36471 0.32101 -0.87404 0.0037237
0.28242 0.23589 0.88024 7.1913e-39 232 346 0 0 0 -0.35658 0.3282 -0.87472 0.0041111
0.28179 0.23623 0.88149 7.3757e-39 231 346 0 0 0 -0.36088 0.32502 -0.87415 0.004059
0.28304 0.237 0.88055 9.1274e-39 255.5 346 0 0 0 -0.35131 0.33473 -0.87438 0.0044577
0.28448 0.23795 0.88024 7.6522e-39 281 346 0 0 0 -0.3381 0.34208 -0.87674 0.0052536
0.2605 0.12709 0.88275 7.2835e-39 191 309 0 0 0 -0.0049152 -0.90686 -0.42141 0.0049411
0.26309 0.12709 0.88275 6.3154e-39 193.5 309 0 0 0 -0.013947 -0.90741 -0.42001 0.0053118
0.26534 0.12718 0.88338 6.7764e-39 195.5 309 0 0 0 -0.017 -0.91078 -0.41254 0.0056115
0.26689 0.12718 0.88338 7.2835e-39 197 309 0 0 0 -0.021823 -0.91077 -0.41235 0.005508
0.21558 0.12916 0.88275 8.021e-39 438.5 309 0 0 0 -0.32814 -0.66614 -0.66977 0.05624
0.21697 0.12906 0.88212 8.3898e-39 440 309 0 0 0 -0.31457 -0.67334 -0.66907 0.055435
0.22083 0.12921 0.88306 8.1593e-39 443.5 309 0 0 0 -0.23385 -0.73322 -0.63851 0.052913
0.22289 0.12921 0.88306 7.7444e-39 445.5 309 0 0 0 -0.20305 -0.758 -0.61984 0.049655
0.2242 0.12906 0.88212 7.9288e-39 447 309 0 0 0 -0.19579 -0.75343 -0.6277 0.051572
0.22686 0.12911 0.88243 8.2976e-39 449.5 309 0 0 0 -0.16139 -0.77977 -0.60491 0.046426
0.229 0.12916 0.88275 7.8366e-39 451.5 309 0 0 0 -0.13726 -0.79104 -0.59617 0.043742
0.23099 0.12911 0.88243 7.4678e-39 453.5 309 0 0 0 -0.11819 -0.80342 -0.58356 0.040464
0.23348 0.12906 0.88212 6.8225e-39 456 309 0 0 0 -0.098014 -0.82091 -0.56259 0.035299
0.23589 0.12925 0.88338 6.4537e-39 458 309 0 0 0 -0.086194 -0.84084 -0.53438 0.029137
0.25346 0.12925 0.88338 6.5459e-39 487 309 0 0 0 0.0064709 -0.90551 -0.42427 0.0043175
0.25473 0.12808 0.88243 8.3437e-39 386.5 309 0 0 0 0.0064509 -0.90447 -0.42649 0.0044898
0.25619 0.12803 0.88212 8.2976e-39 388 309 0 0 0 0.00055409 -0.90505 -0.42531 0.0046246
0.25929 0.12803 0.88212 7.4678e-39 389 309 0 0 0 -0.002789 -0.90622 -0.4228 0.0048365
0.26773 0.12812 0.88275 6.7303e-39 397 309 0 0 0 -0.021925 -0.90994 -0.41415 0.0056447
0.26909 0.12906 0.88212 5.9927e-39 146.5 310 0 0 0 -0.017119 -0.90855 -0.41742 0.0057344
0.27083 0.12863 0.88275 6.1771e-39 274 309.5 0 0 0 -0.015715 -0.90777 -0.41918 0.0061443
0.2729 0.12881 0.88275 5.9005e-39 234 309.67 0 0 0 -0.011691 -0.90564 -0.4239 0.0065922
0.27516 0.12925 0.88338 5.8083e-39 152 310 0 0 0 -0.013604 -0.90366 -0.42803 0.0066213
0.27909 0.12846 0.88275 6.4537e-39 324 309.33 0 0 0 -0.0086887 -0.89659 -0.44278 0.005901
0.28136 0.12821 0.88338 7.1913e-39 410 309 0 0 0 -0.011372 -0.89748 -0.44092 0.0053714
0.28281 0.12817 0.88306 6.8686e-39 411.5 309 0 0 0 -0.014223 -0.89667 -0.44247 0.0050242
0.28497 0.12821 0.88338 6.4076e-39 413.5 309 0 0 0 -0.012162 -0.89657 -0.44273 0.0044763
0.28653 0.12821 0.88338 6.7303e-39 415 309 0 0 0 -0.0049871 -0.89623 -0.44356 0.0039566
0.21263 0.13132 0.88338 8.8969e-39 365.5 310 0 0 0 -0.39436 -0.56194 -0.72712 0.066747
0.21454 0.13071 0.88275 7.6522e-39 277.5 310 0 0 0 -0.35733 -0.61325 -0.70444 0.06262
0.218 0.13113 0.88212 9.0352e-39 371 310 0 0 0 -0.32873 -0.61474 -0.71696 0.061969
0.21919 0.13019 0.88275 6.9147e-39 192 310 0 0 0 -0.28842 -0.67619 -0.67793 0.059404
0.2211 0.1301 0.88212 6.2693e-39 194 310 0 0 0 -0.25822 -0.68895 -0.67725 0.060071
0.22213 0.1301 0.88212 6.7303e-39 195 310 0 0 0 -0.23682 -0.70674 -0.66666 0.05879
0.22539 0.13019 0.88275 7.0069e-39 198 310 0 0 0 -0.1973 -0.74048 -0.64247 0.056669
0.23718 0.13014 0.88243 5.9466e-39 209.5 310 0 0 0 -0.095856 -0.82828 -0.55206 0.032471
0.23985 0.13019 0.88275 6.6381e-39 212 310 0 0 0 -0.080415 -0.84475 -0.52909 0.026187
0.24261 0.13028 0.88338 6.6842e-39 217.5 310 0 0 0 -0.060702 -0.8663 -0.49581 0.018629
0.24467 0.13028 0.88338 6.8686e-39 219.5 310 0 0 0 -0.045095 -0.87789 -0.47673 0.013658
0.24674 0.13028 0.88338 7.4218e-39 221.5 310 0 0 0 -0.01203 -0.89727 -0.44131 0.0060846
0.24811 0.13122 0.88275 6.2693e-39 400 310 0 0 0 -0.012916 -0.88899 -0.45774 0.008181
0.25087 0.13028 0.88338 6.3615e-39 225.5 310 0 0 0 0.0078141 -0.90504 -0.42526 0.0043013
0.25224 0.13019 0.88275 6.2693e-39 227 310 0 0 0 0.0080751 -0.90381 -0.42785 0.0044056
0.30543 0.13019 0.88275 8.1593e-39 276.5 310 0 0 0 0.08124 -0.89264 -0.44338 0.0029839
0.30698 0.13019 0.88275 9.0352e-39 278 310 0 0 0 0.10064 -0.89474 -0.43511 0.0030754
0.30853 0.13019 0.88275 9.0352e-39 279.5 310 0 0 0 0.11553 -0.89556 -0.42968 0.0032666
0.21148 0.13279 0.88291 6.7534e-39 328 310.5 0 0 0 -0.41812 -0.49121 -0.76413 0.066791
0.21329 0.13291 0.88254 6.7918e-39 287.33 310.67 0 0 0 -0.40827 -0.48657 -0.77238 0.065694
0.21403 0.13225 0.88275 6.5459e-39 458 310 0 0 0 -0.38964 -0.53044 -0.75287 0.065826
0.21141 0.13481 0.88259 7.9519e-39 425 311 0 0 0 -0.44794 -0.3766 -0.81088 0.062183
0.21284 0.13474 0.88212 7.8827e-39 433 311 0 0 0 -0.42538 -0.39024 -0.81656 0.063409
0.21093 0.1369 0.88275 6.9608e-39 320.5 312 0 0 0 -0.46761 -0.27703 -0.83941 0.054406
0.21284 0.1368 0.88212 7.053e-39 322.5 312 0 0 0 -0.44593 -0.28912 -0.84709 0.055254
0.21152 0.1385 0.88306 6.2693e-39 179.5 313 0 0 0 -0.46567 -0.22833 -0.85499 0.052638
0.21304 0.13899 0.88291 7.0068e-39 275.5 313 0 0 0 -0.44771 -0.21246 -0.86857 0.051979
0.21403 0.13948 0.88275 9.0352e-39 371 313 0 0 0 -0.44537 -0.19556 -0.87373 0.049857
0.21458 0.14106 0.88291 6.6151e-39 377.5 313.5 0 0 0 -0.44465 -0.13313 -0.88576 0.045672
0.20591 0.14372 0.88338 6.5459e-39 192 315 0 0 0 -0.5026 -0.018436 -0.86432 0.026453
0.2147 0.1432 0.88338 7.4218e-39 313 314.5 0 0 0 -0.4467 -0.057271 -0.89285 0.034149
0.21594 0.14454 0.88212 9.0352e-39 375 315 0 0 0 -0.4258 0.0093514 -0.90477 0.025243
0.21609 0.14568 0.88275 9.4961e-39 504 315 0 0 0 -0.42469 0.03738 -0.90457 0.022473
0.21617 0.14728 0.88306 7.0991e-39 346 316 0 0 0 -0.41716 0.098102 -0.90352 0.015248
0.21707 0.14943 0.88254 7.8674e-39 304.67 317 0 0 0 -0.40654 0.15153 -0.90098 0.0097237
0.21748 0.15125 0.88212 6.3615e-39 371.5 317.5 0 0 0 -0.39933 0.20064 -0.89458 0.0068366
0.21757 0.15337 0.88243 8.3667e-39 441.5 318 0 0 0 -0.39797 0.22889 -0.88839 0.0062701
0.21904 0.15332 0.88212 7.1452e-39 258.5 318.5 0 0 0 -0.38969 0.22771 -0.89235 0.0056242
0.21728 0.15509 0.88338 8.1132e-39 237 319 0 0 0 -0.40018 0.25016 -0.88163 0.0063861
0.21868 0.15498 0.88275 8.0671e-39 238.5 319 0 0 0 -0.397 0.24761 -0.88379 0.006023
0.22007 0.1559 0.88212 8.021e-39 370 319 0 0 0 -0.39444 0.24536 -0.88556 0.0058045
0.21895 0.15643 0.88317 6.9454e-39 296.67 319.33 0 0 0 -0.39976 0.25522 -0.88037 0.0061651
0.22074 0.15704 0.88275 5.7622e-39 154.5 320 0 0 0 -0.39887 0.25495 -0.88085 0.0058093
0.22213 0.15796 0.88212 7.6522e-39 269 320 0 0 0 -0.41103 0.24676 -0.87759 0.0043178
0.22102 0.15849 0.88317 7.7752e-39 312.33 320 0 0 0 -0.41093 0.2608 -0.87357 0.0052474
0.22273 0.15905 0.88243 8.2515e-39 403.5 320 0 0 0 -0.41996 0.25166 -0.87195 0.0038665
0.22288 0.16071 0.88306 6.2002e-39 274 321 0 0 0 -0.4267 0.26042 -0.86609 0.0038481
0.22479 0.16059 0.88244 6.5229e-39 276 321 0 0 0 -0.42435 0.25463 -0.86896 0.0033081
0.22314 0.16301 0.88338 6.5459e-39 329 321.67 0 0 0 -0.43309 0.27161 -0.85946 0.0036969
0.225 0.16281 0.88322 6.6151e-39 369.5 321.5 0 0 0 -0.43025 0.26538 -0.86282 0.0032893
0.22555 0.1649 0.88338 6.3154e-39 292.5 322.5 0 0 0 -0.43184 0.27546 -0.85886 0.0031138
0.22626 0.16519 0.88212 6.7303e-39 194 323 0 0 0 -0.42758 0.27246 -0.86194 0.0031024
0.22694 0.16686 0.88275 6.154e-39 399.5 323 0 0 0 -0.42995 0.28031 -0.85824 0.0029681
0.22754 0.16898 0.88306 7.3757e-39 312.5 324 0 0 0 -0.43118 0.29216 -0.85365 0.0028175
0.22832 0.16931 0.88212 6.4537e-39 381 324 0 0 0 -0.4277 0.28957 -0.85629 0.0029482
0.22904 0.17102 0.88291 6.7994e-39 231 325 0 0 0 -0.42813 0.29876 -0.8529 0.0028551
0.23084 0.17318 0.88254 8.2361e-39 290.33 325.67 0 0 0 -0.42501 0.30571 -0.852 0.0028868
0.23159 0.1746 0.88275 7.56e-39 356 326 0 0 0 -0.42512 0.31017 -0.85033 0.0029223
0.23305 0.17557 0.88243 5.9927e-39 149.5 327 0 0 0 -0.42349 0.31171 -0.85058 0.0029314
0.23382 0.17679 0.88338 6.0849e-39 263 327 0 0 0 -0.42357 0.31734 -0.84846 0.0029357
0.23497 0.17731 0.88254 7.6522e-39 350.33 327 0 0 0 -0.42099 0.31626 -0.85015 0.0028617
0.23589 0.17886 0.88338 7.0069e-39 195 328 0 0 0 -0.42141 0.31818 -0.84922 0.0030409
0.23658 0.17963 0.88212 5.7161e-39 305 328 0 0 0 -0.41905 0.31708 -0.8508 0.0029469
0.23749 0.18118 0.88296 7.4064e-39 365.33 328.33 0 0 0 -0.41868 0.31969 -0.85001 0.0030605
0.23882 0.18183 0.88275 8.3898e-39 228 329 0 0 0 -0.41707 0.31794 -0.85145 0.003017
0.23985 0.18286 0.88275 7.2835e-39 357 329 0 0 0 -0.41506 0.31582 -0.85322 0.0029819
0.2408 0.18331 0.88243 7.2835e-39 419.5 329 0 0 0 -0.41248 0.31592 -0.85443 0.0029042
0.24118 0.18496 0.88291 7.3526e-39 336.25 329.75 0 0 0 -0.41326 0.31107 -0.85583 0.0028576
0.24295 0.18596 0.88275 6.0849e-39 373 330 0 0 0 -0.4097 0.31049 -0.85775 0.0025902
0.24261 0.18713 0.88338 6.8686e-39 143.5 331 0 0 0 -0.41259 0.31031 -0.85643 0.0027616
0.24381 0.18892 0.88212 9.3118e-39 382 331 0 0 0 -0.40701 0.30579 -0.86072 0.0024805
0.24535 0.18944 0.88212 7.3757e-39 267.5 331.5 0 0 0 -0.4059 0.30583 -0.86122 0.0025646
0.24398 0.19009 0.88275 5.5317e-39 150 332 0 0 0 -0.40959 0.30688 -0.85911 0.0026608
0.24472 0.19082 0.88296 5.7161e-39 226.67 332 0 0 0 -0.40743 0.30593 -0.86047 0.0025875
0.24605 0.19112 0.88275 5.9005e-39 266 332 0 0 0 -0.40618 0.3043 -0.86164 0.0025884
0.24484 0.19264 0.88338 7.099e-39 312 332.33 0 0 0 -0.41309 0.30686 -0.85743 0.0029464
0.24648 0.1926 0.88243 6.7994e-39 275 332.5 0 0 0 -0.40738 0.30271 -0.86163 0.0026413
0.24519 0.19436 0.88338 5.9005e-39 270 333 0 0 0 -0.41277 0.30766 -0.8573 0.0030394
0.24684 0.19481 0.88262 6.3246e-39 346.2 333 0 0 0 -0.41012 0.30323 -0.86015 0.0028037
0.24725 0.19643 0.88338 5.8083e-39 161 334 0 0 0 -0.41548 0.30321 -0.85758 0.0031895
0.24846 0.19698 0.88275 6.2693e-39 238.33 334 0 0 0 -0.41407 0.29931 -0.85963 0.0029432
0.24919 0.19864 0.88291 7.4217e-39 342 334.25 0 0 0 -0.41967 0.29646 -0.8579 0.0031377
0.25099 0.19914 0.88317 6.761e-39 245.33 334.67 0 0 0 -0.41942 0.29401 -0.85886 0.0028288
0.25206 0.19924 0.88212 6.4537e-39 168 335 0 0 0 -0.4178 0.29332 -0.85989 0.0025541
0.25293 0.20076 0.88275 6.0849e-39 332.67 335 0 0 0 -0.41689 0.29331 -0.86033 0.0025673
0.25346 0.20263 0.88338 6.0849e-39 191 336 0 0 0 -0.41566 0.29294 -0.86105 0.0026123
0.25473 0.20293 0.88244 6.6381e-39 261.5 336 0 0 0 -0.41294 0.29488 -0.8617 0.002417
0.25619 0.20337 0.88212 6.6381e-39 332 336 0 0 0 -0.41147 0.29709 -0.86165 0.002351
0.25552 0.20522 0.88338 6.2693e-39 331 336.5 0 0 0 -0.41039 0.29596 -0.86255 0.0025017
0.25647 0.20514 0.88306 6.3154e-39 332 336.5 0 0 0 -0.40867 0.29661 -0.86314 0.0023617
0.25731 0.20706 0.88243 8.3896e-39 419 337 0 0 0 -0.40042 0.302 -0.86514 0.0023996
0.25759 0.20934 0.88338 8.482e-39 326 338 0 0 0 -0.399 0.30536 -0.86461 0.0025007
0.25835 0.20912 0.88243 8.3898e-39 327 338 0 0 0 -0.39669 0.30522 -0.86572 0.0024731
0.25896 0.21126 0.88275 6.5459e-39 242.5 339 0 0 0 -0.39542 0.30474 -0.86647 0.002461
0.25925 0.21326 0.88317 7.3142e-39 363.33 339.33 0 0 0 -0.39583 0.30626 -0.86575 0.0024614
0.26041 0.21325 0.88243 6.9146e-39 328 339.5 0 0 0 -0.39272 0.30539 -0.86747 0.0025292
0.26102 0.21487 0.88275 8.3898e-39 340.5 340 0 0 0 -0.39204 0.3053 -0.86781 0.0025105
0.26299 0.21531 0.88244 9.8187e-39 393.5 340 0 0 0 -0.39043 0.30547 -0.86848 0.0025236
0.26445 0.21576 0.88212 1.0787e-38 446 340 0 0 0 -0.39229 0.30594 -0.86747 0.0025222
0.26172 0.21606 0.88338 1.0787e-38 443 340 0 0 0 -0.3928 0.30569 -0.86733 0.0026064
0.26328 0.2171 0.88338 6.1771e-39 217.5 341 0 0 0 -0.39202 0.30647 -0.86741 0.0025413
0.26464 0.21694 0.88275 5.8083e-39 219 341 0 0 0 -0.39016 0.30654 -0.86822 0.0025282
0.26525 0.21857 0.88306 8.9429e-39 382.5 341 0 0 0 -0.38919 0.30733 -0.86838 0.0024749
0.26702 0.21937 0.88212 8.2977e-39 322 341.5 0 0 0 -0.38986 0.30714 -0.86815 0.0024262
0.26586 0.2202 0.88338 6.1771e-39 210 342 0 0 0 -0.39063 0.30826 -0.8674 0.0025972
0.26711 0.22078 0.88296 6.8225e-39 272.67 342 0 0 0 -0.3897 0.30704 -0.86825 0.0024328
0.26919 0.22151 0.88243 6.8686e-39 361.5 342 0 0 0 -0.38944 0.30694 -0.86841 0.0022942
0.26793 0.22226 0.88338 6.4537e-39 415 342 0 0 0 -0.38964 0.30994 -0.86725 0.0023942
0.26924 0.2229 0.88317 6.423e-39 271.33 342.67 0 0 0 -0.38868 0.30874 -0.8681 0.0022194
0.26999 0.22485 0.88338 6.2693e-39 340.5 343 0 0 0 -0.39025 0.31011 -0.86691 0.0022311
0.27105 0.22475 0.88233 6.1464e-39 359.67 343 0 0 0 -0.38745 0.30969 -0.86832 0.0020914
0.27145 0.22632 0.88306 6.4537e-39 162.5 344 0 0 0 -0.38864 0.31007 -0.86765 0.0021805
0.27238 0.22727 0.88275 8.3898e-39 260.5 344 0 0 0 -0.3888 0.30709 -0.86864 0.0021266
0.27324 0.22899 0.88275 9.7727e-39 418.33 344 0 0 0 -0.38754 0.30676 -0.86932 0.0021865
0.27393 0.23037 0.88275 6.5459e-39 205 345 0 0 0 -0.38852 0.30363 -0.86998 0.0022868
0.27538 0.23132 0.88243 7.5139e-39 273.5 345 0 0 0 -0.386 0.30234 -0.87155 0.0022801
0.27558 0.23252 0.88306 8.482e-39 359.5 345 0 0 0 -0.38623 0.29987 -0.8723 0.0023993
0.27668 0.23312 0.88275 8.5127e-39 398 345 0 0 0 -0.38103 0.30319 -0.87344 0.0024962
0.27806 0.23347 0.88275 8.8508e-39 418 345 0 0 0 -0.3795 0.30245 -0.87436 0.0026342
0.27881 0.2349 0.88296 6.761e-39 161.33 346 0 0 0 -0.37414 0.30531 -0.87568 0.0029047
0.2621 0.12633 0.88465 8.943e-39 433 308 0 0 0 -0.0068159 -0.90895 -0.41685 0.0055697
0.26766 0.12651 0.88592 8.1132e-39 438 308 0 0 0 -0.016655 -0.91829 -0.39557 0.0064337
0.26902 0.12745 0.88529 6.9608e-39 198.5 309 0 0 0 -0.019028 -0.9163 -0.40003 0.0063497
0.27119 0.1275 0.8856 6.4537e-39 200.5 309 0 0 0 -0.020052 -0.91699 -0.39842 0.0067913
0.27326 0.1275 0.8856 6.9608e-39 202.5 309 0 0 0 -0.019312 -0.91879 -0.39428 0.0075054
0.27491 0.12755 0.88592 6.8225e-39 204 309 0 0 0 -0.026643 -0.9177 -0.39639 0.0077842
0.2774 0.1275 0.8856 5.9466e-39 206.5 309 0 0 0 -0.022316 -0.91569 -0.40126 0.0077922
0.27938 0.12745 0.88528 5.9005e-39 208.5 309 0 0 0 -0.016754 -0.91129 -0.41141 0.0072649
0.28197 0.12745 0.88528 6.3615e-39 211 309 0 0 0 -0.014864 -0.90856 -0.4175 0.0068114
0.283 0.12745 0.88528 6.7303e-39 212 309 0 0 0 -0.020363 -0.90929 -0.41566 0.0063305
0.28446 0.12741 0.88497 6.6842e-39 215.5 309 0 0 0 -0.015241 -0.90571 -0.42362 0.0057388
0.28663 0.12745 0.88528 6.8225e-39 219.5 309 0 0 0 -0.009997 -0.90649 -0.42211 0.0051711
0.2887 0.12745 0.88528 7.1913e-39 221.5 309 0 0 0 0.00040382 -0.90645 -0.4223 0.0044894
0.29077 0.12745 0.88528 6.4998e-39 223.5 309 0 0 0 0.010413 -0.9047 -0.42593 0.0039934
0.29284 0.12745 0.88528 6.2693e-39 225.5 309 0 0 0 0.021553 -0.90423 -0.42649 0.0038074
0.29513 0.12755 0.88592 6.5459e-39 227.5 309 0 0 0 0.036423 -0.90438 -0.42517 0.0038124
0.29927 0.12755 0.88592 7.053e-39 229.5 309 0 0 0 0.060792 -0.90573 -0.41948 0.0043003
0.30082 0.12755 0.88592 6.9147e-39 231 309 0 0 0 0.066092 -0.90607 -0.41794 0.0043399
0.21154 0.12953 0.88528 8.7586e-39 434 309 0 0 0 -0.36209 -0.64937 -0.66874 0.064019
0.21305 0.12898 0.88512 8.7356e-39 351.5 309 0 0 0 -0.34054 -0.67348 -0.65609 0.061821
0.21523 0.12905 0.8856 8.4359e-39 353.5 309 0 0 0 -0.30325 -0.70646 -0.6395 0.057495
0.21723 0.12849 0.88529 8.482e-39 271.5 309 0 0 0 -0.27345 -0.74152 -0.61268 0.050706
0.21907 0.12938 0.88433 8.5281e-39 441.5 309 0 0 0 -0.2629 -0.72265 -0.63927 0.052939
0.22138 0.12849 0.88528 7.9749e-39 275.5 309 0 0 0 -0.20452 -0.78125 -0.58976 0.044773
0.22344 0.12849 0.88528 8.5742e-39 277.5 309 0 0 0 -0.1818 -0.79649 -0.57667 0.04127
0.22543 0.12896 0.88497 8.4359e-39 363.5 309 0 0 0 -0.16387 -0.79947 -0.57793 0.040994
0.2275 0.12844 0.88497 6.0849e-39 359.5 309 0 0 0 -0.1339 -0.8262 -0.54724 0.032769
0.22898 0.1284 0.88465 6.5459e-39 361 309 0 0 0 -0.12351 -0.83118 -0.54211 0.032023
0.23061 0.12844 0.88497 8.2054e-39 362.5 309 0 0 0 -0.10602 -0.84013 -0.53192 0.028847
0.23277 0.12849 0.88528 8.8508e-39 364.5 309 0 0 0 -0.081431 -0.85585 -0.51077 0.023965
0.23476 0.12844 0.88497 8.1132e-39 366.5 309 0 0 0 -0.070074 -0.86359 -0.4993 0.02075
0.23691 0.12901 0.88528 7.0991e-39 413.5 309 0 0 0 -0.064076 -0.86847 -0.49158 0.018924
0.2391 0.12915 0.88507 7.3757e-39 430.67 309 0 0 0 -0.059364 -0.87505 -0.48038 0.016948
0.24097 0.12948 0.88497 6.7764e-39 462.5 309 0 0 0 -0.053848 -0.88291 -0.46645 0.013813
0.24289 0.12915 0.88507 6.6688e-39 434.33 309 0 0 0 -0.030019 -0.90143 -0.43189 0.0064275
0.24524 0.12903 0.88544 7.2835e-39 421.5 309 0 0 0 -0.011057 -0.90962 -0.41529 0.0036032
0.24716 0.12921 0.88549 7.2527e-39 438.33 309 0 0 0 -0.0031068 -0.90971 -0.41523 0.0035093
0.25089 0.12953 0.88528 6.7918e-39 476 309 0 0 0 0.0061518 -0.90817 -0.41856 0.0039881
0.25244 0.129 0.88529 7.7444e-39 434.5 309 0 0 0 0.006039 -0.90777 -0.41943 0.004331
0.254 0.12849 0.88528 8.2054e-39 385 309 0 0 0 0.005566 -0.90567 -0.42396 0.0044887
0.26915 0.12831 0.88402 6.5459e-39 398 309 0 0 0 -0.019318 -0.91256 -0.40848 0.0059238
0.27019 0.12831 0.88402 6.3615e-39 399 309 0 0 0 -0.019309 -0.91285 -0.40784 0.0061407
0.27329 0.12831 0.88402 6.5459e-39 402 309 0 0 0 -0.017997 -0.90979 -0.41469 0.0069094
0.27494 0.12835 0.88433 6.2693e-39 403.5 309 0 0 0 -0.019063 -0.90894 -0.41649 0.0071852
0.27691 0.12831 0.88402 6.4998e-39 405.5 309 0 0 0 -0.017247 -0.90387 -0.42745 0.0068635
0.28053 0.12831 0.88402 6.9147e-39 409 309 0 0 0 -0.014081 -0.90204 -0.43143 0.006129
0.30511 0.12894 0.88481 6.4768e-39 291 309.5 0 0 0 0.10008 -0.89779 -0.42889 0.0034735
0.30695 0.12909 0.88465 6.423e-39 251.67 309.67 0 0 0 0.12882 -0.8972 -0.42241 0.0033959
0.30884 0.12898 0.88513 6.8224e-39 295 309.5 0 0 0 0.14498 -0.89787 -0.41571 0.0035147
0.31015 0.12858 0.88592 7.8366e-39 421 309 0 0 0 0.17803 -0.90043 -0.39691 0.0048775
0.2091 0.13169 0.88592 7.9749e-39 361.5 310 0 0 0 -0.4244 -0.5636 -0.70869 0.072809
0.2109 0.13101 0.88481 7.7905e-39 273.5 310 0 0 0 -0.39574 -0.59406 -0.70035 0.068119
0.21286 0.13042 0.88433 6.9147e-39 185.5 310 0 0 0 -0.36238 -0.6263 -0.69023 0.064069
0.21434 0.13037 0.88402 6.9147e-39 187 310 0 0 0 -0.34364 -0.64201 -0.68537 0.062178
0.21847 0.13037 0.88402 7.2835e-39 191 310 0 0 0 -0.29035 -0.68373 -0.66948 0.058592
0.24123 0.13037 0.88402 6.7303e-39 213 310 0 0 0 -0.067713 -0.86456 -0.49794 0.020206
0.24907 0.13042 0.88433 6.5459e-39 223.5 310 0 0 0 0.0049266 -0.90605 -0.42314 0.0040914
0.20895 0.13315 0.88528 6.8225e-39 325 310.5 0 0 0 -0.45147 -0.50149 -0.73803 0.071898
0.21027 0.13301 0.88433 6.6842e-39 326.5 310.5 0 0 0 -0.42895 -0.50932 -0.74606 0.06794
0.20754 0.13584 0.88592 6.3615e-39 467 311 0 0 0 -0.50494 -0.36149 -0.78381 0.067514
0.20887 0.13517 0.88497 7.7444e-39 422 311 0 0 0 -0.47616 -0.41016 -0.77784 0.068437
0.2102 0.13503 0.88402 7.9749e-39 423.5 311 0 0 0 -0.458 -0.39867 -0.79454 0.066113
0.20698 0.13736 0.88576 6.8686e-39 316 312 0 0 0 -0.51521 -0.28272 -0.80909 0.061306
0.20879 0.1372 0.88465 6.7303e-39 318 312 0 0 0 -0.48354 -0.29244 -0.82503 0.060298
0.20547 0.13947 0.88592 7.099e-39 260 313 0 0 0 -0.53751 -0.1767 -0.82454 0.046829
0.20691 0.13939 0.88544 7.7444e-39 268.75 313 0 0 0 -0.51782 -0.19068 -0.83397 0.050717
0.20879 0.13927 0.88465 7.8597e-39 271 313 0 0 0 -0.50197 -0.19347 -0.84297 0.049555
0.21054 0.13934 0.88402 7.8674e-39 304.33 313 0 0 0 -0.48211 -0.20667 -0.85139 0.051077
0.20525 0.14138 0.88497 6.4537e-39 355.5 313.5 0 0 0 -0.53454 -0.10468 -0.83863 0.036566
0.2068 0.14138 0.88497 6.4076e-39 361.75 313.5 0 0 0 -0.52617 -0.10308 -0.84411 0.038335
0.20872 0.14128 0.88433 6.4998e-39 371.5 313.5 0 0 0 -0.50898 -0.11772 -0.85269 0.040556
0.21071 0.14123 0.88402 6.2232e-39 373.5 313.5 0 0 0 -0.48635 -0.13206 -0.86373 0.043633
0.21279 0.14123 0.88402 6.3384e-39 375.5 313.5 0 0 0 -0.46323 -0.13143 -0.87644 0.045079
0.2034 0.14309 0.88592 8.2976e-39 414 314 0 0 0 -0.54873 -0.049852 -0.83451 0.031765
0.20462 0.14338 0.88449 7.7444e-39 303 314.5 0 0 0 -0.53516 -0.03646 -0.84397 0.029225
0.20675 0.14313 0.88402 8.021e-39 342.67 314.33 0 0 0 -0.51068 -0.045559 -0.85856 0.029919
0.20868 0.14333 0.88418 7.4679e-39 307 314.5 0 0 0 -0.49599 -0.046368 -0.86709 0.031787
0.21079 0.14335 0.88433 7.4679e-39 309 314.5 0 0 0 -0.47668 -0.050262 -0.87764 0.032732
0.21282 0.14333 0.88418 7.5831e-39 311 314.5 0 0 0 -0.46222 -0.050702 -0.88531 0.03304
0.20478 0.14527 0.88444 7.8059e-39 406.33 315 0 0 0 -0.51097 0.029495 -0.85909 0.022838
0.20662 0.14539 0.88418 7.4909e-39 429.5 315 0 0 0 -0.49276 0.0308 -0.86962 0.021909
0.20876 0.14545 0.88449 7.3757e-39 431.5 315 0 0 0 -0.47758 0.021943 -0.87831 0.024215
0.21069 0.1453 0.88465 7.7137e-39 412 315 0 0 0 -0.46937 0.018271 -0.88281 0.025432
0.2129 0.14545 0.88449 8.2746e-39 435.75 315 0 0 0 -0.45151 0.021033 -0.89202 0.025658
0.21489 0.14539 0.88418 9.1965e-39 438 315 0 0 0 -0.43844 0.021384 -0.89851 0.024958
0.2031 0.14703 0.88465 6.3615e-39 250 316 0 0 0 -0.49246 0.064596 -0.86794 0.02239
0.20458 0.14675 0.88507 6.4844e-39 331.67 315.67 0 0 0 -0.49721 0.064163 -0.86525 0.021653
0.20665 0.14697 0.88433 6.3154e-39 254.5 316 0 0 0 -0.48563 0.076456 -0.87081 0.019898
0.20879 0.14703 0.88465 5.9005e-39 256.5 316 0 0 0 -0.47131 0.084096 -0.87795 0.01871
0.21114 0.14675 0.88507 6.2078e-39 338.33 315.67 0 0 0 -0.45709 0.071476 -0.88655 0.019863
0.21294 0.14703 0.88465 6.592e-39 260.5 316 0 0 0 -0.44398 0.076771 -0.89274 0.018933
0.21493 0.14697 0.88433 5.8544e-39 262.5 316 0 0 0 -0.43103 0.073602 -0.89933 0.018611
0.20325 0.14869 0.88528 7.1913e-39 299.5 316.5 0 0 0 -0.4782 0.10503 -0.87195 0.022563
0.20473 0.14863 0.88497 7.5831e-39 301 316.5 0 0 0 -0.46753 0.11931 -0.87589 0.019858
0.20676 0.14861 0.88481 7.514e-39 303 316.5 0 0 0 -0.4691 0.12793 -0.87383 0.01796
0.20883 0.14861 0.88481 7.2374e-39 305 316.5 0 0 0 -0.45938 0.13549 -0.87785 0.016189
0.21098 0.14866 0.88512 7.3757e-39 307 316.5 0 0 0 -0.45249 0.13405 -0.88163 0.015006
0.21301 0.14863 0.88497 7.7905e-39 309 316.5 0 0 0 -0.4381 0.13619 -0.88855 0.013411
0.21501 0.14858 0.88465 7.6061e-39 311 316.5 0 0 0 -0.42643 0.13181 -0.89486 0.012702
0.20192 0.15106 0.88402 7.0069e-39 469 317 0 0 0 -0.43305 0.15341 -0.88822 0.022882
0.20325 0.15076 0.88528 5.7622e-39 411 317 0 0 0 -0.45306 0.15823 -0.87733 0.021567
0.20487 0.15081 0.8856 6.0849e-39 412.5 317 0 0 0 -0.45581 0.16564 -0.87453 0.01937
0.20691 0.15079 0.88544 6.3615e-39 416 317 0 0 0 -0.45762 0.17646 -0.87146 0.016746
0.20898 0.15079 0.88544 6.131e-39 419.5 317 0 0 0 -0.45055 0.18046 -0.87432 0.014836
0.21113 0.15084 0.88576 6.4537e-39 421.5 317 0 0 0 -0.44331 0.18622 -0.87681 0.01352
0.21309 0.15076 0.88528 7.6983e-39 423.5 317 0 0 0 -0.42805 0.19356 -0.88279 0.011091
0.21508 0.1507 0.88497 7.9288e-39 425.5 317 0 0 0 -0.41871 0.19038 -0.88794 0.0098926
0.2164 0.15055 0.88402 7.5601e-39 427 317 0 0 0 -0.41023 0.1893 -0.89212 0.0085373
0.20162 0.15225 0.88497 8.9891e-39 228.5 318 0 0 0 -0.41596 0.17599 -0.89219 0.023964
0.2028 0.15288 0.8856 8.1132e-39 296.5 318 0 0 0 -0.42894 0.20326 -0.88017 0.021455
0.20495 0.15242 0.88592 8.6664e-39 231.5 318 0 0 0 -0.44321 0.20019 -0.87378 0.018393
0.20702 0.15242 0.88592 8.8508e-39 233.5 318 0 0 0 -0.4396 0.20783 -0.87382 0.015749
0.2091 0.15294 0.88592 7.7214e-39 302.5 318 0 0 0 -0.43558 0.2182 -0.8733 0.013331
0.21117 0.15294 0.88592 8.1593e-39 304.5 318 0 0 0 -0.42758 0.22603 -0.87526 0.011576
0.21313 0.15286 0.88544 8.1132e-39 306.5 318 0 0 0 -0.41812 0.23241 -0.87816 0.0095597
0.21508 0.15277 0.88497 7.9749e-39 308.5 318 0 0 0 -0.41126 0.2285 -0.88241 0.0084619
0.2164 0.15261 0.88402 7.6061e-39 310 318 0 0 0 -0.40466 0.22485 -0.88639 0.0073349
0.20236 0.15449 0.88592 5.9927e-39 489 318 0 0 0 -0.39799 0.24259 -0.88473 0.018965
0.2132 0.15498 0.88576 7.5831e-39 366 318.5 0 0 0 -0.41116 0.25731 -0.87449 0.008601
0.21516 0.1549 0.88528 7.6753e-39 368 318.5 0 0 0 -0.40982 0.25212 -0.87663 0.007636
0.21648 0.15473 0.88433 7.6522e-39 369.5 318.5 0 0 0 -0.40197 0.25073 -0.88065 0.0066836
0.21528 0.15706 0.88576 6.1541e-39 256.5 319.5 0 0 0 -0.41104 0.27345 -0.86964 0.0071795
0.21707 0.15686 0.88465 6.5228e-39 258.5 319.5 0 0 0 -0.40515 0.26803 -0.87408 0.0066641
0.21847 0.15727 0.88402 6.6381e-39 152 320 0 0 0 -0.40366 0.26499 -0.87569 0.0064558
0.21549 0.15899 0.88592 6.5459e-39 306.33 320 0 0 0 -0.41386 0.29144 -0.86243 0.0068649
0.21719 0.15901 0.88512 6.6842e-39 330.5 320 0 0 0 -0.41253 0.28342 -0.86573 0.006602
0.21899 0.15881 0.88402 6.8916e-39 332.5 320 0 0 0 -0.40701 0.27484 -0.87109 0.0062701
0.22054 0.15933 0.88402 8.482e-39 401 320 0 0 0 -0.41312 0.26602 -0.87096 0.0053308
0.21735 0.1612 0.88576 5.9466e-39 268 321 0 0 0 -0.42321 0.29691 -0.856 0.0063998
0.21918 0.16103 0.88481 6.8225e-39 270 321 0 0 0 -0.42025 0.28761 -0.86062 0.0060757
0.22118 0.16097 0.88449 6.7072e-39 272 321 0 0 0 -0.42347 0.27155 -0.86425 0.0048561
0.21934 0.16322 0.88544 6.4306e-39 356.5 321.5 0 0 0 -0.43453 0.29677 -0.85036 0.0052317
0.22129 0.16313 0.88497 6.569e-39 358.5 321.5 0 0 0 -0.43325 0.28366 -0.85547 0.0044234
0.22261 0.16244 0.88402 6.9147e-39 469 321 0 0 0 -0.433 0.27199 -0.85938 0.003878
0.21963 0.16521 0.88592 6.1771e-39 319.33 322.33 0 0 0 -0.44348 0.30768 -0.84182 0.0044168
0.2216 0.16513 0.88549 6.8225e-39 321.33 322.33 0 0 0 -0.44301 0.29403 -0.84693 0.0037951
0.22317 0.16505 0.88418 6.4306e-39 290 322.5 0 0 0 -0.44087 0.28439 -0.85132 0.0033531
0.22476 0.16508 0.88433 6.2693e-39 291.5 322.5 0 0 0 -0.43866 0.28062 -0.85371 0.0032046
0.22313 0.16723 0.88528 8.2792e-39 382 323 0 0 0 -0.45003 0.29654 -0.84234 0.0030667
0.22539 0.16724 0.88481 6.8686e-39 397.5 323 0 0 0 -0.44236 0.28975 -0.84874 0.0029697
0.22352 0.16894 0.8856 8.9891e-39 240.5 324 0 0 0 -0.454 0.30386 -0.83759 0.0028843
0.22552 0.16888 0.88529 8.2515e-39 242.5 324 0 0 0 -0.44474 0.29774 -0.84472 0.0028307
0.22651 0.16941 0.88444 6.8839e-39 333.67 324 0 0 0 -0.43867 0.29687 -0.8482 0.0028621
0.22309 0.17004 0.88592 7.0991e-39 375 324 0 0 0 -0.4602 0.31111 -0.83152 0.002801
0.22465 0.17056 0.88592 6.3845e-39 272 324.5 0 0 0 -0.45535 0.3106 -0.83438 0.0028192
0.22715 0.17127 0.88478 6.3062e-39 216.2 325 0 0 0 -0.44034 0.30688 -0.84376 0.0027499
0.22654 0.1728 0.88592 7.7752e-39 374.33 325 0 0 0 -0.44903 0.3181 -0.83498 0.0028457
0.22894 0.17313 0.88449 8.482e-39 371.75 325.25 0 0 0 -0.43566 0.31222 -0.84423 0.0028943
0.23001 0.17394 0.88465 8.021e-39 222 326 0 0 0 -0.43293 0.31333 -0.84522 0.0029309
0.22723 0.1747 0.88592 8.7585e-39 285 326 0 0 0 -0.4482 0.32316 -0.83347 0.0030118
0.22851 0.17479 0.88549 8.6049e-39 308.33 326 0 0 0 -0.44337 0.32112 -0.83684 0.0030203
0.23094 0.17523 0.88423 7.3449e-39 285.67 326.33 0 0 0 -0.43036 0.31584 -0.8456 0.002985
0.22891 0.17656 0.88571 6.2693e-39 182.33 327 0 0 0 -0.44396 0.32715 -0.83419 0.0031741
0.23069 0.17665 0.88528 6.1771e-39 203 327 0 0 0 -0.43435 0.3257 -0.8398 0.0031543
0.23301 0.1773 0.88423 6.8532e-39 305 327 0 0 0 -0.42752 0.32124 -0.845 0.0030789
0.23138 0.17885 0.88592 7.3757e-39 289.5 327.5 0 0 0 -0.43761 0.33287 -0.83528 0.0032765
0.23273 0.17869 0.88512 7.3526e-39 291 327.5 0 0 0 -0.43351 0.32763 -0.83948 0.0032249
0.23459 0.17905 0.88433 6.5459e-39 193.5 328 0 0 0 -0.42578 0.32261 -0.84536 0.0031229
0.2329 0.18089 0.88576 6.0849e-39 365 328 0 0 0 -0.43951 0.33306 -0.83421 0.0033243
0.23463 0.18063 0.88449 6.4537e-39 367 328 0 0 0 -0.4308 0.32598 -0.84151 0.0032976
0.23614 0.1806 0.88433 6.4076e-39 368.5 328 0 0 0 -0.42573 0.32196 -0.84563 0.0031608
0.23293 0.18248 0.88592 6.8225e-39 221.5 329 0 0 0 -0.44191 0.33206 -0.83334 0.0034039
0.23484 0.18286 0.88528 8.4589e-39 287.5 329 0 0 0 -0.43729 0.329 -0.83698 0.0034269
0.23682 0.1828 0.88497 8.0671e-39 289.5 329 0 0 0 -0.43023 0.32164 -0.84347 0.0033502
0.23864 0.18312 0.88402 7.5139e-39 355.5 329 0 0 0 -0.42068 0.3169 -0.85006 0.0032513
0.23501 0.18507 0.88592 7.7905e-39 355.5 329.5 0 0 0 -0.4429 0.32615 -0.83515 0.0033545
0.23714 0.18481 0.88549 7.5293e-39 397.33 329.33 0 0 0 -0.43392 0.32089 -0.84187 0.0034467
0.23885 0.18484 0.88481 7.4909e-39 359.5 329.5 0 0 0 -0.42616 0.31572 -0.84777 0.0032313
0.24019 0.18519 0.88402 8.1132e-39 242 330 0 0 0 -0.42107 0.31304 -0.85129 0.003174
0.23501 0.18663 0.88592 7.8827e-39 364.5 330 0 0 0 -0.44577 0.32584 -0.83373 0.0032612
0.2376 0.18714 0.88592 7.3296e-39 425.5 330 0 0 0 -0.43748 0.31943 -0.84058 0.0033809
0.23898 0.18701 0.88528 6.9839e-39 427 330 0 0 0 -0.432 0.31595 -0.84472 0.0032627
0.24084 0.18684 0.88449 6.8686e-39 342.5 330.25 0 0 0 -0.42199 0.31261 -0.851 0.0030281
0.23907 0.18915 0.8856 7.4909e-39 314.5 331 0 0 0 -0.43642 0.31774 -0.84177 0.0032813
0.24105 0.18908 0.88528 8.2745e-39 316.5 331 0 0 0 -0.42673 0.31388 -0.84816 0.0031066
0.24282 0.18884 0.88418 8.7586e-39 318.5 331 0 0 0 -0.41565 0.3095 -0.85524 0.0027981
0.23958 0.19122 0.8856 7.1913e-39 202 332 0 0 0 -0.43617 0.31883 -0.84149 0.0032478
0.24119 0.19126 0.88576 6.9146e-39 203.5 332 0 0 0 -0.42958 0.31725 -0.84546 0.0032639
0.24299 0.19105 0.88481 6.3154e-39 205.5 332 0 0 0 -0.42126 0.31349 -0.85104 0.0030353
0.23967 0.19336 0.88592 7.0069e-39 267.5 332.5 0 0 0 -0.43944 0.32269 -0.83831 0.0034618
0.2414 0.19319 0.88592 7.4371e-39 308 332.33 0 0 0 -0.43284 0.31834 -0.84339 0.003546
0.24312 0.19322 0.88528 7.1913e-39 271 332.5 0 0 0 -0.42804 0.31668 -0.84646 0.003488
0.24433 0.19346 0.88402 6.1771e-39 156 333 0 0 0 -0.41881 0.309 -0.85388 0.0031446
0.23967 0.19544 0.88592 6.9607e-39 326 333 0 0 0 -0.44141 0.32378 -0.83686 0.003589
0.24175 0.19544 0.88592 6.592e-39 328 333 0 0 0 -0.43696 0.32187 -0.83992 0.0037037
0.24312 0.1953 0.88528 6.592e-39 329.5 333 0 0 0 -0.42965 0.3188 -0.84485 0.0036131
0.24473 0.19523 0.88423 6.0849e-39 352 333 0 0 0 -0.42222 0.31292 -0.85077 0.0034436
0.2433 0.1972 0.88528 5.839e-39 194.67 334 0 0 0 -0.43345 0.31941 -0.84268 0.003697
0.24511 0.1973 0.88497 5.8314e-39 215.5 334 0 0 0 -0.42868 0.31367 -0.84726 0.0036855
0.24674 0.19726 0.88402 5.6239e-39 236.33 334 0 0 0 -0.42069 0.30684 -0.85374 0.0034237
