# .PCD v.7 - Point Cloud Data file format
VERSION .7
FIELDS x y z rgb u v vx vy vz normal_x normal_y normal_z curvature
SIZE 4 4 4 4 4 4 4 4 4 4 4 4 4
TYPE F F F F F F F F F F F F F
COUNT 1 1 1 1 1 1 1 1 1 1 1 1 1
WIDTH 544
HEIGHT 1
VIEWPOINT 0 0 0 1 0 0 0
POINTS 544
DATA ascii
0.011292 0.052838 0.99135 6.6381e-39 435.25 305 0 0 0 0.2829 0.18988 -0.94017 0.022705
0.013029 0.052827 0.99115 7.1452e-39 440.5 305 0 0 0 0.32311 0.20937 -0.92291 0.020073
0.0142 0.052869 0.99194 7.4679e-39 441.5 305 0 0 0 0.34943 0.2179 -0.91127 0.018677
-0.0066894 0.055771 0.99194 5.8083e-39 358 306 0 0 0 -0.29337 0.11316 -0.94928 0.01286
-0.0049477 0.055179 0.99174 6.2001e-39 278 306 0 0 0 -0.2465 0.11067 -0.9628 0.016017
-0.0026276 0.05519 0.99194 6.3384e-39 280 306 0 0 0 -0.17523 0.11459 -0.97784 0.019939
-0.00088605 0.055147 0.99115 6.131e-39 283 306 0 0 0 -0.11545 0.11546 -0.98658 0.020912
0.00085333 0.055147 0.99115 5.9927e-39 284.5 306 0 0 0 -0.065563 0.12105 -0.99048 0.023711
0.0031705 0.055113 0.99055 6.592e-39 287 306 0 0 0 0.020711 0.11965 -0.9926 0.026423
0.0049119 0.055147 0.99115 6.4537e-39 289 306 0 0 0 0.084761 0.12635 -0.98836 0.027216
0.0066513 0.055147 0.99115 6.3154e-39 290.5 306 0 0 0 0.15106 0.13114 -0.97979 0.026131
0.0089778 0.05519 0.99194 6.3845e-39 292.5 306 0 0 0 0.22876 0.14708 -0.96231 0.022131
0.011492 0.054997 0.99194 6.9147e-39 266.67 306 0 0 0 0.29732 0.1725 -0.93907 0.019297
0.013035 0.055169 0.99155 6.5459e-39 302 306 0 0 0 0.33633 0.18477 -0.92344 0.016163
0.0142 0.05461 0.99194 6.8225e-39 223 306 0 0 0 0.35334 0.19985 -0.9139 0.015883
-0.0043683 0.056931 0.99194 7.1913e-39 441 306 0 0 0 -0.23217 0.13209 -0.96366 0.016329
-0.0026276 0.056931 0.99194 6.9608e-39 442.5 306 0 0 0 -0.17177 0.13265 -0.97617 0.019687
-0.00088676 0.056931 0.99194 6.2693e-39 444 306 0 0 0 -0.11551 0.13497 -0.98409 0.021441
0.00085333 0.056886 0.99115 6.1771e-39 445.5 306 0 0 0 -0.06158 0.13503 -0.98893 0.022958
0.0033638 0.057242 0.99062 6.3615e-39 360 306.33 0 0 0 0.020676 0.14597 -0.98907 0.024499
0.0049119 0.056886 0.99115 6.6381e-39 449 306 0 0 0 0.088782 0.14387 -0.98561 0.025316
0.0066513 0.056886 0.99115 6.3615e-39 450.5 306 0 0 0 0.1538 0.15454 -0.97594 0.024145
-0.0032078 0.058092 0.99194 5.5317e-39 175 307 0 0 0 -0.19056 0.14356 -0.97112 0.018206
-0.00088676 0.058673 0.99194 7.4218e-39 264 307 0 0 0 -0.11813 0.15305 -0.98113 0.020628
0.00085393 0.058649 0.99155 7.3757e-39 265.5 307 0 0 0 -0.05297 0.15621 -0.9863 0.022635
0.0029782 0.058803 0.99088 6.6996e-39 295 307 0 0 0 0.0087049 0.16584 -0.98611 0.022181
0.0049139 0.058649 0.99155 6.3154e-39 269 307 0 0 0 0.088069 0.17077 -0.98137 0.023966
0.0066554 0.058661 0.99174 6.4306e-39 272.5 307 0 0 0 0.15555 0.17071 -0.97296 0.022602
-0.0032078 0.060994 0.99194 6.4537e-39 290.5 307.5 0 0 0 -0.17934 0.16906 -0.96915 0.018326
-0.00088676 0.060994 0.99194 6.4998e-39 292.5 307.5 0 0 0 -0.10741 0.17972 -0.97784 0.02079
0.00085398 0.060981 0.99174 6.1771e-39 294 307.5 0 0 0 -0.044768 0.1856 -0.98161 0.021966
0.003173 0.060957 0.99135 5.7391e-39 296 307.5 0 0 0 0.025787 0.1917 -0.98112 0.021948
0.0049159 0.060994 0.99194 5.624e-39 297.5 307.5 0 0 0 0.096556 0.19152 -0.97673 0.02278
0.0066566 0.060994 0.99194 5.7162e-39 299 307.5 0 0 0 0.15751 0.19226 -0.96862 0.021198
0.00027377 0.063314 0.99194 6.9146e-39 333.5 308 0 0 0 -0.060335 0.20623 -0.97664 0.020924
0.0031751 0.063314 0.99194 7.3987e-39 339 308 0 0 0 0.032365 0.21292 -0.97653 0.02205
0.00027377 0.065055 0.99194 6.7303e-39 496 308 0 0 0 -0.054134 0.22673 -0.97245 0.020655
0.0031751 0.065055 0.99194 6.5459e-39 498.5 308 0 0 0 0.037994 0.23089 -0.97224 0.02176
0.0060764 0.065055 0.99194 6.6381e-39 501 308 0 0 0 0.13243 0.22815 -0.96458 0.020707
0.00027377 0.066216 0.99194 6.6381e-39 220 309 0 0 0 -0.052232 0.23975 -0.96943 0.021351
0.0031751 0.066796 0.99194 6.2232e-39 291.5 309 0 0 0 0.031628 0.24727 -0.96843 0.021314
0.0049159 0.066216 0.99194 6.3615e-39 224 309 0 0 0 0.092944 0.23767 -0.96689 0.021702
0.0060764 0.066216 0.99194 6.3615e-39 225 309 0 0 0 0.13703 0.2377 -0.96162 0.020122
0.025245 0.037232 0.99274 6.5459e-39 440.5 300 0 0 0 0.54127 0.36118 -0.75932 0.025795
0.027009 0.0361 0.99354 6.4537e-39 248 300 0 0 0 0.54206 0.38338 -0.74779 0.025865
0.018857 0.039555 0.99274 6.2693e-39 358 301 0 0 0 0.44025 0.30904 -0.84302 0.027813
0.020608 0.039571 0.99314 5.7161e-39 359.5 301 0 0 0 0.48573 0.31354 -0.81594 0.025432
0.023513 0.03899 0.99314 6.8686e-39 299.5 301 0 0 0 0.51832 0.3172 -0.79418 0.025196
0.025266 0.038425 0.99354 7.6061e-39 208.5 301 0 0 0 0.54754 0.32289 -0.77197 0.02459
-0.010769 0.041912 0.99354 6.131e-39 181.5 302 0 0 0 -0.40462 0.023675 -0.91418 0.0069891
-0.009025 0.041912 0.99354 6.3615e-39 183 302 0 0 0 -0.38462 0.024338 -0.92275 0.0081303
-0.0078562 0.041878 0.99274 6.4537e-39 184 302 0 0 0 -0.34897 0.012483 -0.93705 0.011028
0.015373 0.041878 0.99274 6.8225e-39 205 302 0 0 0 0.37601 0.26761 -0.88713 0.030765
0.016921 0.041491 0.99274 6.7303e-39 285.67 301.67 0 0 0 0.39464 0.27693 -0.87611 0.029688
0.02236 0.04075 0.99354 6.6381e-39 448 301 0 0 0 0.49844 0.29431 -0.81544 0.022716
-0.010187 0.043074 0.99354 8.7586e-39 280 302 0 0 0 -0.39474 0.017092 -0.91863 0.0075325
-0.0078562 0.04304 0.99274 8.8508e-39 349 302 0 0 0 -0.34956 0.014271 -0.9368 0.010779
0.015385 0.043074 0.99354 7.1913e-39 393 302 0 0 0 0.37701 0.26352 -0.88793 0.029088
0.016548 0.043074 0.99354 7.56e-39 394 302 0 0 0 0.39101 0.26705 -0.88079 0.026938
-0.010187 0.044237 0.99354 6.1771e-39 447 302 0 0 0 -0.39155 0.024616 -0.91983 0.0073935
-0.0072787 0.0448 0.99314 6.2693e-39 337.5 302.5 0 0 0 -0.34016 0.02211 -0.94011 0.011229
-0.0043719 0.044782 0.99274 6.4537e-39 360 302.5 0 0 0 -0.24791 0.0084364 -0.96875 0.018546
0.015385 0.044818 0.99354 6.592e-39 202 303 0 0 0 0.37145 0.25892 -0.89162 0.027121
0.016548 0.045399 0.99354 6.4537e-39 246 303 0 0 0 0.38814 0.26109 -0.88384 0.024662
-0.010187 0.047724 0.99354 5.4395e-39 162 304 0 0 0 -0.38457 0.038479 -0.92229 0.0073568
-0.009025 0.047143 0.99354 6.8686e-39 283.5 303.5 0 0 0 -0.37397 0.04088 -0.92654 0.0081847
-0.0078626 0.047143 0.99354 6.7764e-39 284.5 303.5 0 0 0 -0.35003 0.035318 -0.93607 0.0104
-0.0043719 0.047105 0.99274 7.0068e-39 287.5 303.5 0 0 0 -0.24971 0.02672 -0.96795 0.017768
0.015385 0.047143 0.99354 6.5459e-39 306.5 303.5 0 0 0 0.3706 0.24884 -0.89484 0.024468
0.017129 0.047143 0.99354 6.2923e-39 308 303.5 0 0 0 0.40186 0.26043 -0.87789 0.020827
-0.010187 0.048886 0.99354 6.2693e-39 249 304 0 0 0 -0.38442 0.051781 -0.9217 0.0072473
-0.0090177 0.048847 0.99274 5.9927e-39 272 304 0 0 0 -0.37024 0.051843 -0.92749 0.008464
-0.0078562 0.048847 0.99274 5.9927e-39 273 304 0 0 0 -0.34212 0.049295 -0.93836 0.010933
0.015385 0.048886 0.99354 5.9005e-39 357 304 0 0 0 0.37384 0.24106 -0.89562 0.021739
0.016548 0.048886 0.99354 5.7161e-39 358 304 0 0 0 0.39162 0.24496 -0.88692 0.019829
-0.010187 0.05063 0.99354 6.2693e-39 301.5 304.5 0 0 0 -0.3822 0.065011 -0.92179 0.0072309
-0.0090177 0.050589 0.99274 6.3615e-39 302.5 304.5 0 0 0 -0.36736 0.063296 -0.92792 0.0085475
-0.0072755 0.050589 0.99274 6.0849e-39 304 304.5 0 0 0 -0.32926 0.065033 -0.942 0.011985
0.015385 0.05063 0.99354 6.7303e-39 329.5 304.5 0 0 0 0.37776 0.238 -0.89479 0.01889
0.016935 0.050824 0.99354 6.7303e-39 290.67 304.67 0 0 0 0.40424 0.24158 -0.88217 0.016713
-0.010187 0.053536 0.99354 7.1913e-39 441 305 0 0 0 -0.37529 0.086864 -0.92283 0.007652
-0.0090214 0.052933 0.99314 6.8225e-39 397.5 305 0 0 0 -0.36193 0.084067 -0.92841 0.0087796
-0.0072787 0.052933 0.99314 6.1771e-39 399 305 0 0 0 -0.32196 0.089443 -0.94252 0.012126
-0.0055333 0.052331 0.99274 5.7161e-39 356 305 0 0 0 -0.26838 0.08848 -0.95924 0.014965
0.015385 0.052955 0.99354 7.6983e-39 442.5 305 0 0 0 0.37966 0.22163 -0.89819 0.015639
0.017122 0.052933 0.99314 7.6061e-39 444 305 0 0 0 0.40439 0.23848 -0.88295 0.014596
-0.010179 0.055235 0.99274 6.3615e-39 269.5 306 0 0 0 -0.37404 0.098539 -0.92216 0.0076239
-0.0090177 0.055235 0.99274 6.0388e-39 270.5 306 0 0 0 -0.35409 0.10012 -0.92984 0.0093672
-0.0074733 0.055071 0.99327 5.962e-39 243.33 306 0 0 0 -0.31645 0.10553 -0.94272 0.011825
0.010727 0.055816 0.99274 6.5459e-39 378 306 0 0 0 0.28407 0.15997 -0.94536 0.019009
0.014798 0.055257 0.99314 6.3615e-39 303.5 306 0 0 0 0.37855 0.1943 -0.90496 0.012817
0.016548 0.054698 0.99354 6.4537e-39 225 306 0 0 0 0.4004 0.2095 -0.89207 0.012162
-0.010187 0.057023 0.99354 6.3615e-39 433 306 0 0 0 -0.37294 0.10982 -0.92133 0.0072429
-0.0090177 0.056977 0.99274 5.9005e-39 434 306 0 0 0 -0.34731 0.11667 -0.93046 0.0094963
-0.0066948 0.056977 0.99274 6.3615e-39 439 306 0 0 0 -0.29583 0.124 -0.94716 0.012996
-0.0055333 0.056977 0.99274 6.7303e-39 440 306 0 0 0 -0.26048 0.12761 -0.95701 0.01467
0.0089849 0.056977 0.99274 6.0388e-39 454.5 306 0 0 0 0.23885 0.15842 -0.95805 0.020923
0.011312 0.057 0.99314 6.2232e-39 458.5 306 0 0 0 0.30659 0.16141 -0.93806 0.016524
0.01305 0.056977 0.99274 6.5459e-39 460 306 0 0 0 0.3464 0.1703 -0.9225 0.01366
0.014223 0.057023 0.99354 7.0991e-39 461 306 0 0 0 0.36971 0.17773 -0.91199 0.011761
-0.009025 0.058766 0.99354 7.2374e-39 225 307 0 0 0 -0.34781 0.13025 -0.92847 0.0089186
-0.0066948 0.05872 0.99274 7.1913e-39 227 307 0 0 0 -0.29118 0.13676 -0.94684 0.012484
-0.0049526 0.05872 0.99274 7.1221e-39 243.5 307 0 0 0 -0.23917 0.14763 -0.95969 0.015432
-0.0024361 0.058913 0.99274 8.0518e-39 290.33 307 0 0 0 -0.16434 0.15321 -0.97443 0.019807
0.0089905 0.058755 0.99334 6.3846e-39 276.5 307 0 0 0 0.24123 0.17157 -0.95518 0.018986
0.011317 0.058185 0.99354 6.2693e-39 199.5 307 0 0 0 0.31452 0.16854 -0.93417 0.014984
0.013061 0.058185 0.99354 5.9005e-39 201 307 0 0 0 0.35153 0.16973 -0.92066 0.012495
-0.010187 0.061091 0.99354 7.0068e-39 284.5 307.5 0 0 0 -0.35803 0.14724 -0.92203 0.008123
-0.009025 0.061091 0.99354 6.8686e-39 285.5 307.5 0 0 0 -0.34349 0.15112 -0.92692 0.0089386
-0.0072787 0.061067 0.99314 6.8456e-39 287 307.5 0 0 0 -0.30063 0.15561 -0.94096 0.011185
-0.0049526 0.061043 0.99274 6.6842e-39 289 307.5 0 0 0 -0.23077 0.16426 -0.95904 0.015607
-0.0020489 0.061043 0.99274 6.4537e-39 291.5 307.5 0 0 0 -0.14526 0.17545 -0.97371 0.020073
0.008411 0.061091 0.99354 6.1771e-39 300.5 307.5 0 0 0 0.22819 0.193 -0.95429 0.017907
-0.010187 0.062835 0.99354 6.9147e-39 250 308 0 0 0 -0.35334 0.16418 -0.92097 0.0083122
-0.009025 0.062835 0.99354 6.8225e-39 251 308 0 0 0 -0.33653 0.16851 -0.92647 0.0091076
-0.0066948 0.063366 0.99274 7.6061e-39 326 308 0 0 0 -0.28372 0.1808 -0.94171 0.012386
-0.0049535 0.063378 0.99294 7.2374e-39 328 308 0 0 0 -0.22181 0.18978 -0.95644 0.016332
-0.0026296 0.063366 0.99274 6.9838e-39 330.75 308 0 0 0 -0.15796 0.19602 -0.96779 0.019553
-0.00088747 0.063366 0.99274 6.8686e-39 332.5 308 0 0 0 -0.093576 0.20316 -0.97466 0.021705
0.0014355 0.063366 0.99274 7.1452e-39 337.5 308 0 0 0 -0.017828 0.21102 -0.97732 0.022674
0.0049198 0.063366 0.99274 7.3757e-39 340.5 308 0 0 0 0.095364 0.21453 -0.97205 0.022478
0.0066621 0.063366 0.99274 7.4679e-39 342 308 0 0 0 0.15864 0.2138 -0.96391 0.020851
-0.0066948 0.065107 0.99274 6.2693e-39 480 308 0 0 0 -0.27438 0.20112 -0.94035 0.012457
-0.0049566 0.06516 0.99354 6.3615e-39 481.5 308 0 0 0 -0.22094 0.21193 -0.95198 0.016022
-0.0026296 0.065107 0.99274 6.2232e-39 483.5 308 0 0 0 -0.14958 0.21951 -0.96408 0.01932
-0.00088747 0.065107 0.99274 6.8225e-39 495 308 0 0 0 -0.08792 0.22571 -0.97022 0.02116
0.0014355 0.065107 0.99274 6.5459e-39 497 308 0 0 0 -0.015436 0.23089 -0.97286 0.022061
0.0049198 0.065107 0.99274 6.4537e-39 500 308 0 0 0 0.10352 0.23142 -0.96733 0.021739
0.0072428 0.065107 0.99274 7.3757e-39 502 308 0 0 0 0.17038 0.22702 -0.95887 0.019121
0.008411 0.06516 0.99354 8.943e-39 503 308 0 0 0 0.21567 0.21905 -0.95158 0.017063
-0.0066975 0.066877 0.99314 6.3154e-39 279.5 309 0 0 0 -0.26925 0.22111 -0.93734 0.011844
-0.0051503 0.06671 0.99354 6.4537e-39 256.67 309 0 0 0 -0.22153 0.22621 -0.94856 0.0152
-0.0028247 0.066692 0.99327 6.7303e-39 258.67 309 0 0 0 -0.15062 0.23684 -0.9598 0.018818
-0.00088783 0.066877 0.99314 6.592e-39 288 309 0 0 0 -0.088479 0.24429 -0.96566 0.020869
0.0010483 0.067043 0.99274 6.3615e-39 312.67 309 0 0 0 -0.021088 0.24912 -0.96824 0.021932
0.0049198 0.06743 0.99274 5.9927e-39 362 309 0 0 0 0.093065 0.24984 -0.96381 0.021148
0.0068556 0.067043 0.99274 6.4537e-39 317.67 309 0 0 0 0.15475 0.23822 -0.9588 0.020048
0.008411 0.066322 0.99354 6.4537e-39 227 309 0 0 0 0.21197 0.22916 -0.95003 0.016676
-0.0067002 0.068647 0.99354 6.0849e-39 428 309 0 0 0 -0.25646 0.24068 -0.93611 0.011664
-0.00088819 0.068647 0.99354 6.7303e-39 433 309 0 0 0 -0.092692 0.26029 -0.96107 0.019739
0.00085475 0.069172 0.99274 6.2002e-39 299 309.5 0 0 0 -0.027438 0.26176 -0.96474 0.021206
0.0031777 0.069172 0.99274 5.7391e-39 301 309.5 0 0 0 0.04139 0.26168 -0.96427 0.020599
0.0049198 0.069173 0.99274 5.6701e-39 302.5 309.5 0 0 0 0.092483 0.25919 -0.96139 0.020574
0.0066649 0.0692 0.99314 6.0619e-39 304 309.5 0 0 0 0.14402 0.25521 -0.9561 0.018771
0.00085541 0.070972 0.99354 7.6522e-39 248.5 310 0 0 0 -0.027026 0.27366 -0.96145 0.020464
0.0031777 0.070915 0.99274 6.8225e-39 250.5 310 0 0 0 0.044131 0.26812 -0.96238 0.020024
0.0049238 0.070972 0.99354 6.4537e-39 252 310 0 0 0 0.090995 0.26577 -0.95973 0.019319
0.0060862 0.070972 0.99354 6.6381e-39 253 310 0 0 0 0.12746 0.26342 -0.95623 0.018136
0.0031802 0.072715 0.99354 8.4589e-39 423.5 310 0 0 0 0.043635 0.2747 -0.96054 0.019238
0.0060862 0.072716 0.99354 8.6203e-39 428 310 0 0 0 0.12486 0.26556 -0.95598 0.01759
0.0060862 0.074459 0.99354 6.5459e-39 192 311 0 0 0 0.11965 0.27006 -0.95538 0.017122
0.027031 0.037292 0.99434 6.5459e-39 442 300 0 0 0 0.54954 0.34233 -0.76211 0.026214
0.028217 0.036741 0.99514 6.2232e-39 346.5 300 0 0 0 0.55413 0.33475 -0.76216 0.030131
0.025296 0.039635 0.99474 6.7303e-39 393.5 301 0 0 0 0.5439 0.29451 -0.78577 0.024299
0.027053 0.038487 0.99514 7.2835e-39 210 301 0 0 0 0.55826 0.29416 -0.77577 0.027605
-0.012522 0.041946 0.99434 6.1771e-39 180 302 0 0 0 -0.43448 0.013203 -0.90059 0.00672
0.02064 0.040799 0.99474 6.0849e-39 446.5 301 0 0 0 0.48325 0.29247 -0.82518 0.023299
0.02356 0.040815 0.99514 6.7303e-39 449 301 0 0 0 0.51982 0.28213 -0.80635 0.022555
0.025909 0.040848 0.99594 6.3615e-39 492 301 0 0 0 0.54986 0.27039 -0.79028 0.024439
-0.014873 0.042013 0.99594 6.4537e-39 179 302 0 0 0 -0.46989 0.0028234 -0.88272 0.0086396
-0.013115 0.043144 0.99514 8.5742e-39 277.5 302 0 0 0 -0.44017 0.018762 -0.89772 0.0063492
-0.011359 0.043109 0.99434 8.5742e-39 279 302 0 0 0 -0.4118 0.025547 -0.91091 0.0064385
-0.0090322 0.043109 0.99434 8.6664e-39 348 302 0 0 0 -0.38365 0.023377 -0.92318 0.0082155
0.017724 0.043109 0.99434 8.2054e-39 395 302 0 0 0 0.42279 0.27665 -0.86297 0.024796
0.022414 0.042013 0.99594 7.1913e-39 211 302 0 0 0 0.50802 0.27045 -0.81778 0.021447
-0.036982 0.045472 0.99514 6.5459e-39 183 303 0 0 0 -0.53428 0.016813 -0.84514 0.056645
-0.012931 0.044732 0.99594 6.2386e-39 367.33 302.33 0 0 0 -0.43959 0.024796 -0.89786 0.0060744
-0.01098 0.045084 0.99514 6.6688e-39 291.67 302.67 0 0 0 -0.40911 0.030171 -0.91199 0.0062306
-0.0090322 0.044854 0.99434 6.4076e-39 336 302.5 0 0 0 -0.38095 0.027149 -0.9242 0.0081686
0.017336 0.04466 0.99434 6.0234e-39 189.33 303 0 0 0 0.41672 0.27075 -0.86778 0.022433
-0.012542 0.047839 0.99594 6.3615e-39 160 304 0 0 0 -0.43021 0.04539 -0.90159 0.0049348
-0.010983 0.047037 0.99541 7.56e-39 322 303.33 0 0 0 -0.40782 0.037829 -0.91228 0.0061423
-0.012542 0.049005 0.99594 6.1771e-39 247 304 0 0 0 -0.42747 0.047037 -0.9028 0.0050341
-0.011377 0.049005 0.99594 6.1771e-39 248 304 0 0 0 -0.40992 0.051358 -0.91068 0.0056106
0.017724 0.048926 0.99434 5.7161e-39 359 304 0 0 0 0.41886 0.25036 -0.87285 0.017081
-0.013122 0.050742 0.99574 6.0388e-39 299 304.5 0 0 0 -0.43028 0.063036 -0.90049 0.0044285
-0.011368 0.050711 0.99514 6.1771e-39 300.5 304.5 0 0 0 -0.40223 0.0643 -0.91328 0.0057072
0.017724 0.050089 0.99434 6.6381e-39 468 304 0 0 0 0.42112 0.24442 -0.87345 0.015628
-0.013125 0.053082 0.99594 6.8916e-39 394 305 0 0 0 -0.42583 0.080871 -0.90118 0.0043236
-0.010983 0.05286 0.99541 6.6381e-39 381 305 0 0 0 -0.40042 0.082209 -0.91264 0.0056824
-0.012927 0.055204 0.99567 6.2693e-39 238.67 306 0 0 0 -0.42088 0.096271 -0.90199 0.0044795
-0.011368 0.055368 0.99514 6.4537e-39 268.5 306 0 0 0 -0.3984 0.098055 -0.91196 0.0055256
0.01541 0.055951 0.99514 5.9927e-39 384 306 0 0 0 0.39872 0.18599 -0.89801 0.010267
0.017346 0.055548 0.99487 6.4537e-39 332.33 306 0 0 0 0.42698 0.2012 -0.8816 0.0090374
-0.0078689 0.057069 0.99434 6.2693e-39 438 306 0 0 0 -0.32757 0.11978 -0.93721 0.011013
0.015423 0.057161 0.99594 7.7444e-39 462 306 0 0 0 0.40317 0.17647 -0.89795 0.0089494
0.017171 0.057161 0.99594 8.1593e-39 465.5 306 0 0 0 0.42594 0.18458 -0.88572 0.0074151
-0.010196 0.058814 0.99434 7.1451e-39 224 307 0 0 0 -0.36595 0.1283 -0.92175 0.0078178
-0.0078689 0.058814 0.99434 7.1913e-39 226 307 0 0 0 -0.32187 0.1371 -0.93681 0.010993
0.011326 0.059396 0.99434 5.9927e-39 357.5 307 0 0 0 0.3129 0.17639 -0.93326 0.014998
0.013071 0.059396 0.99434 5.8083e-39 359 307 0 0 0 0.35535 0.17156 -0.91885 0.011847
0.01424 0.058838 0.99474 6.1771e-39 281 307 0 0 0 0.37959 0.17065 -0.90928 0.010098
-0.012542 0.061822 0.99594 5.9005e-39 151 308 0 0 0 -0.40161 0.14676 -0.90397 0.0054473
-0.011377 0.061822 0.99594 6.0849e-39 152 308 0 0 0 -0.38525 0.15052 -0.91045 0.0062268
0.0095811 0.061141 0.99434 6.3154e-39 301.5 307.5 0 0 0 0.26241 0.19057 -0.94595 0.016497
0.01133 0.061166 0.99474 6.2463e-39 303.5 307.5 0 0 0 0.31068 0.18349 -0.93263 0.013885
0.013082 0.060608 0.99514 6.3615e-39 438 307 0 0 0 0.35989 0.17543 -0.91635 0.010822
-0.0078689 0.062886 0.99434 7.0991e-39 252 308 0 0 0 -0.30854 0.17459 -0.93505 0.011215
0.0090033 0.062911 0.99474 5.8083e-39 275.5 308 0 0 0 0.24397 0.20301 -0.9483 0.016819
0.01134 0.062962 0.99554 6.9146e-39 277.5 308 0 0 0 0.30326 0.19292 -0.93317 0.013497
-0.010196 0.06463 0.99434 7.3757e-39 436.5 308 0 0 0 -0.35139 0.18364 -0.91804 0.0078868
-0.0090322 0.06463 0.99434 7.3757e-39 437.5 308 0 0 0 -0.33373 0.18743 -0.92385 0.008845
-0.0078689 0.06463 0.99434 7.3296e-39 438.5 308 0 0 0 -0.30523 0.19426 -0.93225 0.011051
0.0091959 0.064454 0.99461 9.066e-39 443 308 0 0 0 0.24398 0.2107 -0.94661 0.016288
0.01134 0.064709 0.99554 8.8508e-39 460 308 0 0 0 0.30081 0.20182 -0.93209 0.013218
-0.010204 0.067011 0.99514 7.1913e-39 276.5 309 0 0 0 -0.34252 0.20613 -0.91662 0.0076431
-0.0090395 0.067011 0.99514 6.6842e-39 277.5 309 0 0 0 -0.32333 0.21226 -0.92217 0.008555
-0.0078752 0.067011 0.99514 6.4998e-39 278.5 309 0 0 0 -0.29615 0.21807 -0.92991 0.01041
-0.0043789 0.067539 0.99434 5.9005e-39 354 309 0 0 0 -0.19574 0.23958 -0.95094 0.016515
-0.0020522 0.067539 0.99434 6.5459e-39 356 309 0 0 0 -0.12509 0.24995 -0.96014 0.019992
0.0091959 0.067169 0.99461 6.4537e-39 319.67 309 0 0 0 0.22731 0.23181 -0.94583 0.016207
0.011147 0.066853 0.99567 6.6688e-39 275.33 309 0 0 0 0.2838 0.21641 -0.93414 0.013401
-0.0090468 0.068813 0.99594 6.6381e-39 426 309 0 0 0 -0.31796 0.22805 -0.92027 0.0082887
-0.0072963 0.069367 0.99554 6.2693e-39 292 309.5 0 0 0 -0.27185 0.23959 -0.93204 0.011185
-0.0049643 0.06934 0.99514 6.3154e-39 294 309.5 0 0 0 -0.20992 0.25237 -0.94459 0.014947
-0.0026339 0.069284 0.99434 6.4306e-39 296 309.5 0 0 0 -0.13894 0.25846 -0.95598 0.018705
-0.0008889 0.069866 0.99434 6.4537e-39 162 310 0 0 0 -0.083832 0.26719 -0.95999 0.020182
0.0090105 0.069368 0.99554 6.5459e-39 306 309.5 0 0 0 0.21774 0.24248 -0.94541 0.016248
0.010762 0.069395 0.99594 6.5459e-39 307.5 309.5 0 0 0 0.25551 0.23225 -0.93849 0.014652
-0.0067164 0.071144 0.99594 9.6805e-39 242 310 0 0 0 -0.25294 0.25375 -0.93361 0.011789
-0.0055512 0.071144 0.99594 9.5883e-39 243 310 0 0 0 -0.2182 0.26085 -0.9404 0.013663
-0.002636 0.071086 0.99514 8.6203e-39 245.5 310 0 0 0 -0.12491 0.2695 -0.95487 0.017833
-0.00088962 0.071086 0.99514 8.482e-39 247 310 0 0 0 -0.075184 0.27187 -0.95939 0.018917
0.0072544 0.071029 0.99434 7.0991e-39 254 310 0 0 0 0.16006 0.25888 -0.95255 0.018188
0.0090105 0.071115 0.99554 6.9147e-39 255.5 310 0 0 0 0.21323 0.24653 -0.94539 0.015956
0.010762 0.071144 0.99594 6.2693e-39 257 310 0 0 0 0.24714 0.2359 -0.93983 0.014651
-0.0067164 0.072309 0.99594 5.9927e-39 376 310 0 0 0 -0.24653 0.25905 -0.93387 0.011331
-0.0055512 0.072309 0.99594 6.2693e-39 377 310 0 0 0 -0.21765 0.26663 -0.9389 0.012972
-0.0026382 0.072891 0.99594 7.4679e-39 418.5 310 0 0 0 -0.12987 0.2773 -0.95196 0.01665
-0.00088998 0.072862 0.99554 7.7905e-39 420 310 0 0 0 -0.080247 0.27932 -0.95684 0.018159
0.00085612 0.072774 0.99434 8.2284e-39 421.5 310 0 0 0 -0.028734 0.27702 -0.96044 0.019462
0.0049278 0.072774 0.99434 8.4359e-39 427 310 0 0 0 0.089321 0.26806 -0.95925 0.018895
0.0072544 0.072774 0.99434 8.8969e-39 429 310 0 0 0 0.15229 0.25914 -0.95376 0.017836
0.0090067 0.072833 0.99514 8.8047e-39 430.5 310 0 0 0 0.20088 0.25098 -0.94692 0.015627
0.010762 0.072892 0.99594 8.6203e-39 432 310 0 0 0 0.24105 0.23963 -0.94046 0.014192
-0.0026382 0.074639 0.99594 6.6381e-39 184.5 311 0 0 0 -0.12494 0.28306 -0.95093 0.014622
-0.00089034 0.074639 0.99594 6.2693e-39 186 311 0 0 0 -0.075863 0.28456 -0.95565 0.016306
0.0008565 0.075146 0.99494 6.131e-39 229.5 311 0 0 0 -0.026329 0.28547 -0.95803 0.017598
0.0031835 0.075116 0.99454 6.2463e-39 231.5 311 0 0 0 0.037069 0.28273 -0.95848 0.017322
0.0049298 0.075131 0.99474 6.2232e-39 233 311 0 0 0 0.087641 0.27709 -0.95684 0.017798
0.0068722 0.075355 0.99514 6.0234e-39 248.67 311 0 0 0 0.13717 0.26655 -0.95401 0.017069
0.0090122 0.075206 0.99574 7.0299e-39 236.5 311 0 0 0 0.1909 0.25314 -0.94841 0.015798
0.010762 0.074639 0.99594 7.0991e-39 196 311 0 0 0 0.2332 0.24326 -0.94151 0.014042
0.00027487 0.07697 0.99594 7.6522e-39 410 311 0 0 0 -0.040047 0.28753 -0.95693 0.016244
0.0031868 0.076939 0.99554 6.5459e-39 412.5 311 0 0 0 0.034095 0.28679 -0.95739 0.01648
0.0049357 0.07697 0.99594 6.4537e-39 414 311 0 0 0 0.079218 0.27884 -0.95706 0.016512
0.0061009 0.07697 0.99594 6.7303e-39 415 311 0 0 0 0.10631 0.27157 -0.95653 0.016448
0.0026042 0.078686 0.99554 8.2515e-39 365.5 311.5 0 0 0 0.012268 0.28894 -0.95727 0.015703
-0.019565 0.039747 0.99755 6.7303e-39 242 301 0 0 0 -0.49426 -0.017411 -0.86914 0.023587
0.027097 0.039715 0.99675 7.6522e-39 395 301 0 0 0 0.56771 0.28001 -0.77414 0.027302
0.028263 0.038549 0.99675 7.3757e-39 211 301 0 0 0 0.568 0.28316 -0.77278 0.028541
-0.018974 0.040897 0.99715 5.9466e-39 432.5 301 0 0 0 -0.49087 -0.0089756 -0.87119 0.021256
0.024764 0.040881 0.99675 6.3615e-39 491 301 0 0 0 0.54798 0.26884 -0.79212 0.023712
0.027118 0.040914 0.99755 6.2693e-39 493 301 0 0 0 0.57389 0.24813 -0.78043 0.026729
-0.016641 0.042647 0.99715 6.2693e-39 226 302 0 0 0 -0.48783 0.0048197 -0.87293 0.0081785
-0.014885 0.043213 0.99675 7.56e-39 276 302 0 0 0 -0.47271 0.0040629 -0.88121 0.0081384
0.018933 0.042047 0.99675 7.7444e-39 208 302 0 0 0 0.467 0.28004 -0.83874 0.022209
0.020683 0.042047 0.99675 7.514e-39 209.5 302 0 0 0 0.50025 0.27476 -0.82113 0.021477
0.023024 0.042648 0.99715 7.5601e-39 305.5 302 0 0 0 0.52268 0.25956 -0.81205 0.021668
0.025951 0.042081 0.99755 6.8225e-39 214 302 0 0 0 0.55831 0.24575 -0.7924 0.023373
-0.037072 0.044415 0.99755 7.3757e-39 422 302 0 0 0 -0.61922 -0.068769 -0.7822 0.067373
-0.014897 0.044999 0.99755 6.8686e-39 326.5 302.5 0 0 0 -0.4766 0.013854 -0.87901 0.007339
-0.013719 0.045546 0.99675 7.1913e-39 212 303 0 0 0 -0.45224 0.027406 -0.89148 0.005508
-0.014897 0.047334 0.99755 7.514e-39 278.5 303.5 0 0 0 -0.46497 0.039402 -0.88445 0.0045577
-0.01333 0.047101 0.99675 7.5293e-39 320 303.33 0 0 0 -0.44495 0.032768 -0.89495 0.0053997
0.018949 0.047917 0.99755 6.4537e-39 187 304 0 0 0 0.45298 0.25166 -0.85526 0.01591
-0.014897 0.049084 0.99755 6.1771e-39 245 304 0 0 0 -0.46328 0.046425 -0.88499 0.0043393
-0.013719 0.049044 0.99675 6.3615e-39 246 304 0 0 0 -0.44471 0.04819 -0.89438 0.0044821
-0.014891 0.050813 0.99715 6.2693e-39 297.5 304.5 0 0 0 -0.45654 0.061158 -0.8876 0.0036027
0.018949 0.050834 0.99755 7.1452e-39 345.5 304.5 0 0 0 0.45061 0.24165 -0.8594 0.012508
-0.014897 0.053168 0.99755 7.053e-39 391 305 0 0 0 -0.45435 0.078396 -0.88737 0.0036391
0.018933 0.053126 0.99675 7.1913e-39 445.5 305 0 0 0 0.44777 0.2223 -0.86608 0.0094746
-0.016064 0.054919 0.99755 6.3615e-39 179 306 0 0 0 -0.46183 0.087598 -0.88263 0.0033913
-0.014885 0.054875 0.99675 6.2693e-39 180 306 0 0 0 -0.44454 0.091521 -0.89107 0.0035343
0.018933 0.054875 0.99675 6.3615e-39 227 306 0 0 0 0.44752 0.20548 -0.87035 0.0078704
-0.016064 0.056086 0.99755 7.0069e-39 350 306 0 0 0 -0.46162 0.095932 -0.88187 0.0034992
-0.014891 0.056647 0.99715 6.2232e-39 390 306 0 0 0 -0.44423 0.10174 -0.89012 0.0036822
-0.013334 0.056834 0.99702 6.3308e-39 404.33 306 0 0 0 -0.42525 0.10592 -0.89885 0.0042589
-0.011386 0.057207 0.99675 6.5459e-39 432 306 0 0 0 -0.40249 0.11356 -0.90835 0.0052878
0.018949 0.056086 0.99755 7.8366e-39 387 306 0 0 0 0.45211 0.1878 -0.87197 0.0060126
-0.012563 0.059004 0.99755 5.9927e-39 222 307 0 0 0 -0.41619 0.12416 -0.90076 0.0047032
-0.011396 0.059004 0.99755 6.7303e-39 223 307 0 0 0 -0.40299 0.12668 -0.90639 0.0053538
0.015441 0.058981 0.99715 6.4076e-39 282 307 0 0 0 0.40743 0.17076 -0.89713 0.0078448
0.016994 0.058778 0.99702 6.6074e-39 257 307 0 0 0 0.4318 0.17084 -0.88564 0.006173
-0.014897 0.061338 0.99755 7.4679e-39 280.5 307.5 0 0 0 -0.43704 0.13412 -0.88939 0.0043864
-0.013334 0.061111 0.99702 7.5293e-39 325.67 307.33 0 0 0 -0.41713 0.13729 -0.89842 0.0048632
-0.011386 0.060706 0.99675 7.9288e-39 415 307 0 0 0 -0.39344 0.13991 -0.90864 0.0056877
0.013103 0.061872 0.99675 5.9005e-39 173 308 0 0 0 0.36159 0.17929 -0.91494 0.010553
0.014275 0.061314 0.99715 6.0388e-39 306.5 307.5 0 0 0 0.38581 0.17071 -0.90665 0.0091176
-0.014897 0.063089 0.99755 7.0991e-39 246 308 0 0 0 -0.43337 0.14953 -0.88872 0.0047833
-0.013141 0.063064 0.99715 6.9147e-39 247.5 308 0 0 0 -0.41244 0.1549 -0.89772 0.0051596
-0.011386 0.063038 0.99675 6.9147e-39 249 308 0 0 0 -0.38681 0.16115 -0.90797 0.0061123
0.013113 0.063089 0.99755 8.2976e-39 279 308 0 0 0 0.36376 0.18597 -0.91274 0.010232
-0.013144 0.064826 0.99735 7.5831e-39 434 308 0 0 0 -0.40273 0.17404 -0.89862 0.005328
-0.011386 0.064787 0.99675 7.514e-39 435.5 308 0 0 0 -0.37926 0.18092 -0.90743 0.0059527
0.013113 0.064839 0.99755 6.4537e-39 280 308.5 0 0 0 0.35176 0.19654 -0.91522 0.010823
-0.011396 0.06659 0.99755 7.0069e-39 203 309 0 0 0 -0.37461 0.19741 -0.90592 0.0056955
0.011937 0.067703 0.99675 5.6239e-39 368 309 0 0 0 0.30651 0.21753 -0.92668 0.012408
0.013113 0.067174 0.99755 6.4998e-39 300 309 0 0 0 0.34213 0.20569 -0.91687 0.010985
-0.01022 0.068869 0.99675 7.0069e-39 425 309 0 0 0 -0.33918 0.22407 -0.91365 0.0068763
0.011946 0.068924 0.99755 6.5459e-39 444 309 0 0 0 0.29773 0.22141 -0.92862 0.01284
0.013113 0.068924 0.99755 6.3615e-39 445 309 0 0 0 0.33096 0.21156 -0.91962 0.011658
-0.010229 0.070091 0.99755 7.0991e-39 154 310 0 0 0 -0.33483 0.22961 -0.91387 0.0067442
-0.0090614 0.070675 0.99755 8.1132e-39 197.5 310 0 0 0 -0.31184 0.24027 -0.91925 0.0079099
-0.0078911 0.070647 0.99715 8.1132e-39 198.5 310 0 0 0 -0.28626 0.24552 -0.92616 0.01006
-0.0043895 0.071201 0.99675 9.2196e-39 244 310 0 0 0 -0.1863 0.26263 -0.94674 0.01633
0.011946 0.070675 0.99755 6.1771e-39 215.5 310 0 0 0 0.28826 0.22454 -0.93085 0.013573
-0.0090614 0.073009 0.99755 6.7764e-39 413 310 0 0 0 -0.30239 0.2497 -0.9199 0.0074637
-0.0074992 0.073144 0.99675 7.4986e-39 427.33 310 0 0 0 -0.2635 0.26008 -0.92894 0.0098362
-0.0047794 0.073164 0.99702 7.8981e-39 429.67 310 0 0 0 -0.19606 0.27321 -0.94176 0.013531
0.011946 0.073009 0.99755 8.3898e-39 433 310 0 0 0 0.27121 0.23223 -0.93408 0.013635
0.013113 0.073593 0.99755 8.2054e-39 475 310 0 0 0 0.30762 0.22535 -0.92444 0.012351
-0.0073107 0.07476 0.99755 6.0388e-39 180.5 311 0 0 0 -0.25696 0.26343 -0.92983 0.0095291
-0.0049766 0.07476 0.99755 6.131e-39 182.5 311 0 0 0 -0.20109 0.27259 -0.94088 0.012222
-0.0026403 0.075866 0.99675 6.6842e-39 268.5 311 0 0 0 -0.12549 0.28448 -0.95043 0.014139
-0.00089105 0.075866 0.99675 6.3615e-39 270 311 0 0 0 -0.076996 0.28609 -0.9551 0.015631
0.011358 0.075313 0.99715 7.7905e-39 238.5 311 0 0 0 0.24633 0.23923 -0.9392 0.013504
0.013113 0.07476 0.99755 6.6381e-39 198 311 0 0 0 0.29838 0.22274 -0.92809 0.012229
-0.0026424 0.077094 0.99755 8.2054e-39 407.5 311 0 0 0 -0.12609 0.28671 -0.94968 0.013354
-0.00089177 0.077094 0.99755 7.7444e-39 409 311 0 0 0 -0.074441 0.28567 -0.95543 0.015139
0.0014412 0.077032 0.99675 7.1913e-39 411 311 0 0 0 -0.012518 0.28899 -0.95725 0.016359
0.007272 0.077032 0.99675 6.9147e-39 416 311 0 0 0 0.13823 0.26766 -0.95355 0.01608
0.0090212 0.077032 0.99675 6.4998e-39 417.5 311 0 0 0 0.18716 0.25579 -0.94844 0.014917
0.010779 0.077094 0.99755 6.3615e-39 419 311 0 0 0 0.22444 0.24715 -0.94263 0.013425
0.00085851 0.078813 0.99715 7.537e-39 364 311.5 0 0 0 -0.023378 0.29028 -0.95666 0.015027
0.0037735 0.078781 0.99675 8.6664e-39 366.5 311.5 0 0 0 0.037926 0.2861 -0.95745 0.015965
0.0049397 0.078781 0.99675 7.4679e-39 186 312 0 0 0 0.075774 0.28304 -0.95611 0.015238
0.0066916 0.078813 0.99715 7.7444e-39 187.5 312 0 0 0 0.11793 0.27592 -0.95392 0.014996
0.0090285 0.078845 0.99755 7.6522e-39 189.5 312 0 0 0 0.1808 0.26304 -0.94769 0.014379
0.0029978 0.080962 0.99728 5.962e-39 384 312 0 0 0 0.023787 0.29465 -0.95531 0.014145
0.0049437 0.080595 0.99755 5.7161e-39 359 312 0 0 0 0.070793 0.28933 -0.95461 0.014159
-0.023123 0.037504 0.99998 6.2693e-39 392 300 0 0 0 -0.5424 -0.1313 -0.8298 0.045784
-0.021917 0.037443 0.99836 6.1771e-39 393 300 0 0 0 -0.52016 -0.091131 -0.84919 0.037234
0.029488 0.036874 0.99876 5.9466e-39 358 300 0 0 0 0.61366 0.26875 -0.74243 0.038821
-0.023123 0.039259 0.99998 6.5458e-39 200.5 301 0 0 0 -0.54294 -0.11831 -0.8314 0.041684
-0.021346 0.039219 0.99897 6.2693e-39 202 301 0 0 0 -0.51703 -0.071618 -0.85296 0.032421
0.028916 0.039227 0.99917 7.7905e-39 304 301 0 0 0 0.61158 0.23283 -0.75615 0.036506
-0.024292 0.041013 0.99998 6.2693e-39 428 301 0 0 0 -0.54687 -0.089056 -0.83247 0.038874
-0.023123 0.041013 0.99998 6.5459e-39 429 301 0 0 0 -0.54077 -0.08421 -0.83695 0.036226
-0.02135 0.04098 0.99917 6.1771e-39 430.5 301 0 0 0 -0.51592 -0.044067 -0.8555 0.029291
0.028354 0.041013 0.99998 6.4537e-39 494 301 0 0 0 0.61559 0.21174 -0.75908 0.032821
-0.021167 0.042562 0.99971 6.3922e-39 198.67 302 0 0 0 -0.51772 -0.029109 -0.85506 0.027238
-0.019001 0.042708 0.99856 5.8544e-39 224 302 0 0 0 -0.48977 0.0036182 -0.87184 0.018774
0.018964 0.043283 0.99836 8.5742e-39 396 302 0 0 0 0.47515 0.26784 -0.83815 0.020883
0.020716 0.043283 0.99836 8.3898e-39 397.5 302 0 0 0 0.49919 0.26203 -0.82592 0.019903
0.023636 0.043283 0.99836 7.9288e-39 400 302 0 0 0 0.53775 0.24481 -0.80678 0.020803
0.0252 0.042905 0.99863 7.6215e-39 338.67 302 0 0 0 0.55169 0.24043 -0.79865 0.022462
0.027173 0.042751 0.99958 7.6522e-39 309 302 0 0 0 0.59464 0.21353 -0.77512 0.028572
-0.01902 0.04509 0.99958 6.7533e-39 323 302.5 0 0 0 -0.49596 0.0088682 -0.8683 0.017639
-0.016665 0.045044 0.99856 6.9838e-39 325 302.5 0 0 0 -0.48811 0.012806 -0.87269 0.0072485
0.018964 0.045035 0.99836 5.8544e-39 205 303 0 0 0 0.46794 0.26113 -0.8443 0.018024
0.020732 0.045071 0.99917 5.7622e-39 212 303 0 0 0 0.49909 0.25168 -0.8292 0.018743
0.023057 0.045044 0.99856 5.9927e-39 219.5 303 0 0 0 0.52287 0.24604 -0.81613 0.019151
0.025227 0.044901 0.99971 6.1771e-39 203.33 303 0 0 0 0.55741 0.22293 -0.79975 0.021809
0.026014 0.045693 0.99998 7.3757e-39 276 303 0 0 0 0.56183 0.21535 -0.79873 0.021122
-0.018428 0.047409 0.99917 7.4218e-39 275.5 303.5 0 0 0 -0.4832 0.033327 -0.87488 0.012997
-0.016665 0.04738 0.99856 7.514e-39 277 303.5 0 0 0 -0.48483 0.024582 -0.87426 0.0064037
0.018964 0.046787 0.99836 5.8083e-39 432 303 0 0 0 0.46116 0.2545 -0.85004 0.016801
0.020724 0.04739 0.99876 6.3845e-39 315.5 303.5 0 0 0 0.48636 0.24522 -0.83864 0.016149
0.023061 0.04739 0.99876 6.0388e-39 318.5 303.5 0 0 0 0.51781 0.23504 -0.82257 0.016769
0.024844 0.046863 0.99998 6.3615e-39 439 303 0 0 0 0.5442 0.22376 -0.80856 0.018945
0.026014 0.046863 0.99998 6.8225e-39 440 303 0 0 0 0.55796 0.21434 -0.80171 0.020106
-0.019218 0.0488 0.99971 6.3922e-39 212.33 304 0 0 0 -0.49195 0.042563 -0.86958 0.013092
-0.016661 0.049123 0.99836 6.2693e-39 243.5 304 0 0 0 -0.48169 0.037901 -0.87552 0.0052708
0.018964 0.049123 0.99836 5.8083e-39 360 304 0 0 0 0.45829 0.24531 -0.85428 0.01428
0.020724 0.049143 0.99876 5.9927e-39 369.5 304 0 0 0 0.47736 0.24275 -0.84451 0.013739
0.02308 0.049183 0.99958 6.0849e-39 384.5 304 0 0 0 0.51129 0.2314 -0.82767 0.014536
0.026014 0.048033 0.99998 7.0069e-39 202 304 0 0 0 0.55476 0.21135 -0.80471 0.018996
-0.018823 0.051125 0.99944 6.9454e-39 253 304.67 0 0 0 -0.48615 0.062832 -0.87161 0.0099503
-0.016661 0.050875 0.99836 6.8686e-39 296 304.5 0 0 0 -0.47871 0.053824 -0.87632 0.0041007
0.020724 0.050896 0.99876 6.5229e-39 358 304.5 0 0 0 0.47639 0.23674 -0.84677 0.012384
0.02307 0.050917 0.99917 6.5689e-39 360 304.5 0 0 0 0.50679 0.22237 -0.83289 0.012908
0.024844 0.051543 0.99998 6.4537e-39 227 305 0 0 0 0.52565 0.20667 -0.82522 0.013266
-0.018428 0.053255 0.99917 7.3296e-39 356.5 305 0 0 0 -0.4877 0.070268 -0.87018 0.0048419
-0.016661 0.053212 0.99836 7.3757e-39 373.75 305 0 0 0 -0.47366 0.073279 -0.87766 0.0035943
0.020733 0.053255 0.99917 7.6061e-39 447 305 0 0 0 0.47285 0.21515 -0.85447 0.0085094
0.02308 0.053276 0.99958 8.8047e-39 449 305 0 0 0 0.49667 0.20672 -0.84296 0.008807
0.024844 0.053298 0.99998 7.2374e-39 271 305.5 0 0 0 0.51889 0.19724 -0.83177 0.010419
-0.018428 0.055008 0.99917 5.7161e-39 177 306 0 0 0 -0.48855 0.086208 -0.86826 0.0039249
-0.017245 0.054964 0.99836 6.0849e-39 178 306 0 0 0 -0.47576 0.084826 -0.87548 0.003548
0.020741 0.055031 0.99958 7.0069e-39 228.5 306 0 0 0 0.47436 0.19568 -0.85831 0.0062095
0.02309 0.055053 0.99998 7.053e-39 230.5 306 0 0 0 0.4947 0.19138 -0.84773 0.0069236
-0.018428 0.056762 0.99917 7.2374e-39 387 306 0 0 0 -0.48778 0.098341 -0.86741 0.003796
-0.01686 0.056926 0.99863 6.7303e-39 401.33 306 0 0 0 -0.47248 0.10053 -0.87559 0.0037192
0.018964 0.0573 0.99836 8.021e-39 467 306 0 0 0 0.45889 0.17952 -0.87017 0.0051659
0.020165 0.056223 0.99998 8.5742e-39 388 306 0 0 0 0.4723 0.18559 -0.86168 0.0053307
0.022505 0.056808 0.99998 8.0671e-39 430 306 0 0 0 0.48713 0.18601 -0.85329 0.0055021
-0.018443 0.059147 0.99998 5.9927e-39 217 307 0 0 0 -0.49062 0.11514 -0.86373 0.0042012
-0.016671 0.059087 0.99897 5.5317e-39 218.5 307 0 0 0 -0.46862 0.11523 -0.87585 0.0040921
-0.014909 0.059052 0.99836 5.67e-39 220 307 0 0 0 -0.44529 0.11872 -0.88748 0.0040132
-0.013741 0.059052 0.99836 5.6239e-39 221 307 0 0 0 -0.43347 0.11964 -0.89319 0.0043288
0.017796 0.059636 0.99836 6.5459e-39 363 307 0 0 0 0.44662 0.16556 -0.87927 0.0049395
0.018971 0.059076 0.99876 6.6381e-39 285 307 0 0 0 0.45977 0.17161 -0.8713 0.0044352
-0.018443 0.060902 0.99998 8.943e-39 409 307 0 0 0 -0.48969 0.12589 -0.86276 0.0044093
-0.016471 0.06121 0.99863 8.144e-39 323 307.33 0 0 0 -0.46036 0.12932 -0.87826 0.0044516
0.01546 0.060804 0.99836 6.7303e-39 440 307 0 0 0 0.41242 0.16662 -0.89563 0.0072535
0.017022 0.06121 0.99863 6.9454e-39 354.33 307.33 0 0 0 0.44021 0.16342 -0.8829 0.0055146
0.018979 0.060853 0.99917 6.8225e-39 443 307 0 0 0 0.46506 0.1657 -0.86963 0.0041908
-0.018443 0.062657 0.99998 7.6983e-39 194.5 308 0 0 0 -0.48698 0.13692 -0.86262 0.0049608
-0.01687 0.062801 0.99917 7.2527e-39 212 308 0 0 0 -0.46219 0.14132 -0.87545 0.0047209
0.015079 0.062784 0.9989 7.4371e-39 245.33 308 0 0 0 0.40796 0.17543 -0.89598 0.0075243
0.01742 0.062801 0.99917 7.8674e-39 248.67 308 0 0 0 0.44804 0.16698 -0.87828 0.0052622
0.018979 0.062606 0.99917 7.2835e-39 262.5 308 0 0 0 0.46797 0.16686 -0.86785 0.0044915
-0.018443 0.064997 0.99998 8.7125e-39 429.5 308 0 0 0 -0.48189 0.15291 -0.86279 0.0054487
-0.016675 0.064944 0.99917 8.505e-39 431 308 0 0 0 -0.45402 0.15992 -0.87652 0.0053634
-0.014909 0.064892 0.99836 7.9288e-39 432.5 308 0 0 0 -0.43162 0.16591 -0.88667 0.005056
0.014888 0.064945 0.99917 6.6381e-39 281.5 308.5 0 0 0 0.39742 0.18961 -0.89783 0.0080408
0.017229 0.064958 0.99937 6.4767e-39 283.5 308.5 0 0 0 0.43764 0.17951 -0.88105 0.0058555
0.018987 0.064971 0.99958 6.2232e-39 285 308.5 0 0 0 0.46612 0.16968 -0.8683 0.0046458
-0.016484 0.067106 0.99944 7.3142e-39 247 309 0 0 0 -0.44286 0.17647 -0.87905 0.0053036
-0.014915 0.067255 0.99876 7.4218e-39 272.5 309 0 0 0 -0.42365 0.18442 -0.88685 0.0052888
-0.013157 0.067228 0.99836 7.3065e-39 274 309 0 0 0 -0.39916 0.19375 -0.89618 0.0051228
-0.011405 0.067812 0.99836 8.5742e-39 348 309 0 0 0 -0.37167 0.20638 -0.90513 0.0056815
0.014895 0.06731 0.99958 6.569e-39 301.5 309 0 0 0 0.38852 0.19865 -0.89977 0.009135
0.017233 0.06731 0.99958 6.6612e-39 303.5 309 0 0 0 0.42592 0.18712 -0.8852 0.0068923
0.018995 0.067337 0.99998 6.7302e-39 305 309 0 0 0 0.46437 0.17702 -0.86777 0.0053626
-0.01609 0.069036 0.99917 6.7303e-39 420 309 0 0 0 -0.43082 0.19208 -0.88176 0.0055987
-0.014921 0.069036 0.99917 6.3615e-39 421 309 0 0 0 -0.41603 0.19766 -0.88761 0.0054466
-0.013168 0.069036 0.99917 6.5459e-39 422.5 309 0 0 0 -0.39234 0.20669 -0.8963 0.0052288
-0.011405 0.06898 0.99836 6.8225e-39 424 309 0 0 0 -0.36289 0.21952 -0.90561 0.0057021
0.014895 0.069064 0.99958 6.3615e-39 446.5 309 0 0 0 0.3836 0.20103 -0.90136 0.0093722
0.016641 0.069036 0.99917 6.3615e-39 448 309 0 0 0 0.41039 0.19464 -0.8909 0.0080944
0.018995 0.069092 0.99998 6.7303e-39 450 309 0 0 0 0.45659 0.18106 -0.87106 0.0060903
-0.016103 0.070847 0.99998 7.0068e-39 191.5 310 0 0 0 -0.4242 0.20088 -0.88301 0.0060364
-0.014933 0.070847 0.99998 6.9146e-39 192.5 310 0 0 0 -0.41355 0.20499 -0.88711 0.0058916
-0.013178 0.070847 0.99998 7.0069e-39 194 310 0 0 0 -0.38632 0.21604 -0.89671 0.0054337
-0.011025 0.070984 0.99917 8.021e-39 210 310 0 0 0 -0.35328 0.22991 -0.90683 0.0059756
0.013124 0.070732 0.99836 5.8083e-39 216.5 310 0 0 0 0.32222 0.21788 -0.92125 0.012464
0.0149 0.070847 0.99998 5.8313e-39 218 310 0 0 0 0.37279 0.2014 -0.9058 0.0097746
0.016655 0.070847 0.99998 5.9927e-39 219.5 310 0 0 0 0.40966 0.19195 -0.89181 0.0083504
-0.016103 0.073187 0.99998 5.9927e-39 407 310 0 0 0 -0.41672 0.20878 -0.88473 0.0065938
-0.014933 0.073187 0.99998 5.9927e-39 408 310 0 0 0 -0.39944 0.21403 -0.89142 0.0062274
-0.013167 0.073128 0.99917 6.4537e-39 409.5 310 0 0 0 -0.37185 0.22552 -0.90048 0.0057691
-0.010825 0.073098 0.99876 6.7073e-39 411.5 310 0 0 0 -0.33792 0.2407 -0.90987 0.0061065
0.013124 0.072484 0.99836 8.021e-39 393 310 0 0 0 0.31235 0.22021 -0.92409 0.012218
0.014894 0.073157 0.99958 8.0441e-39 435.5 310 0 0 0 0.36038 0.2087 -0.90916 0.010658
0.016641 0.073128 0.99917 7.9288e-39 437 310 0 0 0 0.39316 0.19791 -0.89792 0.0092035
-0.013178 0.074941 0.99998 5.6239e-39 175.5 311 0 0 0 -0.36447 0.2282 -0.90282 0.0065069
-0.010834 0.074911 0.99958 6.1771e-39 177.5 311 0 0 0 -0.3324 0.24044 -0.91198 0.006327
-0.0090687 0.07482 0.99836 6.1771e-39 179 311 0 0 0 -0.29965 0.25264 -0.91999 0.0074285
-0.0073167 0.075988 0.99836 6.5459e-39 264.5 311 0 0 0 -0.25094 0.26443 -0.93119 0.0093411
-0.0049806 0.075988 0.99836 6.8225e-39 266.5 311 0 0 0 -0.19466 0.27331 -0.94202 0.012116
0.011956 0.075988 0.99836 8.8508e-39 281 311 0 0 0 0.25578 0.23992 -0.93649 0.013178
0.013124 0.075988 0.99836 8.5742e-39 282 311 0 0 0 0.2965 0.23019 -0.92688 0.01262
0.0149 0.074941 0.99998 6.3154e-39 199.5 311 0 0 0 0.35302 0.21404 -0.9108 0.011175
0.016641 0.074881 0.99917 6.1771e-39 201 311 0 0 0 0.38233 0.2078 -0.90036 0.0094991
-0.010253 0.076111 0.99998 6.0849e-39 262 311 0 0 0 -0.31843 0.24591 -0.9155 0.0069344
-0.0090797 0.076665 0.99958 7.4679e-39 330 311 0 0 0 -0.29456 0.25202 -0.9218 0.0075699
-0.0073226 0.077219 0.99917 8.482e-39 401 311 0 0 0 -0.25053 0.26621 -0.93079 0.0090678
-0.0049846 0.077219 0.99917 8.7125e-39 405.5 311 0 0 0 -0.18891 0.27693 -0.94214 0.011652
0.011966 0.077219 0.99917 6.1771e-39 420 311 0 0 0 0.25816 0.24088 -0.93559 0.013134
0.013124 0.077156 0.99836 6.3615e-39 421 311 0 0 0 0.28657 0.23593 -0.92856 0.012556
0.0149 0.076696 0.99998 7.514e-39 367 311 0 0 0 0.35017 0.2251 -0.90924 0.011853
0.016655 0.076696 0.99998 7.2835e-39 382.5 311 0 0 0 0.38124 0.21933 -0.89808 0.010146
-0.0090834 0.078451 0.99998 5.9927e-39 489 311 0 0 0 -0.28977 0.2573 -0.92186 0.0071474
-0.0073286 0.079036 0.99998 6.4306e-39 354 311.5 0 0 0 -0.24221 0.27321 -0.93096 0.0086583
-0.0049869 0.079004 0.99958 6.8686e-39 359 311.5 0 0 0 -0.18453 0.28557 -0.94043 0.010665
-0.002645 0.078924 0.99856 7.4218e-39 361 311.5 0 0 0 -0.12778 0.2899 -0.94849 0.012283
-0.00089249 0.078908 0.99836 7.514e-39 362.5 311.5 0 0 0 -0.077786 0.29013 -0.95382 0.014051
0.011377 0.07894 0.99876 7.1912e-39 191.5 312 0 0 0 0.23546 0.25307 -0.93836 0.013051
0.013124 0.078908 0.99836 6.9608e-39 193 312 0 0 0 0.28419 0.24289 -0.92749 0.012247
0.0149 0.079036 0.99998 7.1452e-39 194.5 312 0 0 0 0.3403 0.24304 -0.90837 0.012574
0.016655 0.079036 0.99998 7.5601e-39 196 312 0 0 0 0.37612 0.23205 -0.89704 0.011074
-0.0079135 0.080791 0.99998 7.0069e-39 348 312 0 0 0 -0.2454 0.27395 -0.92991 0.0079713
-0.0044037 0.081376 0.99998 6.1771e-39 391 312 0 0 0 -0.16363 0.28672 -0.94394 0.010195
-0.0026471 0.081327 0.99937 6.3615e-39 392.5 312 0 0 0 -0.12436 0.293 -0.94799 0.010566
-0.00089358 0.081344 0.99958 6.5459e-39 394 312 0 0 0 -0.077793 0.29657 -0.95184 0.011631
0.0008599 0.081277 0.99876 6.4998e-39 395.5 312 0 0 0 -0.025273 0.29424 -0.9554 0.012976
0.0037827 0.081895 0.99917 6.1771e-39 438 312 0 0 0 0.044453 0.29635 -0.95405 0.013354
0.0049477 0.081828 0.99836 6.4537e-39 439 312 0 0 0 0.070103 0.29461 -0.95304 0.013092
0.0067039 0.081294 0.99897 6.2923e-39 400.5 312 0 0 0 0.11638 0.28985 -0.94997 0.013582
0.0090394 0.081277 0.99876 6.4076e-39 402.5 312 0 0 0 0.17717 0.27943 -0.94368 0.013281
0.011192 0.081159 0.99971 6.4844e-39 391 312 0 0 0 0.23086 0.27075 -0.93456 0.013195
0.01314 0.081344 0.99958 6.8224e-39 406 312 0 0 0 0.27894 0.26547 -0.92289 0.013206
0.0149 0.080791 0.99998 5.8544e-39 367.5 312 0 0 0 0.33564 0.25553 -0.90667 0.012353
0.016655 0.080791 0.99998 5.7161e-39 369 312 0 0 0 0.37028 0.24803 -0.8952 0.011999
-0.0044037 0.083131 0.99998 5.6239e-39 163 313 0 0 0 -0.16278 0.2854 -0.94448 0.0088882
-0.0026488 0.083131 0.99998 5.3934e-39 164.5 313 0 0 0 -0.11911 0.29119 -0.94922 0.0092276
-0.00089394 0.083131 0.99998 5.7161e-39 166 313 0 0 0 -0.072796 0.29618 -0.95235 0.010288
0.00086094 0.083131 0.99998 5.5317e-39 167.5 313 0 0 0 -0.025546 0.29573 -0.95493 0.011314
0.0031972 0.08303 0.99876 6.1771e-39 169.5 313 0 0 0 0.024459 0.29756 -0.95439 0.012271
0.0049517 0.083064 0.99917 6.4537e-39 171 313 0 0 0 0.073745 0.29895 -0.95141 0.012475
0.0067081 0.083098 0.99958 6.2693e-39 172.5 313 0 0 0 0.11331 0.29606 -0.94842 0.012682
0.009047 0.083098 0.99958 5.7622e-39 174.5 313 0 0 0 0.16946 0.29222 -0.94122 0.01277
0.010805 0.083131 0.99998 5.7161e-39 176 313 0 0 0 0.21347 0.28994 -0.93293 0.01253
0.013145 0.083131 0.99998 6.0849e-39 178 313 0 0 0 0.28006 0.2851 -0.91667 0.012888
-0.0026488 0.084301 0.99998 7.6983e-39 251.5 313 0 0 0 -0.11558 0.28859 -0.95045 0.008452
-0.00089394 0.084886 0.99998 7.5601e-39 316 313 0 0 0 -0.069425 0.29479 -0.95304 0.0090997
0.00086094 0.084301 0.99998 7.053e-39 254.5 313 0 0 0 -0.027789 0.2972 -0.95441 0.010458
0.0031984 0.084818 0.99917 7.2143e-39 319.5 313 0 0 0 0.026162 0.29624 -0.95476 0.011078
0.0049537 0.084852 0.99958 6.8685e-39 321 313 0 0 0 0.072343 0.29803 -0.95181 0.011356
0.0067105 0.084886 0.99998 7.4218e-39 322.5 313 0 0 0 0.11153 0.2977 -0.94812 0.011908
0.0088532 0.084668 0.99971 7.0991e-39 303.33 313 0 0 0 0.16106 0.29837 -0.94076 0.01229
0.013145 0.084301 0.99998 6.6381e-39 265 313 0 0 0 0.27898 0.29335 -0.91439 0.012605
-0.00089394 0.087226 0.99998 7.1452e-39 333 313.5 0 0 0 -0.069912 0.30674 -0.94922 0.0080977
0.0031998 0.08719 0.99958 7.3757e-39 340.5 313.5 0 0 0 0.025142 0.31266 -0.94953 0.0096876
0.0049557 0.087226 0.99998 7.3296e-39 342 313.5 0 0 0 0.073057 0.31714 -0.94556 0.01069
0.0067105 0.086641 0.99998 8.1132e-39 477.5 313 0 0 0 0.11311 0.31169 -0.94343 0.011583
0.0084655 0.086641 0.99998 8.3898e-39 479 313 0 0 0 0.15256 0.31345 -0.93727 0.011887
0.0026158 0.08898 0.99998 7.6522e-39 284 314 0 0 0 0.012422 0.32567 -0.9454 0.0094618
0.0026158 0.09015 0.99998 6.0849e-39 411 314 0 0 0 0.016526 0.33468 -0.94219 0.0097497
-0.023141 0.036363 1.0008 7.3757e-39 207 300 0 0 0 -0.54512 -0.21193 -0.81113 0.053159
0.030719 0.036948 1.0008 5.9927e-39 359.5 300 0 0 0 0.66494 0.20748 -0.7175 0.04435
-0.024312 0.03929 1.0008 6.8224e-39 199.5 301 0 0 0 -0.55131 -0.14737 -0.82118 0.046541
0.029548 0.039876 1.0008 8.5742e-39 397 301 0 0 0 0.65162 0.18349 -0.73602 0.038864
0.030731 0.039306 1.0012 7.514e-39 305.5 301 0 0 0 0.68557 0.15066 -0.71224 0.043861
-0.024312 0.042803 1.0008 6.4537e-39 208.5 302 0 0 0 -0.54892 -0.057707 -0.83388 0.035703
-0.023141 0.042803 1.0008 6.4998e-39 209.5 302 0 0 0 -0.54436 -0.051509 -0.83727 0.033965
-0.02197 0.043388 1.0008 6.6381e-39 248 302 0 0 0 -0.53547 -0.035359 -0.84381 0.030214
0.028389 0.042821 1.0012 7.7905e-39 310 302 0 0 0 0.61973 0.19023 -0.76141 0.03071
-0.024332 0.045181 1.0016 6.4998e-39 318 302.5 0 0 0 -0.55293 -0.025786 -0.83283 0.0328
-0.02316 0.045181 1.0016 6.2232e-39 319 302.5 0 0 0 -0.54943 -0.028869 -0.83504 0.030779
-0.021394 0.045163 1.0012 6.3154e-39 320.75 302.5 0 0 0 -0.52552 -0.012483 -0.85069 0.02495
0.027206 0.045144 1.0008 7.1913e-39 223 303 0 0 0 0.60063 0.19425 -0.77557 0.026487
-0.024332 0.046939 1.0016 7.56e-39 391 303 0 0 0 -0.55428 -0.011402 -0.83225 0.029346
-0.02316 0.046939 1.0016 7.8366e-39 392 303 0 0 0 -0.54369 -0.0032653 -0.83928 0.026452
-0.021394 0.04692 1.0012 7.8366e-39 393.5 303 0 0 0 -0.52088 0.015804 -0.85348 0.019926
-0.019629 0.046901 1.0008 8.1132e-39 395 303 0 0 0 -0.50592 0.017439 -0.8624 0.01713
0.027228 0.046939 1.0016 6.9147e-39 441 303 0 0 0 0.59433 0.18508 -0.78264 0.024097
-0.02316 0.048697 1.0016 6.7302e-39 194.5 304 0 0 0 -0.5369 0.028472 -0.84316 0.020683
-0.021394 0.048677 1.0012 6.5689e-39 196 304 0 0 0 -0.51638 0.033298 -0.85571 0.016651
0.024865 0.048657 1.0008 6.1771e-39 293.5 304 0 0 0 0.54396 0.21615 -0.81079 0.017518
0.02683 0.048879 1.0013 6.8532e-39 326 304 0 0 0 0.57192 0.19333 -0.7972 0.019687
-0.021394 0.05102 1.0012 7.3757e-39 292 304.5 0 0 0 -0.52202 0.048188 -0.85157 0.015171
-0.019629 0.050414 1.0008 8.8508e-39 417 304 0 0 0 -0.4984 0.05432 -0.86524 0.012264
0.024865 0.050414 1.0008 7.0069e-39 496 304 0 0 0 0.54104 0.20583 -0.81542 0.015559
0.026632 0.05102 1.0012 6.9378e-39 363 304.5 0 0 0 0.55448 0.19105 -0.80997 0.015116
-0.021394 0.053362 1.0012 7.1913e-39 354 305 0 0 0 -0.5133 0.080023 -0.85447 0.011338
-0.019629 0.05334 1.0008 7.0991e-39 355.5 305 0 0 0 -0.49821 0.080557 -0.86331 0.0097576
0.026632 0.053362 1.0012 7.3526e-39 272.5 305.5 0 0 0 0.5481 0.17899 -0.81704 0.012554
-0.021394 0.055119 1.0012 5.6239e-39 174.5 306 0 0 0 -0.51015 0.093935 -0.85494 0.0096402
-0.019629 0.055097 1.0008 5.6239e-39 176 306 0 0 0 -0.50395 0.088602 -0.85918 0.0051331
0.024865 0.055097 1.0008 6.9147e-39 232 306 0 0 0 0.51456 0.18297 -0.83771 0.0082797
0.026035 0.055097 1.0008 6.8225e-39 233 306 0 0 0 0.52523 0.18097 -0.8315 0.0090766
-0.021394 0.056877 1.0012 7.6292e-39 384.5 306 0 0 0 -0.51395 0.10503 -0.85137 0.0050567
-0.019629 0.056853 1.0008 7.3757e-39 386 306 0 0 0 -0.50123 0.10396 -0.85905 0.0042751
0.020962 0.057049 1.0008 8.1132e-39 442 306 0 0 0 0.48316 0.17828 -0.85719 0.0048275
0.023694 0.056853 1.0008 7.6061e-39 432.5 306 0 0 0 0.49667 0.18182 -0.84868 0.0058155
0.024865 0.056853 1.0008 7.3757e-39 433.5 306 0 0 0 0.51139 0.17674 -0.84098 0.0069035
0.026057 0.0569 1.0016 7.3757e-39 434.5 306 0 0 0 0.52202 0.17411 -0.83498 0.0077161
-0.0208 0.059195 1.0008 6.9146e-39 206.5 307 0 0 0 -0.51046 0.11675 -0.85194 0.0043036
-0.019629 0.059195 1.0008 6.2693e-39 216 307 0 0 0 -0.50293 0.11723 -0.85634 0.0041978
0.020767 0.059195 1.0008 6.4076e-39 287 307 0 0 0 0.48183 0.17352 -0.85891 0.0044394
0.023113 0.059207 1.001 6.3384e-39 289 307 0 0 0 0.49567 0.17325 -0.85106 0.0049264
