# .PCD v.7 - Point Cloud Data file format
VERSION .7
FIELDS x y z rgb u v vx vy vz normal_x normal_y normal_z curvature
SIZE 4 4 4 4 4 4 4 4 4 4 4 4 4
TYPE F F F F F F F F F F F F F
COUNT 1 1 1 1 1 1 1 1 1 1 1 1 1
WIDTH 555
HEIGHT 1
VIEWPOINT 0 0 0 1 0 0 0
POINTS 555
DATA ascii
0.012395 0.088806 1.0024 7.9288e-39 419.67 314 0 0 0 0.25647 0.34794 -0.90175 0.0099634
0.014936 0.088611 1.0024 7.998e-39 410 314 0 0 0 0.31201 0.34579 -0.88492 0.0094989
0.017293 0.088665 1.003 7.7905e-39 412 314 0 0 0 0.35866 0.34312 -0.86812 0.0085783
0.019065 0.088719 1.0036 7.514e-39 413.5 314 0 0 0 0.3881 0.34042 -0.85644 0.008272
0.020247 0.088754 1.004 7.514e-39 414.5 314 0 0 0 0.40489 0.33734 -0.84986 0.0079324
-0.013226 0.091068 1.0036 7.3987e-39 186.5 315 0 0 0 -0.35379 0.36032 -0.86313 0.0090964
-0.010874 0.09103 1.0032 6.615e-39 188.5 315 0 0 0 -0.30677 0.3623 -0.88013 0.0093743
-0.0091092 0.090994 1.0028 5.9466e-39 190 315 0 0 0 -0.26606 0.36812 -0.8909 0.0099616
-0.0073464 0.090956 1.0024 5.9235e-39 191.5 315 0 0 0 -0.22745 0.36669 -0.90211 0.010385
-0.0048053 0.091152 1.0024 6.2693e-39 208.33 315 0 0 0 -0.1702 0.3713 -0.91278 0.011026
-0.0026553 0.091543 1.0024 6.8225e-39 239.5 315 0 0 0 -0.12102 0.37106 -0.92069 0.011084
0.0014494 0.090956 1.0024 5.9466e-39 200.5 315 0 0 0 -0.017985 0.36324 -0.93152 0.010223
0.0067269 0.091543 1.0024 6.0388e-39 247.5 315 0 0 0 0.12251 0.3681 -0.92168 0.010075
0.0096589 0.090956 1.0024 6.3615e-39 216.5 315 0 0 0 0.19485 0.36518 -0.91032 0.0099466
0.010832 0.090956 1.0024 6.2693e-39 217.5 315 0 0 0 0.22686 0.36985 -0.90097 0.010038
0.012596 0.090993 1.0028 5.9235e-39 219 315 0 0 0 0.26614 0.36979 -0.89018 0.010146
0.014949 0.09103 1.0032 5.9236e-39 221 315 0 0 0 0.31506 0.36934 -0.87426 0.0095885
0.01711 0.090884 1.0037 6.6074e-39 210.33 315 0 0 0 0.3497 0.36506 -0.86281 0.0088907
-0.010681 0.093207 1.0035 8.6664e-39 384.67 315 0 0 0 -0.29999 0.3898 -0.87067 0.010161
-0.0091129 0.093378 1.0032 8.3898e-39 397.5 315 0 0 0 -0.26599 0.39785 -0.87805 0.010743
-0.0073524 0.093378 1.0032 8.3898e-39 399 315 0 0 0 -0.23 0.3981 -0.88804 0.011329
-0.0050026 0.09334 1.0028 8.1362e-39 401 315 0 0 0 -0.18224 0.39648 -0.89977 0.011741
-0.0026553 0.093302 1.0024 7.9519e-39 403 315 0 0 0 -0.12352 0.39567 -0.91005 0.011753
0.00086303 0.093302 1.0024 8.6203e-39 406 315 0 0 0 -0.031251 0.39075 -0.91997 0.011357
0.0049678 0.093302 1.0024 7.8827e-39 409.5 315 0 0 0 0.080252 0.38947 -0.91753 0.010293
0.0067269 0.093302 1.0024 7.8136e-39 411 315 0 0 0 0.12688 0.38909 -0.91242 0.010174
0.0090764 0.09334 1.0028 7.6753e-39 413 315 0 0 0 0.19148 0.39307 -0.89935 0.010355
0.01084 0.093378 1.0032 7.6522e-39 414.5 315 0 0 0 0.23083 0.3966 -0.8885 0.010361
0.012405 0.093182 1.0032 7.9288e-39 404.33 315 0 0 0 0.25919 0.39587 -0.88097 0.010036
0.014954 0.092828 1.0036 7.1913e-39 383.5 315 0 0 0 0.31406 0.3885 -0.86628 0.0095734
0.016723 0.092866 1.004 6.3615e-39 385 315 0 0 0 0.34235 0.38873 -0.85539 0.0086601
-0.010295 0.095216 1.004 5.4395e-39 146 316 0 0 0 -0.29087 0.42154 -0.85889 0.010593
-0.0091203 0.095216 1.004 5.5317e-39 147 316 0 0 0 -0.26966 0.42148 -0.86582 0.01119
-0.0073556 0.095177 1.0036 5.67e-39 148.5 316 0 0 0 -0.23465 0.41828 -0.87748 0.011883
-0.0050026 0.095099 1.0028 6.4537e-39 150.5 316 0 0 0 -0.18065 0.41569 -0.89138 0.012633
-0.0026574 0.095138 1.0032 6.0849e-39 152.5 316 0 0 0 -0.12778 0.42086 -0.89808 0.012996
-0.00089612 0.095061 1.0024 5.7161e-39 154 316 0 0 0 -0.080176 0.41612 -0.90577 0.012469
0.00086363 0.095099 1.0028 5.5317e-39 156.5 316 0 0 0 -0.033357 0.41608 -0.90872 0.012564
0.0032086 0.095061 1.0024 5.5317e-39 158.5 316 0 0 0 0.026482 0.41057 -0.91145 0.011547
0.0049718 0.095138 1.0032 5.9005e-39 160 316 0 0 0 0.078358 0.41743 -0.90533 0.011313
0.0067324 0.095138 1.0032 6.2232e-39 161.5 316 0 0 0 0.12852 0.41551 -0.90046 0.011192
0.0090838 0.095177 1.0036 6.1771e-39 167.5 316 0 0 0 0.1888 0.41897 -0.88816 0.010832
0.010849 0.095216 1.004 5.7161e-39 169 316 0 0 0 0.23225 0.42038 -0.87712 0.010493
0.012807 0.094824 1.004 6.6381e-39 268 315.67 0 0 0 0.27507 0.41243 -0.86847 0.0099618
0.015156 0.094433 1.004 6.4537e-39 361.33 315.33 0 0 0 0.32103 0.40659 -0.85535 0.0088965
-0.0071626 0.096782 1.004 7.9288e-39 244 316 0 0 0 -0.22597 0.44849 -0.86475 0.012609
-0.0050067 0.096938 1.0036 8.2284e-39 256.5 316 0 0 0 -0.18109 0.44726 -0.87588 0.013455
-0.0026585 0.096938 1.0036 7.6522e-39 279.5 316 0 0 0 -0.12353 0.44352 -0.88771 0.013285
-0.00089648 0.09686 1.0028 7.4679e-39 281 316 0 0 0 -0.083804 0.44416 -0.89202 0.013481
0.00086434 0.096938 1.0036 7.4448e-39 282.5 316 0 0 0 -0.036015 0.44916 -0.89273 0.013694
0.0032107 0.096879 1.003 7.2835e-39 284.5 316 0 0 0 0.033609 0.44204 -0.89637 0.012555
0.0049758 0.09639 1.004 8.5742e-39 233 316 0 0 0 0.080821 0.44151 -0.89361 0.012253
0.0067351 0.096938 1.0036 6.6842e-39 287.5 316 0 0 0 0.1317 0.44317 -0.88671 0.011674
0.0084999 0.096978 1.004 6.3154e-39 292.5 316 0 0 0 0.1733 0.44349 -0.87936 0.011149
0.010849 0.09639 1.004 6.3615e-39 238 316 0 0 0 0.23557 0.43167 -0.87073 0.010547
-0.0055963 0.099327 1.004 6.4537e-39 424.5 316 0 0 0 -0.19675 0.48197 -0.85381 0.013162
-0.0026596 0.09874 1.004 6.2693e-39 398.5 316 0 0 0 -0.12348 0.47638 -0.87053 0.013776
-0.00089757 0.099327 1.004 5.9927e-39 428.5 316 0 0 0 -0.078764 0.47864 -0.87447 0.013916
0.00066867 0.099131 1.004 6.1156e-39 420.33 316 0 0 0 -0.047342 0.4824 -0.87467 0.014284
0.0032139 0.099327 1.004 6.8686e-39 432 316 0 0 0 0.027867 0.48263 -0.87538 0.013594
0.0073252 0.09874 1.004 8.8508e-39 407 316 0 0 0 0.14111 0.47083 -0.87087 0.011672
-0.024431 0.035364 1.0057 6.7303e-39 230 300 0 0 0 -0.56907 -0.48935 -0.66083 0.07925
-0.026784 0.037717 1.0057 6.4537e-39 481 300 0 0 0 -0.51534 -0.56298 -0.64613 0.11249
-0.025608 0.037717 1.0057 6.7303e-39 482 300 0 0 0 -0.54011 -0.5097 -0.66969 0.1033
-0.026762 0.038862 1.0049 5.9927e-39 200 301 0 0 0 -0.47202 -0.56801 -0.67421 0.12885
-0.029126 0.040642 1.0053 7.6522e-39 425.5 301 0 0 0 -0.57119 -0.49868 -0.65197 0.14152
-0.027961 0.040659 1.0057 7.3296e-39 426.5 301 0 0 0 -0.54157 -0.49422 -0.68004 0.13808
0.03202 0.040626 1.0049 7.1913e-39 300.5 301.5 0 0 0 0.78053 -0.021522 -0.62475 0.049009
-0.029137 0.043012 1.0057 5.7161e-39 212.5 302 0 0 0 -0.56282 -0.3931 -0.72712 0.15187
-0.02795 0.042994 1.0053 5.7622e-39 213.5 302 0 0 0 -0.54061 -0.37719 -0.75197 0.14337
0.029668 0.043565 1.0049 8.482e-39 393 302 0 0 0 0.728 0.040646 -0.68437 0.039762
0.030844 0.043565 1.0049 8.2976e-39 394 302 0 0 0 0.74555 0.016506 -0.66625 0.042686
0.032033 0.042994 1.0053 7.4218e-39 313 302 0 0 0 0.7727 -0.018567 -0.6345 0.047053
-0.029137 0.045365 1.0057 6.5459e-39 297 302.5 0 0 0 -0.59484 -0.25319 -0.76293 0.14642
-0.027938 0.045328 1.0049 6.8225e-39 306 302.5 0 0 0 -0.52801 -0.20256 -0.82473 0.13682
0.029668 0.045328 1.0049 5.5778e-39 206 303 0 0 0 0.71252 0.05659 -0.69937 0.035631
0.030844 0.045328 1.0049 5.8083e-39 207 303 0 0 0 0.71392 0.040449 -0.69906 0.036996
0.03202 0.045328 1.0049 6.1771e-39 208 303 0 0 0 0.74199 0.0083389 -0.67036 0.040127
-0.029137 0.04713 1.0057 8.3898e-39 270 303 0 0 0 -0.55258 -0.12982 -0.82329 0.13629
-0.027938 0.047092 1.0049 8.2054e-39 271 303 0 0 0 -0.52667 -0.12588 -0.8407 0.12837
0.03202 0.047092 1.0049 6.7303e-39 428 303 0 0 0 0.71717 0.024998 -0.69645 0.03496
-0.034992 0.049443 1.0049 6.6381e-39 196 304 0 0 0 -0.70827 -0.094498 -0.69959 0.14961
-0.029137 0.048895 1.0057 7.0991e-39 326.5 303.5 0 0 0 -0.56882 -0.071008 -0.81939 0.12487
-0.027938 0.048855 1.0049 6.6842e-39 341 303.5 0 0 0 -0.5259 -0.065438 -0.84803 0.1177
0.033222 0.048895 1.0057 6.4076e-39 273.5 304 0 0 0 0.72404 0.0072976 -0.68972 0.033806
0.034987 0.048895 1.0057 6.7764e-39 275 304 0 0 0 0.7318 -0.0031492 -0.68151 0.033845
0.036752 0.049483 1.0057 8.021e-39 368 304 0 0 0 0.73815 -0.020342 -0.67433 0.032381
-0.036167 0.051794 1.0049 6.6381e-39 484 304 0 0 0 -0.70208 0.0026977 -0.7121 0.14733
-0.03502 0.051248 1.0057 7.9288e-39 431.5 304 0 0 0 -0.72025 -0.03445 -0.69286 0.13922
-0.029137 0.051248 1.0057 6.9607e-39 261.5 304.5 0 0 0 -0.54814 0.002491 -0.83638 0.10991
-0.027938 0.051206 1.0049 6.6381e-39 262.5 304.5 0 0 0 -0.52357 0.0032869 -0.85197 0.10231
0.033209 0.051227 1.0053 7.0991e-39 319.5 304.5 0 0 0 0.70004 0.01832 -0.71386 0.02907
0.034987 0.051248 1.0057 7.3526e-39 321 304.5 0 0 0 0.71092 -0.0003876 -0.70327 0.029978
0.036752 0.051248 1.0057 7.3757e-39 322.5 304.5 0 0 0 0.72359 -0.011317 -0.69014 0.029354
-0.036167 0.05297 1.0049 6.7303e-39 206 305 0 0 0 -0.69782 0.061753 -0.7136 0.13439
-0.034992 0.05297 1.0049 6.5459e-39 207 305 0 0 0 -0.665 0.053968 -0.74489 0.13021
-0.029137 0.053013 1.0057 6.3615e-39 225 305 0 0 0 -0.50718 0.064406 -0.85943 0.096172
-0.027938 0.05297 1.0049 6.1771e-39 226 305 0 0 0 -0.49585 0.069553 -0.86562 0.088182
0.033195 0.05297 1.0049 9.2196e-39 378 305 0 0 0 0.68375 0.031272 -0.72905 0.025605
0.034987 0.053013 1.0057 8.9891e-39 379.5 305 0 0 0 0.69692 0.0049668 -0.71713 0.025749
0.036752 0.053013 1.0057 8.6664e-39 381 305 0 0 0 0.70628 -0.0083693 -0.70788 0.026122
-0.03502 0.054778 1.0057 7.0529e-39 440 305 0 0 0 -0.64481 0.12495 -0.75406 0.11723
-0.029126 0.054756 1.0053 6.592e-39 268.5 305.5 0 0 0 -0.52046 0.10925 -0.84687 0.084482
0.033195 0.054733 1.0049 6.9607e-39 326 305.5 0 0 0 0.65102 0.05007 -0.75741 0.018853
0.035183 0.054582 1.0057 6.9147e-39 372.33 305.33 0 0 0 0.67437 0.024468 -0.73799 0.020908
0.036752 0.054778 1.0057 6.4998e-39 329 305.5 0 0 0 0.68206 0.014569 -0.73116 0.02137
-0.03502 0.056543 1.0057 6.2693e-39 206 306 0 0 0 -0.627 0.16928 -0.7604 0.10828
-0.030314 0.057131 1.0057 7.3757e-39 300 306 0 0 0 -0.53239 0.16785 -0.82969 0.082237
-0.029114 0.057085 1.0049 7.1913e-39 301 306 0 0 0 -0.49644 0.16691 -0.85187 0.074126
0.030844 0.057673 1.0049 7.9288e-39 444 306 0 0 0 0.60704 0.073939 -0.79122 0.013811
0.032803 0.057281 1.0049 8.0825e-39 421.67 306 0 0 0 0.62734 0.059921 -0.77644 0.014929
-0.030314 0.058896 1.0057 6.2693e-39 463 306 0 0 0 -0.52807 0.20596 -0.82384 0.069617
0.030844 0.058848 1.0049 6.4537e-39 174 307 0 0 0 0.59516 0.089884 -0.79856 0.01154
0.032621 0.058872 1.0053 6.2693e-39 175.5 307 0 0 0 0.61441 0.072291 -0.78567 0.01315
-0.030314 0.060073 1.0057 6.4537e-39 195 307 0 0 0 -0.53342 0.19961 -0.82196 0.06086
0.030844 0.060612 1.0049 8.5742e-39 346.5 307 0 0 0 0.58308 0.10189 -0.806 0.010707
0.032621 0.060637 1.0053 8.5972e-39 348 307 0 0 0 0.59955 0.092172 -0.79501 0.011418
-0.029114 0.062963 1.0049 7.7444e-39 316.5 307.5 0 0 0 -0.51235 0.22048 -0.82999 0.041036
0.029668 0.063551 1.0049 6.0849e-39 255 308 0 0 0 0.56162 0.13093 -0.81697 0.0086926
0.030856 0.062989 1.0053 5.8544e-39 206 308 0 0 0 0.5768 0.12317 -0.80755 0.010003
0.032634 0.063014 1.0057 5.9697e-39 207.5 308 0 0 0 0.58698 0.11765 -0.80101 0.010473
-0.029137 0.065367 1.0057 8.2054e-39 401.5 308 0 0 0 -0.52927 0.22684 -0.81757 0.033039
-0.027938 0.065314 1.0049 8.6664e-39 402.5 308 0 0 0 -0.52219 0.21727 -0.82469 0.031243
0.029668 0.065314 1.0049 6.131e-39 279 308.5 0 0 0 0.55257 0.14922 -0.82 0.0079228
0.030869 0.065367 1.0057 6.2232e-39 280 308.5 0 0 0 0.565 0.14426 -0.81238 0.0090788
-0.027961 0.067132 1.0057 6.6381e-39 177 309 0 0 0 -0.54595 0.18708 -0.81666 0.015085
0.029668 0.067078 1.0049 7.0991e-39 230 309 0 0 0 0.5496 0.16127 -0.81972 0.0077362
0.030869 0.067132 1.0057 6.9147e-39 231 309 0 0 0 0.55798 0.15984 -0.81431 0.0082643
-0.027362 0.068869 1.0053 8.2054e-39 351 309 0 0 0 -0.54724 0.18599 -0.81605 0.010886
-0.025587 0.068841 1.0049 8.1132e-39 352.5 309 0 0 0 -0.53779 0.18226 -0.82314 0.010273
0.029292 0.069075 1.0054 6.2693e-39 459 309 0 0 0 0.54563 0.16873 -0.82086 0.0072213
0.030869 0.068309 1.0057 6.4537e-39 401 309 0 0 0 0.5587 0.16549 -0.81269 0.0079384
-0.026784 0.07125 1.0057 6.2693e-39 209.5 310 0 0 0 -0.55162 0.18812 -0.81261 0.0095747
-0.024999 0.071193 1.0049 6.0849e-39 211 310 0 0 0 -0.5345 0.18824 -0.82394 0.0087672
0.0289 0.071035 1.0054 7.1913e-39 266 310 0 0 0 0.54234 0.17754 -0.82118 0.0070271
-0.02502 0.073015 1.0057 7.0069e-39 406.5 310 0 0 0 -0.53392 0.1993 -0.82171 0.0082139
-0.022648 0.072956 1.0049 6.9147e-39 408.5 310 0 0 0 -0.50798 0.2031 -0.83708 0.0071989
0.028516 0.073015 1.0057 7.0069e-39 452 310 0 0 0 0.53982 0.19173 -0.81965 0.0068421
-0.024431 0.074781 1.0057 7.2374e-39 360 310.5 0 0 0 -0.52696 0.21233 -0.82294 0.0071283
-0.022657 0.07475 1.0053 6.2693e-39 361.5 310.5 0 0 0 -0.50994 0.21179 -0.83373 0.0073977
-0.020884 0.07472 1.0049 4.9785e-39 364.5 310.5 0 0 0 -0.49384 0.21439 -0.84271 0.0070674
0.028516 0.074781 1.0057 7.099e-39 230 311 0 0 0 0.53675 0.2093 -0.81737 0.0066724
-0.024431 0.076545 1.0057 9.2196e-39 378 311 0 0 0 -0.53056 0.2216 -0.81817 0.0072147
-0.022666 0.077133 1.0057 7.9058e-39 418 311 0 0 0 -0.50841 0.22688 -0.83069 0.00719
-0.020893 0.077102 1.0053 7.7444e-39 419.5 311 0 0 0 -0.49029 0.23195 -0.84013 0.0067301
0.027317 0.077658 1.0049 5.8083e-39 142 312 0 0 0 0.51115 0.22829 -0.82862 0.0057587
-0.022078 0.078898 1.0057 7.0991e-39 191 312 0 0 0 -0.5035 0.24208 -0.82939 0.0066407
-0.020901 0.078898 1.0057 6.8225e-39 192 312 0 0 0 -0.4882 0.24483 -0.83769 0.0064686
0.026729 0.078834 1.0049 6.6842e-39 234.5 312 0 0 0 0.5042 0.23775 -0.83021 0.0058299
-0.022078 0.080075 1.0057 6.2693e-39 340 312 0 0 0 -0.50105 0.24846 -0.82898 0.0064965
-0.020901 0.080664 1.0057 7.3296e-39 383.5 312 0 0 0 -0.48274 0.25571 -0.8376 0.006414
0.02674 0.08063 1.0053 6.7073e-39 428.5 312 0 0 0 0.50229 0.2505 -0.82762 0.0056631
-0.020901 0.082428 1.0057 5.9927e-39 143 313 0 0 0 -0.48545 0.26684 -0.83255 0.0064895
0.024966 0.083537 1.0049 6.0849e-39 352 313 0 0 0 0.47055 0.27645 -0.83795 0.0061144
0.026163 0.083016 1.0057 6.1771e-39 276.5 313 0 0 0 0.49167 0.27038 -0.82774 0.0057966
-0.018925 0.085496 1.0049 6.8225e-39 436.33 313 0 0 0 -0.45471 0.29221 -0.84134 0.006845
0.02379 0.085888 1.0049 5.4395e-39 146 314 0 0 0 0.45534 0.29858 -0.83876 0.0063726
0.024976 0.085335 1.0053 7.1913e-39 286 313.5 0 0 0 0.47204 0.29168 -0.83193 0.0061467
-0.019136 0.087134 1.0057 6.5459e-39 203.5 314 0 0 0 -0.45751 0.30681 -0.8346 0.0070432
0.023212 0.087099 1.0053 6.9147e-39 240.5 314 0 0 0 0.44804 0.31435 -0.83693 0.0066103
-0.019136 0.088311 1.0057 8.0671e-39 285.5 314 0 0 0 -0.45364 0.32047 -0.83157 0.007434
-0.016574 0.089023 1.0049 7.4371e-39 392 314 0 0 0 -0.41935 0.3315 -0.84513 0.0078488
-0.015006 0.089415 1.0049 7.9288e-39 420 314 0 0 0 -0.39733 0.34181 -0.85164 0.0080071
0.021447 0.088863 1.0053 7.4679e-39 415.5 314 0 0 0 0.42304 0.33765 -0.84085 0.0070932
0.022614 0.088239 1.0049 8.482e-39 381 314 0 0 0 0.43605 0.3263 -0.83869 0.0070047
-0.016783 0.090664 1.0057 6.8686e-39 139.5 315 0 0 0 -0.41835 0.35258 -0.83706 0.0083459
-0.015012 0.091216 1.0053 7.7905e-39 185 315 0 0 0 -0.39497 0.36502 -0.84307 0.0083825
0.017912 0.091766 1.0049 6.2693e-39 261 315 0 0 0 0.36782 0.37565 -0.85064 0.00796
0.019088 0.091178 1.0049 6.1771e-39 224.5 315 0 0 0 0.38344 0.36951 -0.84643 0.0075977
0.020271 0.091216 1.0053 6.2232e-39 225.5 315 0 0 0 0.40274 0.36326 -0.84015 0.0073623
-0.013242 0.092942 1.0049 8.8969e-39 359.5 315 0 0 0 -0.36219 0.39256 -0.84541 0.0095611
0.017912 0.092942 1.0049 6.5459e-39 386 315 0 0 0 0.36572 0.3879 -0.84604 0.0078159
0.019103 0.093017 1.0057 6.8225e-39 387 315 0 0 0 0.38024 0.38895 -0.83913 0.0072168
-0.013054 0.094561 1.0054 6.9761e-39 333.67 315.33 0 0 0 -0.3588 0.41373 -0.83671 0.0098448
-0.011479 0.094705 1.0049 6.6381e-39 287.5 315.5 0 0 0 -0.32291 0.41601 -0.8501 0.010246
0.014385 0.095293 1.0049 6.5459e-39 178 316 0 0 0 0.3088 0.41961 -0.85356 0.0089704
0.017133 0.094535 1.0052 6.4844e-39 363 315.33 0 0 0 0.35333 0.40611 -0.84275 0.0078398
-0.010698 0.096887 1.0052 8.0517e-39 241 316 0 0 0 -0.3069 0.45191 -0.83761 0.010533
-0.0091278 0.097057 1.0049 8.2054e-39 253 316 0 0 0 -0.27108 0.45368 -0.84894 0.011366
-0.0079521 0.097644 1.0049 8.021e-39 286 316 0 0 0 -0.24681 0.46073 -0.85253 0.012218
0.0049799 0.097644 1.0049 5.8083e-39 339 316 0 0 0 0.083135 0.46427 -0.88178 0.012798
0.0096863 0.097097 1.0053 6.1771e-39 293.5 316 0 0 0 0.20967 0.44818 -0.86901 0.011236
0.010858 0.097644 1.0049 5.9005e-39 351 316 0 0 0 0.23139 0.44924 -0.86293 0.01046
0.012627 0.097096 1.0053 6.6612e-39 296 316 0 0 0 0.27376 0.44256 -0.85393 0.0094472
0.014979 0.096508 1.0053 6.6842e-39 241.5 316 0 0 0 0.3196 0.43183 -0.84343 0.0083844
0.01675 0.096547 1.0057 6.5459e-39 243 316 0 0 0 0.34236 0.42897 -0.83592 0.0073627
-0.0091352 0.0989 1.0057 6.3615e-39 393 316 0 0 0 -0.27783 0.4833 -0.8302 0.01094
-0.0073643 0.09882 1.0049 6.131e-39 394.5 316 0 0 0 -0.23592 0.48001 -0.84494 0.012289
-0.0044252 0.099408 1.0049 6.4998e-39 425.5 316 0 0 0 -0.17408 0.48999 -0.85417 0.013428
-0.0026618 0.099996 1.0049 6.2232e-39 455.5 316 0 0 0 -0.1289 0.4972 -0.85801 0.013791
0.001453 0.099996 1.0049 6.4537e-39 459 316 0 0 0 -0.02247 0.49883 -0.86641 0.014319
0.0049799 0.099408 1.0049 7.4679e-39 433.5 316 0 0 0 0.080425 0.48807 -0.86909 0.012261
0.0067434 0.099408 1.0049 7.6983e-39 435 316 0 0 0 0.13427 0.48409 -0.86466 0.01174
0.0090986 0.09886 1.0053 8.3898e-39 408.5 316 0 0 0 0.18468 0.4719 -0.86209 0.010933
0.010867 0.0989 1.0057 8.3898e-39 410 316 0 0 0 0.2312 0.46841 -0.85272 0.010114
-0.0073703 0.10008 1.0057 6.3615e-39 451.5 316 0 0 0 -0.23623 0.50273 -0.83154 0.011984
-0.0050148 0.10121 1.0053 5.4395e-39 158.5 317 0 0 0 -0.1869 0.51783 -0.83482 0.012667
-0.0026639 0.10125 1.0057 6.0849e-39 160.5 317 0 0 0 -0.13056 0.52365 -0.84187 0.013385
-0.0008983 0.10117 1.0049 6.0849e-39 162 317 0 0 0 -0.087563 0.51622 -0.85197 0.01362
0.00086517 0.10117 1.0049 5.9466e-39 163.5 317 0 0 0 -0.037678 0.51457 -0.85662 0.01434
0.0032164 0.10117 1.0049 6.4076e-39 165.5 317 0 0 0 0.033638 0.5142 -0.85701 0.013406
0.0049839 0.10125 1.0057 6.4537e-39 167 317 0 0 0 0.070677 0.51631 -0.85348 0.012115
0.0067488 0.10067 1.0057 6.2232e-39 316 316.5 0 0 0 0.12565 0.50695 -0.85277 0.012313
0.0085137 0.10008 1.0057 7.0069e-39 466 316 0 0 0 0.16745 0.49207 -0.8543 0.011456
-0.00089904 0.10243 1.0057 8.8508e-39 225 317 0 0 0 -0.086835 0.53704 -0.83907 0.013711
0.00086588 0.10243 1.0057 9.2196e-39 226.5 317 0 0 0 -0.04252 0.53761 -0.84212 0.014024
0.003219 0.10243 1.0057 8.943e-39 228.5 317 0 0 0 0.029674 0.53534 -0.84412 0.01368
-0.025649 0.036601 1.0073 8.5742e-39 378 300 0 0 0 -0.5828 -0.54246 -0.60504 0.081246
-0.028584 0.038942 1.0069 6.4076e-39 198.5 301 0 0 0 -0.55763 -0.59741 -0.57633 0.11626
-0.03272 0.04485 1.0073 6.2693e-39 409 302 0 0 0 -0.74681 -0.34879 -0.56624 0.14753
-0.030748 0.04523 1.007 6.6074e-39 334 302.33 0 0 0 -0.67203 -0.28716 -0.68258 0.15485
0.033276 0.04485 1.0073 6.9147e-39 166 303 0 0 0 0.78525 -0.065005 -0.61576 0.045223
-0.03272 0.046618 1.0073 7.8827e-39 223 303 0 0 0 -0.73727 -0.21793 -0.63948 0.15024
-0.031132 0.046789 1.0068 7.8059e-39 239 303 0 0 0 -0.68066 -0.19375 -0.70651 0.14863
0.033262 0.046599 1.0069 6.4998e-39 340.5 303 0 0 0 0.7655 -0.033288 -0.64257 0.042665
0.034829 0.046789 1.0068 6.8532e-39 371.33 303 0 0 0 0.76713 -0.048416 -0.63966 0.040711
0.036812 0.047207 1.0073 7.7444e-39 432 303 0 0 0 0.78769 -0.086648 -0.60994 0.037376
-0.03272 0.048975 1.0073 7.8827e-39 323.5 303.5 0 0 0 -0.7246 -0.1204 -0.67858 0.14425
-0.030934 0.048945 1.0067 7.3987e-39 325 303.5 0 0 0 -0.62666 -0.081211 -0.77505 0.13406
0.036782 0.048346 1.0065 6.9147e-39 185 304 0 0 0 0.7661 -0.055169 -0.64035 0.036073
-0.030946 0.051321 1.0071 7.6753e-39 347.5 304.25 0 0 0 -0.64235 -0.013764 -0.76629 0.12198
-0.03094 0.053078 1.0069 6.4076e-39 217 305 0 0 0 -0.63431 0.037959 -0.77215 0.11086
-0.03094 0.054845 1.0069 7.2374e-39 355.25 305.25 0 0 0 -0.58588 0.10927 -0.803 0.099612
0.034427 0.055412 1.0065 6.5459e-39 193 306 0 0 0 0.67054 0.024905 -0.74145 0.019797
-0.035077 0.057814 1.0073 8.482e-39 386 306 0 0 0 -0.66483 0.19553 -0.72095 0.099888
-0.032707 0.057201 1.0069 7.4679e-39 298 306 0 0 0 -0.60395 0.17401 -0.77779 0.092586
-0.031516 0.057178 1.0065 7.514e-39 299 306 0 0 0 -0.55525 0.18148 -0.81164 0.08656
0.035016 0.057178 1.0065 8.2054e-39 411.5 306 0 0 0 0.6571 0.033401 -0.75307 0.017496
0.036782 0.057178 1.0065 8.7125e-39 413 306 0 0 0 0.67025 0.030818 -0.74149 0.018222
-0.032694 0.058944 1.0065 6.4537e-39 461 306 0 0 0 -0.56466 0.20928 -0.79835 0.075904
-0.031516 0.058944 1.0065 6.4537e-39 462 306 0 0 0 -0.55037 0.20668 -0.80894 0.073273
0.035044 0.058992 1.0073 6.131e-39 177.5 307 0 0 0 0.6519 0.048514 -0.75675 0.016027
0.036782 0.058944 1.0065 6.2693e-39 179 307 0 0 0 0.65661 0.046433 -0.7528 0.015999
-0.03272 0.060171 1.0073 6.4537e-39 193 307 0 0 0 -0.58512 0.22029 -0.78045 0.071228
-0.031132 0.060923 1.0068 7.8981e-39 312.33 307 0 0 0 -0.54567 0.21483 -0.81 0.056189
0.035044 0.06076 1.0073 8.3898e-39 350 307 0 0 0 0.63156 0.076765 -0.77152 0.013218
0.036812 0.06076 1.0073 8.3437e-39 351.5 307 0 0 0 0.6489 0.072473 -0.75742 0.014506
-0.030339 0.063065 1.0065 7.3757e-39 315.5 307.5 0 0 0 -0.54241 0.22428 -0.80962 0.0431
0.034455 0.062528 1.0073 5.9927e-39 160 308 0 0 0 0.61248 0.10447 -0.78355 0.011459
0.036812 0.062528 1.0073 6.3615e-39 162 308 0 0 0 0.63799 0.10095 -0.7634 0.013079
-0.030363 0.064885 1.0073 6.8225e-39 362 308 0 0 0 -0.55613 0.22478 -0.80012 0.03511
0.03266 0.064832 1.0065 6.6381e-39 415.5 308 0 0 0 0.5868 0.13249 -0.79882 0.010305
-0.030363 0.066063 1.0073 8.1132e-39 439 308 0 0 0 -0.57221 0.20637 -0.79372 0.02442
-0.029161 0.067187 1.0065 6.5459e-39 176 309 0 0 0 -0.55395 0.20066 -0.808 0.016014
0.032674 0.066626 1.0069 6.3845e-39 190 309 0 0 0 0.58375 0.14996 -0.79797 0.0099925
-0.029185 0.06842 1.0073 8.2976e-39 272 309 0 0 0 -0.57009 0.19096 -0.79908 0.010927
-0.027984 0.069542 1.0065 8.2054e-39 428 309 0 0 0 -0.5574 0.18949 -0.80833 0.010451
0.030894 0.069542 1.0065 6.3615e-39 490 309 0 0 0 0.56462 0.1726 -0.8071 0.0080161
0.032687 0.06842 1.0073 6.4076e-39 402.5 309 0 0 0 0.5814 0.1636 -0.797 0.0089427
-0.027984 0.071309 1.0065 6.2693e-39 208.5 310 0 0 0 -0.56518 0.19364 -0.80192 0.0096348
0.029717 0.071897 1.0065 8.8508e-39 376 310 0 0 0 0.55653 0.1821 -0.81063 0.007285
0.030907 0.071338 1.0069 7.9288e-39 295 310 0 0 0 0.56869 0.17867 -0.80291 0.0078691
-0.028006 0.073134 1.0073 6.0849e-39 404 310 0 0 0 -0.57188 0.20361 -0.79467 0.0090998
-0.026806 0.073075 1.0065 6.4537e-39 405 310 0 0 0 -0.55829 0.19912 -0.80539 0.0090806
0.029717 0.073075 1.0065 6.7303e-39 453 310 0 0 0 0.5538 0.19244 -0.81011 0.0072626
0.030919 0.073134 1.0073 6.8225e-39 454 310 0 0 0 0.56868 0.19498 -0.79912 0.0072855
-0.026828 0.074313 1.0073 8.943e-39 497 310 0 0 0 -0.56259 0.20863 -0.79998 0.0089216
-0.025628 0.074841 1.0065 7.6522e-39 359 310.5 0 0 0 -0.54166 0.21436 -0.81281 0.0076436
0.029717 0.074841 1.0065 7.4679e-39 231 311 0 0 0 0.55316 0.20933 -0.80635 0.0069402
0.030919 0.074902 1.0073 7.7444e-39 232 311 0 0 0 0.5691 0.20628 -0.79598 0.0070098
-0.025243 0.077414 1.0068 7.5601e-39 428.67 311 0 0 0 -0.53823 0.22984 -0.81085 0.007257
0.02894 0.077021 1.0068 7.5293e-39 330 311.33 0 0 0 0.54355 0.2247 -0.80874 0.0065361
-0.024451 0.078963 1.0065 7.3757e-39 189 312 0 0 0 -0.52902 0.23881 -0.81431 0.0065775
-0.023273 0.078963 1.0065 7.1913e-39 190 312 0 0 0 -0.51697 0.24172 -0.82116 0.0070374
0.028562 0.079027 1.0073 6.5459e-39 236 312 0 0 0 0.54024 0.24036 -0.80645 0.0062186
-0.025055 0.080779 1.0071 8.3898e-39 350.5 312 0 0 0 -0.53574 0.25034 -0.80642 0.0065662
-0.022881 0.080925 1.0065 8.8508e-39 376.33 312 0 0 0 -0.51126 0.25426 -0.82095 0.0067826
0.028562 0.080795 1.0073 6.592e-39 430 312 0 0 0 0.53856 0.24787 -0.8053 0.0060776
-0.024451 0.083084 1.0065 6.7764e-39 186 313 0 0 0 -0.52642 0.2677 -0.80698 0.0058309
-0.022689 0.083101 1.0067 6.4767e-39 187.5 313 0 0 0 -0.50719 0.27162 -0.81791 0.0062584
-0.020918 0.083673 1.0065 6.5459e-39 235 313 0 0 0 -0.48548 0.2803 -0.82809 0.0062569
0.027373 0.083118 1.0069 6.6381e-39 277.5 313 0 0 0 0.51474 0.2684 -0.81425 0.0060786
-0.024471 0.08492 1.0073 8.021e-39 383 313 0 0 0 -0.52452 0.27808 -0.8047 0.0060086
-0.022694 0.084885 1.0069 7.56e-39 384.5 313 0 0 0 -0.50363 0.28424 -0.81582 0.0062083
-0.020918 0.08485 1.0065 7.1913e-39 386 313 0 0 0 -0.48357 0.28893 -0.82625 0.0065385
0.026784 0.084885 1.0069 8.2515e-39 426.5 313 0 0 0 0.50447 0.28482 -0.8151 0.006205
-0.022114 0.086098 1.0073 6.8225e-39 458 313 0 0 0 -0.50049 0.29454 -0.8141 0.0063899
-0.020927 0.086653 1.0069 6.9608e-39 330.5 313.5 0 0 0 -0.4824 0.30424 -0.82142 0.0069276
0.025006 0.087206 1.0065 6.4537e-39 242 314 0 0 0 0.47373 0.30803 -0.82504 0.0062735
0.026205 0.086098 1.0073 5.7161e-39 148 314 0 0 0 0.49089 0.29745 -0.81887 0.0057922
-0.019152 0.089561 1.0065 8.943e-39 416.5 314 0 0 0 -0.45162 0.3324 -0.82798 0.0080049
0.023443 0.089193 1.0068 7.0991e-39 429 314 0 0 0 0.44838 0.33417 -0.82903 0.0065648
-0.01916 0.090775 1.0069 7.5601e-39 321.5 314.5 0 0 0 -0.44537 0.34247 -0.82726 0.0085589
-0.016797 0.091916 1.0065 8.9891e-39 227.5 315 0 0 0 -0.41595 0.37056 -0.83046 0.0088643
0.021483 0.091365 1.0069 6.5459e-39 226.5 315 0 0 0 0.42048 0.36592 -0.83024 0.0068009
0.02267 0.090812 1.0073 6.6381e-39 190 315 0 0 0 0.43711 0.35627 -0.82584 0.0065407
-0.01681 0.093169 1.0073 8.482e-39 356.5 315 0 0 0 -0.40896 0.38348 -0.82806 0.009814
-0.01503 0.093093 1.0065 8.482e-39 358 315 0 0 0 -0.39264 0.3906 -0.83263 0.0090891
0.020296 0.093093 1.0065 6.5459e-39 388 315 0 0 0 0.39838 0.38699 -0.83159 0.0069066
-0.015043 0.094348 1.0073 7.7444e-39 427 315 0 0 0 -0.38873 0.40822 -0.82598 0.0096474
-0.013853 0.095448 1.0065 5.9005e-39 143 316 0 0 0 -0.36723 0.428 -0.82581 0.0094657
0.017941 0.095448 1.0065 5.9927e-39 181 316 0 0 0 0.3629 0.41674 -0.83345 0.0066755
0.019127 0.094898 1.0069 6.1771e-39 319 315.5 0 0 0 0.37728 0.41101 -0.8299 0.0065272
0.020296 0.094271 1.0065 6.1771e-39 457 315 0 0 0 0.39277 0.39831 -0.8289 0.0066681
-0.013075 0.097071 1.007 7.6829e-39 239 316 0 0 0 -0.35149 0.45897 -0.81597 0.0098881
-0.011498 0.097803 1.0065 7.8366e-39 283 316 0 0 0 -0.32335 0.46927 -0.82172 0.0098248
0.014997 0.097803 1.0065 8.3437e-39 354.5 316 0 0 0 0.31882 0.44338 -0.83772 0.0078281
0.01736 0.097254 1.0069 7.6522e-39 300 316 0 0 0 0.35249 0.43666 -0.8277 0.0063186
-0.010914 0.099022 1.0069 6.2693e-39 391.5 316 0 0 0 -0.3154 0.49301 -0.81084 0.0096956
0.012648 0.099022 1.0069 8.2976e-39 411.5 316 0 0 0 0.27738 0.46623 -0.84005 0.0088172
0.01501 0.099062 1.0073 7.9749e-39 413.5 316 0 0 0 0.3181 0.45698 -0.83065 0.0073643
-0.010329 0.10024 1.0073 6.4537e-39 449 316 0 0 0 -0.30232 0.51288 -0.80346 0.0092344
-0.0091463 0.10079 1.0069 6.0388e-39 302.5 316.5 0 0 0 -0.27907 0.5193 -0.80774 0.0099891
-0.0073763 0.10134 1.0065 5.4395e-39 156.5 317 0 0 0 -0.24337 0.52665 -0.8145 0.011219
0.0061656 0.10134 1.0065 5.8083e-39 168 317 0 0 0 0.11823 0.51785 -0.84726 0.012071
0.0091095 0.10075 1.0065 6.9608e-39 321.5 316.5 0 0 0 0.18239 0.50279 -0.84495 0.011109
0.010876 0.10016 1.0065 7.1913e-39 468 316 0 0 0 0.22889 0.48655 -0.84314 0.010091
0.012063 0.10024 1.0073 7.0069e-39 469 316 0 0 0 0.25801 0.4857 -0.83518 0.0090439
-0.0067931 0.1026 1.0073 8.021e-39 220 317 0 0 0 -0.23146 0.54671 -0.80469 0.011103
-0.0050212 0.10251 1.0065 7.9288e-39 221.5 317 0 0 0 -0.19235 0.54192 -0.81812 0.012195
-0.0026661 0.10251 1.0065 7.9288e-39 223.5 317 0 0 0 -0.12973 0.54283 -0.82976 0.01276
-0.0009005 0.10378 1.0073 7.8366e-39 282 317 0 0 0 -0.089135 0.56165 -0.82256 0.013239
0.00086655 0.10369 1.0065 8.0671e-39 283.5 317 0 0 0 -0.04584 0.55914 -0.8278 0.013719
0.0032216 0.10369 1.0065 8.2515e-39 285.5 317 0 0 0 0.022476 0.55345 -0.83258 0.013267
0.0049921 0.1026 1.0073 8.6664e-39 230 317 0 0 0 0.075878 0.54436 -0.83541 0.012489
0.0069543 0.10296 1.007 8.3898e-39 250.67 317 0 0 0 0.13067 0.53342 -0.8357 0.011726
0.0038136 0.10495 1.0073 6.7303e-39 388 317 0 0 0 0.043985 0.56619 -0.8231 0.012021
-0.02863 0.037826 1.0085 6.4537e-39 479.5 300 0 0 0 -0.63295 -0.54741 -0.54746 0.087932
-0.026872 0.03666 1.009 8.6664e-39 377 300 0 0 0 -0.63937 -0.52457 -0.56217 0.069525
-0.030438 0.041416 1.0098 6.5459e-39 477 301 0 0 0 -0.7122 -0.44579 -0.54226 0.10564
0.033358 0.041416 1.0098 5.7161e-39 162 302 0 0 0 0.82876 -0.18349 -0.52866 0.043296
-0.032801 0.043779 1.0098 5.9005e-39 245 302 0 0 0 -0.79779 -0.36794 -0.47766 0.12189
-0.030806 0.043349 1.009 5.962e-39 223.67 302 0 0 0 -0.73081 -0.40092 -0.55242 0.12619
0.033304 0.043118 1.0081 7.3296e-39 314 302 0 0 0 0.80179 -0.096256 -0.58981 0.04803
0.035116 0.043761 1.0094 7.1913e-39 397.5 302 0 0 0 0.81853 -0.15968 -0.55183 0.043348
-0.033982 0.04496 1.0098 6.1771e-39 408 302 0 0 0 -0.84029 -0.33203 -0.42856 0.12395
0.035087 0.044905 1.0085 6.6381e-39 167.5 303 0 0 0 0.80069 -0.10575 -0.58968 0.043455
-0.033927 0.046656 1.0081 7.7905e-39 222 303 0 0 0 -0.80706 -0.23968 -0.53964 0.14451
0.035663 0.046066 1.0081 5.9005e-39 254 303 0 0 0 0.78879 -0.10324 -0.60592 0.039886
0.036872 0.046104 1.009 5.7161e-39 255 303 0 0 0 0.8125 -0.12781 -0.56878 0.037253
-0.033941 0.049035 1.0085 7.7905e-39 322.5 303.5 0 0 0 -0.81154 -0.13349 -0.56884 0.14232
0.038037 0.049035 1.0085 7.9288e-39 277.5 304 0 0 0 0.79025 -0.098785 -0.60477 0.034585
-0.033149 0.051191 1.0084 8.1747e-39 415.33 304 0 0 0 -0.75319 -0.038513 -0.65668 0.13238
0.038021 0.051374 1.0081 7.6061e-39 323.5 304.5 0 0 0 0.75299 -0.044169 -0.65654 0.027453
-0.03357 0.052807 1.0093 6.4537e-39 301 304.67 0 0 0 -0.79295 0.0023146 -0.60928 0.12206
0.038021 0.053143 1.0081 8.2976e-39 382 305 0 0 0 0.73697 -0.037456 -0.67489 0.025578
-0.036286 0.054323 1.0081 8.021e-39 392 305 0 0 0 -0.81101 0.056957 -0.58225 0.12433
-0.033364 0.054957 1.009 6.9838e-39 441.5 305 0 0 0 -0.7308 0.059443 -0.68 0.10882
0.038021 0.054913 1.0081 6.2693e-39 330 305.5 0 0 0 0.71992 -0.016681 -0.69386 0.024481
-0.033954 0.057318 1.009 7.6061e-39 297 306 0 0 0 -0.69783 0.16149 -0.69782 0.097168
0.038053 0.057318 1.009 8.8508e-39 414 306 0 0 0 0.71442 0.003441 -0.69971 0.021378
-0.035135 0.059089 1.009 7.0069e-39 459 306 0 0 0 -0.71185 0.17794 -0.67941 0.083321
-0.033982 0.059137 1.0098 6.4537e-39 460 306 0 0 0 -0.68417 0.17297 -0.70852 0.07693
0.038053 0.059089 1.009 6.3615e-39 180 307 0 0 0 0.70146 0.031712 -0.712 0.018929
-0.032747 0.061399 1.0081 8.5742e-39 370 307 0 0 0 -0.60006 0.22276 -0.76831 0.06139
0.038053 0.06086 1.009 8.3437e-39 352.5 307 0 0 0 0.68095 0.064472 -0.72948 0.017166
-0.032774 0.06322 1.009 6.9147e-39 313.5 307.5 0 0 0 -0.61731 0.22247 -0.75461 0.04548
-0.031568 0.063168 1.0081 7.0991e-39 314.5 307.5 0 0 0 -0.58078 0.2229 -0.78295 0.045218
0.03527 0.063365 1.0081 6.3308e-39 226.67 308 0 0 0 0.62887 0.10541 -0.77033 0.012406
0.036842 0.063758 1.0081 7.6522e-39 261 308 0 0 0 0.64035 0.10958 -0.76023 0.013071
0.038053 0.06322 1.009 7.0069e-39 212.5 308 0 0 0 0.65488 0.10569 -0.7483 0.013139
-0.032801 0.065044 1.0098 5.7161e-39 360 308 0 0 0 -0.63885 0.21319 -0.7392 0.031403
-0.031568 0.064938 1.0081 5.9927e-39 361 308 0 0 0 -0.58376 0.23098 -0.77838 0.038782
0.035073 0.064938 1.0081 6.9147e-39 417.5 308 0 0 0 0.61713 0.13424 -0.77533 0.010933
0.036842 0.064938 1.0081 7.2835e-39 419 308 0 0 0 0.62706 0.13152 -0.76779 0.011285
0.038084 0.065044 1.0098 7.1913e-39 420 308 0 0 0 0.66896 0.12251 -0.73313 0.014213
-0.032801 0.066225 1.0098 8.021e-39 437 308 0 0 0 -0.65715 0.20007 -0.72672 0.025582
-0.031183 0.066922 1.0084 6.9454e-39 262.33 308.67 0 0 0 -0.59795 0.20029 -0.77611 0.019567
0.035101 0.066761 1.009 6.0157e-39 192 309 0 0 0 0.6177 0.14818 -0.77232 0.010608
0.036872 0.066761 1.009 6.0388e-39 193.5 309 0 0 0 0.63438 0.14929 -0.75847 0.010535
0.038084 0.067407 1.0098 6.0849e-39 237 309 0 0 0 0.64687 0.15584 -0.7465 0.010852
-0.030426 0.069151 1.0094 8.5742e-39 348.5 309 0 0 0 -0.62136 0.19109 -0.75986 0.015758
-0.029209 0.069656 1.0081 8.2054e-39 427 309 0 0 0 -0.57534 0.19415 -0.79454 0.010322
0.032714 0.069656 1.0081 6.7764e-39 492 309 0 0 0 0.58751 0.16788 -0.79161 0.0088353
0.035108 0.069137 1.0092 6.2923e-39 362 309.25 0 0 0 0.61628 0.16277 -0.77053 0.0097881
0.036872 0.069122 1.009 6.6381e-39 272.5 309.5 0 0 0 0.63781 0.16324 -0.7527 0.00991
-0.029233 0.070893 1.009 5.9005e-39 160 310 0 0 0 -0.59164 0.19586 -0.78205 0.010608
0.03274 0.070893 1.009 6.6842e-39 217.5 310 0 0 0 0.59453 0.17909 -0.78388 0.0082688
0.035721 0.070951 1.0098 7.0069e-39 220 310 0 0 0 0.63011 0.17524 -0.75647 0.0090534
0.036902 0.070951 1.0098 7.56e-39 221 310 0 0 0 0.64183 0.17589 -0.7464 0.0092235
-0.029256 0.072132 1.0098 6.5459e-39 255 310 0 0 0 -0.61223 0.20296 -0.76419 0.012301
0.032571 0.072526 1.0098 8.5742e-39 404 310 0 0 0 0.59584 0.19235 -0.77972 0.0076655
-0.028041 0.074995 1.0085 7.514e-39 354.5 310.5 0 0 0 -0.57835 0.21494 -0.78696 0.0088138
-0.02685 0.075553 1.0081 6.6381e-39 217 311 0 0 0 -0.56702 0.21474 -0.79522 0.0088597
0.032768 0.074495 1.0098 7.1452e-39 187.5 311 0 0 0 0.59716 0.1999 -0.77682 0.0073406
-0.028052 0.076795 1.009 8.943e-39 375 311 0 0 0 -0.58655 0.22171 -0.77898 0.0084116
-0.026861 0.077355 1.0085 7.7444e-39 414.5 311 0 0 0 -0.55999 0.23021 -0.79587 0.0074733
0.029765 0.077912 1.0081 5.6239e-39 144 312 0 0 0 0.5572 0.22893 -0.7982 0.0062257
0.030957 0.077355 1.0085 7.2374e-39 285 311.5 0 0 0 0.57147 0.22188 -0.79006 0.0062582
-0.028075 0.078039 1.0098 6.2693e-39 452 311 0 0 0 -0.58837 0.22984 -0.77524 0.0081482
-0.026894 0.079221 1.0098 6.7303e-39 187 312 0 0 0 -0.57127 0.24041 -0.78476 0.0070632
-0.02567 0.079092 1.0081 7.56e-39 188 312 0 0 0 -0.55078 0.23965 -0.79951 0.0069336
0.029789 0.079156 1.009 6.1771e-39 237 312 0 0 0 0.55833 0.23914 -0.79441 0.0061495
0.030995 0.079221 1.0098 6.1771e-39 238 312 0 0 0 0.57649 0.23522 -0.78251 0.0063953
-0.026894 0.080993 1.0098 7.9288e-39 349 312 0 0 0 -0.56533 0.25161 -0.78555 0.0064374
0.029789 0.080927 1.009 6.6842e-39 431 312 0 0 0 0.55507 0.24885 -0.79371 0.0059591
0.030995 0.080993 1.0098 6.592e-39 432 312 0 0 0 0.57086 0.24801 -0.78269 0.0060191
-0.026894 0.082765 1.0098 6.5459e-39 138 313 0 0 0 -0.56283 0.26306 -0.7836 0.0059423
-0.025681 0.083254 1.0085 7.0069e-39 185 313 0 0 0 -0.54243 0.26863 -0.79599 0.0060673
0.029003 0.083091 1.009 6.8532e-39 253.33 313 0 0 0 0.54294 0.26516 -0.79681 0.0060793
-0.025691 0.085058 1.009 8.3898e-39 382 313 0 0 0 -0.54065 0.27479 -0.79511 0.0063511
0.028632 0.085128 1.0098 7.8366e-39 428 313 0 0 0 0.54006 0.28243 -0.79283 0.0066583
-0.024501 0.086793 1.0085 6.6842e-39 327.5 313.5 0 0 0 -0.52286 0.29095 -0.80123 0.006918
-0.022924 0.086978 1.0084 6.7918e-39 286 313.67 0 0 0 -0.50312 0.29589 -0.81198 0.0070383
0.026828 0.086793 1.0085 6.0849e-39 196 314 0 0 0 0.5086 0.30141 -0.80652 0.0064895
-0.024531 0.088672 1.0098 8.2054e-39 281 314 0 0 0 -0.51277 0.29876 -0.80487 0.009067
-0.02274 0.08919 1.009 7.8597e-39 348 314 0 0 0 -0.49252 0.31216 -0.81239 0.0088947
-0.02096 0.089153 1.0085 8.1593e-39 349.5 314 0 0 0 -0.47524 0.3205 -0.81941 0.008595
0.025068 0.08919 1.0089 7.4218e-39 418.5 314 0 0 0 0.47399 0.33344 -0.81496 0.0063744
0.02627 0.088672 1.0098 7.3757e-39 384 314 0 0 0 0.49928 0.32287 -0.80404 0.0067262
-0.022168 0.091035 1.0098 9.7727e-39 502 314 0 0 0 -0.47993 0.3341 -0.8112 0.01073
-0.020987 0.091035 1.0098 9.404e-39 504 314 0 0 0 -0.46531 0.34006 -0.81722 0.010739
0.023887 0.090961 1.009 6.6381e-39 191 315 0 0 0 0.4564 0.35618 -0.81537 0.0062547
-0.019199 0.092731 1.009 8.2285e-39 290 315 0 0 0 -0.43576 0.3669 -0.82189 0.01113
0.021509 0.093245 1.0081 6.2693e-39 389 315 0 0 0 0.41739 0.38891 -0.8213 0.0062783
0.023113 0.092585 1.0095 7.4064e-39 307 315 0 0 0 0.44098 0.37632 -0.81481 0.0061624
-0.018624 0.094579 1.0098 8.482e-39 424 315 0 0 0 -0.42254 0.40792 -0.80936 0.012366
-0.016838 0.095093 1.0089 7.4909e-39 283 315.5 0 0 0 -0.40364 0.41765 -0.81403 0.011101
-0.015055 0.095604 1.0081 6.5459e-39 142 316 0 0 0 -0.38293 0.42925 -0.81799 0.010308
0.020927 0.095053 1.0085 5.8544e-39 320.5 315.5 0 0 0 0.40409 0.40638 -0.81949 0.0059616
-0.015067 0.096863 1.009 7.56e-39 216 316 0 0 0 -0.3797 0.45356 -0.80629 0.010601
-0.013875 0.097963 1.0081 7.9288e-39 281 316 0 0 0 -0.35599 0.4706 -0.80735 0.01023
0.01915 0.096784 1.0081 6.0849e-39 245 316 0 0 0 0.37573 0.42834 -0.8218 0.0058637
0.020346 0.096863 1.009 5.9927e-39 246 316 0 0 0 0.39104 0.42516 -0.81629 0.0057493
-0.013297 0.099224 1.0089 6.3615e-39 389.5 316 0 0 0 -0.34658 0.49917 -0.79417 0.010288
0.017388 0.098593 1.0085 8.4359e-39 386 316 0 0 0 0.3542 0.45 -0.81978 0.0057388
0.019181 0.098123 1.0098 8.482e-39 358 316 0 0 0 0.37295 0.44204 -0.81579 0.005585
0.020363 0.098123 1.0098 8.6664e-39 359 316 0 0 0 0.3883 0.43346 -0.81323 0.0059216
-0.012717 0.10049 1.0098 6.5459e-39 447 316 0 0 0 -0.33762 0.52361 -0.78221 0.0098069
-0.010936 0.10099 1.009 5.9927e-39 301 316.5 0 0 0 -0.31122 0.53284 -0.78691 0.0087393
0.0097141 0.1015 1.0081 6.6381e-39 177 317 0 0 0 0.19869 0.51315 -0.83498 0.011006
0.010894 0.1015 1.0081 6.4537e-39 178 317 0 0 0 0.22631 0.51114 -0.82917 0.010146
0.012863 0.10113 1.0084 6.4844e-39 276.33 316.67 0 0 0 0.27008 0.49671 -0.82482 0.0084793
0.015034 0.10099 1.0089 6.2463e-39 333.5 316.5 0 0 0 0.3125 0.48483 -0.81687 0.0070681
0.016805 0.1004 1.009 6.6381e-39 487 316 0 0 0 0.33813 0.46905 -0.81588 0.0058814
-0.0091726 0.10285 1.0098 7.4678e-39 218 317 0 0 0 -0.2884 0.56239 -0.77494 0.0080931
-0.0079781 0.10268 1.0081 7.6522e-39 219 317 0 0 0 -0.25793 0.55105 -0.79361 0.0095024
-0.0050294 0.10386 1.0081 7.9288e-39 278.5 317 0 0 0 -0.19462 0.56793 -0.79974 0.011475
-0.0026704 0.10386 1.0081 8.0671e-39 280.5 317 0 0 0 -0.13358 0.56803 -0.81209 0.012487
0.0049961 0.10386 1.0081 7.6522e-39 287 317 0 0 0 0.069246 0.55923 -0.82612 0.012566
0.0061807 0.10395 1.009 7.56e-39 288 317 0 0 0 0.10368 0.55895 -0.82269 0.012564
0.0089327 0.10313 1.0087 8.2362e-39 252.33 317 0 0 0 0.17246 0.53651 -0.82608 0.011066
0.010911 0.10285 1.0098 7.9288e-39 235 317 0 0 0 0.21851 0.53234 -0.81784 0.010119
0.012093 0.10285 1.0098 7.3757e-39 236 317 0 0 0 0.25236 0.51943 -0.8164 0.0087917
-0.0068097 0.10403 1.0098 7.6522e-39 277 317 0 0 0 -0.23871 0.57636 -0.78156 0.010111
-0.00090197 0.10513 1.009 6.2693e-39 384 317 0 0 0 -0.094009 0.58698 -0.80413 0.012923
0.00086809 0.10509 1.0085 6.5459e-39 385.5 317 0 0 0 -0.047751 0.57993 -0.81326 0.013437
0.0026372 0.10504 1.0081 6.7303e-39 387 317 0 0 0 0.0075781 0.5744 -0.81854 0.012875
0.0050043 0.10521 1.0098 6.3615e-39 389 317 0 0 0 0.071508 0.58192 -0.8101 0.012757
0.0067734 0.10517 1.0094 6.0849e-39 390.5 317 0 0 0 0.11507 0.56939 -0.81397 0.011806
0.0097299 0.10403 1.0098 6.9147e-39 291 317 0 0 0 0.18757 0.54754 -0.81548 0.01133
0.0014601 0.10639 1.0098 6.3615e-39 444 317 0 0 0 -0.03519 0.6009 -0.79855 0.013043
0.0034273 0.10673 1.0093 6.0234e-39 350.33 317.33 0 0 0 0.019069 0.59727 -0.80182 0.012235
0.0073671 0.10639 1.0098 6.1771e-39 451 317 0 0 0 0.12159 0.57802 -0.80691 0.011832
-0.030463 0.040267 1.0106 8.8508e-39 372 301 0 0 0 -0.71563 -0.46679 -0.51959 0.089962
0.034596 0.041484 1.0114 5.6239e-39 163 302 0 0 0 0.83438 -0.23686 -0.4977 0.036047
-0.034038 0.04385 1.0114 5.9005e-39 244 302 0 0 0 -0.84513 -0.33826 -0.41392 0.10536
-0.031645 0.042632 1.0106 6.6381e-39 173 302 0 0 0 -0.76549 -0.40458 -0.50034 0.10653
0.034568 0.042632 1.0106 6.0849e-39 233 302 0 0 0 0.83156 -0.19624 -0.51961 0.040033
0.036963 0.04385 1.0114 6.5459e-39 399 302 0 0 0 0.85396 -0.19788 -0.48125 0.029993
0.036932 0.044997 1.0106 6.1771e-39 169 303 0 0 0 0.84108 -0.17616 -0.51142 0.035855
0.038146 0.0474 1.0114 8.2054e-39 437 303 0 0 0 0.84389 -0.15438 -0.51382 0.028844
-0.036375 0.056821 1.0106 6.2693e-39 205 306 0 0 0 -0.83311 0.10484 -0.54308 0.095328
-0.034601 0.060368 1.0106 6.8225e-39 191.5 307 0 0 0 -0.70616 0.18114 -0.68449 0.063469
-0.032828 0.067462 1.0106 6.5459e-39 173 309 0 0 0 -0.68322 0.19073 -0.70487 0.022805
0.038115 0.06628 1.0106 5.8083e-39 152 309 0 0 0 0.66135 0.14465 -0.736 0.012876
-0.032841 0.069264 1.011 8.6664e-39 346.5 309 0 0 0 -0.70999 0.19334 -0.67715 0.023388
-0.031645 0.069236 1.0106 8.7586e-39 347.5 309 0 0 0 -0.66928 0.19594 -0.71671 0.020023
0.038115 0.069236 1.0106 6.4998e-39 273.5 309.5 0 0 0 0.65506 0.16547 -0.73723 0.0098884
-0.032854 0.071067 1.0114 5.9927e-39 157 310 0 0 0 -0.71608 0.19614 -0.66989 0.022031
-0.031067 0.071038 1.011 5.9466e-39 158.5 310 0 0 0 -0.67265 0.20085 -0.71218 0.018906
0.034568 0.071009 1.0106 6.7303e-39 219 310 0 0 0 0.61918 0.1772 -0.76499 0.0093421
0.038146 0.071067 1.0114 7.2835e-39 222 310 0 0 0 0.65873 0.17941 -0.73068 0.008961
-0.030488 0.072251 1.0114 6.4537e-39 254 310 0 0 0 -0.66965 0.2074 -0.71313 0.017074
-0.02928 0.073374 1.0106 6.2693e-39 403 310 0 0 0 -0.62895 0.21098 -0.74827 0.013448
0.033385 0.073374 1.0106 6.8225e-39 456 310 0 0 0 0.60517 0.19781 -0.77113 0.0077173
0.035159 0.072783 1.0106 7.6061e-39 419 310 0 0 0 0.61783 0.19319 -0.76221 0.008395
0.036947 0.072812 1.011 7.4679e-39 420.5 310 0 0 0 0.63965 0.19111 -0.74453 0.0076457
-0.029304 0.074617 1.0114 7.6522e-39 495 310 0 0 0 -0.63977 0.22132 -0.73601 0.013609
0.032794 0.075739 1.0106 9.1274e-39 279.5 311 0 0 0 0.59593 0.21251 -0.7744 0.006842
0.035173 0.075178 1.011 6.7072e-39 265.5 311 0 0 0 0.62108 0.20694 -0.75594 0.0072941
0.036963 0.075209 1.0114 6.592e-39 272 311 0 0 0 0.6385 0.20427 -0.74202 0.006868
0.032821 0.076984 1.0114 8.482e-39 426.5 311 0 0 0 0.60082 0.2194 -0.76868 0.0068057
0.034596 0.076984 1.0114 8.2976e-39 428 311 0 0 0 0.61286 0.21646 -0.75996 0.0068063
-0.028098 0.079286 1.0106 6.9147e-39 186 312 0 0 0 -0.60119 0.24005 -0.7622 0.0090941
0.032821 0.078167 1.0114 5.8544e-39 146.5 312 0 0 0 0.59806 0.22848 -0.76819 0.0064431
-0.028098 0.081059 1.0106 7.6061e-39 348 312 0 0 0 -0.59273 0.24857 -0.76608 0.0074115
-0.028098 0.082833 1.0106 2.7659e-39 507 312 0 0 0 -0.57705 0.25972 -0.77431 0.005827
0.031021 0.082833 1.0106 6.6381e-39 204 313 0 0 0 0.56945 0.26185 -0.77921 0.0061353
-0.028121 0.084084 1.0114 7.4678e-39 229 313 0 0 0 -0.58189 0.263 -0.76957 0.0073922
-0.026916 0.084606 1.0106 7.9749e-39 305.5 313 0 0 0 -0.55974 0.26902 -0.78379 0.0066148
0.029838 0.084606 1.0106 7.4679e-39 392.5 313 0 0 0 0.55883 0.2798 -0.78065 0.006303
0.031046 0.084675 1.0114 7.8366e-39 393.5 313 0 0 0 0.57141 0.27773 -0.77224 0.0061974
-0.026938 0.086451 1.0114 6.7303e-39 454 313 0 0 0 -0.54982 0.27207 -0.78973 0.009007
-0.025743 0.087007 1.011 6.592e-39 326.5 313.5 0 0 0 -0.53375 0.28178 -0.79732 0.0088491
0.027473 0.087562 1.0106 5.9927e-39 244 314 0 0 0 0.5238 0.31008 -0.7934 0.0068271
0.029066 0.086822 1.0111 6.0849e-39 182.67 314 0 0 0 0.54907 0.30146 -0.77952 0.0065297
-0.025153 0.089372 1.011 8.2515e-39 346 314 0 0 0 -0.51655 0.30098 -0.80161 0.010083
0.027496 0.088817 1.0114 6.8225e-39 385 314 0 0 0 0.5292 0.32333 -0.78448 0.0069846
-0.024571 0.091184 1.0114 7.9288e-39 500 314 0 0 0 -0.49968 0.32094 -0.80456 0.012076
-0.023369 0.091109 1.0106 8.943e-39 501 314 0 0 0 -0.49371 0.32937 -0.80484 0.011245
0.025109 0.091109 1.0106 6.5459e-39 192 315 0 0 0 0.4772 0.35493 -0.80393 0.0062652
0.026313 0.090001 1.0114 6.9147e-39 455 314 0 0 0 0.50448 0.34118 -0.79315 0.0066967
-0.022204 0.092959 1.0114 7.2374e-39 287.5 315 0 0 0 -0.46863 0.36239 -0.80564 0.013843
-0.021004 0.092883 1.0106 7.4218e-39 288.5 315 0 0 0 -0.45697 0.37129 -0.80828 0.012998
0.023926 0.093474 1.0106 6.2693e-39 391 315 0 0 0 0.45427 0.38161 -0.80499 0.0063328
-0.021021 0.094734 1.0114 8.2976e-39 422 315 0 0 0 -0.44213 0.39961 -0.80302 0.01478
-0.019433 0.095471 1.0109 7.1298e-39 233.33 315.67 0 0 0 -0.42421 0.42196 -0.80125 0.014204
0.021562 0.095839 1.0106 6.1771e-39 184 316 0 0 0 0.41262 0.41097 -0.81292 0.0064881
0.023355 0.094734 1.0114 6.3154e-39 459.5 315 0 0 0 0.44113 0.39578 -0.80546 0.0067005
-0.018654 0.097101 1.0114 7.56e-39 213 316 0 0 0 -0.40728 0.45267 -0.79323 0.014207
-0.016865 0.097021 1.0106 7.5139e-39 214.5 316 0 0 0 -0.39533 0.45743 -0.79654 0.012143
0.021579 0.097101 1.0114 5.8083e-39 247 316 0 0 0 0.40727 0.42226 -0.80983 0.0062236
-0.016879 0.098284 1.0114 8.1593e-39 278.5 316 0 0 0 -0.38629 0.48198 -0.78643 0.012729
-0.015092 0.098204 1.0106 8.2976e-39 280 316 0 0 0 -0.37237 0.48477 -0.79142 0.011576
0.018614 0.099427 1.011 8.6664e-39 416.5 316 0 0 0 0.36341 0.45426 -0.81338 0.0057285
0.020379 0.099386 1.0106 8.5742e-39 418 316 0 0 0 0.38112 0.44528 -0.81023 0.0058433
-0.013324 0.1012 1.011 6.5459e-39 299 316.5 0 0 0 -0.34216 0.53709 -0.77101 0.0099812
-0.011545 0.10175 1.0106 5.9005e-39 153 317 0 0 0 -0.32112 0.54778 -0.77254 0.008533
0.016832 0.10175 1.0106 5.7161e-39 183 317 0 0 0 0.32675 0.47878 -0.81486 0.0063461
0.018029 0.10065 1.0114 6.2693e-39 488 316 0 0 0 0.34745 0.4659 -0.81376 0.0060603
0.020396 0.10065 1.0114 6.1771e-39 490 316 0 0 0 0.37694 0.45027 -0.80943 0.0057603
-0.010362 0.10293 1.0106 7.6522e-39 217 317 0 0 0 -0.30061 0.56383 -0.76924 0.0079596
0.013285 0.10293 1.0106 6.8225e-39 237 317 0 0 0 0.27333 0.51826 -0.81037 0.0079897
0.015065 0.10297 1.011 6.592e-39 238.5 317 0 0 0 0.29615 0.50368 -0.81154 0.0072048
-0.0091876 0.1042 1.0114 7.56e-39 275 317 0 0 0 -0.29541 0.58227 -0.75743 0.0076485
-0.0079977 0.10412 1.0106 7.56e-39 276 317 0 0 0 -0.26677 0.57936 -0.77018 0.0089346
-0.0050418 0.1053 1.0106 8.5742e-39 380.5 317 0 0 0 -0.20819 0.59438 -0.77677 0.010869
-0.002677 0.1053 1.0106 6.6381e-39 382.5 317 0 0 0 -0.14957 0.59651 -0.78855 0.01218
0.0091507 0.10534 1.011 5.9927e-39 392.5 317 0 0 0 0.17212 0.56881 -0.80426 0.011239
0.010924 0.10475 1.011 6.8686e-39 362.5 317 0 0 0 0.21518 0.54839 -0.80807 0.010409
0.012504 0.10457 1.0111 6.0234e-39 353.33 317 0 0 0 0.24499 0.53742 -0.80695 0.0090757
0.014479 0.1042 1.0114 5.6239e-39 334 317 0 0 0 0.27869 0.51773 -0.80888 0.007825
-0.0032709 0.10657 1.0114 7.0991e-39 440 317 0 0 0 -0.17036 0.61612 -0.76901 0.011387
-0.00090382 0.10712 1.011 6.1771e-39 298 317.5 0 0 0 -0.10325 0.61931 -0.77833 0.012666
0.00067312 0.1073 1.0109 5.839e-39 251.33 317.67 0 0 0 -0.057009 0.61939 -0.78301 0.013037
0.0026437 0.10766 1.0106 5.3473e-39 157 318 0 0 0 -0.0011233 0.6164 -0.78743 0.012708
0.0050105 0.10712 1.011 5.8544e-39 304 317.5 0 0 0 0.056926 0.60617 -0.79329 0.012581
0.0067875 0.10716 1.0114 6.1771e-39 305.5 317.5 0 0 0 0.10498 0.6 -0.79308 0.012024
0.0085625 0.10657 1.0114 6.0849e-39 457 317 0 0 0 0.15032 0.58568 -0.79648 0.011228
0.0014625 0.10893 1.0114 7.9288e-39 211 318 0 0 0 -0.042232 0.6382 -0.76871 0.012934
0.0032359 0.10889 1.011 8.2976e-39 212.5 318 0 0 0 0.0060203 0.62932 -0.77712 0.012491
-0.025775 0.035596 1.0123 7.0991e-39 229 300 0 0 0 -0.67414 -0.53663 -0.5075 0.051427
-0.028167 0.036811 1.0131 8.6664e-39 376 300 0 0 0 -0.6826 -0.54659 -0.48507 0.052018
-0.030538 0.038588 1.0131 6.6842e-39 337.5 300.5 0 0 0 -0.73802 -0.47696 -0.47732 0.053892
-0.031723 0.041552 1.0131 6.7303e-39 476 301 0 0 0 -0.78225 -0.38944 -0.48624 0.061859
0.03344 0.040333 1.0123 8.943e-39 441 301 0 0 0 0.8338 -0.28365 -0.47362 0.038384
0.034653 0.040367 1.0131 8.6664e-39 442 301 0 0 0 0.85043 -0.27792 -0.44669 0.030403
-0.032881 0.042702 1.0123 6.4537e-39 172 302 0 0 0 -0.80639 -0.37709 -0.45556 0.085262
0.035809 0.042702 1.0123 5.9005e-39 234 302 0 0 0 0.85643 -0.21826 -0.46786 0.029645
0.037023 0.042737 1.0131 5.9005e-39 235 302 0 0 0 0.85915 -0.25681 -0.44262 0.026054
0.03824 0.046331 1.0139 5.9005e-39 256 303 0 0 0 0.86737 -0.19959 -0.45589 0.022108
0.03941 0.055205 1.0135 6.4076e-39 331 305.5 0 0 0 0.83842 -0.076918 -0.53958 0.023563
0.039394 0.05696 1.0131 9.3118e-39 379 306 0 0 0 0.79808 -0.036327 -0.60146 0.023589
-0.036464 0.058739 1.0131 7.7905e-39 421.5 306 0 0 0 -0.84 0.11224 -0.53086 0.055711
0.039426 0.058194 1.0139 8.1132e-39 451 306 0 0 0 0.80399 -0.022367 -0.59423 0.021552
-0.034672 0.061677 1.0127 8.1593e-39 368.5 307 0 0 0 -0.74563 0.16745 -0.64498 0.036907
0.039426 0.061752 1.0139 8.7586e-39 432 307 0 0 0 0.75421 0.059664 -0.65392 0.017605
-0.034094 0.062887 1.0131 7.6522e-39 445 307 0 0 0 -0.73598 0.17898 -0.65292 0.030165
0.039426 0.062939 1.0139 6.1771e-39 164 308 0 0 0 0.73767 0.088758 -0.66931 0.016571
-0.034122 0.064718 1.0139 5.9927e-39 269.5 308 0 0 0 -0.75438 0.18898 -0.62865 0.027175
0.03941 0.064691 1.0135 7.6061e-39 342 308 0 0 0 0.72621 0.11323 -0.67808 0.015598
-0.034122 0.06709 1.0139 7.3757e-39 304 308.5 0 0 0 -0.75621 0.19766 -0.62376 0.025459
0.039426 0.06709 1.0139 6.0849e-39 195.5 309 0 0 0 0.70933 0.14272 -0.69027 0.013924
-0.034122 0.06887 1.0139 8.943e-39 268 309 0 0 0 -0.7651 0.20207 -0.61138 0.024409
