# .PCD v.7 - Point Cloud Data file format
VERSION .7
FIELDS x y z rgb u v vx vy vz normal_x normal_y normal_z curvature
SIZE 4 4 4 4 4 4 4 4 4 4 4 4 4
TYPE F F F F F F F F F F F F F
COUNT 1 1 1 1 1 1 1 1 1 1 1 1 1
WIDTH 557
HEIGHT 1
VIEWPOINT 0 0 0 1 0 0 0
POINTS 557
DATA ascii
-0.15888 0.088544 1.2602 6.0849e-39 168 323 0 0 0 0.69405 0.21335 -0.68759 0.0045457
-0.15741 0.088544 1.2602 5.9005e-39 169 323 0 0 0 0.69282 0.21116 -0.6895 0.004459
-0.25055 0.090848 1.2615 6.3615e-39 275.5 323 0 0 0 -0.73519 0.24566 -0.63178 0.0021499
-0.24882 0.091493 1.2602 6.0849e-39 345 323 0 0 0 -0.73181 0.24582 -0.63563 0.0019524
-0.16036 0.090755 1.2602 7.514e-39 341 323 0 0 0 0.69789 0.21576 -0.68293 0.0046033
-0.15896 0.090802 1.2608 7.6522e-39 342 323 0 0 0 0.69199 0.21559 -0.68896 0.0046583
-0.15757 0.090848 1.2615 7.4218e-39 343 323 0 0 0 0.68664 0.21554 -0.69431 0.0046169
-0.24882 0.092967 1.2602 6.8225e-39 452 323 0 0 0 -0.7293 0.24323 -0.6395 0.0019632
-0.16036 0.092967 1.2602 6.9147e-39 174 324 0 0 0 0.69695 0.21324 -0.68468 0.0046647
-0.15904 0.093062 1.2615 6.7303e-39 175 324 0 0 0 0.68955 0.21263 -0.69232 0.0045523
-0.15757 0.093062 1.2615 6.4537e-39 176 324 0 0 0 0.68444 0.21197 -0.69757 0.0045036
-0.24907 0.094538 1.2615 6.3615e-39 215 324 0 0 0 -0.72846 0.23692 -0.64282 0.0020729
-0.24734 0.095916 1.2602 5.3473e-39 348 324 0 0 0 -0.7265 0.23808 -0.64461 0.0019688
-0.16139 0.094965 1.2606 6.3307e-39 322 324 0 0 0 0.69666 0.211 -0.68567 0.0047607
-0.15904 0.094538 1.2615 5.3473e-39 279 324 0 0 0 0.68905 0.20745 -0.69439 0.0046906
-0.15757 0.094538 1.2615 5.6239e-39 280 324 0 0 0 0.68409 0.20591 -0.69973 0.0045663
-0.24907 0.096014 1.2615 5.7161e-39 347 324 0 0 0 -0.72501 0.23598 -0.64705 0.002131
-0.24759 0.09749 1.2615 6.6381e-39 465 324 0 0 0 -0.72334 0.2359 -0.64894 0.002011
-0.1633 0.09739 1.2602 7.9288e-39 184 325 0 0 0 0.69971 0.20955 -0.68301 0.0046711
-0.16101 0.096998 1.2615 8.1439e-39 261 324.67 0 0 0 0.69085 0.20516 -0.69328 0.004796
-0.15757 0.096014 1.2615 9.1274e-39 414 324 0 0 0 0.68382 0.20605 -0.69995 0.0045813
-0.24759 0.098965 1.2615 6.4537e-39 225 325 0 0 0 -0.72345 0.23493 -0.64917 0.002083
-0.24587 0.098864 1.2602 6.0849e-39 226 325 0 0 0 -0.72231 0.23651 -0.64987 0.0021393
-0.1633 0.098864 1.2602 4.6098e-39 286 325 0 0 0 0.6987 0.20297 -0.68601 0.0046156
-0.162 0.098965 1.2615 4.8864e-39 287 325 0 0 0 0.69146 0.19929 -0.69439 0.0045453
-0.24612 0.10192 1.2615 7.4678e-39 463 325 0 0 0 -0.72456 0.22768 -0.65052 0.0022153
-0.24587 0.10034 1.2602 6.7303e-39 354 325 0 0 0 -0.72406 0.23332 -0.64907 0.0022325
-0.16478 0.10181 1.2602 7.6522e-39 185 326 0 0 0 0.69735 0.20254 -0.68752 0.0047746
-0.1633 0.10108 1.2602 7.6522e-39 301 325.5 0 0 0 0.69556 0.20169 -0.68958 0.0047226
-0.162 0.10118 1.2615 7.3757e-39 302 325.5 0 0 0 0.6921 0.19902 -0.69382 0.0045559
-0.24439 0.10329 1.2602 6.2693e-39 219 326 0 0 0 -0.73053 0.21647 -0.64766 0.0025859
-0.16478 0.10329 1.2602 4.8864e-39 283 326 0 0 0 0.69719 0.19913 -0.68868 0.0047752
-0.1633 0.10329 1.2602 4.7942e-39 284 326 0 0 0 0.69417 0.19957 -0.69159 0.0047793
-0.162 0.10339 1.2615 4.5176e-39 285 326 0 0 0 0.68952 0.19607 -0.69723 0.004589
-0.24439 0.10476 1.2602 6.3615e-39 345 326 0 0 0 -0.73114 0.20768 -0.64984 0.0028319
-0.16478 0.10476 1.2602 8.2976e-39 401 326 0 0 0 0.69608 0.19572 -0.69077 0.0046875
-0.1633 0.10476 1.2602 8.5742e-39 402 326 0 0 0 0.69448 0.19613 -0.69227 0.0047716
-0.162 0.10487 1.2615 9.1274e-39 403 326 0 0 0 0.69014 0.19463 -0.69701 0.004779
-0.24452 0.10703 1.2608 6.6381e-39 315 326.5 0 0 0 -0.73231 0.19967 -0.65104 0.0027696
-0.16478 0.10697 1.2602 5.9005e-39 214.5 327 0 0 0 0.69575 0.19394 -0.69161 0.0047888
-0.16347 0.10708 1.2615 5.9005e-39 215.5 327 0 0 0 0.69062 0.19231 -0.69718 0.005046
-0.162 0.10634 1.2615 5.6239e-39 165 327 0 0 0 0.68973 0.1934 -0.69776 0.0048191
-0.24464 0.1093 1.2615 4.4254e-39 295 327 0 0 0 -0.73483 0.19042 -0.65098 0.0030122
-0.16625 0.10918 1.2602 8.7586e-39 377 327 0 0 0 0.69783 0.18162 -0.69285 0.0046969
-0.16495 0.1093 1.2615 8.6664e-39 378 327 0 0 0 0.69565 0.18133 -0.69512 0.0048234
-0.16347 0.1093 1.2615 8.6664e-39 379 327 0 0 0 0.69223 0.18269 -0.69817 0.0049892
-0.24464 0.11077 1.2615 8.943e-39 404 327 0 0 0 -0.73504 0.18674 -0.6518 0.0031605
-0.16625 0.11066 1.2602 7.1913e-39 469 327 0 0 0 0.69715 0.17595 -0.695 0.0047458
-0.16495 0.11077 1.2615 7.2835e-39 470 327 0 0 0 0.69649 0.17327 -0.69633 0.0048793
-0.24292 0.11361 1.2602 6.8225e-39 254 328 0 0 0 -0.74101 0.17479 -0.64835 0.0034981
-0.16642 0.11299 1.2615 6.0388e-39 276.5 328 0 0 0 0.69612 0.15417 -0.70117 0.0048737
-0.24292 0.11508 1.2602 5.7161e-39 355 328 0 0 0 -0.74239 0.167 -0.64883 0.0037592
-0.24144 0.11508 1.2602 6.2693e-39 356 328 0 0 0 -0.74558 0.16901 -0.64463 0.0035803
-0.24489 -0.0043487 1.2628 7.4678e-39 225 293 0 0 0 -0.1367 -0.86835 -0.47674 0.016467
-0.23751 -0.0043487 1.2628 1.1985e-38 230 293 0 0 0 0.0058955 -0.86805 -0.49644 0.01429
-0.23455 -0.0043487 1.2628 1.0049e-38 232 293 0 0 0 0.071036 -0.85813 -0.5085 0.010318
-0.23307 -0.0043487 1.2628 9.5883e-39 233 293 0 0 0 0.097178 -0.85202 -0.51441 0.0082122
-0.23086 -0.0043487 1.2628 6.8225e-39 380.5 293 0 0 0 0.11822 -0.85214 -0.50978 0.0061095
-0.22717 -0.0043487 1.2628 6.5459e-39 383 293 0 0 0 0.12949 -0.85109 -0.5088 0.0057409
-0.22569 -0.0043487 1.2628 6.6381e-39 492 293 0 0 0 0.12204 -0.85354 -0.50653 0.0058057
-0.13852 -0.0043487 1.2628 6.6381e-39 235 294 0 0 0 0.42172 -0.48013 -0.76917 0.070546
-0.25967 -0.0028713 1.2628 6.4537e-39 384 294 0 0 0 -0.3749 -0.72322 -0.58 0.014868
-0.25523 -0.0028713 1.2628 7.0991e-39 413 294 0 0 0 -0.31012 -0.77776 -0.54674 0.01529
-0.22126 -0.0028713 1.2628 2.9503e-39 145 295 0 0 0 0.10305 -0.85367 -0.51052 0.0058583
-0.2183 -0.0028713 1.2628 8.7586e-39 215 295 0 0 0 0.074985 -0.85362 -0.51547 0.0051974
-0.19023 -0.0028713 1.2628 8.2976e-39 234 295 0 0 0 0.010321 -0.88212 -0.47091 0.0032986
-0.14517 -0.0028713 1.2628 6.6381e-39 415.5 295 0 0 0 0.34761 -0.6306 -0.69391 0.082294
-0.14148 -0.0028713 1.2628 6.7303e-39 418 295 0 0 0 0.41795 -0.48586 -0.76763 0.082124
-0.14 -0.0028713 1.2628 6.1771e-39 420 295 0 0 0 0.42832 -0.48979 -0.75938 0.077641
-0.25523 -0.0013939 1.2628 6.5459e-39 498 295 0 0 0 -0.31861 -0.76062 -0.56564 0.016673
-0.21978 -0.0013939 1.2628 8.943e-39 222 296 0 0 0 0.086142 -0.85635 -0.50917 0.0056304
-0.21313 -0.0013939 1.2628 9.6805e-39 226.5 296 0 0 0 0.04534 -0.85949 -0.50913 0.0044962
-0.20722 -0.0013939 1.2628 9.6344e-39 230.5 296 0 0 0 0.024306 -0.86882 -0.49453 0.0037973
-0.205 -0.0013939 1.2628 9.2196e-39 232 296 0 0 0 0.016295 -0.8731 -0.48727 0.0034804
-0.20279 -0.0013939 1.2628 8.2054e-39 233.5 296 0 0 0 0.012203 -0.87637 -0.48149 0.0029646
-0.1991 -0.0013939 1.2628 6.1771e-39 236 296 0 0 0 0.011696 -0.87888 -0.47689 0.0023136
-0.19762 -0.0013939 1.2628 6.4537e-39 237 296 0 0 0 0.0096645 -0.881 -0.47302 0.0024364
-0.18432 -0.0013939 1.2628 6.4537e-39 257 296 0 0 0 0.014323 -0.89464 -0.44656 0.0044634
-0.15108 -0.0013939 1.2628 6.4998e-39 409.5 296 0 0 0 0.19855 -0.77322 -0.60226 0.06424
-0.14886 -0.0013939 1.2628 6.9147e-39 411 296 0 0 0 0.27651 -0.70333 -0.65488 0.08183
-0.14296 -0.0013939 1.2628 7.0069e-39 415 296 0 0 0 0.435 -0.51033 -0.74185 0.08823
-0.13705 -0.0013939 1.2628 6.0849e-39 419 296 0 0 0 0.45816 -0.36597 -0.81004 0.071479
-0.25671 8.3431e-05 1.2628 6.2693e-39 428 296 0 0 0 -0.3486 -0.73664 -0.57951 0.017673
-0.25523 8.3431e-05 1.2628 6.0849e-39 429 296 0 0 0 -0.32867 -0.75038 -0.57351 0.017745
-0.17693 8.3431e-05 1.2628 9.8649e-39 226 297 0 0 0 0.01421 -0.91333 -0.40698 0.0044204
-0.13705 0.00082212 1.2628 6.2232e-39 295.5 297.5 0 0 0 0.47469 -0.29499 -0.82925 0.072199
-0.2641 0.0030382 1.2628 6.6381e-39 218 298 0 0 0 -0.47415 -0.62336 -0.62178 0.0182
-0.13705 0.0030382 1.2628 5.9005e-39 473 298 0 0 0 0.49819 -0.23412 -0.83487 0.069852
-0.13557 0.0030382 1.2628 5.9005e-39 474 298 0 0 0 0.48517 -0.19621 -0.85212 0.060102
-0.13705 0.0052542 1.2628 4.7942e-39 206 299.5 0 0 0 0.51405 -0.18497 -0.83758 0.063772
-0.13557 0.0059929 1.2628 2.9503e-39 153 300 0 0 0 0.51086 -0.14128 -0.84797 0.055826
-0.13705 0.0074702 1.2628 7.1913e-39 413 300 0 0 0 0.52811 -0.11603 -0.84121 0.056172
-0.13483 0.0074702 1.2628 7.2374e-39 414.5 300 0 0 0 0.51861 -0.092877 -0.84995 0.049255
-0.13483 0.0089476 1.2628 6.6381e-39 226.5 301 0 0 0 0.51589 -0.072998 -0.85354 0.045981
-0.13705 0.011902 1.2628 6.3615e-39 256 302 0 0 0 0.53457 -0.018223 -0.84492 0.040527
-0.13483 0.011164 1.2628 6.8916e-39 358 301.5 0 0 0 0.52002 -0.018976 -0.85395 0.036733
-0.13705 0.01338 1.2628 4.8864e-39 533 302 0 0 0 0.53074 0.02359 -0.8472 0.033839
-0.13483 0.01338 1.2628 3.9183e-39 534.5 302 0 0 0 0.51275 0.031944 -0.85795 0.02842
-0.13852 0.014857 1.2628 7.0991e-39 372 303 0 0 0 0.54123 0.034132 -0.84018 0.032119
-0.13705 0.014857 1.2628 7.0991e-39 373 303 0 0 0 0.53086 0.046861 -0.84616 0.028751
-0.13557 0.014857 1.2628 7.2835e-39 374 303 0 0 0 0.5146 0.049537 -0.856 0.025742
-0.13852 0.016334 1.2628 3.78e-39 536 303 0 0 0 0.548 0.063459 -0.83407 0.027753
-0.13705 0.016334 1.2628 3.78e-39 537 303 0 0 0 0.52389 0.070199 -0.84889 0.024681
-0.14148 0.019289 1.2628 5.8083e-39 474 304 0 0 0 0.60259 0.10554 -0.79104 0.022727
-0.14148 0.020766 1.2628 7.0991e-39 252 305 0 0 0 0.60061 0.11841 -0.79072 0.021571
-0.14 0.020766 1.2628 7.1913e-39 253 305 0 0 0 0.57031 0.11881 -0.81279 0.021776
-0.14148 0.023721 1.2628 7.4678e-39 214 306 0 0 0 0.60213 0.1183 -0.78959 0.020234
-0.13926 0.022983 1.2628 7.4909e-39 333 305.5 0 0 0 0.55639 0.12129 -0.82202 0.021189
-0.14148 0.025199 1.2628 7.56e-39 421 306 0 0 0 0.60142 0.11505 -0.7906 0.020133
-0.13926 0.025199 1.2628 7.9288e-39 422.5 306 0 0 0 0.5528 0.11473 -0.82538 0.02061
-0.14148 0.026676 1.2628 5.6239e-39 184 307 0 0 0 0.60054 0.10868 -0.79218 0.01933
-0.14 0.026676 1.2628 5.4395e-39 185 307 0 0 0 0.56859 0.10934 -0.81532 0.020627
-0.14148 0.028892 1.2628 5.9466e-39 265 307.5 0 0 0 0.60135 0.10727 -0.79175 0.019586
-0.14 0.028153 1.2628 6.3615e-39 386 307 0 0 0 0.57008 0.11477 -0.81353 0.020057
-0.14148 0.031108 1.2628 6.0849e-39 271 308 0 0 0 0.60718 0.10145 -0.78806 0.019265
-0.14148 0.032585 1.2628 5.7161e-39 454 308 0 0 0 0.61535 0.10351 -0.78143 0.019211
-0.14148 0.034801 1.2628 7.0069e-39 306.5 309 0 0 0 0.62238 0.11132 -0.77476 0.019289
-0.14148 0.037017 1.2628 3.6878e-39 163 310 0 0 0 0.62447 0.11852 -0.772 0.018379
-0.14296 0.039972 1.2628 6.0849e-39 455 310 0 0 0 0.65676 0.14298 -0.74042 0.016246
-0.14148 0.039233 1.2628 6.1771e-39 406.5 310 0 0 0 0.64096 0.13932 -0.75482 0.017281
-0.14296 0.04145 1.2628 7.0069e-39 210 311 0 0 0 0.65911 0.15715 -0.73545 0.014867
-0.14296 0.042927 1.2628 7.1913e-39 404 311 0 0 0 0.66612 0.16375 -0.72765 0.014036
-0.14148 0.042927 1.2628 7.7444e-39 405 311 0 0 0 0.6522 0.17209 -0.73825 0.014842
-0.14296 0.045143 1.2628 5.4396e-39 256.5 312 0 0 0 0.67025 0.17823 -0.72041 0.012702
-0.14296 0.047359 1.2628 6.0849e-39 454 312 0 0 0 0.67546 0.194 -0.71142 0.01116
-0.14296 0.048836 1.2628 7.6522e-39 213 313 0 0 0 0.68069 0.2066 -0.70283 0.00984
-0.2641 0.051053 1.2628 7.3296e-39 328 313 0 0 0 -0.7575 0.1979 -0.62212 0.0017708
-0.14443 0.051791 1.2628 5.163e-39 156 314 0 0 0 0.69017 0.21919 -0.68966 0.007078
-0.14296 0.051053 1.2628 6.3154e-39 278.5 313.5 0 0 0 0.68449 0.21875 -0.69543 0.0081339
-0.14443 0.053268 1.2628 6.2693e-39 263 314 0 0 0 0.69234 0.22785 -0.68465 0.00597
-0.14296 0.053268 1.2628 6.4537e-39 264 314 0 0 0 0.68507 0.23118 -0.69082 0.006504
-0.26262 0.056962 1.2628 6.5459e-39 332 314.5 0 0 0 -0.74049 0.19862 -0.64204 0.0017527
-0.14739 0.056962 1.2628 7.1913e-39 274.5 315 0 0 0 0.69779 0.24045 -0.67474 0.0043665
-0.14591 0.056962 1.2628 6.9608e-39 275.5 315 0 0 0 0.69538 0.24216 -0.67661 0.0045939
-0.26262 0.059178 1.2628 7.0069e-39 386 315 0 0 0 -0.73569 0.20421 -0.64581 0.001731
-0.14739 0.059178 1.2628 6.3615e-39 464 315 0 0 0 0.69623 0.24598 -0.67435 0.004144
-0.26262 0.060655 1.2628 6.0849e-39 141 316 0 0 0 -0.73297 0.21142 -0.64657 0.0019467
-0.26262 0.062133 1.2628 6.3615e-39 250 316 0 0 0 -0.73216 0.21485 -0.64636 0.0020568
-0.26114 0.06361 1.2628 8.1132e-39 420 316 0 0 0 -0.73116 0.21908 -0.64608 0.002086
-0.14886 0.06361 1.2628 5.9005e-39 149 317 0 0 0 0.69352 0.25632 -0.6733 0.0038216
-0.26114 0.065087 1.2628 6.5459e-39 175 317 0 0 0 -0.72934 0.22269 -0.64689 0.002233
-0.14886 0.065087 1.2628 6.2693e-39 256 317 0 0 0 0.69158 0.25891 -0.6743 0.0038306
-0.26114 0.066565 1.2628 5.0708e-39 294 317 0 0 0 -0.72977 0.22787 -0.64461 0.0023055
-0.15108 0.066565 1.2628 8.0671e-39 414.5 317 0 0 0 0.69182 0.25788 -0.67445 0.0037727
-0.25967 0.069519 1.2628 7.0991e-39 199 318 0 0 0 -0.7321 0.23413 -0.6397 0.0021768
-0.15108 0.06878 1.2628 6.1771e-39 225 318 0 0 0 0.69385 0.24972 -0.67544 0.0040158
-0.25967 0.070997 1.2628 6.1771e-39 359 318 0 0 0 -0.73026 0.23771 -0.64048 0.0022123
-0.15182 0.070997 1.2628 6.0849e-39 432 318 0 0 0 0.69634 0.24182 -0.67575 0.004092
-0.25819 0.073951 1.2628 6.4537e-39 222 319 0 0 0 -0.72882 0.25297 -0.63626 0.0020899
-0.1533 0.073213 1.2628 6.4997e-39 271.5 319 0 0 0 0.70277 0.23244 -0.67238 0.0041666
-0.15182 0.073213 1.2628 6.4076e-39 272.5 319 0 0 0 0.69956 0.23197 -0.67587 0.0042857
-0.25819 0.075429 1.2628 6.5459e-39 381 319 0 0 0 -0.73167 0.25489 -0.63221 0.0020199
-0.25671 0.079122 1.2628 7.4679e-39 327.5 320 0 0 0 -0.73366 0.26706 -0.62484 0.0018034
-0.15477 0.079861 1.2628 6.3615e-39 537 320 0 0 0 0.70752 0.20079 -0.67757 0.0041516
-0.25671 0.081338 1.2628 6.2693e-39 172 321 0 0 0 -0.73364 0.26518 -0.62566 0.0020111
-0.15477 0.081338 1.2628 6.6381e-39 244 321 0 0 0 0.70498 0.19767 -0.68112 0.0042823
-0.25671 0.082816 1.2628 6.1771e-39 278 321 0 0 0 -0.73409 0.26532 -0.62507 0.002086
-0.15625 0.082816 1.2628 8.8508e-39 396 321 0 0 0 0.69812 0.2005 -0.68734 0.004211
-0.25523 0.085032 1.2628 6.6842e-39 312.5 321.5 0 0 0 -0.73379 0.26506 -0.62554 0.0023211
-0.25376 0.08577 1.2628 7.1913e-39 196 322 0 0 0 -0.73393 0.26241 -0.62649 0.0021887
-0.15625 0.085032 1.2628 6.1771e-39 214 322 0 0 0 0.69306 0.2009 -0.69232 0.0042222
-0.25376 0.087248 1.2628 5.3473e-39 334 322 0 0 0 -0.73476 0.25757 -0.62752 0.002305
-0.15625 0.087248 1.2628 8.2054e-39 406 322 0 0 0 0.68908 0.20555 -0.69492 0.004291
-0.15625 0.088725 1.2628 5.9927e-39 170 323 0 0 0 0.68767 0.2082 -0.69553 0.0043576
-0.25228 0.090202 1.2628 6.5459e-39 206 323 0 0 0 -0.7359 0.24579 -0.63091 0.0023318
-0.15625 0.090941 1.2628 7.3296e-39 344 323 0 0 0 0.683 0.20933 -0.69978 0.0042781
-0.2508 0.093157 1.2628 6.7303e-39 451 323 0 0 0 -0.73651 0.23467 -0.63442 0.0025545
-0.15625 0.093157 1.2628 6.7303e-39 177 324 0 0 0 0.6796 0.20765 -0.70358 0.0042627
-0.2508 0.094635 1.2628 6.2693e-39 214 324 0 0 0 -0.7357 0.23113 -0.63665 0.002569
-0.15625 0.094635 1.2628 5.9005e-39 281 324 0 0 0 0.67823 0.20521 -0.70561 0.0043403
-0.24933 0.097589 1.2628 7.1913e-39 464 324 0 0 0 -0.72553 0.23357 -0.64734 0.0023614
-0.15921 0.09685 1.2628 8.0671e-39 300 324.5 0 0 0 0.68401 0.20472 -0.70016 0.0045152
-0.15773 0.097589 1.2628 7.4678e-39 188 325 0 0 0 0.68127 0.20319 -0.70327 0.0043579
-0.24933 0.099067 1.2628 6.2693e-39 224 325 0 0 0 -0.72424 0.23204 -0.64933 0.0024539
-0.16068 0.099067 1.2628 5.2552e-39 288 325 0 0 0 0.68772 0.20073 -0.69767 0.0045192
-0.15921 0.099067 1.2628 5.3473e-39 289 325 0 0 0 0.68476 0.20076 -0.70057 0.0044922
-0.15773 0.099067 1.2628 5.163e-39 290 325 0 0 0 0.68155 0.20165 -0.70344 0.004368
-0.24785 0.10054 1.2628 6.1771e-39 353 325 0 0 0 -0.72097 0.23101 -0.65333 0.002149
-0.16068 0.10054 1.2628 7.0991e-39 418 325 0 0 0 0.68744 0.19781 -0.69878 0.0046011
-0.15921 0.10054 1.2628 6.6381e-39 419 325 0 0 0 0.68539 0.19956 -0.7003 0.0044835
-0.15773 0.10054 1.2628 6.6381e-39 420 325 0 0 0 0.68339 0.20173 -0.70163 0.0045353
-0.24711 0.10276 1.2628 7.0529e-39 340 325.5 0 0 0 -0.72135 0.22474 -0.65509 0.0022155
-0.16068 0.10276 1.2628 5.8544e-39 237 326 0 0 0 0.68805 0.19908 -0.69782 0.004667
-0.15773 0.10202 1.2628 7.0069e-39 190 326 0 0 0 0.68406 0.20066 -0.70128 0.0046815
-0.24637 0.10498 1.2628 6.6381e-39 344 326 0 0 0 -0.72725 0.21399 -0.65217 0.0024406
-0.24637 0.10645 1.2628 6.0849e-39 430 326 0 0 0 -0.72961 0.20614 -0.65205 0.0026672
-0.16216 0.10793 1.2628 5.7161e-39 268 327 0 0 0 0.68834 0.19015 -0.70002 0.0051635
-0.16216 0.10941 1.2628 8.7586e-39 380 327 0 0 0 0.69009 0.18506 -0.69966 0.0051671
-0.1629 0.11089 1.2628 6.6381e-39 471.5 327 0 0 0 0.68945 0.1764 -0.70252 0.005333
-0.24489 0.1131 1.2628 6.2693e-39 204 328 0 0 0 -0.73496 0.1776 -0.65444 0.0036009
-0.16512 0.1131 1.2628 6.2232e-39 277.5 328 0 0 0 0.69469 0.15147 -0.70318 0.0050271
-0.16364 0.1131 1.2628 6.0388e-39 278.5 328 0 0 0 0.692 0.16008 -0.70393 0.0054642
-0.16512 0.11532 1.2628 7.0069e-39 407 328 0 0 0 0.69709 0.13793 -0.70359 0.0050585
-0.16364 0.11532 1.2628 7.0069e-39 408 328 0 0 0 0.69457 0.14339 -0.70499 0.0054733
-0.24317 -0.005838 1.2653 7.0529e-39 181.5 291 0 0 0 -0.10861 -0.88812 -0.44658 0.015366
-0.24095 -0.005838 1.2653 9.1274e-39 225 291 0 0 0 -0.057578 -0.88717 -0.45785 0.015223
-0.23923 -0.005832 1.264 7.8366e-39 226 291 0 0 0 -0.022678 -0.87842 -0.47735 0.016172
-0.23207 -0.005838 1.2653 9.4961e-39 231 291 0 0 0 0.12347 -0.84836 -0.51482 0.0065309
-0.22888 -0.0043531 1.264 6.8225e-39 382 293 0 0 0 0.13058 -0.84856 -0.51274 0.0060195
-0.22689 -0.005838 1.2653 3.5956e-39 138.5 292 0 0 0 0.12991 -0.84969 -0.51103 0.0065723
-0.22444 -0.0043531 1.264 6.2693e-39 493 293 0 0 0 0.12166 -0.85223 -0.50883 0.0059541
-0.22296 -0.0043531 1.264 5.9005e-39 495 293 0 0 0 0.11482 -0.85141 -0.51177 0.0062248
-0.22171 -0.0043576 1.2653 5.8083e-39 496 293 0 0 0 0.10043 -0.84595 -0.52372 0.0059386
-0.21875 -0.0043576 1.2653 6.5459e-39 498 293 0 0 0 0.07562 -0.84423 -0.53062 0.0054452
-0.20098 -0.0043576 1.2653 1.0234e-38 215 294 0 0 0 0.011752 -0.86943 -0.49392 0.0023486
-0.19062 -0.0043576 1.2653 6.5459e-39 222 294 0 0 0 0.013688 -0.8784 -0.47774 0.0036376
-0.18766 -0.0043576 1.2653 8.482e-39 224 294 0 0 0 0.021386 -0.88402 -0.46696 0.0041081
-0.14621 -0.0043576 1.2653 1.134e-38 230 294 0 0 0 0.24417 -0.68769 -0.68372 0.072663
-0.14473 -0.0043576 1.2653 1.0602e-38 231 294 0 0 0 0.28787 -0.65339 -0.70015 0.075397
-0.14088 -0.0043531 1.264 9.0812e-39 233.5 294 0 0 0 0.37951 -0.52246 -0.76355 0.077619
-0.13881 -0.005838 1.2653 8.2054e-39 220 293 0 0 0 0.35452 -0.53442 -0.76728 0.068333
-0.13726 -0.0050955 1.2647 6.6381e-39 300.5 293.5 0 0 0 0.38383 -0.47677 -0.7908 0.062858
-0.13504 -0.0043554 1.2647 6.9147e-39 381.5 294 0 0 0 0.41976 -0.35023 -0.83734 0.053813
-0.22023 -0.0028772 1.2653 2.8581e-39 146 295 0 0 0 0.08757 -0.846 -0.52594 0.0058326
-0.21705 -0.0028742 1.264 7.0069e-39 216 295 0 0 0 0.06298 -0.85056 -0.52209 0.0049477
-0.21494 -0.0028757 1.2647 4.7942e-39 217.5 295 0 0 0 0.056272 -0.85061 -0.52278 0.0048257
-0.21283 -0.0028772 1.2653 4.702e-39 219 295 0 0 0 0.046254 -0.85403 -0.51816 0.0046766
-0.20542 -0.0028772 1.2653 9.404e-39 224 295 0 0 0 0.020163 -0.86306 -0.5047 0.0033821
-0.2032 -0.0028772 1.2653 9.6344e-39 225.5 295 0 0 0 0.015547 -0.86814 -0.49607 0.0028327
-0.20078 -0.0028742 1.264 9.7727e-39 227 295 0 0 0 0.011071 -0.8733 -0.48705 0.0026505
-0.1993 -0.0028742 1.264 1.0049e-38 228 295 0 0 0 0.015199 -0.87447 -0.48485 0.0024117
-0.19708 -0.0028742 1.264 1.0188e-38 229.5 295 0 0 0 0.0098563 -0.87803 -0.4785 0.0025587
-0.19486 -0.0028742 1.264 1.0049e-38 231 295 0 0 0 0.011984 -0.87903 -0.47662 0.0029492
-0.1919 -0.0028742 1.264 9.1274e-39 233 295 0 0 0 0.0062064 -0.87773 -0.47912 0.0031318
-0.18914 -0.0028772 1.2653 6.3615e-39 235 295 0 0 0 0.0149 -0.88227 -0.47051 0.0039206
-0.18683 -0.0028757 1.2647 6.2232e-39 237 295 0 0 0 0.02254 -0.88646 -0.46225 0.0041333
-0.1847 -0.0028772 1.2653 6.0849e-39 240 295 0 0 0 0.026374 -0.89055 -0.45411 0.0047304
-0.18303 -0.0028742 1.264 5.9005e-39 241 295 0 0 0 0.020966 -0.89679 -0.44196 0.0047084
-0.15213 -0.0028772 1.2653 6.8225e-39 411 295 0 0 0 0.088112 -0.83989 -0.53556 0.04311
-0.15065 -0.0028772 1.2653 7.0991e-39 412 295 0 0 0 0.14341 -0.78849 -0.5981 0.057446
-0.14917 -0.0028772 1.2653 7.0069e-39 413 295 0 0 0 0.19183 -0.72663 -0.6597 0.06777
-0.14754 -0.0028742 1.264 6.8225e-39 414 295 0 0 0 0.26123 -0.67914 -0.68595 0.081334
-0.1431 -0.0028742 1.264 6.8225e-39 417 295 0 0 0 0.36944 -0.55271 -0.74701 0.085232
-0.13719 -0.0028742 1.264 8.2054e-39 458 295 0 0 0 0.41724 -0.39106 -0.82036 0.067214
-0.13497 -0.0028742 1.264 6.5459e-39 490.5 295 0 0 0 0.44045 -0.32531 -0.83677 0.057006
-0.13289 -0.0028772 1.2653 6.7303e-39 492 295 0 0 0 0.44176 -0.28826 -0.84956 0.047725
-0.25993 -0.0013954 1.264 5.9005e-39 495 295 0 0 0 -0.38075 -0.71835 -0.58224 0.015517
-0.21113 -0.0013954 1.264 1.0142e-38 228 296 0 0 0 0.037047 -0.85864 -0.51124 0.0041766
-0.20965 -0.0013954 1.264 1.0142e-38 229 296 0 0 0 0.030952 -0.8609 -0.50782 0.0040682
-0.19338 -0.0013954 1.264 6.3615e-39 240 296 0 0 0 0.0089309 -0.87931 -0.47617 0.0028835
-0.18007 -0.0013954 1.264 7.0069e-39 260 296 0 0 0 0.018161 -0.90698 -0.42079 0.0048263
-0.17878 -0.0013968 1.2653 6.6381e-39 377 296 0 0 0 0.024757 -0.90703 -0.42034 0.004965
-0.17564 -0.0013954 1.264 6.5459e-39 379 296 0 0 0 0.02081 -0.917 -0.39835 0.0043895
-0.17286 -0.0013968 1.2653 7.0069e-39 382 296 0 0 0 0.026885 -0.92472 -0.3797 0.0036965
-0.16916 -0.0013968 1.2653 6.4998e-39 393.5 296 0 0 0 0.010146 -0.93538 -0.35351 0.0026294
-0.15879 -0.0013968 1.2653 7.0069e-39 400.5 296 0 0 0 -0.014262 -0.91564 -0.40175 0.0062766
-0.15657 -0.0013968 1.2653 6.8225e-39 402 296 0 0 0 0.0067868 -0.89854 -0.43884 0.013252
-0.15509 -0.0013968 1.2653 7.0069e-39 403 296 0 0 0 0.044837 -0.88566 -0.46216 0.024535
-0.15345 -0.0013954 1.264 6.2693e-39 408 296 0 0 0 0.11893 -0.84117 -0.52754 0.047242
-0.13497 -0.0013954 1.264 6.2232e-39 420.5 296 0 0 0 0.45155 -0.28041 -0.84704 0.059269
-0.13275 -0.0013954 1.264 6.2693e-39 422 296 0 0 0 0.45752 -0.25841 -0.85082 0.048756
-0.26316 0.001564 1.2653 6.9147e-39 395 297 0 0 0 -0.43111 -0.66774 -0.60685 0.016238
-0.26141 0.0015624 1.264 7.4678e-39 396 297 0 0 0 -0.42282 -0.66686 -0.61361 0.018496
-0.25993 8.3516e-05 1.264 5.8083e-39 426 296 0 0 0 -0.38902 -0.70609 -0.59169 0.017228
-0.13497 0.00082296 1.264 6.2232e-39 297 297.5 0 0 0 0.46292 -0.22927 -0.85624 0.059263
-0.13275 0.00082296 1.264 6.2693e-39 304 297.5 0 0 0 0.46431 -0.20655 -0.86125 0.050041
-0.13141 0.0008238 1.2653 6.3615e-39 305 297.5 0 0 0 0.44427 -0.17563 -0.87851 0.043113
-0.13423 0.0030413 1.264 6.0849e-39 475 298 0 0 0 0.47095 -0.16528 -0.86654 0.053868
-0.13275 0.0030413 1.264 6.1771e-39 476 298 0 0 0 0.46426 -0.14961 -0.87297 0.047592
-0.13141 0.0030444 1.2653 5.9927e-39 477 298 0 0 0 0.44666 -0.12588 -0.88581 0.040747
-0.13472 0.0050131 1.264 8.6665e-39 276 299.33 0 0 0 0.4825 -0.13708 -0.8651 0.052526
-0.13282 0.0052619 1.2647 9.3581e-39 287 299.5 0 0 0 0.46436 -0.11918 -0.87759 0.045328
-0.13141 0.0045248 1.2653 6.7303e-39 375 299 0 0 0 0.44167 -0.10319 -0.89122 0.038209
-0.12992 0.0045248 1.2653 7.0069e-39 376 299 0 0 0 0.44038 -0.097299 -0.89252 0.036313
-0.13275 0.0074779 1.264 7.0991e-39 416 300 0 0 0 0.47806 -0.07175 -0.87539 0.040195
-0.13141 0.0067454 1.2653 8.9428e-39 309 300 0 0 0 0.44335 -0.073135 -0.89336 0.03539
-0.12918 0.0067454 1.2653 7.5601e-39 310.5 300 0 0 0 0.44207 -0.043145 -0.89594 0.027911
-0.12696 0.0074855 1.2653 6.1771e-39 420 300 0 0 0 0.39936 -0.0062759 -0.91677 0.017889
-0.13275 0.0089568 1.264 6.9147e-39 228 301 0 0 0 0.47437 -0.043625 -0.87924 0.035509
-0.13141 0.0089659 1.2653 7.0991e-39 229 301 0 0 0 0.43799 -0.023532 -0.89867 0.027595
-0.12918 0.0089659 1.2653 6.6842e-39 230.5 301 0 0 0 0.43207 -0.0020328 -0.90184 0.022228
-0.12696 0.0089659 1.2653 6.5459e-39 232 301 0 0 0 0.40392 0.012622 -0.91471 0.016399
-0.12548 0.0089659 1.2653 6.2693e-39 233 301 0 0 0 0.3965 0.017587 -0.91787 0.015155
-0.13282 0.011181 1.2647 6.7303e-39 364 301.5 0 0 0 0.46774 0.0014616 -0.88387 0.029525
-0.13141 0.011187 1.2653 6.592e-39 365 301.5 0 0 0 0.44174 0.014109 -0.89703 0.02296
-0.12918 0.011187 1.2653 5.9466e-39 392.5 301.5 0 0 0 0.42246 0.025325 -0.90603 0.020119
-0.12696 0.011187 1.2653 5.9005e-39 420 301.5 0 0 0 0.3944 0.039616 -0.91809 0.014066
-0.12548 0.010446 1.2653 6.3615e-39 474 301 0 0 0 0.39732 0.033164 -0.91708 0.013895
-0.13289 0.013407 1.2653 3.8722e-39 536 302 0 0 0 0.45104 0.046125 -0.89131 0.020632
-0.13141 0.013407 1.2653 3.8722e-39 537 302 0 0 0 0.4386 0.057665 -0.89683 0.018147
-0.12918 0.013407 1.2653 3.8722e-39 538.5 302 0 0 0 0.41512 0.064604 -0.90747 0.014651
-0.12696 0.013407 1.2653 5.2552e-39 139 303 0 0 0 0.3893 0.063479 -0.91892 0.011938
-0.13423 0.014872 1.264 7.3757e-39 375 303 0 0 0 0.48281 0.05828 -0.87378 0.02292
-0.13289 0.014887 1.2653 6.8225e-39 376 303 0 0 0 0.45185 0.06517 -0.88971 0.018507
-0.13141 0.014887 1.2653 6.8225e-39 377 303 0 0 0 0.43414 0.071434 -0.89801 0.016926
-0.12992 0.014887 1.2653 7.0991e-39 378 303 0 0 0 0.41686 0.074218 -0.90594 0.014636
-0.13867 0.01783 1.264 7.1913e-39 371 304 0 0 0 0.52016 0.091423 -0.84916 0.021481
-0.13719 0.01783 1.264 7.1913e-39 372 304 0 0 0 0.51521 0.095379 -0.85174 0.020444
-0.13497 0.01709 1.264 5.4626e-39 456 303.5 0 0 0 0.49494 0.086977 -0.86456 0.020058
-0.13289 0.017108 1.2653 5.4856e-39 457.5 303.5 0 0 0 0.45098 0.088813 -0.88811 0.016454
-0.13141 0.017108 1.2653 6.0849e-39 257.5 304 0 0 0 0.42549 0.089274 -0.90055 0.013834
-0.12943 0.017355 1.2653 6.423e-39 298.33 304 0 0 0 0.40177 0.091603 -0.91115 0.011093
-0.12252 0.017848 1.2653 6.6381e-39 382 304 0 0 0 0.33258 0.088844 -0.93888 0.0086649
-0.13867 0.019309 1.264 6.1771e-39 476 304 0 0 0 0.52526 0.10902 -0.84393 0.019692
-0.13719 0.019309 1.264 6.3615e-39 477 304 0 0 0 0.50844 0.1074 -0.85437 0.018742
-0.13497 0.019309 1.264 6.3615e-39 504.5 304 0 0 0 0.48899 0.10437 -0.86602 0.017411
-0.13289 0.019329 1.2653 6.4537e-39 532 304 0 0 0 0.43652 0.096319 -0.89452 0.012584
-0.13141 0.019329 1.2653 5.5317e-39 533 304 0 0 0 0.42486 0.09848 -0.89989 0.011525
-0.12918 0.019329 1.2653 4.0566e-39 534.5 304 0 0 0 0.39779 0.10029 -0.91198 0.0095138
-0.12252 0.019329 1.2653 3.6878e-39 539 304 0 0 0 0.33391 0.098185 -0.93748 0.0082509
-0.13867 0.020788 1.264 7.0069e-39 254 305 0 0 0 0.52658 0.11765 -0.84195 0.019125
-0.13719 0.020788 1.264 6.6381e-39 255 305 0 0 0 0.50137 0.11204 -0.85795 0.01743
-0.13497 0.020788 1.264 6.592e-39 256.5 305 0 0 0 0.48212 0.10637 -0.86963 0.015924
-0.13289 0.020809 1.2653 6.8225e-39 258 305 0 0 0 0.4414 0.10487 -0.89116 0.012329
-0.13141 0.020809 1.2653 6.5459e-39 259 305 0 0 0 0.42265 0.1062 -0.90005 0.010977
-0.12918 0.020809 1.2653 6.6842e-39 260.5 305 0 0 0 0.39325 0.10614 -0.91329 0.0087705
-0.12252 0.020809 1.2653 5.9005e-39 273 305 0 0 0 0.33995 0.10927 -0.93407 0.0096817
-0.13719 0.023006 1.264 7.3296e-39 334.5 305.5 0 0 0 0.49989 0.11534 -0.85838 0.016712
-0.13497 0.023006 1.264 7.03e-39 336.25 305.5 0 0 0 0.47685 0.11232 -0.87178 0.014475
-0.13289 0.02303 1.2653 6.5459e-39 338 305.5 0 0 0 0.44432 0.11401 -0.88858 0.011689
-0.13141 0.02303 1.2653 6.6842e-39 339 305.5 0 0 0 0.42214 0.11214 -0.89957 0.0097557
-0.12992 0.02303 1.2653 6.5919e-39 340 305.5 0 0 0 0.412 0.11897 -0.90338 0.0094477
-0.12252 0.022289 1.2653 6.8225e-39 463 305 0 0 0 0.34291 0.11644 -0.93212 0.0095148
-0.13719 0.025224 1.264 8.1132e-39 424 306 0 0 0 0.49094 0.1203 -0.86285 0.015455
-0.13497 0.025224 1.264 7.9749e-39 425.5 306 0 0 0 0.47948 0.12121 -0.86914 0.013964
-0.13141 0.02525 1.2653 7.8366e-39 428 306 0 0 0 0.4233 0.12773 -0.89694 0.0093916
-0.12992 0.02525 1.2653 8.021e-39 429 306 0 0 0 0.41756 0.13039 -0.89925 0.0093864
-0.13867 0.026703 1.264 4.9786e-39 186 307 0 0 0 0.52851 0.11195 -0.84151 0.018568
-0.13719 0.026703 1.264 4.9786e-39 187 307 0 0 0 0.4997 0.11647 -0.85833 0.016279
-0.13497 0.026703 1.264 5.9005e-39 188.5 307 0 0 0 0.47794 0.11991 -0.87017 0.013591
-0.13141 0.026731 1.2653 7.3757e-39 191 307 0 0 0 0.42533 0.13437 -0.89501 0.0093226
-0.14014 0.029661 1.264 5.6239e-39 146 308 0 0 0 0.55546 0.11285 -0.82385 0.018992
-0.13867 0.028921 1.264 6.1771e-39 267 307.5 0 0 0 0.53655 0.11696 -0.83573 0.019187
-0.13733 0.028951 1.2653 5.9006e-39 270 307.5 0 0 0 0.50101 0.12548 -0.8563 0.016609
-0.13511 0.028951 1.2653 5.7622e-39 271.5 307.5 0 0 0 0.47716 0.13967 -0.86764 0.013854
-0.13141 0.028211 1.2653 7.0069e-39 396 307 0 0 0 0.43132 0.14407 -0.89062 0.010069
-0.14014 0.03114 1.264 5.5317e-39 272 308 0 0 0 0.56553 0.1116 -0.81714 0.019615
-0.13867 0.03114 1.264 5.0708e-39 273 308 0 0 0 0.54248 0.11936 -0.83154 0.019425
-0.13733 0.031172 1.2653 5.0708e-39 274 308 0 0 0 0.51747 0.13399 -0.84515 0.01769
-0.13511 0.031172 1.2653 4.9786e-39 275.5 308 0 0 0 0.49956 0.14555 -0.85396 0.01625
-0.14014 0.032619 1.264 5.7161e-39 455 308 0 0 0 0.57515 0.11279 -0.81023 0.019279
-0.13867 0.032619 1.264 5.5317e-39 456 308 0 0 0 0.5508 0.12274 -0.82557 0.019219
-0.13733 0.032652 1.2653 5.2552e-39 457 308 0 0 0 0.52464 0.13755 -0.84014 0.018074
-0.13511 0.032652 1.2653 5.4856e-39 458.5 308 0 0 0 0.50931 0.14902 -0.84758 0.017156
-0.14014 0.034837 1.264 7.0069e-39 307.5 309 0 0 0 0.58725 0.11833 -0.80071 0.019332
-0.13867 0.034837 1.264 6.8686e-39 308.5 309 0 0 0 0.56999 0.13283 -0.81084 0.019527
-0.13733 0.034873 1.2653 6.9608e-39 309.5 309 0 0 0 0.53898 0.15415 -0.82809 0.019252
-0.13511 0.034873 1.2653 7.7444e-39 311 309 0 0 0 0.53118 0.16678 -0.83068 0.018802
-0.14014 0.037055 1.264 3.1347e-39 164 310 0 0 0 0.60038 0.13137 -0.78885 0.019112
-0.13867 0.037055 1.264 3.0425e-39 165 310 0 0 0 0.58834 0.14048 -0.79632 0.019222
-0.13733 0.037093 1.2653 3.5956e-39 166 310 0 0 0 0.5612 0.16364 -0.81135 0.019252
-0.13585 0.037093 1.2653 4.8864e-39 167 310 0 0 0 0.54541 0.17911 -0.81881 0.018939
-0.14014 0.038534 1.264 6.4537e-39 358 310 0 0 0 0.60442 0.14317 -0.7837 0.018319
-0.13867 0.038534 1.264 5.9005e-39 359 310 0 0 0 0.60142 0.15383 -0.78398 0.018576
-0.14063 0.040999 1.264 6.8225e-39 293.33 310.67 0 0 0 0.62324 0.17157 -0.76298 0.016354
-0.13881 0.040794 1.2653 6.7303e-39 335.5 310.5 0 0 0 0.60463 0.18676 -0.7743 0.0168
-0.14014 0.042971 1.264 8.2054e-39 406 311 0 0 0 0.62752 0.18635 -0.75597 0.01522
-0.13881 0.043015 1.2653 8.3898e-39 407 311 0 0 0 0.61513 0.20036 -0.76254 0.0155
-0.14096 0.045212 1.2647 5.7622e-39 258 312 0 0 0 0.64295 0.19828 -0.7398 0.013479
-0.13881 0.044495 1.2653 5.0708e-39 162 312 0 0 0 0.62205 0.20504 -0.75566 0.014335
-0.14096 0.047431 1.2647 5.9005e-39 455.5 312 0 0 0 0.65206 0.20727 -0.72929 0.011581
-0.14096 0.048911 1.2647 7.3296e-39 214.5 313 0 0 0 0.65384 0.22161 -0.72345 0.01059
-0.14096 0.051131 1.2647 7.0992e-39 280 313.5 0 0 0 0.66021 0.23149 -0.71452 0.0088458
-0.26437 0.053323 1.264 6.5459e-39 176 314 0 0 0 -0.75485 0.18877 -0.62815 0.0018496
-0.14096 0.053351 1.2647 7.1452e-39 265.5 314 0 0 0 0.66393 0.23852 -0.70874 0.0073498
-0.26437 0.054802 1.264 5.2552e-39 352 314 0 0 0 -0.74992 0.19126 -0.63328 0.0018283
-0.14458 0.054802 1.264 8.6664e-39 433 314 0 0 0 0.69013 0.23606 -0.68411 0.0054379
-0.1431 0.054802 1.264 8.021e-39 434 314 0 0 0 0.68285 0.23934 -0.69024 0.0059981
-0.14162 0.054802 1.264 7.1913e-39 435 314 0 0 0 0.67602 0.24304 -0.69565 0.0062061
-0.2645 0.05705 1.2647 6.4537e-39 331 314.5 0 0 0 -0.74543 0.19043 -0.63881 0.0017081
-0.14466 0.05705 1.2647 7.0991e-39 276.5 315 0 0 0 0.68947 0.24381 -0.68205 0.0046627
-0.14325 0.057079 1.2653 7.0991e-39 278 315 0 0 0 0.68479 0.2493 -0.68477 0.0050668
-0.14169 0.05705 1.2647 6.9147e-39 279 315 0 0 0 0.67857 0.25271 -0.6897 0.0054611
-0.26464 0.059299 1.2653 6.3615e-39 385 315 0 0 0 -0.74409 0.19233 -0.6398 0.0016812
-0.14606 0.059238 1.264 6.5459e-39 465 315 0 0 0 0.69652 0.24651 -0.67387 0.0042203
-0.14473 0.059299 1.2653 6.7303e-39 466 315 0 0 0 0.6914 0.25047 -0.67767 0.0042832
-0.14325 0.059299 1.2653 7.0069e-39 467 315 0 0 0 0.68823 0.25247 -0.68015 0.0044866
-0.14177 0.059299 1.2653 6.8225e-39 468 315 0 0 0 0.68393 0.25548 -0.68335 0.0046674
-0.26464 0.06078 1.2653 5.9927e-39 140 316 0 0 0 -0.74441 0.20112 -0.63671 0.0020984
-0.1468 0.060717 1.264 6.4076e-39 222.5 316 0 0 0 0.69629 0.25171 -0.67218 0.0039885
-0.26464 0.063 1.2653 7.1913e-39 333.5 316 0 0 0 -0.74602 0.20987 -0.63198 0.0024216
-0.26289 0.063675 1.264 8.2976e-39 419 316 0 0 0 -0.7333 0.21878 -0.64375 0.0023489
-0.14691 0.062984 1.265 7.4448e-39 273.5 316.5 0 0 0 0.69475 0.25748 -0.67158 0.0040562
-0.26289 0.065154 1.264 6.1771e-39 174 317 0 0 0 -0.73449 0.22167 -0.6414 0.0024889
-0.14695 0.065221 1.2653 6.3615e-39 257.5 317 0 0 0 0.69485 0.25287 -0.67323 0.0041367
-0.26289 0.066633 1.264 6.2693e-39 279 317 0 0 0 -0.73326 0.22681 -0.641 0.0025657
-0.14902 0.066633 1.264 8.5742e-39 416 317 0 0 0 0.69029 0.25789 -0.67602 0.0039878
-0.14769 0.066701 1.2653 8.6664e-39 417 317 0 0 0 0.69233 0.25567 -0.67477 0.0043494
-0.26302 0.068887 1.2647 6.6842e-39 318 317.5 0 0 0 -0.7332 0.23522 -0.63804 0.0028071
-0.26141 0.068852 1.264 6.8686e-39 319 317.5 0 0 0 -0.73136 0.234 -0.64059 0.0025261
-0.14902 0.068852 1.264 6.2693e-39 226.5 318 0 0 0 0.69072 0.25092 -0.67819 0.00415
-0.14769 0.068921 1.2653 5.7622e-39 234 318 0 0 0 0.69291 0.25093 -0.67595 0.0045539
-0.26316 0.071142 1.2653 5.9927e-39 357 318 0 0 0 -0.73446 0.24408 -0.63324 0.0028704
-0.26168 0.071142 1.2653 5.9927e-39 358 318 0 0 0 -0.73526 0.24417 -0.63227 0.0028208
-0.1505 0.071069 1.264 6.5459e-39 433 318 0 0 0 0.69509 0.24123 -0.67725 0.0043346
-0.14902 0.071069 1.264 6.3615e-39 434 318 0 0 0 0.69601 0.24096 -0.67639 0.0044422
-0.14769 0.071142 1.2653 5.8083e-39 435 318 0 0 0 0.69479 0.24317 -0.67686 0.0047888
-0.26168 0.072623 1.2653 5.9005e-39 458 318 0 0 0 -0.73528 0.24883 -0.63043 0.0026149
-0.25993 0.072548 1.264 6.2693e-39 459 318 0 0 0 -0.73331 0.24569 -0.63394 0.0023704
-0.1505 0.072548 1.264 7.6522e-39 195 319 0 0 0 0.69593 0.23658 -0.67802 0.0044974
-0.14917 0.072623 1.2653 7.3757e-39 196 319 0 0 0 0.69525 0.23601 -0.67892 0.0046844
-0.2602 0.074103 1.2653 6.9147e-39 221 319 0 0 0 -0.73373 0.25759 -0.62871 0.0022652
-0.15345 0.075506 1.264 6.2693e-39 452 319 0 0 0 0.70353 0.21684 -0.67678 0.0040932
-0.15099 0.075013 1.264 6.0542e-39 419.67 319 0 0 0 0.69995 0.22383 -0.67822 0.0043754
-0.14917 0.074843 1.2653 5.9927e-39 404 319 0 0 0 0.6986 0.22688 -0.67859 0.0048923
-0.25845 0.076985 1.264 1.9361e-39 544 319 0 0 0 -0.73308 0.26492 -0.62642 0.0019759
-0.15345 0.076985 1.264 6.5459e-39 216 320 0 0 0 0.70505 0.21207 -0.67671 0.0040593
-0.15124 0.076985 1.264 6.4076e-39 217.5 320 0 0 0 0.70125 0.21433 -0.67993 0.0043827
-0.14917 0.077064 1.2653 6.4537e-39 219 320 0 0 0 0.70162 0.21146 -0.68045 0.0049286
-0.25872 0.078544 1.2653 6.5459e-39 248 320 0 0 0 -0.73521 0.26747 -0.62283 0.0020011
-0.15345 0.079204 1.264 6.592e-39 457 320 0 0 0 0.70681 0.20033 -0.67845 0.0041704
-0.15132 0.078504 1.2647 6.4998e-39 377.5 320 0 0 0 0.70196 0.20139 -0.68315 0.0043535
-0.14917 0.078544 1.2653 6.3615e-39 379 320 0 0 0 0.70176 0.20066 -0.68357 0.0047442
-0.15257 0.080984 1.2649 6.0234e-39 343.33 320.67 0 0 0 0.70072 0.19016 -0.68763 0.0039477
-0.15065 0.080765 1.2653 5.1629e-39 393.5 320.5 0 0 0 0.70278 0.19025 -0.68549 0.0042479
-0.15493 0.0829 1.264 8.7586e-39 397 321 0 0 0 0.70233 0.19401 -0.6849 0.0041577
-0.15287 0.082985 1.2653 8.482e-39 398.5 321 0 0 0 0.69861 0.18756 -0.69048 0.0040537
-0.15065 0.082985 1.2653 8.6664e-39 400 321 0 0 0 0.70017 0.18523 -0.68953 0.0038813
-0.25711 0.085163 1.2647 6.6842e-39 311.5 321.5 0 0 0 -0.73799 0.26418 -0.62095 0.0024965
-0.15493 0.085119 1.264 5.9927e-39 215 322 0 0 0 0.69754 0.19443 -0.68966 0.004221
-0.15361 0.085206 1.2653 5.67e-39 216 322 0 0 0 0.69776 0.18719 -0.69144 0.0042035
-0.2555 0.087337 1.264 5.163e-39 333 322 0 0 0 -0.73612 0.26085 -0.62457 0.0025619
-0.15493 0.087337 1.264 8.3898e-39 407 322 0 0 0 0.68997 0.19893 -0.69597 0.0040778
-0.15361 0.087427 1.2653 8.5742e-39 408 322 0 0 0 0.69268 0.19186 -0.69526 0.0040122
-0.25489 0.088862 1.2647 6.131e-39 440.5 322 0 0 0 -0.73603 0.25212 -0.62825 0.00268
-0.15493 0.088816 1.264 5.9927e-39 171 323 0 0 0 0.68669 0.20221 -0.69826 0.0041296
-0.15361 0.088907 1.2653 5.9927e-39 172 323 0 0 0 0.69045 0.19719 -0.69598 0.004072
-0.25477 0.090881 1.2653 6.761e-39 250.33 323 0 0 0 -0.74043 0.24231 -0.62694 0.0029005
-0.25254 0.091774 1.264 6.1771e-39 343 323 0 0 0 -0.73694 0.23838 -0.63253 0.0026714
-0.15493 0.091035 1.264 7.514e-39 345 323 0 0 0 0.68205 0.20686 -0.70144 0.00411
-0.15361 0.091127 1.2653 7.6983e-39 346 323 0 0 0 0.68271 0.1999 -0.70282 0.0039356
-0.25254 0.093253 1.264 6.5459e-39 450 323 0 0 0 -0.73741 0.23262 -0.63413 0.0028159
-0.15493 0.093253 1.264 7.1913e-39 178 324 0 0 0 0.67698 0.20396 -0.70718 0.0040836
-0.15361 0.093348 1.2653 7.56e-39 179 324 0 0 0 0.6802 0.20024 -0.70515 0.0041008
-0.25254 0.094731 1.264 6.2693e-39 213 324 0 0 0 -0.73706 0.22795 -0.63622 0.0028128
-0.15493 0.094731 1.264 5.5317e-39 282 324 0 0 0 0.67877 0.2042 -0.70538 0.0043158
-0.15361 0.094828 1.2653 5.2552e-39 283 324 0 0 0 0.6808 0.20269 -0.70386 0.0043844
-0.25267 0.096999 1.2647 6.8224e-39 403.5 324 0 0 0 -0.73843 0.22411 -0.63601 0.0030551
-0.25106 0.09695 1.264 6.7764e-39 404.5 324 0 0 0 -0.73109 0.22687 -0.64345 0.002689
-0.15641 0.09695 1.264 8.1593e-39 302 324.5 0 0 0 0.67812 0.20596 -0.7055 0.0043055
-0.15509 0.097049 1.2653 7.8827e-39 303 324.5 0 0 0 0.67641 0.20457 -0.70755 0.0043674
-0.15361 0.097049 1.2653 7.3757e-39 304 324.5 0 0 0 0.68182 0.20723 -0.70156 0.0047247
-0.2528 0.09927 1.2653 5.8083e-39 222 325 0 0 0 -0.73506 0.22104 -0.64095 0.0031868
-0.25106 0.099168 1.264 5.9005e-39 223 325 0 0 0 -0.72758 0.2261 -0.64769 0.0028128
-0.15641 0.099168 1.264 5.0708e-39 291 325 0 0 0 0.67829 0.20291 -0.70622 0.0044283
-0.2528 0.10075 1.2653 5.9927e-39 350 325 0 0 0 -0.73117 0.22168 -0.64517 0.0032082
-0.25106 0.10065 1.264 5.9927e-39 351 325 0 0 0 -0.72176 0.22734 -0.65374 0.0026237
-0.24958 0.10065 1.264 5.8083e-39 352 325 0 0 0 -0.72248 0.22762 -0.65285 0.0025829
-0.15641 0.10065 1.264 6.8225e-39 421 325 0 0 0 0.68019 0.20578 -0.70356 0.0046313
-0.25132 0.10297 1.2653 6.4076e-39 337.5 325.5 0 0 0 -0.72139 0.2214 -0.65618 0.0028689
-0.24917 0.10315 1.2644 6.761e-39 298 325.67 0 0 0 -0.72248 0.22052 -0.65529 0.0026348
-0.15937 0.10287 1.264 5.8544e-39 238 326 0 0 0 0.68526 0.20065 -0.70011 0.0048318
-0.1569 0.10311 1.264 5.7162e-39 256 326 0 0 0 0.68383 0.20374 -0.70062 0.0049572
-0.24897 0.10514 1.2647 6.4076e-39 342.5 326 0 0 0 -0.71617 0.21885 -0.66272 0.0023003
-0.16085 0.10508 1.264 9.3118e-39 404 326 0 0 0 0.68567 0.19953 -0.70003 0.0050339
-0.15937 0.10508 1.264 9.1274e-39 405 326 0 0 0 0.68622 0.19955 -0.69949 0.0051547
-0.15723 0.10514 1.2647 8.6664e-39 406.5 326 0 0 0 0.68454 0.20534 -0.69945 0.0054741
-0.24836 0.10667 1.2653 5.9927e-39 429 326 0 0 0 -0.71339 0.2176 -0.66613 0.0022696
-0.16085 0.10656 1.264 5.8083e-39 166 327 0 0 0 0.68549 0.1945 -0.70162 0.0051798
-0.15953 0.10667 1.2653 6.5459e-39 167 327 0 0 0 0.68608 0.20287 -0.69867 0.0058023
-0.15723 0.10661 1.2647 6.5459e-39 168.5 327 0 0 0 0.68782 0.20585 -0.69608 0.0060095
-0.24836 0.10889 1.2653 6.1772e-39 244 327 0 0 0 -0.7148 0.2092 -0.66731 0.0024802
-0.24662 0.10878 1.264 5.7622e-39 246 327 0 0 0 -0.72924 0.19758 -0.65511 0.0028763
-0.16085 0.10878 1.264 6.8224e-39 325 327 0 0 0 0.68426 0.19128 -0.70371 0.0054964
-0.15879 0.10889 1.2653 6.592e-39 326.5 327 0 0 0 0.68544 0.20315 -0.69922 0.0065172
-0.15657 0.10889 1.2653 6.6842e-39 328 327 0 0 0 0.68842 0.21137 -0.69383 0.006694
-0.24688 0.11111 1.2653 8.8508e-39 403 327 0 0 0 -0.72294 0.19549 -0.66267 0.0031818
-0.16085 0.111 1.264 6.4537e-39 473 327 0 0 0 0.68662 0.18655 -0.70268 0.0060446
-0.15879 0.11111 1.2653 6.5459e-39 529.5 327 0 0 0 0.68673 0.20246 -0.69814 0.0072377
-0.24688 0.11259 1.2653 5.9005e-39 154 328 0 0 0 -0.72375 0.188 -0.66395 0.0034855
-0.16233 0.11322 1.264 5.8083e-39 279.5 328 0 0 0 0.69251 0.16597 -0.70205 0.0060477
-0.16085 0.11248 1.264 5.9005e-39 220 328 0 0 0 0.68745 0.18076 -0.70338 0.0061872
-0.15879 0.11259 1.2653 5.7622e-39 221.5 328 0 0 0 0.68896 0.19836 -0.69713 0.0075357
-0.24514 0.11544 1.264 5.5317e-39 354 328 0 0 0 -0.73168 0.16997 -0.66011 0.004269
-0.16233 0.11544 1.264 6.9147e-39 409 328 0 0 0 0.68981 0.14933 -0.70842 0.0059748
-0.16101 0.11481 1.2653 6.2232e-39 375.5 328 0 0 0 0.69038 0.17187 -0.70273 0.0069325
-0.15805 0.11407 1.2653 6.6381e-39 343 328 0 0 0 0.69232 0.19675 -0.69425 0.008019
-0.24514 0.11691 1.264 7.4678e-39 416 328 0 0 0 -0.73401 0.16162 -0.65963 0.0045104
-0.16233 0.11691 1.264 6.1771e-39 521 328 0 0 0 0.6896 0.14374 -0.70978 0.0062861
-0.16101 0.11703 1.2653 6.4537e-39 524 328 0 0 0 0.69032 0.16441 -0.70457 0.006986
-0.23255 -0.0073334 1.2679 7.0069e-39 231 289 0 0 0 0.128 -0.84649 -0.5168 0.0072294
-0.23106 -0.0073334 1.2679 7.1913e-39 232 289 0 0 0 0.12957 -0.84651 -0.51637 0.007152
-0.22958 -0.0073334 1.2679 3.9644e-39 138 290 0 0 0 0.13614 -0.84351 -0.51957 0.0074152
-0.22724 -0.0073296 1.2673 8.8969e-39 228.5 290 0 0 0 0.13268 -0.84362 -0.52029 0.007291
-0.22513 -0.0073334 1.2679 8.5742e-39 230 290 0 0 0 0.12398 -0.83725 -0.53257 0.0063805
-0.22365 -0.0073334 1.2679 7.9288e-39 231 290 0 0 0 0.1169 -0.83988 -0.53004 0.006652
-0.23848 -0.0058499 1.2679 7.8366e-39 227 291 0 0 0 -0.003324 -0.8952 -0.44565 0.013994
-0.23676 -0.0058439 1.2666 8.482e-39 228 291 0 0 0 0.031102 -0.87621 -0.48093 0.012642
-0.23527 -0.0058439 1.2666 9.9571e-39 229 291 0 0 0 0.073624 -0.86383 -0.49837 0.010027
-0.23379 -0.0058439 1.2666 1.0326e-38 230 291 0 0 0 0.10494 -0.85597 -0.50626 0.0079281
-0.23083 -0.0058439 1.2666 9.4961e-39 232 291 0 0 0 0.12969 -0.84903 -0.51219 0.007069
-0.22935 -0.0058439 1.2666 9.1274e-39 233 291 0 0 0 0.1377 -0.84519 -0.51642 0.0072129
-0.2249 -0.0058439 1.2666 3.8722e-39 140 292 0 0 0 0.12439 -0.84501 -0.52008 0.0067614
-0.22279 -0.0058469 1.2673 7.9288e-39 222.5 292 0 0 0 0.10864 -0.8418 -0.52874 0.0062378
-0.22068 -0.0043665 1.2679 6.2693e-39 497 293 0 0 0 0.091114 -0.84142 -0.53265 0.0058905
-0.2192 -0.0058499 1.2679 7.6522e-39 225 292 0 0 0 0.083168 -0.84019 -0.53588 0.0057937
-0.21707 -0.004858 1.267 6.6996e-39 408.33 292.67 0 0 0 0.069916 -0.84552 -0.52934 0.0052591
-0.21326 -0.0043665 1.2679 3.6878e-39 138 294 0 0 0 0.053387 -0.8474 -0.52826 0.0045943
-0.20585 -0.0043665 1.2679 3.4112e-39 142 294 0 0 0 0.023083 -0.85642 -0.51576 0.0035538
-0.20267 -0.004362 1.2666 3.1347e-39 143 294 0 0 0 0.012134 -0.86878 -0.49505 0.0026051
-0.19907 -0.0043643 1.2673 7.3757e-39 216.5 294 0 0 0 0.013932 -0.87179 -0.48968 0.0027073
-0.19674 -0.004362 1.2666 5.7161e-39 218 294 0 0 0 0.009792 -0.87553 -0.48306 0.0031204
-0.19526 -0.004362 1.2666 5.6239e-39 219 294 0 0 0 0.0075864 -0.87489 -0.48426 0.0033452
-0.1923 -0.004362 1.2666 5.7161e-39 221 294 0 0 0 0.012234 -0.87636 -0.4815 0.0036977
-0.19101 -0.0058499 1.2679 3.5034e-39 139 293 0 0 0 0.016967 -0.87476 -0.48425 0.0042985
-0.18879 -0.0051082 1.2679 5.67e-39 182 293.5 0 0 0 0.02568 -0.88233 -0.46994 0.0044695
-0.1836 -0.0043665 1.2679 9.5883e-39 227 294 0 0 0 0.039467 -0.89118 -0.45192 0.0050454
-0.14717 -0.0051059 1.2673 7.6062e-39 185.5 293.5 0 0 0 0.18183 -0.70699 -0.68345 0.061336
-0.14503 -0.0058499 1.2679 8.5742e-39 216 293 0 0 0 0.21321 -0.66366 -0.71701 0.06414
-0.14347 -0.0051059 1.2673 8.5281e-39 224.5 293.5 0 0 0 0.26504 -0.64472 -0.717 0.070764
-0.14117 -0.0058439 1.2666 8.021e-39 218.5 293 0 0 0 0.31106 -0.59077 -0.74447 0.066868
-0.26195 -0.0028801 1.2666 6.4537e-39 383 294 0 0 0 -0.37525 -0.73242 -0.56811 0.015308
-0.21093 -0.0028816 1.2673 6.4998e-39 220.5 295 0 0 0 0.042677 -0.85624 -0.51481 0.0041817
-0.2086 -0.0028801 1.2666 8.021e-39 222 295 0 0 0 0.033554 -0.85965 -0.50977 0.0039664
-0.20712 -0.0028801 1.2666 8.943e-39 223 295 0 0 0 0.025587 -0.86145 -0.5072 0.0038524
-0.19378 -0.0028801 1.2666 9.4961e-39 232 295 0 0 0 0.0081229 -0.87587 -0.48247 0.0031261
-0.18192 -0.0028801 1.2666 5.7161e-39 243 295 0 0 0 0.029909 -0.89876 -0.43742 0.0050443
-0.17526 -0.0028801 1.2666 6.5459e-39 379.5 295 0 0 0 0.031373 -0.91735 -0.39685 0.0042956
-0.15838 -0.0028831 1.2679 6.1771e-39 408 295 0 0 0 -0.039989 -0.91928 -0.39158 0.0050546
-0.15541 -0.0028831 1.2679 6.3615e-39 409 295 0 0 0 -0.0096126 -0.8913 -0.45332 0.014209
-0.15377 -0.0028801 1.2666 6.7303e-39 410 295 0 0 0 0.022358 -0.8742 -0.48504 0.024687
-0.26195 -0.0013982 1.2666 5.9927e-39 494 295 0 0 0 -0.38247 -0.7167 -0.58315 0.015451
-0.17748 -0.0013982 1.2666 6.3615e-39 378 296 0 0 0 0.032547 -0.91222 -0.40841 0.0047336
-0.17155 -0.0013982 1.2666 6.5459e-39 392 296 0 0 0 0.024656 -0.92734 -0.37341 0.0034219
-0.16711 -0.0013982 1.2666 6.9147e-39 395 296 0 0 0 0.0030188 -0.93726 -0.34862 0.0025053
-0.16497 -0.001399 1.2673 7.2374e-39 396.5 296 0 0 0 -0.012975 -0.93552 -0.35303 0.0028849
-0.16266 -0.0013982 1.2666 6.9147e-39 398 296 0 0 0 -0.03305 -0.93016 -0.36566 0.0026944
-0.16118 -0.0013982 1.2666 6.8225e-39 399 296 0 0 0 -0.033855 -0.93024 -0.36538 0.0028209
-0.26491 0.0015656 1.2666 6.4537e-39 394 297 0 0 0 -0.44899 -0.65293 -0.60999 0.018297
-0.2637 8.3773e-05 1.2679 6.1771e-39 424 296 0 0 0 -0.40745 -0.70142 -0.5848 0.016851
-0.26195 8.3687e-05 1.2666 5.9005e-39 425 296 0 0 0 -0.39089 -0.70823 -0.58789 0.016702
-0.12858 0.0045294 1.2666 7.2835e-39 377 299 0 0 0 0.40763 -0.069776 -0.91048 0.027913
-0.12709 0.0045294 1.2666 6.9147e-39 378 299 0 0 0 0.40568 -0.064675 -0.91173 0.022829
-0.12487 0.0045294 1.2666 6.6842e-39 379.5 299 0 0 0 0.39795 -0.04619 -0.91624 0.017409
-0.12709 0.0060113 1.2666 5.3473e-39 204 300 0 0 0 0.39554 -0.029542 -0.91797 0.020406
-0.12487 0.0067522 1.2666 5.4165e-39 313.5 300 0 0 0 0.38698 -0.0090155 -0.92205 0.014453
-0.12265 0.0074932 1.2666 6.6381e-39 423 300 0 0 0 0.35697 0.012855 -0.93403 0.011478
-0.12413 0.0089751 1.2666 6.3615e-39 234 301 0 0 0 0.37748 0.027011 -0.92562 0.012967
-0.12265 0.0089751 1.2666 6.1771e-39 235 301 0 0 0 0.35045 0.028113 -0.93616 0.011975
-0.12462 0.011445 1.2666 6.3615e-39 404 301.67 0 0 0 0.36816 0.048865 -0.92848 0.011927
-0.12265 0.011198 1.2666 6.592e-39 423 301.5 0 0 0 0.3511 0.041001 -0.93544 0.011064
-0.12487 0.013421 1.2666 5.0247e-39 140.5 303 0 0 0 0.36033 0.065461 -0.93052 0.010527
-0.12265 0.013421 1.2666 4.8864e-39 142 303 0 0 0 0.34128 0.058538 -0.93814 0.0094418
-0.12858 0.014903 1.2666 6.8225e-39 379 303 0 0 0 0.39077 0.073429 -0.91755 0.011696
-0.12709 0.014903 1.2666 6.6381e-39 380 303 0 0 0 0.38268 0.075683 -0.92078 0.011176
-0.12487 0.014903 1.2666 6.9147e-39 381.5 303 0 0 0 0.35731 0.074714 -0.93099 0.010103
-0.12265 0.014903 1.2666 6.4537e-39 383 303 0 0 0 0.33358 0.070986 -0.94004 0.0092278
-0.12858 0.016385 1.2666 5.0708e-39 141 304 0 0 0 0.39103 0.084461 -0.91649 0.010887
-0.12709 0.017126 1.2666 5.9928e-39 260.5 304 0 0 0 0.37581 0.091173 -0.9222 0.0097407
-0.12487 0.017126 1.2666 5.8775e-39 262 304 0 0 0 0.34784 0.090331 -0.93319 0.0090132
-0.12265 0.016385 1.2666 4.9786e-39 145 304 0 0 0 0.33014 0.085085 -0.94009 0.0087771
-0.12709 0.019348 1.2666 3.6878e-39 536 304 0 0 0 0.36906 0.096791 -0.92435 0.0082055
-0.12487 0.019348 1.2666 3.6878e-39 537.5 304 0 0 0 0.35158 0.10014 -0.93079 0.0086869
-0.12709 0.02083 1.2666 6.4537e-39 270 305 0 0 0 0.37783 0.10992 -0.91933 0.0088226
-0.12487 0.02083 1.2666 6.1771e-39 271.5 305 0 0 0 0.35626 0.10844 -0.92807 0.0086672
-0.12858 0.023053 1.2666 6.5459e-39 341 305.5 0 0 0 0.3946 0.12096 -0.91086 0.0087243
-0.12709 0.023053 1.2666 6.592e-39 342 305.5 0 0 0 0.37489 0.11839 -0.91948 0.0081914
-0.12494 0.023065 1.2673 6.5689e-39 343.5 305.5 0 0 0 0.3651 0.1261 -0.92239 0.0098964
-0.12265 0.023794 1.2666 6.5459e-39 227 306 0 0 0 0.35245 0.13482 -0.92607 0.011249
-0.13302 0.025276 1.2666 7.8366e-39 427 306 0 0 0 0.43798 0.12994 -0.88954 0.010572
-0.12858 0.025276 1.2666 8.021e-39 430 306 0 0 0 0.39538 0.13802 -0.90809 0.0087272
-0.12709 0.025276 1.2666 8.3898e-39 431 306 0 0 0 0.38409 0.1391 -0.91276 0.0089455
-0.12494 0.025289 1.2673 8.4359e-39 432.5 306 0 0 0 0.36622 0.13978 -0.91997 0.0098898
-0.12265 0.025276 1.2666 7.9288e-39 434 306 0 0 0 0.35498 0.14687 -0.92326 0.011315
-0.13302 0.026758 1.2666 7.0069e-39 190 307 0 0 0 0.43847 0.1357 -0.88844 0.010352
-0.13006 0.026758 1.2666 7.3757e-39 192 307 0 0 0 0.41146 0.1415 -0.90037 0.009007
-0.12871 0.026785 1.2679 7.4678e-39 193 307 0 0 0 0.39971 0.15088 -0.90414 0.009841
