# .PCD v.7 - Point Cloud Data file format
VERSION .7
FIELDS x y z rgb u v vx vy vz normal_x normal_y normal_z curvature
SIZE 4 4 4 4 4 4 4 4 4 4 4 4 4
TYPE F F F F F F F F F F F F F
COUNT 1 1 1 1 1 1 1 1 1 1 1 1 1
WIDTH 559
HEIGHT 1
VIEWPOINT 0 0 0 1 0 0 0
POINTS 559
DATA ascii
-0.013338 0.13018 1.0592 7.0991e-39 197 320 0 0 0 0.5024 0.71237 -0.49003 0.023777
-0.015237 0.013736 1.0619 7.8827e-39 231.5 290 0 0 0 0.32799 0.5447 -0.77183 0.020467
0.0071194 0.013724 1.061 9.4961e-39 231.5 291 0 0 0 -0.32356 0.5474 -0.77179 0.023311
0.0089741 0.013092 1.0601 8.0671e-39 232 290 0 0 0 -0.39123 0.53652 -0.74772 0.019886
-0.017085 0.014966 1.061 1.1617e-38 230 292 0 0 0 0.37743 0.53809 -0.75366 0.022461
-0.015237 0.014978 1.0619 1.0556e-38 231.5 292 0 0 0 0.32164 0.53074 -0.78413 0.021128
-0.012745 0.014972 1.0615 6.6381e-39 185.5 292.5 0 0 0 0.26942 0.53338 -0.80182 0.02241
0.0071226 0.014972 1.0615 8.2054e-39 226.5 293 0 0 0 -0.31273 0.54597 -0.77725 0.023731
0.0089818 0.014966 1.061 1.0326e-38 228 293 0 0 0 -0.37293 0.5428 -0.75252 0.020402
-0.017085 0.016828 1.061 3.6878e-39 139.5 294.5 0 0 0 0.37649 0.52366 -0.76423 0.024015
-0.015237 0.016842 1.0619 3.319e-39 141 294.5 0 0 0 0.32764 0.51567 -0.79167 0.023288
-0.012745 0.016835 1.0615 6.3385e-39 178.5 294.5 0 0 0 0.26822 0.52223 -0.80952 0.0232
-0.010888 0.016221 1.0619 6.4537e-39 217 294 0 0 0 0.21905 0.52555 -0.82208 0.022887
-0.0096458 0.016221 1.0619 5.7161e-39 218 294 0 0 0 0.19562 0.51799 -0.83272 0.024389
0.007121 0.016831 1.0612 9.9109e-39 228.5 294.5 0 0 0 -0.32086 0.53988 -0.77819 0.022488
0.0089857 0.016835 1.0615 9.6344e-39 230 294.5 0 0 0 -0.36357 0.53358 -0.76361 0.021096
-0.018319 0.019302 1.0605 7.9288e-39 323 295.5 0 0 0 0.40325 0.51785 -0.75446 0.026938
-0.017085 0.01931 1.061 7.1913e-39 324 295.5 0 0 0 0.37319 0.50758 -0.77659 0.024024
-0.015858 0.018705 1.0619 6.6381e-39 415 295 0 0 0 0.34268 0.50625 -0.79138 0.02378
-0.013373 0.019327 1.0619 6.6381e-39 327 295.5 0 0 0 0.27907 0.5081 -0.81483 0.023416
0.0073286 0.019108 1.0613 5.7776e-39 340.33 295.67 0 0 0 -0.32675 0.51802 -0.7905 0.022462
0.0089896 0.019327 1.0619 5.0246e-39 265.5 296 0 0 0 -0.36509 0.51236 -0.7773 0.021231
0.010835 0.019294 1.0601 4.9094e-39 267 296 0 0 0 -0.4316 0.5043 -0.74793 0.019497
-0.018326 0.021172 1.061 6.2693e-39 428 296 0 0 0 0.39675 0.50827 -0.76436 0.026871
-0.0171 0.02119 1.0619 6.0849e-39 429 296 0 0 0 0.36179 0.49603 -0.78934 0.024129
0.0077472 0.02119 1.0619 6.2693e-39 497 296 0 0 0 -0.325 0.50639 -0.79871 0.022042
0.010835 0.021154 1.0601 6.3615e-39 499.5 296 0 0 0 -0.43468 0.48609 -0.75813 0.019751
-0.022652 0.023634 1.0601 6.5459e-39 422.5 297 0 0 0 0.49751 0.48131 -0.72169 0.028903
-0.020791 0.023014 1.0601 8.0671e-39 325 297 0 0 0 0.45307 0.49739 -0.73982 0.026696
-0.019154 0.022827 1.061 9.0659e-39 293.33 297 0 0 0 0.41846 0.50297 -0.75625 0.027441
0.010848 0.023044 1.0615 6.4537e-39 436 297 0 0 0 -0.42406 0.47086 -0.77361 0.019769
0.013112 0.023228 1.0604 6.4844e-39 457.67 297 0 0 0 -0.46943 0.4747 -0.7445 0.016665
0.015175 0.023634 1.0601 6.5459e-39 499 297 0 0 0 -0.51376 0.47031 -0.71753 0.015645
-0.022671 0.024896 1.061 5.9466e-39 209.5 298 0 0 0 0.49102 0.47828 -0.72812 0.029383
-0.020809 0.024896 1.061 5.0708e-39 211 298 0 0 0 0.44487 0.49194 -0.74839 0.027385
-0.019585 0.024917 1.0619 5.6239e-39 212 298 0 0 0 0.41592 0.48908 -0.76669 0.027391
0.013332 0.024907 1.0615 6.3615e-39 238.5 298 0 0 0 -0.47031 0.46232 -0.75171 0.016461
0.015188 0.024896 1.061 6.0849e-39 240 298 0 0 0 -0.50125 0.4602 -0.73278 0.014477
0.017035 0.024874 1.0601 5.8083e-39 241.5 298 0 0 0 -0.54023 0.46751 -0.69971 0.013875
-0.026992 0.026115 1.0601 7.3757e-39 401 298 0 0 0 0.57344 0.42943 -0.69768 0.028115
-0.025143 0.026126 1.0605 7.2374e-39 402.5 298 0 0 0 0.53593 0.45827 -0.70906 0.028752
-0.022691 0.02616 1.0619 6.3615e-39 405 298 0 0 0 0.46816 0.47665 -0.74407 0.026978
-0.020827 0.02616 1.0619 5.9005e-39 407 298 0 0 0 0.44258 0.48451 -0.75457 0.027881
0.013959 0.02616 1.0619 7.0991e-39 455 298 0 0 0 -0.47887 0.44542 -0.75649 0.01485
0.015201 0.02616 1.0619 7.0991e-39 456 298 0 0 0 -0.49029 0.45926 -0.74074 0.013784
0.01705 0.026758 1.061 6.7764e-39 340.75 298.5 0 0 0 -0.53112 0.45725 -0.71332 0.013646
0.018896 0.027355 1.0601 7.0069e-39 219 299 0 0 0 -0.56517 0.45495 -0.68819 0.014488
0.020756 0.029215 1.0601 6.638e-39 435 299 0 0 0 -0.60911 0.43739 -0.66157 0.016478
-0.00094928 0.12679 1.0619 6.7303e-39 152 320 0 0 0 0.36528 0.80314 -0.47068 0.037806
-0.0071611 0.12803 1.0619 5.7161e-39 163 320 0 0 0 0.4514 0.73419 -0.50715 0.033445
-0.0059187 0.12803 1.0619 5.6239e-39 164 320 0 0 0 0.4337 0.74808 -0.50228 0.034801
-0.01335 0.13153 1.0601 7.0991e-39 215 320 0 0 0 0.53842 0.66904 -0.51234 0.027668
-0.009036 0.013754 1.0633 5.9466e-39 185.5 290.5 0 0 0 0.17423 0.53274 -0.82815 0.024958
0.0046471 0.013754 1.0633 1.0142e-38 229.5 291 0 0 0 -0.25802 0.55155 -0.79324 0.026101
-0.010897 0.014991 1.0628 3.5034e-39 139 293 0 0 0 0.21905 0.52495 -0.82246 0.023241
-0.009036 0.014997 1.0633 3.7339e-39 140.5 293 0 0 0 0.17078 0.52304 -0.83502 0.023844
-0.0071734 0.015004 1.0637 3.9644e-39 142 293 0 0 0 0.11815 0.52372 -0.84366 0.025978
-0.0059289 0.015004 1.0637 8.5742e-39 216 293 0 0 0 0.083927 0.53493 -0.84072 0.027877
0.0046471 0.014997 1.0633 7.3757e-39 224.5 293 0 0 0 -0.26098 0.54383 -0.79759 0.025454
-0.010897 0.017478 1.0628 3.0425e-39 143 295 0 0 0 0.21625 0.51518 -0.82935 0.023087
-0.0088251 0.017064 1.0628 3.8415e-39 169.33 294.67 0 0 0 0.16202 0.51113 -0.8441 0.023555
-0.0071672 0.016856 1.0628 4.241e-39 183 294.5 0 0 0 0.12145 0.51896 -0.84613 0.026351
-0.0053031 0.01686 1.063 7.0069e-39 218.5 294.5 0 0 0 0.065695 0.5256 -0.84819 0.028927
-0.0034399 0.017493 1.0637 5.0708e-39 217 295 0 0 0 -0.01122 0.53313 -0.84596 0.032087
-0.00095092 0.017493 1.0637 4.702e-39 219 295 0 0 0 -0.088984 0.55106 -0.82971 0.030842
0.00091584 0.016871 1.0637 7.9519e-39 223.5 294.5 0 0 0 -0.14399 0.54543 -0.8257 0.028227
0.0027826 0.016871 1.0637 9.3115e-39 225 294.5 0 0 0 -0.20478 0.53336 -0.82072 0.026435
0.0046462 0.01686 1.063 1.0234e-38 226.5 294.5 0 0 0 -0.25332 0.53652 -0.80497 0.025715
-0.015042 0.019551 1.0628 6.3615e-39 295.67 295.67 0 0 0 0.31369 0.4995 -0.80753 0.023333
-0.012146 0.019352 1.0633 6.6381e-39 328 295.5 0 0 0 0.23765 0.50626 -0.82899 0.022079
-0.010907 0.018738 1.0637 6.1771e-39 420 295 0 0 0 0.21179 0.50478 -0.83687 0.022615
-0.0090383 0.019356 1.0635 7.076e-39 347 295.5 0 0 0 0.17349 0.50048 -0.84819 0.021572
-0.0071703 0.019352 1.0633 6.0849e-39 366 295.5 0 0 0 0.12031 0.50442 -0.85504 0.024803
-0.0053054 0.019356 1.0635 6.3615e-39 367.5 295.5 0 0 0 0.057357 0.51381 -0.85599 0.028486
-0.0034399 0.01936 1.0637 6.5459e-39 374.5 295.5 0 0 0 -0.0056433 0.52274 -0.85247 0.032126
0.0011233 0.019153 1.0637 6.3308e-39 417.67 295.33 0 0 0 -0.15482 0.5271 -0.83558 0.028029
0.0027826 0.01936 1.0637 6.592e-39 437.5 295.5 0 0 0 -0.20622 0.51935 -0.82931 0.026085
0.0046473 0.019352 1.0633 6.3384e-39 439 295.5 0 0 0 -0.25772 0.51562 -0.81714 0.025146
0.0065104 0.019965 1.0628 6.9147e-39 380 296 0 0 0 -0.28778 0.51631 -0.8066 0.023526
-0.015255 0.021217 1.0633 5.4395e-39 430.5 296 0 0 0 0.3109 0.48939 -0.81476 0.022904
-0.012768 0.021217 1.0633 7.2374e-39 446 296 0 0 0 0.256 0.49469 -0.83051 0.021534
-0.0071734 0.021227 1.0637 8.1132e-39 458 296 0 0 0 0.1159 0.50135 -0.85745 0.024463
0.0052716 0.021227 1.0637 5.9005e-39 495 296 0 0 0 -0.26309 0.49652 -0.8272 0.02402
0.0065104 0.021208 1.0628 5.8083e-39 496 296 0 0 0 -0.28931 0.50771 -0.8115 0.023223
0.0089973 0.021208 1.0628 6.6381e-39 498 296 0 0 0 -0.35877 0.48731 -0.79612 0.021155
-0.018358 0.023695 1.0628 5.9005e-39 426 297 0 0 0 0.37586 0.48655 -0.78867 0.025521
-0.017115 0.023074 1.0628 8.4818e-39 328 297 0 0 0 0.35575 0.49019 -0.79571 0.023979
-0.015885 0.022471 1.0637 1.0418e-38 230 297 0 0 0 0.31756 0.48561 -0.81446 0.023483
0.007135 0.022462 1.0633 6.6381e-39 258.5 297 0 0 0 -0.30262 0.4922 -0.81618 0.022321
0.009005 0.022471 1.0637 6.7303e-39 260 297 0 0 0 -0.34719 0.47388 -0.80926 0.020828
-0.018374 0.02496 1.0637 5.7161e-39 213 298 0 0 0 0.36187 0.48457 -0.7964 0.024039
0.010862 0.024939 1.0628 6.1771e-39 236.5 298 0 0 0 -0.40802 0.45078 -0.79393 0.019439
-0.027062 0.027426 1.0628 3.6878e-39 535 298 0 0 0 0.55393 0.43172 -0.71188 0.02871
-0.025197 0.027426 1.0628 3.8722e-39 536.5 298 0 0 0 0.49536 0.46316 -0.73491 0.027527
-0.019601 0.026182 1.0628 5.9927e-39 408 298 0 0 0 0.39665 0.48193 -0.78129 0.026618
0.011494 0.026205 1.0637 7.7444e-39 438 298 0 0 0 -0.40737 0.44017 -0.80019 0.019199
0.013146 0.027019 1.0631 6.3922e-39 292.33 298.67 0 0 0 -0.45018 0.44109 -0.77639 0.016733
0.015214 0.027426 1.0628 6.0849e-39 216 299 0 0 0 -0.47925 0.43942 -0.75976 0.012985
0.013983 0.028694 1.0637 6.7303e-39 394 299 0 0 0 -0.46036 0.42786 -0.77782 0.013726
0.015228 0.028694 1.0637 7.0069e-39 395 299 0 0 0 -0.47363 0.43822 -0.76396 0.012731
0.016458 0.028669 1.0628 7.4678e-39 396 299 0 0 0 -0.49776 0.44722 -0.74312 0.011484
-0.0090324 0.12814 1.0628 6.1771e-39 161.5 320 0 0 0 0.53693 0.66416 -0.52019 0.030484
-0.0046804 0.12814 1.0628 5.5317e-39 165 320 0 0 0 0.47559 0.7157 -0.51146 0.038856
-0.0028176 0.12825 1.0637 6.3154e-39 166.5 320 0 0 0 0.47349 0.70674 -0.52567 0.041748
0.0015407 0.013783 1.0655 7.8366e-39 227 291 0 0 0 -0.16849 0.54742 -0.81972 0.028334
0.002785 0.013772 1.0646 8.482e-39 228 291 0 0 0 -0.21125 0.54887 -0.80877 0.027633
-0.0046925 0.01503 1.0655 7.2835e-39 217 293 0 0 0 0.052517 0.52328 -0.85054 0.027195
0.00091674 0.015023 1.0651 6.4998e-39 221.5 293 0 0 0 -0.15461 0.54219 -0.82591 0.028132
0.002785 0.015017 1.0646 6.8225e-39 223 293 0 0 0 -0.2088 0.54098 -0.8147 0.02664
-0.0026131 0.016683 1.0649 6.8532e-39 221.67 294.33 0 0 0 -0.027761 0.53719 -0.843 0.03157
-0.00095174 0.016263 1.0646 9.2196e-39 225 294 0 0 0 -0.082546 0.55614 -0.82698 0.030578
-0.010916 0.019999 1.0646 6.4537e-39 239 296 0 0 0 0.21553 0.49899 -0.83938 0.022192
-0.0021973 0.019376 1.0646 6.2232e-39 375.5 295.5 0 0 0 -0.039943 0.51683 -0.85516 0.03204
-0.00095174 0.019376 1.0646 6.2232e-39 376.5 295.5 0 0 0 -0.083367 0.51711 -0.85185 0.031328
0.00029383 0.019999 1.0646 6.8225e-39 259 296 0 0 0 -0.11205 0.51045 -0.85258 0.029977
-0.010916 0.021245 1.0646 7.6522e-39 455 296 0 0 0 0.20825 0.50158 -0.83967 0.022701
-0.0090479 0.021245 1.0646 7.7905e-39 456.5 296 0 0 0 0.16427 0.49191 -0.85501 0.021355
-0.0053112 0.021245 1.0646 8.021e-39 459.5 296 0 0 0 0.062362 0.49939 -0.86413 0.027134
-0.0028211 0.021254 1.0651 6.8225e-39 474.5 296 0 0 0 -0.017951 0.49836 -0.86678 0.03185
-0.00095256 0.021263 1.0655 6.3615e-39 476 296 0 0 0 -0.076631 0.4947 -0.86568 0.031193
0.00091662 0.021245 1.0646 6.7764e-39 491.5 296 0 0 0 -0.13608 0.50532 -0.85213 0.029675
0.002785 0.021245 1.0646 6.4537e-39 493 296 0 0 0 -0.19543 0.49512 -0.84656 0.027765
0.0040305 0.021245 1.0646 6.0849e-39 494 296 0 0 0 -0.22499 0.50204 -0.83506 0.026579
-0.015068 0.023321 1.0646 7.3142e-39 362.67 297 0 0 0 0.30431 0.48094 -0.82225 0.022865
-0.01279 0.023124 1.0651 7.2604e-39 331.5 297 0 0 0 0.24371 0.48432 -0.84026 0.020748
-0.010926 0.02251 1.0655 6.9147e-39 234 297 0 0 0 0.20898 0.49288 -0.84463 0.022443
-0.0090558 0.02251 1.0655 6.0388e-39 235.5 297 0 0 0 0.16305 0.48718 -0.85794 0.021333
-0.0071858 0.02251 1.0655 6.3615e-39 237 297 0 0 0 0.11623 0.49174 -0.86295 0.02472
-0.0059391 0.02251 1.0655 6.3615e-39 238 297 0 0 0 0.071211 0.49 -0.86881 0.026212
0.0015407 0.02251 1.0655 6.3615e-39 244 297 0 0 0 -0.14839 0.48854 -0.85983 0.029007
0.0027874 0.02251 1.0655 5.8083e-39 249 297 0 0 0 -0.18467 0.4793 -0.858 0.027924
0.0046574 0.02251 1.0655 6.7764e-39 256.5 297 0 0 0 -0.24542 0.47945 -0.84255 0.025181
0.0071445 0.023736 1.0646 5.8083e-39 478.5 297 0 0 0 -0.29621 0.4743 -0.82904 0.022581
0.0090128 0.023736 1.0646 5.9927e-39 494 297 0 0 0 -0.34482 0.46171 -0.81727 0.020322
-0.017144 0.024982 1.0646 5.5317e-39 214 298 0 0 0 0.33923 0.47259 -0.81338 0.023351
-0.015289 0.025003 1.0655 5.9466e-39 215.5 298 0 0 0 0.30047 0.47192 -0.82886 0.022479
-0.022749 0.027473 1.0646 5.2551e-39 138.5 299 0 0 0 0.44557 0.46647 -0.76411 0.028403
-0.020881 0.027473 1.0646 5.0708e-39 140 299 0 0 0 0.3984 0.47259 -0.78609 0.026226
-0.019029 0.026873 1.0655 5.4856e-39 275 298.5 0 0 0 0.35984 0.46969 -0.80617 0.023334
-0.017159 0.02625 1.0655 6.4537e-39 410 298 0 0 0 0.32755 0.47105 -0.81904 0.022536
0.010676 0.027066 1.0649 5.8083e-39 285.67 298.67 0 0 0 -0.38424 0.42252 -0.82087 0.019247
-0.025885 0.028743 1.0655 5.9927e-39 235 299 0 0 0 0.4817 0.44947 -0.75229 0.029558
0.011514 0.028743 1.0655 6.6381e-39 392 299 0 0 0 -0.39298 0.40493 -0.82559 0.018004
0.012761 0.028743 1.0655 6.6381e-39 393 299 0 0 0 -0.42202 0.41123 -0.80795 0.015531
0.014631 0.02999 1.0655 5.8544e-39 471.5 299 0 0 0 -0.46007 0.41916 -0.78272 0.012888
-0.0071858 0.12972 1.0655 7.4678e-39 182 320 0 0 0 0.58571 0.57041 -0.57583 0.03625
-0.0046965 0.013795 1.0665 3.6878e-39 139 291 0 0 0 0.055054 0.52648 -0.8484 0.027654
-0.0034488 0.013795 1.0665 1.0418e-38 224 291 0 0 0 0.0078712 0.53747 -0.84325 0.028839
-0.00095338 0.013795 1.0665 9.1274e-39 225 291 0 0 0 -0.093059 0.53929 -0.83696 0.030434
0.00029434 0.013795 1.0665 7.8366e-39 226 291 0 0 0 -0.13588 0.53513 -0.83377 0.028965
-0.002825 0.015043 1.0665 8.021e-39 218.5 293 0 0 0 -0.014805 0.52796 -0.84914 0.029692
-0.00095338 0.015043 1.0665 8.2054e-39 220 293 0 0 0 -0.092333 0.53667 -0.83873 0.029247
-0.010935 0.023777 1.0665 7.3757e-39 438 297 0 0 0 0.20459 0.47697 -0.85478 0.021551
-0.0090636 0.023777 1.0665 7.6061e-39 448.5 297 0 0 0 0.15205 0.4803 -0.86382 0.021053
-0.007192 0.023777 1.0665 7.6522e-39 454 297 0 0 0 0.10744 0.47848 -0.8715 0.024121
-0.0051138 0.023368 1.0668 7.0683e-39 383.33 297 0 0 0 0.058896 0.47754 -0.87663 0.027447
-0.0028262 0.023164 1.0669 6.8224e-39 349 297 0 0 0 -0.011997 0.47006 -0.88255 0.030245
-0.0009538 0.023164 1.0669 6.638e-39 350.5 297 0 0 0 -0.070836 0.4649 -0.88253 0.030432
0.00071078 0.023375 1.0671 6.2078e-39 396.67 297 0 0 0 -0.11568 0.46806 -0.87609 0.029974
0.0027922 0.023798 1.0674 6.2693e-39 475 297 0 0 0 -0.1806 0.46302 -0.86775 0.02843
0.0046631 0.023788 1.0669 6.0388e-39 476.5 297 0 0 0 -0.23248 0.45843 -0.85778 0.027462
-0.012807 0.025025 1.0665 6.4537e-39 217.5 298 0 0 0 0.24697 0.47191 -0.84635 0.019484
-0.010945 0.025046 1.0674 7.0991e-39 219 298 0 0 0 0.19745 0.47029 -0.86014 0.020688
-0.0090714 0.025046 1.0674 8.482e-39 220.5 298 0 0 0 0.15405 0.47547 -0.86614 0.021396
-0.0071982 0.025046 1.0674 8.5742e-39 222 298 0 0 0 0.11067 0.47296 -0.87411 0.024178
-0.0059494 0.025046 1.0674 8.2054e-39 223 298 0 0 0 0.082378 0.46483 -0.88156 0.025264
0.0071568 0.025025 1.0665 6.592e-39 233.5 298 0 0 0 -0.29096 0.44517 -0.84686 0.023174
0.0090284 0.025025 1.0665 6.0849e-39 235 298 0 0 0 -0.3349 0.44151 -0.83241 0.020173
-0.018437 0.027544 1.0674 4.4254e-39 142 299 0 0 0 0.32755 0.46424 -0.82292 0.022178
-0.017189 0.027544 1.0674 3.78e-39 143 299 0 0 0 0.31519 0.46156 -0.82923 0.022223
-0.015309 0.026909 1.0669 5.0477e-39 278 298.5 0 0 0 0.28502 0.46844 -0.83626 0.021272
-0.012818 0.026295 1.0674 7.053e-39 413.5 298 0 0 0 0.23735 0.46173 -0.85468 0.01942
-0.010945 0.026295 1.0674 7.56e-39 415 298 0 0 0 0.19915 0.46483 -0.86272 0.020276
0.007163 0.026295 1.0674 6.131e-39 429.5 298 0 0 0 -0.28379 0.43088 -0.85662 0.023802
0.0090362 0.026919 1.0674 5.9005e-39 321 298.5 0 0 0 -0.33401 0.42525 -0.84119 0.020462
-0.02466 0.028768 1.0665 6.1771e-39 236 299 0 0 0 0.43191 0.45517 -0.77864 0.028627
-0.022808 0.028793 1.0674 6.592e-39 237.5 299 0 0 0 0.40222 0.46409 -0.78921 0.025036
-0.020917 0.028768 1.0665 6.4537e-39 239 299 0 0 0 0.37826 0.46412 -0.80094 0.023972
0.010276 0.028768 1.0665 6.4537e-39 385 299 0 0 0 -0.35342 0.41714 -0.83731 0.018665
-0.020935 0.03129 1.0674 3.9644e-39 538 299 0 0 0 0.36014 0.46365 -0.80952 0.023865
0.011534 0.030042 1.0674 6.9147e-39 469 299 0 0 0 -0.37087 0.4034 -0.8365 0.016633
0.012772 0.030016 1.0665 6.6381e-39 470 299 0 0 0 -0.41506 0.40224 -0.81604 0.014176
-0.020917 0.032511 1.0665 7.56e-39 221 300 0 0 0 0.35738 0.47244 -0.80566 0.024066
-0.015315 0.033788 1.0674 7.4218e-39 371.5 300 0 0 0 0.24463 0.48511 -0.83954 0.017201
-0.012193 0.033788 1.0674 6.8225e-39 374 300 0 0 0 0.20008 0.48145 -0.85333 0.014947
-0.015315 0.035037 1.0674 7.1452e-39 413.5 300 0 0 0 0.24173 0.51049 -0.82521 0.017333
-0.010945 0.035037 1.0674 7.3757e-39 415 300 0 0 0 0.17154 0.495 -0.85179 0.013644
0.00091822 0.12672 1.0665 6.0388e-39 312 319.5 0 0 0 0.48495 0.69122 -0.53575 0.050862
0.0027898 0.12609 1.0665 6.1771e-39 535 319 0 0 0 0.47178 0.70741 -0.5263 0.052133
0.0046654 0.1262 1.0674 6.4076e-39 536.5 319 0 0 0 0.48079 0.70668 -0.51908 0.054814
-0.0090636 0.12983 1.0665 7.7905e-39 180.5 320 0 0 0 0.59083 0.55207 -0.58833 0.03785
-0.0053204 0.12983 1.0665 7.3296e-39 183.5 320 0 0 0 0.54959 0.5848 -0.59662 0.047505
-0.0028274 0.12995 1.0674 8.021e-39 185.5 320 0 0 0 0.58512 0.54809 -0.59769 0.049998
-0.00095338 0.12859 1.0665 6.3615e-39 168 320 0 0 0 0.56236 0.59233 -0.57697 0.048243
-0.0096958 0.13119 1.0674 6.9147e-39 199 320 0 0 0 0.58333 0.52055 -0.6235 0.037915
-0.0071982 0.13119 1.0674 6.9147e-39 201 320 0 0 0 0.58582 0.49941 -0.63828 0.038116
-0.0059494 0.13119 1.0674 7.1913e-39 202 320 0 0 0 0.61302 0.47725 -0.62964 0.039162
-0.0096958 0.13307 1.0674 6.3615e-39 226.5 320 0 0 0 0.58749 0.48766 -0.64579 0.037757
-0.0071982 0.13307 1.0674 6.3615e-39 228.5 320 0 0 0 0.58893 0.48086 -0.64957 0.039518
-0.0055314 0.13324 1.0671 6.6688e-39 233 320 0 0 0 0.61123 0.45864 -0.64502 0.03937
-0.0071982 0.13494 1.0674 7.1913e-39 255 320 0 0 0 0.57259 0.45696 -0.68068 0.039225
-0.0053224 0.13488 1.0669 6.8225e-39 256.5 320 0 0 0 0.60713 0.43405 -0.66558 0.040441
-0.005325 0.13619 1.0674 5.4395e-39 272.5 320 0 0 0 0.60599 0.40869 -0.68245 0.042145
-0.0047047 0.025068 1.0683 8.2976e-39 224 298 0 0 0 0.045859 0.45396 -0.88984 0.027314
-0.0028298 0.025068 1.0683 8.5742e-39 225.5 298 0 0 0 -0.0070403 0.44648 -0.89477 0.029534
-0.00095503 0.025068 1.0683 8.943e-39 227 298 0 0 0 -0.057212 0.44607 -0.89317 0.029863
0.00091977 0.025068 1.0683 9.5423e-39 228.5 298 0 0 0 -0.10977 0.44473 -0.88891 0.030199
0.0027946 0.025068 1.0683 9.6805e-39 230 298 0 0 0 -0.17225 0.45089 -0.8758 0.029008
0.0046695 0.025068 1.0683 8.4359e-39 231.5 298 0 0 0 -0.21837 0.43958 -0.87126 0.027925
-0.012835 0.02758 1.0688 3.319e-39 146.5 299 0 0 0 0.2325 0.45792 -0.85805 0.018947
-0.010954 0.027568 1.0683 3.6878e-39 148 299 0 0 0 0.19539 0.46261 -0.86477 0.020142
-0.0088734 0.026743 1.0686 5.9005e-39 327.67 298.33 0 0 0 0.14181 0.46055 -0.87623 0.021599
-0.0072076 0.026955 1.0688 4.7942e-39 284.5 298.5 0 0 0 0.10406 0.45445 -0.88467 0.023966
-0.005541 0.02675 1.0689 9.0352e-39 346 298.33 0 0 0 0.070681 0.44584 -0.89232 0.024897
-0.0028323 0.026341 1.0692 6.1771e-39 421.5 298 0 0 0 -0.011364 0.43451 -0.9006 0.02831
-0.00095586 0.026341 1.0692 6.5459e-39 423 298 0 0 0 -0.058011 0.4307 -0.90063 0.028796
0.0009206 0.026341 1.0692 6.4076e-39 424.5 298 0 0 0 -0.1059 0.4306 -0.89631 0.029563
0.002797 0.026967 1.0692 5.9005e-39 316 298.5 0 0 0 -0.15637 0.42127 -0.89335 0.030982
0.0046735 0.026341 1.0692 5.9005e-39 427.5 298 0 0 0 -0.21178 0.42974 -0.87777 0.027903
0.0071691 0.027568 1.0683 5.2551e-39 209.5 299 0 0 0 -0.28558 0.41348 -0.86457 0.02504
-0.019086 0.028831 1.0688 6.1771e-39 240.5 299 0 0 0 0.32915 0.46735 -0.82052 0.022157
-0.017218 0.028843 1.0692 5.9927e-39 242 299 0 0 0 0.29905 0.4597 -0.83621 0.02025
-0.015335 0.028831 1.0688 6.1771e-39 243.5 299 0 0 0 0.26304 0.46345 -0.84618 0.018558
-0.012214 0.028843 1.0692 6.1771e-39 250 299 0 0 0 0.20954 0.45459 -0.8657 0.018767
-0.010964 0.028843 1.0692 7.0991e-39 252 299 0 0 0 0.19221 0.45038 -0.8719 0.018985
-0.0072107 0.028843 1.0692 6.8225e-39 257 299 0 0 0 0.10095 0.43987 -0.89237 0.023118
0.0071726 0.028831 1.0688 6.6842e-39 379.5 299 0 0 0 -0.28004 0.39515 -0.87489 0.025912
0.009044 0.028818 1.0683 6.4537e-39 382 299 0 0 0 -0.3338 0.40558 -0.85093 0.020539
-0.025953 0.030068 1.0683 7.0991e-39 414 299 0 0 0 0.43628 0.45904 -0.77391 0.027796
-0.022222 0.030094 1.0692 7.56e-39 415 299 0 0 0 0.36196 0.46234 -0.80946 0.02438
-0.020953 0.030068 1.0683 7.3757e-39 416 299 0 0 0 0.35889 0.46448 -0.8096 0.023621
-0.01972 0.03072 1.0692 6.1311e-39 277.5 299.5 0 0 0 0.32838 0.46603 -0.82157 0.022549
-0.017218 0.03072 1.0692 5.7162e-39 279.5 299.5 0 0 0 0.28309 0.47178 -0.83504 0.019075
-0.015341 0.03072 1.0692 5.4626e-39 281 299.5 0 0 0 0.25223 0.47217 -0.84465 0.017625
-0.012214 0.03072 1.0692 5.3934e-39 283.5 299.5 0 0 0 0.20385 0.45657 -0.86602 0.017996
-0.010964 0.03072 1.0692 5.4395e-39 284.5 299.5 0 0 0 0.18132 0.44737 -0.87577 0.018648
-0.0072107 0.030094 1.0692 5.9005e-39 427 299 0 0 0 0.10072 0.44031 -0.89218 0.023289
0.0065499 0.030094 1.0692 7.9288e-39 444 299 0 0 0 -0.26397 0.37857 -0.88714 0.028622
0.0090518 0.030094 1.0692 8.1132e-39 448 299 0 0 0 -0.3326 0.39441 -0.85663 0.020633
-0.019086 0.033207 1.0688 6.8225e-39 295.5 300 0 0 0 0.3002 0.49083 -0.8179 0.022001
-0.01721 0.033207 1.0688 6.7764e-39 297 300 0 0 0 0.26705 0.495 -0.82684 0.018277
-0.015329 0.032567 1.0683 6.6381e-39 225.5 300 0 0 0 0.24391 0.47733 -0.8442 0.017069
-0.013041 0.032993 1.0686 7.0684e-39 276 300 0 0 0 0.20839 0.47455 -0.85521 0.015429
-0.010954 0.033192 1.0683 6.9608e-39 302 300 0 0 0 0.17528 0.47006 -0.86506 0.015798
-0.017218 0.035098 1.0692 7.1913e-39 412 300 0 0 0 0.25376 0.50558 -0.82462 0.018742
0.0015447 0.12756 1.0683 5.8083e-39 154 320 0 0 0 0.56033 0.6011 -0.56982 0.048361
0.0027946 0.12756 1.0683 5.6239e-39 155 320 0 0 0 0.52877 0.62969 -0.56911 0.054396
0.0002951 0.12892 1.0692 6.1771e-39 169 320 0 0 0 0.59657 0.5237 -0.60815 0.047505
-0.0084543 0.13131 1.0683 6.7303e-39 200 320 0 0 0 0.5796 0.49655 -0.64615 0.035753
-0.0047047 0.13131 1.0683 7.56e-39 203 320 0 0 0 0.62319 0.45685 -0.63476 0.039925
-0.0028308 0.13137 1.0688 7.2374e-39 204.5 320 0 0 0 0.60796 0.49022 -0.62455 0.047173
-0.0084543 0.13318 1.0683 6.3615e-39 227.5 320 0 0 0 0.5799 0.47246 -0.6637 0.038452
-0.0047047 0.13256 1.0683 6.7303e-39 221 320 0 0 0 0.61958 0.44267 -0.6482 0.038476
-0.0028308 0.13324 1.0688 6.569e-39 232 320 0 0 0 0.63213 0.42982 -0.64472 0.046791
-0.0090792 0.13506 1.0683 7.0069e-39 253.5 320 0 0 0 0.57599 0.46045 -0.67544 0.040113
-0.0028298 0.13506 1.0683 6.5459e-39 258.5 320 0 0 0 0.63697 0.38476 -0.66801 0.044975
-0.0090829 0.13637 1.0688 5.6239e-39 269.5 320 0 0 0 0.55969 0.43391 -0.70603 0.038343
-0.0072044 0.13631 1.0683 5.3473e-39 271 320 0 0 0 0.56792 0.42101 -0.70726 0.039988
-0.0053342 0.13768 1.0692 5.2552e-39 332.5 320 0 0 0 0.60992 0.36649 -0.70262 0.040265
-0.0030398 0.13681 1.0689 5.501e-39 294.33 320 0 0 0 0.6471 0.35352 -0.67549 0.045767
-0.0047087 0.13893 1.0692 6.1771e-39 358 320 0 0 0 0.60632 0.33698 -0.7203 0.038867
-0.009721 0.027616 1.0702 3.5956e-39 149 299 0 0 0 0.15693 0.44837 -0.87996 0.019889
-0.0047128 0.027616 1.0702 1.4106e-38 200 299 0 0 0 0.051222 0.43057 -0.9011 0.025207
-0.0028347 0.027616 1.0702 1.5442e-38 201.5 299 0 0 0 -0.001987 0.41844 -0.90824 0.027123
-0.00095669 0.027616 1.0702 1.3829e-38 203 299 0 0 0 -0.057434 0.41813 -0.90657 0.028095
0.00092138 0.027616 1.0702 8.6665e-39 204.5 299 0 0 0 -0.10073 0.4128 -0.90523 0.029056
0.0046775 0.027616 1.0702 6.131e-39 207.5 299 0 0 0 -0.20934 0.41068 -0.88743 0.028992
-0.013477 0.028868 1.0702 5.9927e-39 249 299 0 0 0 0.22884 0.45819 -0.85889 0.018199
-0.009095 0.028868 1.0702 6.8686e-39 255.5 299 0 0 0 0.14635 0.44356 -0.88422 0.020207
-0.0053409 0.02888 1.0706 6.8686e-39 258.5 299 0 0 0 0.068252 0.42955 -0.90046 0.023816
-0.0028347 0.028868 1.0702 6.4537e-39 260.5 299 0 0 0 0.0029208 0.41813 -0.90838 0.027456
-0.00095669 0.028868 1.0702 6.1771e-39 368 299 0 0 0 -0.057785 0.41247 -0.90913 0.028461
0.00092203 0.02888 1.0706 6.6842e-39 374.5 299 0 0 0 -0.097475 0.40031 -0.91118 0.028992
0.0027994 0.028868 1.0702 7.0069e-39 376 299 0 0 0 -0.15203 0.40257 -0.90268 0.030915
0.0046793 0.02888 1.0706 7.0991e-39 377.5 299 0 0 0 -0.21252 0.39869 -0.89212 0.02914
-0.018485 0.030746 1.0702 5.8083e-39 278.5 299.5 0 0 0 0.2781 0.47764 -0.83338 0.018494
-0.013477 0.030746 1.0702 5.3473e-39 282.5 299.5 0 0 0 0.22154 0.4614 -0.85909 0.016889
-0.0090971 0.030753 1.0704 4.8633e-39 286 299.5 0 0 0 0.14182 0.43746 -0.88798 0.019793
-0.0072169 0.031372 1.0702 3.4112e-39 148 300 0 0 0 0.10207 0.43296 -0.89561 0.021148
-0.0055489 0.030546 1.0705 5.3166e-39 335.33 299.33 0 0 0 0.072096 0.42173 -0.90385 0.023292
-0.0028352 0.030753 1.0704 4.8864e-39 291 299.5 0 0 0 -0.0029342 0.4009 -0.91612 0.026492
-0.0009571 0.03076 1.0706 4.7481e-39 292.5 299.5 0 0 0 -0.052189 0.39679 -0.91643 0.027559
0.00092203 0.030759 1.0706 1.0073e-38 317.25 299.5 0 0 0 -0.091554 0.38799 -0.91711 0.029544
0.0027994 0.030746 1.0702 9.3116e-39 319.5 299.5 0 0 0 -0.15139 0.38687 -0.90962 0.031439
0.0046815 0.030772 1.0711 8.2515e-39 321.5 299.5 0 0 0 -0.20179 0.37954 -0.9029 0.029983
0.0078076 0.030746 1.0702 6.6842e-39 325.5 299.5 0 0 0 -0.28643 0.38088 -0.87914 0.026401
-0.018485 0.032624 1.0702 7.0069e-39 223 300 0 0 0 0.27463 0.49143 -0.82648 0.019309
-0.0091008 0.033271 1.0709 6.8917e-39 303.5 300 0 0 0 0.13828 0.46474 -0.87458 0.015023
-0.0072232 0.033279 1.0711 6.592e-39 305 300 0 0 0 0.097156 0.45391 -0.88574 0.016841
-0.00597 0.032652 1.0711 6.2693e-39 233 300 0 0 0 0.07387 0.43241 -0.89865 0.020285
-0.0034638 0.032652 1.0711 6.0849e-39 235 300 0 0 0 0.01392 0.40481 -0.9143 0.024262
0.00029561 0.032652 1.0711 6.7303e-39 238 300 0 0 0 -0.073615 0.38713 -0.91908 0.027682
0.0040515 0.12778 1.0702 5.4395e-39 156 320 0 0 0 0.59909 0.52147 -0.60759 0.055166
0.0015474 0.12903 1.0702 6.4537e-39 170 320 0 0 0 0.59617 0.50452 -0.62454 0.053025
0.0027994 0.12903 1.0702 6.5459e-39 171 320 0 0 0 0.60363 0.50424 -0.61755 0.054501
-0.0009571 0.13096 1.0706 7.3296e-39 196.5 320 0 0 0 0.62209 0.45979 -0.63372 0.055402
0.00029561 0.1304 1.0711 7.7444e-39 188 320 0 0 0 0.62447 0.45382 -0.63568 0.056483
-0.00095752 0.1329 1.0711 6.2693e-39 224 320 0 0 0 0.64937 0.37358 -0.66238 0.045322
-0.00095752 0.13478 1.0711 6.6842e-39 251.5 320 0 0 0 0.64695 0.34032 -0.68238 0.046579
-0.009095 0.1378 1.0702 5.9005e-39 329.5 320 0 0 0 0.52193 0.40006 -0.75336 0.037389
-0.0072169 0.1378 1.0702 5.5317e-39 331 320 0 0 0 0.5812 0.36338 -0.72812 0.039302
-0.0022087 0.1378 1.0702 5.4395e-39 335 320 0 0 0 0.63598 0.31794 -0.70317 0.04634
-0.00095752 0.13666 1.0711 6.0849e-39 276 320 0 0 0 0.63671 0.31663 -0.7031 0.047842
-0.0091029 0.13917 1.0711 6.592e-39 354.5 320 0 0 0 0.52277 0.36391 -0.77089 0.03626
-0.0072169 0.13905 1.0702 6.2693e-39 356 320 0 0 0 0.57195 0.34313 -0.74508 0.038808
-0.0059649 0.13905 1.0702 6.0849e-39 357 320 0 0 0 0.6059 0.33793 -0.7202 0.038496
-0.0028357 0.13911 1.0706 6.6381e-39 359.5 320 0 0 0 0.63356 0.31329 -0.70742 0.043424
-0.0091029 0.14042 1.0711 6.8225e-39 372.5 320 0 0 0 0.48676 0.35199 -0.79948 0.033153
-0.0072232 0.14042 1.0711 7.0991e-39 374 320 0 0 0 0.5984 0.31735 -0.73566 0.038244
-0.0053414 0.14098 1.0706 8.021e-39 383 320 0 0 0 0.62074 0.29573 -0.7261 0.040726
-0.0030451 0.1408 1.0708 7.1605e-39 382.33 320 0 0 0 0.61651 0.27918 -0.73619 0.0429
-0.0047169 0.14293 1.0711 8.482e-39 406 320 0 0 0 0.61112 0.25248 -0.75019 0.04163
-0.004721 0.031426 1.072 3.2268e-39 150 300 0 0 0 0.052487 0.41005 -0.91055 0.022413
-0.0051404 0.033526 1.0723 6.3e-39 331 300 0 0 0 0.055667 0.44539 -0.89361 0.017974
-0.0026313 0.033526 1.0723 6.3615e-39 333 300 0 0 0 0.0051778 0.4319 -0.90191 0.020792
-0.00095877 0.033322 1.0725 6.4998e-39 310.5 300 0 0 0 -0.043667 0.42097 -0.90602 0.023754
0.0015501 0.03268 1.072 6.6381e-39 239 300 0 0 0 -0.098999 0.38107 -0.91923 0.029344
0.0040585 0.03268 1.072 6.4537e-39 240 300 0 0 0 -0.15513 0.42458 -0.892 0.028575
-0.0053522 0.035219 1.073 7.0069e-39 416.5 300 0 0 0 0.062353 0.46888 -0.88106 0.015266
-0.0034698 0.03522 1.073 6.7303e-39 418 300 0 0 0 0.031366 0.46602 -0.88422 0.016631
0.0046874 0.12868 1.0725 5.9927e-39 164.5 320 0 0 0 0.61436 0.4894 -0.61891 0.057226
0.0065784 0.12948 1.0739 6.7303e-39 174 320 0 0 0 0.63813 0.4048 -0.65493 0.051555
0.0011325 0.13138 1.0723 6.9147e-39 201.33 320 0 0 0 0.63408 0.40748 -0.6572 0.050028
0.0028055 0.1312 1.0725 7.2835e-39 199.5 320 0 0 0 0.64057 0.40678 -0.65131 0.051343
0.00092364 0.13307 1.0725 6.6381e-39 225.5 320 0 0 0 0.64512 0.33877 -0.68487 0.047251
0.0028067 0.13313 1.073 6.9147e-39 227 320 0 0 0 0.63779 0.35278 -0.68467 0.05691
0.00092363 0.13496 1.0725 6.7995e-39 253 320 0 0 0 0.64107 0.31834 -0.69835 0.049176
0.0028067 0.13501 1.073 6.4076e-39 254.5 320 0 0 0 0.63784 0.30025 -0.70923 0.052237
0.00092364 0.13684 1.0725 6.1771e-39 277.5 320 0 0 0 0.62605 0.30064 -0.7195 0.050545
0.0028067 0.1369 1.073 4.702e-39 293 320 0 0 0 0.62366 0.27582 -0.73141 0.051075
-0.00095835 0.13866 1.072 6.2232e-39 348.5 320 0 0 0 0.6189 0.28761 -0.73092 0.046846
0.00092446 0.13884 1.0734 6.1771e-39 350.75 320 0 0 0 0.60726 0.272 -0.74649 0.047886
0.0028092 0.1389 1.0739 6.131e-39 353 320 0 0 0 0.59819 0.25547 -0.75954 0.048261
-0.0084837 0.1418 1.072 8.5742e-39 388 320 0 0 0 0.53804 0.29801 -0.78848 0.03595
-0.0072294 0.1418 1.072 8.8508e-39 389 320 0 0 0 0.58178 0.28314 -0.76247 0.038327
-0.0022126 0.1418 1.072 8.5742e-39 393 320 0 0 0 0.6006 0.25389 -0.75816 0.041994
-0.00095918 0.14067 1.073 6.3615e-39 379 320 0 0 0 0.59942 0.25531 -0.75862 0.044041
0.00029639 0.14079 1.0739 6.4537e-39 380 320 0 0 0 0.58955 0.25047 -0.76792 0.044471
-0.0084984 0.1433 1.0739 9.0352e-39 403 320 0 0 0 0.57023 0.2619 -0.77862 0.037902
-0.007242 0.1433 1.0739 8.7586e-39 404 320 0 0 0 0.60923 0.24639 -0.75374 0.041148
-0.0059752 0.14305 1.072 8.482e-39 405 320 0 0 0 0.60563 0.25341 -0.75432 0.040104
-0.0028397 0.14305 1.072 8.482e-39 407.5 320 0 0 0 0.59751 0.2455 -0.76335 0.042033
-0.00096001 0.14267 1.0739 8.5742e-39 401.5 320 0 0 0 0.58587 0.24035 -0.77395 0.042765
-0.0053543 0.14509 1.0732 7.0299e-39 427 320 0 0 0 0.5889 0.21771 -0.77833 0.041322
-0.0028429 0.14509 1.0732 6.6842e-39 429 320 0 0 0 0.57031 0.21577 -0.79259 0.0407
-0.0047251 0.14694 1.073 6.1771e-39 450 320 0 0 0 0.52567 0.22328 -0.82086 0.037997
-0.0028437 0.147 1.0734 6.4076e-39 451.5 320 0 0 0 0.55835 0.19468 -0.80644 0.040521
-0.0047292 0.14833 1.0739 6.9147e-39 464 320 0 0 0 0.49137 0.22618 -0.84107 0.038065
-0.0022155 0.14889 1.0734 4.241e-39 504.5 320 0 0 0 0.5103 0.20189 -0.83596 0.041864
-0.0022164 0.15084 1.0739 5.9927e-39 160 321 0 0 0 0.45783 0.22079 -0.86119 0.04201
-0.007242 0.15963 1.0739 5.4395e-39 271 321 0 0 0 0.16577 0.35152 -0.92139 0.03065
-0.007242 0.16089 1.0739 5.4395e-39 327 321 0 0 0 0.12417 0.36796 -0.92151 0.028639
-0.0072388 0.16271 1.0734 6.4076e-39 354.5 321 0 0 0 0.097379 0.3812 -0.91935 0.029835
-0.007242 0.16466 1.0739 7.0069e-39 381 321 0 0 0 0.074193 0.39931 -0.91381 0.027148
0.0053313 0.12971 1.0758 6.6381e-39 173 320 0 0 0 0.65461 0.32312 -0.68343 0.044331
0.0078484 0.12971 1.0758 6.7303e-39 175 320 0 0 0 0.67051 0.2956 -0.68047 0.043167
0.009107 0.12971 1.0758 6.7303e-39 176 320 0 0 0 0.7079 0.29193 -0.64316 0.037687
0.010357 0.12959 1.0748 6.7303e-39 177 320 0 0 0 0.70046 0.35539 -0.61891 0.050403
0.0015541 0.14091 1.0748 6.6381e-39 381 320 0 0 0 0.58039 0.24564 -0.77641 0.045588
0.0028116 0.14091 1.0748 6.8225e-39 382 320 0 0 0 0.57739 0.22903 -0.78369 0.048193
0.00092607 0.14286 1.0753 8.8508e-39 403 320 0 0 0 0.55858 0.21889 -0.80004 0.043469
0.0028141 0.14292 1.0758 8.8047e-39 404.5 320 0 0 0 0.55886 0.21708 -0.80034 0.043862
-0.0085058 0.14468 1.0748 9.0352e-39 417 320 0 0 0 0.54136 0.24313 -0.80487 0.039952
-0.0072483 0.14468 1.0748 8.6664e-39 418 320 0 0 0 0.58183 0.21825 -0.78348 0.04278
-0.00096085 0.14531 1.0748 6.638e-39 430.5 320 0 0 0 0.55061 0.20795 -0.80845 0.040699
0.0009262 0.14481 1.0758 7.053e-39 424.5 320 0 0 0 0.54774 0.19507 -0.81359 0.041224
-0.0085132 0.14607 1.0758 6.2693e-39 432 320 0 0 0 0.50954 0.24076 -0.82608 0.038996
-0.0072546 0.14607 1.0758 6.4537e-39 433 320 0 0 0 0.5629 0.21329 -0.79853 0.042288
-0.0059908 0.1472 1.0748 6.0849e-39 449 320 0 0 0 0.5379 0.21244 -0.8158 0.039588
-0.00096085 0.1472 1.0748 6.4537e-39 453 320 0 0 0 0.54535 0.18822 -0.8168 0.040095
0.00092613 0.14667 1.0755 6.0158e-39 447 320 0 0 0 0.5357 0.18775 -0.82327 0.040576
0.0028141 0.1467 1.0758 5.9466e-39 448.5 320 0 0 0 0.52901 0.18496 -0.82821 0.042178
-0.0055751 0.14938 1.0755 4.5483e-39 514.67 320 0 0 0 0.48526 0.22606 -0.84464 0.039158
-0.0034758 0.14909 1.0748 4.2871e-39 503.5 320 0 0 0 0.50548 0.21081 -0.83669 0.041933
-0.00096085 0.14909 1.0748 4.241e-39 505.5 320 0 0 0 0.53117 0.17882 -0.82818 0.043819
0.00092572 0.14911 1.075 4.1027e-39 507 320 0 0 0 0.52961 0.16878 -0.83128 0.043351
0.0028141 0.14921 1.0758 5.8544e-39 309 320.5 0 0 0 0.51955 0.16499 -0.83836 0.044196
0.0040727 0.14921 1.0758 5.8544e-39 310.5 320.5 0 0 0 0.51211 0.16636 -0.84265 0.044091
-0.0053667 0.1511 1.0758 5.3934e-39 157.5 321 0 0 0 0.45152 0.24288 -0.85857 0.042342
-0.0034789 0.1511 1.0758 5.6239e-39 159 321 0 0 0 0.44636 0.23156 -0.86437 0.043413
-0.00096169 0.1511 1.0758 6.1771e-39 161 321 0 0 0 0.47531 0.20298 -0.85608 0.04529
0.0009262 0.1511 1.0758 5.9927e-39 162.5 321 0 0 0 0.4953 0.18409 -0.84899 0.046627
0.0028141 0.1511 1.0758 5.8083e-39 164 321 0 0 0 0.49886 0.16341 -0.85114 0.047129
0.0040727 0.1511 1.0758 5.6239e-39 165 321 0 0 0 0.50025 0.15888 -0.85118 0.045992
-0.0022193 0.15292 1.0753 7.0069e-39 183.5 321 0 0 0 0.41477 0.23521 -0.879 0.045677
0.0040727 0.15236 1.0758 7.56e-39 181 321 0 0 0 0.4634 0.18303 -0.86704 0.045064
-0.0022203 0.15488 1.0758 6.6381e-39 207 321 0 0 0 0.35725 0.26511 -0.89559 0.041169
-0.0085132 0.15739 1.0758 6.5459e-39 237 321 0 0 0 0.22736 0.33469 -0.91449 0.032301
-0.0072546 0.15739 1.0758 6.3615e-39 238 321 0 0 0 0.23488 0.32486 -0.91613 0.033429
-0.0085058 0.15852 1.0748 7.3757e-39 255 321 0 0 0 0.18134 0.34612 -0.9205 0.030531
-0.0072483 0.15852 1.0748 7.2835e-39 256 321 0 0 0 0.19732 0.33292 -0.92208 0.033297
-0.0072514 0.16676 1.0753 8.943e-39 403.5 321 0 0 0 0.077426 0.39848 -0.9139 0.026699
0.0040762 0.13108 1.0767 7.56e-39 191 320 0 0 0 0.6402 0.32905 -0.69416 0.044926
0.010384 0.13119 1.0776 7.3757e-39 196 320 0 0 0 0.76597 0.22987 -0.60038 0.037033
0.0040798 0.13245 1.0776 7.2835e-39 210 320 0 0 0 0.63598 0.27859 -0.71966 0.050752
0.0040798 0.13687 1.0776 5.5779e-39 279 320 0 0 0 0.60301 0.24965 -0.75767 0.051222
0.0040798 0.13876 1.0776 5.8083e-39 349 320 0 0 0 0.584 0.23201 -0.7779 0.049098
0.0040798 0.14002 1.0776 5.9005e-39 368 320 0 0 0 0.57531 0.22543 -0.78626 0.047832
0.0028165 0.14493 1.0767 6.2693e-39 426 320 0 0 0 0.54169 0.19231 -0.81828 0.042834
-0.0093633 0.14707 1.077 6.2386e-39 441.33 320 0 0 0 0.50518 0.23776 -0.82962 0.04111
-0.007261 0.14745 1.0767 6.0849e-39 448 320 0 0 0 0.53004 0.22213 -0.81836 0.041774
0.004078 0.14689 1.0771 5.9005e-39 449.5 320 0 0 0 0.52394 0.1753 -0.83352 0.042803
-0.0085281 0.14884 1.0776 6.9147e-39 461 320 0 0 0 0.4893 0.24026 -0.83837 0.043317
-0.0072673 0.14884 1.0776 7.3757e-39 462 320 0 0 0 0.49725 0.23468 -0.83527 0.04437
0.0053382 0.14941 1.0771 6.131e-39 311.5 320.5 0 0 0 0.50057 0.15614 -0.8515 0.045363
-0.0085281 0.15073 1.0776 5.9005e-39 346.5 320.5 0 0 0 0.4285 0.26594 -0.86352 0.042139
-0.0072673 0.1501 1.0776 5.3473e-39 539 320 0 0 0 0.45916 0.24633 -0.85352 0.043714
0.0053359 0.15123 1.0767 6.2693e-39 166 321 0 0 0 0.49487 0.15578 -0.85489 0.047137
-0.0085281 0.15326 1.0776 7.3757e-39 178.5 321 0 0 0 0.33496 0.29242 -0.89571 0.039639
-0.0060013 0.15312 1.0767 7.1452e-39 180.5 321 0 0 0 0.37377 0.26703 -0.88825 0.041915
-0.0047436 0.15319 1.0771 7.0991e-39 181.5 321 0 0 0 0.39929 0.24684 -0.88297 0.04547
-0.0034834 0.15319 1.0771 7.099e-39 182.5 321 0 0 0 0.40669 0.24295 -0.88067 0.043586
-0.00096252 0.15312 1.0767 6.9608e-39 184.5 321 0 0 0 0.4142 0.23533 -0.87924 0.043467
0.00092698 0.15312 1.0767 7.1913e-39 186 321 0 0 0 0.43927 0.21103 -0.87322 0.045917
0.0028165 0.15312 1.0767 7.5601e-39 187.5 321 0 0 0 0.45091 0.19523 -0.87095 0.045892
0.004916 0.15333 1.0767 7.1606e-39 191.67 321 0 0 0 0.45518 0.18478 -0.87101 0.046321
-0.0085206 0.15501 1.0767 7.0991e-39 202 321 0 0 0 0.2894 0.31269 -0.9047 0.035375
-0.0066343 0.15508 1.0771 7.3296e-39 203.5 321 0 0 0 0.30325 0.29641 -0.90564 0.039106
-0.00096336 0.15515 1.0776 6.7303e-39 208 321 0 0 0 0.38173 0.25363 -0.88879 0.04285
0.00092781 0.15515 1.0776 7.1913e-39 209.5 321 0 0 0 0.39281 0.24625 -0.88604 0.042805
0.002819 0.15515 1.0776 7.7444e-39 211 321 0 0 0 0.40289 0.23793 -0.88378 0.044145
0.0047061 0.15501 1.0767 7.514e-39 212.5 321 0 0 0 0.40877 0.21972 -0.8858 0.045221
-0.0085206 0.15627 1.0767 6.2693e-39 218 321 0 0 0 0.26502 0.31992 -0.90962 0.034927
-0.0064212 0.15669 1.0767 6.4537e-39 226 321 0 0 0 0.26346 0.30994 -0.91352 0.036388
-0.0022231 0.15697 1.0771 6.3154e-39 232.5 321 0 0 0 0.34051 0.27582 -0.89887 0.041007
-0.00096336 0.15641 1.0776 5.9927e-39 224 321 0 0 0 0.34297 0.27679 -0.89764 0.040775
0.00092781 0.15704 1.0776 6.5228e-39 235 321 0 0 0 0.33915 0.274 -0.89994 0.041508
0.002819 0.15704 1.0776 6.6842e-39 236.5 321 0 0 0 0.36979 0.25401 -0.89372 0.043296
0.0047079 0.15697 1.0771 6.6151e-39 238 321 0 0 0 0.37655 0.24606 -0.89312 0.045204
-0.0060013 0.15879 1.0767 6.8225e-39 257 321 0 0 0 0.22285 0.32923 -0.91758 0.03437
-0.0022241 0.15893 1.0776 6.6381e-39 260 321 0 0 0 0.2792 0.30716 -0.90978 0.038445
0.002819 0.15893 1.0776 6.0849e-39 264 321 0 0 0 0.34624 0.27542 -0.89681 0.043718
0.0047079 0.15886 1.0771 5.9927e-39 265.5 321 0 0 0 0.348 0.27614 -0.8959 0.044069
-0.0060013 0.16005 1.0767 5.5317e-39 272 321 0 0 0 0.20094 0.34354 -0.91739 0.032614
0.002819 0.16019 1.0776 5.7161e-39 279 321 0 0 0 0.3156 0.29979 -0.90029 0.04055
0.0049188 0.16056 1.0773 5.1937e-39 307.33 321 0 0 0 0.32807 0.29737 -0.89663 0.043548
-0.0072673 0.16902 1.0776 6.0849e-39 426 321 0 0 0 0.09697 0.42055 -0.90207 0.030721
0.0053499 0.13142 1.0795 7.3757e-39 192 320 0 0 0 0.64317 0.29487 -0.70667 0.046595
0.0091389 0.13142 1.0795 7.56e-39 195 320 0 0 0 0.75355 0.21398 -0.62159 0.039248
0.0040833 0.13383 1.0786 6.9147e-39 228 320 0 0 0 0.62318 0.26426 -0.73608 0.053215
0.0040833 0.13509 1.0786 6.4537e-39 247 320 0 0 0 0.61857 0.26298 -0.74041 0.052539
0.0040869 0.14153 1.0795 6.7303e-39 383 320 0 0 0 0.56265 0.21098 -0.79932 0.048049
0.0040869 0.14532 1.0795 6.2693e-39 427 320 0 0 0 0.52483 0.17906 -0.83216 0.04493
0.0053452 0.14771 1.0786 5.9927e-39 458 320 0 0 0 0.50405 0.1607 -0.84859 0.044783
-0.0072736 0.1515 1.0786 5.5317e-39 156 321 0 0 0 0.43194 0.25877 -0.86398 0.04513
0.0078759 0.15163 1.0795 6.1771e-39 169 321 0 0 0 0.47852 0.13694 -0.86733 0.048316
-0.0072736 0.15276 1.0786 6.2693e-39 172 321 0 0 0 0.37935 0.26777 -0.88566 0.043184
-0.0072736 0.15402 1.0786 7.8366e-39 187 321 0 0 0 0.34769 0.28156 -0.89434 0.042828
-0.0047499 0.15528 1.0786 6.9147e-39 205 321 0 0 0 0.34158 0.27809 -0.89777 0.041399
-0.003488 0.15528 1.0786 6.6381e-39 206 321 0 0 0 0.34186 0.27539 -0.8985 0.041244
-0.004754 0.15668 1.0795 6.5459e-39 221 321 0 0 0 0.29726 0.29844 -0.90696 0.039842
-0.0034895 0.15725 1.0791 6.7303e-39 231.5 321 0 0 0 0.30989 0.29294 -0.90452 0.04115
-0.00096421 0.15781 1.0786 6.4537e-39 243 321 0 0 0 0.33127 0.27945 -0.9012 0.041156
-0.00096421 0.15907 1.0786 7.0991e-39 261 321 0 0 0 0.29634 0.30622 -0.90466 0.037681
0.00092864 0.15907 1.0786 6.5459e-39 262.5 321 0 0 0 0.32916 0.28909 -0.89893 0.041938
0.010402 0.15921 1.0795 5.4395e-39 270 321 0 0 0 0.40285 0.25407 -0.87929 0.052603
-0.006017 0.16173 1.0795 5.6239e-39 328 321 0 0 0 0.17836 0.36275 -0.91466 0.029108
-0.0022261 0.16033 1.0786 5.7161e-39 275 321 0 0 0 0.25469 0.33027 -0.90888 0.03581
-0.00096463 0.16103 1.0791 5.624e-39 304 321 0 0 0 0.25399 0.33078 -0.90888 0.033705
0.00092864 0.16096 1.0786 5.8083e-39 305.5 321 0 0 0 0.28853 0.31773 -0.90322 0.038534
0.0028215 0.16159 1.0786 5.4395e-39 335 321 0 0 0 0.27545 0.33158 -0.90232 0.035438
0.0040833 0.16159 1.0786 5.6239e-39 336 321 0 0 0 0.29308 0.32291 -0.89991 0.038109
0.010402 0.1611 1.0795 5.7622e-39 336 321 0 0 0 0.3886 0.29474 -0.873 0.049822
0.00092942 0.163 1.0795 6.4076e-39 353.5 321 0 0 0 0.25518 0.3425 -0.9042 0.033483
0.0028239 0.163 1.0795 6.8225e-39 355 321 0 0 0 0.27367 0.34111 -0.8993 0.0345
0.0047143 0.16285 1.0786 6.3154e-39 356.5 321 0 0 0 0.28181 0.33801 -0.89796 0.036794
0.010402 0.163 1.0795 6.5459e-39 361 321 0 0 0 0.343 0.33879 -0.87611 0.04279
0.010402 0.16426 1.0795 6.5459e-39 380 321 0 0 0 0.31963 0.36392 -0.87487 0.038909
0.0072571 0.13165 1.0814 7.4679e-39 193.5 320 0 0 0 0.73846 0.22516 -0.63559 0.040651
0.0078897 0.13292 1.0814 7.7444e-39 213 320 0 0 0 0.73026 0.20025 -0.65317 0.045627
0.0091469 0.1328 1.0805 7.6522e-39 214 320 0 0 0 0.76782 0.17103 -0.61741 0.041261
0.0091549 0.13418 1.0814 5.9927e-39 232 320 0 0 0 0.77268 0.15667 -0.61516 0.042478
0.0091549 0.13735 1.0814 5.9005e-39 298 320 0 0 0 0.68919 0.15763 -0.70723 0.049154
0.0040941 0.14304 1.0814 8.6664e-39 398 320 0 0 0 0.54414 0.18188 -0.81904 0.048562
0.0040941 0.1443 1.0814 8.482e-39 413 320 0 0 0 0.5299 0.17209 -0.83042 0.046885
0.0053593 0.14683 1.0814 6.1771e-39 443 320 0 0 0 0.49342 0.14802 -0.8571 0.04686
0.0074657 0.1489 1.0811 6.2078e-39 510.33 320 0 0 0 0.48255 0.13585 -0.86527 0.046492
0.007042 0.15096 1.0808 6.5459e-39 157.33 321 0 0 0 0.48091 0.13694 -0.86601 0.046439
0.0091549 0.1519 1.0814 6.4537e-39 170 321 0 0 0 0.46968 0.13238 -0.87286 0.049571
0.0072536 0.1531 1.081 7.2374e-39 183.5 321 0 0 0 0.45819 0.1635 -0.87369 0.050611
0.0091549 0.15316 1.0814 8.021e-39 185 321 0 0 0 0.45659 0.14119 -0.8784 0.051423
0.007468 0.15485 1.0814 6.8225e-39 204 321 0 0 0 0.44364 0.1925 -0.87529 0.050715
0.01042 0.15506 1.0814 6.5459e-39 209 321 0 0 0 0.44431 0.17343 -0.87893 0.052985
0.01042 0.15696 1.0814 6.2693e-39 236 321 0 0 0 0.42363 0.21764 -0.8793 0.051495
-0.0047602 0.15879 1.081 6.7764e-39 249 321 0 0 0 0.2548 0.31996 -0.91253 0.036886
-0.0034941 0.15935 1.0805 6.4537e-39 259 321 0 0 0 0.27613 0.31854 -0.9068 0.038313
0.010411 0.15808 1.0805 7.4678e-39 254 321 0 0 0 0.42066 0.23588 -0.87602 0.051496
-0.0047623 0.16075 1.0814 5.7161e-39 273 321 0 0 0 0.23177 0.34153 -0.91084 0.034291
-0.0028636 0.16131 1.081 5.4856e-39 302.5 321 0 0 0 0.25187 0.34136 -0.90556 0.033769
-0.0060223 0.16314 1.0805 6.1771e-39 348 321 0 0 0 0.16518 0.37776 -0.91105 0.027979
-0.0028645 0.16265 1.0814 5.3934e-39 340.5 321 0 0 0 0.21599 0.3595 -0.9078 0.028891
-0.00096589 0.16314 1.0805 5.5317e-39 352 321 0 0 0 0.23977 0.35131 -0.90504 0.031895
-0.00096674 0.16455 1.0814 6.8225e-39 371 321 0 0 0 0.21307 0.3751 -0.90217 0.03169
0.00093067 0.16511 1.081 7.8366e-39 380 321 0 0 0 0.22535 0.37441 -0.89946 0.030591
0.0028276 0.16511 1.081 8.1132e-39 381.5 321 0 0 0 0.23899 0.37265 -0.89667 0.031435
0.0045131 0.16487 1.0808 7.8367e-39 380.33 321 0 0 0 0.25698 0.36557 -0.89461 0.032584
0.010411 0.16567 1.0805 8.8508e-39 395 321 0 0 0 0.29931 0.37974 -0.87534 0.037417
0.0053687 0.13315 1.0833 7.8366e-39 211 320 0 0 0 0.6816 0.24382 -0.68991 0.052271
0.0066361 0.13315 1.0833 8.021e-39 212 320 0 0 0 0.7286 0.21059 -0.65177 0.048998
0.0079035 0.13506 1.0833 6.3154e-39 240.5 320 0 0 0 0.7506 0.15625 -0.64202 0.046242
0.0091629 0.13557 1.0824 7.0991e-39 251 320 0 0 0 0.77403 0.13218 -0.61919 0.043404
0.0079035 0.13695 1.0833 6.0849e-39 267 320 0 0 0 0.6932 0.16593 -0.70138 0.053035
0.0078966 0.13873 1.0824 5.5778e-39 339.5 320 0 0 0 0.62026 0.17667 -0.76424 0.058415
0.0091629 0.13937 1.0824 5.9927e-39 353 320 0 0 0 0.65832 0.14006 -0.73959 0.051039
0.0078966 0.14063 1.0824 6.4537e-39 371 320 0 0 0 0.58564 0.16458 -0.79368 0.05742
0.0079035 0.14202 1.0833 7.7444e-39 386 320 0 0 0 0.56176 0.14363 -0.81474 0.057214
0.0053687 0.14582 1.0833 6.4537e-39 428 320 0 0 0 0.49756 0.14417 -0.85537 0.048668
0.0079035 0.14582 1.0833 6.1771e-39 430 320 0 0 0 0.50113 0.11766 -0.85733 0.052081
0.0072664 0.14703 1.0828 6.2232e-39 444.5 320 0 0 0 0.48694 0.13061 -0.86362 0.049349
0.0066303 0.14823 1.0824 6.2693e-39 459 320 0 0 0 0.48209 0.13715 -0.86532 0.045974
0.0091629 0.1495 1.0824 6.3615e-39 537 320 0 0 0 0.48122 0.1112 -0.86952 0.046862
0.0091629 0.15076 1.0824 5.9005e-39 154 321 0 0 0 0.47555 0.11517 -0.87212 0.047228
0.0066303 0.15583 1.0824 7.3757e-39 214 321 0 0 0 0.43115 0.2157 -0.87612 0.050727
0.0091629 0.15519 1.0824 6.5459e-39 208 321 0 0 0 0.44359 0.19156 -0.87552 0.052068
0.0072634 0.15709 1.0824 6.0849e-39 230.5 321 0 0 0 0.4129 0.23572 -0.87974 0.048981
0.0091709 0.15723 1.0833 5.9005e-39 232 321 0 0 0 0.41089 0.2361 -0.88058 0.051323
0.0072666 0.15907 1.0828 6.2232e-39 258.5 321 0 0 0 0.37208 0.27623 -0.88615 0.047772
0.0091709 0.15913 1.0833 6.3154e-39 260 321 0 0 0 0.3967 0.26919 -0.87759 0.0502
0.0072698 0.16103 1.0833 5.1169e-39 294.5 321 0 0 0 0.3412 0.30777 -0.88818 0.044065
0.0091709 0.16103 1.0833 5.2552e-39 325 321 0 0 0 0.36623 0.30545 -0.87896 0.046831
-0.0047686 0.16286 1.0828 5.7622e-39 339 321 0 0 0 0.20683 0.37174 -0.905 0.03114
-0.0035002 0.16343 1.0824 5.4395e-39 350 321 0 0 0 0.20683 0.37174 -0.905 0.03114
0.0066361 0.1623 1.0833 6.3615e-39 338 321 0 0 0 0.32648 0.3172 -0.89039 0.042508
-0.0060328 0.16469 1.0824 5.9927e-39 367 321 0 0 0 0.16048 0.39694 -0.90371 0.029223
-0.0022339 0.16469 1.0824 6.2693e-39 370 321 0 0 0 0.19754 0.38439 -0.90179 0.030175
-0.00096759 0.16596 1.0824 8.3898e-39 386 321 0 0 0 0.20228 0.39447 -0.89637 0.031252
0.005364 0.16596 1.0824 8.7586e-39 391 321 0 0 0 0.24854 0.38377 -0.88935 0.031882
-0.0060381 0.1661 1.0833 7.3757e-39 382 321 0 0 0 0.15809 0.41084 -0.8979 0.031698
-0.0022359 0.1661 1.0833 7.9288e-39 385 321 0 0 0 0.1943 0.39864 -0.89629 0.031394
-0.00096843 0.16737 1.0833 8.943e-39 401 321 0 0 0 0.19399 0.41098 -0.89076 0.032644
0.00093186 0.16722 1.0824 9.1274e-39 402.5 321 0 0 0 0.21097 0.40119 -0.89137 0.032277
0.0028313 0.16722 1.0824 8.6664e-39 404 321 0 0 0 0.22016 0.4055 -0.88719 0.032451
0.0047332 0.1673 1.0828 8.4359e-39 405.5 321 0 0 0 0.23913 0.40426 -0.88283 0.031066
0.010429 0.16722 1.0824 8.943e-39 410 321 0 0 0 0.25394 0.38746 -0.88622 0.035892
-0.00096843 0.16928 1.0833 7.7905e-39 423.5 321 0 0 0 0.1875 0.42399 -0.88604 0.033899
0.00093263 0.16924 1.0831 7.8366e-39 425 321 0 0 0 0.20333 0.42243 -0.8833 0.03278
0.0028338 0.16928 1.0833 7.1913e-39 426.5 321 0 0 0 0.21395 0.42161 -0.88117 0.033468
0.0041012 0.16864 1.0833 7.3757e-39 420 321 0 0 0 0.22529 0.42023 -0.879 0.033373
-0.0072991 0.17102 1.0824 5.9927e-39 441 321 0 0 0 0.15616 0.43814 -0.88524 0.038225
0.0066477 0.13465 1.0852 6.0849e-39 230 320 0 0 0 0.78173 0.1526 -0.60466 0.04608
0.0066477 0.1391 1.0852 5.2091e-39 338.5 320 0 0 0 0.61524 0.15763 -0.77242 0.061208
0.0066419 0.14088 1.0843 6.2693e-39 370 320 0 0 0 0.57539 0.15878 -0.80232 0.058253
0.0070686 0.14308 1.0849 8.2976e-39 395.33 320 0 0 0 0.54067 0.12301 -0.83219 0.056998
0.009183 0.14285 1.0847 8.8508e-39 394.5 320 0 0 0 0.61443 0.091709 -0.78363 0.052243
0.0053781 0.14481 1.0852 8.5742e-39 414 320 0 0 0 0.5056 0.12672 -0.85341 0.052626
0.0070667 0.14515 1.0846 8.0825e-39 420 320 0 0 0 0.51051 0.11933 -0.85155 0.053533
0.0074876 0.16329 1.0843 6.4537e-39 352 321 0 0 0 0.30449 0.34422 -0.88814 0.038709
0.009183 0.16315 1.0847 6.3154e-39 352.5 321 0 0 0 0.32415 0.34461 -0.88101 0.041719
-0.0047749 0.16498 1.0843 6.1771e-39 368 321 0 0 0 0.16823 0.40215 -0.89998 0.030017
-0.0035064 0.16498 1.0843 6.2693e-39 369 321 0 0 0 0.19067 0.39648 -0.89802 0.031057
0.0072797 0.16506 1.0847 6.592e-39 377.5 321 0 0 0 0.29417 0.36692 -0.88252 0.036907
-0.0060434 0.16752 1.0843 8.7586e-39 397 321 0 0 0 0.16642 0.41612 -0.89395 0.034317
-0.0047791 0.16703 1.0852 7.9288e-39 390.5 321 0 0 0 0.16895 0.41739 -0.89288 0.033216
-0.0030855 0.1672 1.0849 8.2976e-39 394.33 321 0 0 0 0.1877 0.41381 -0.8908 0.032332
0.0066448 0.16696 1.0847 8.4359e-39 399.5 321 0 0 0 0.25146 0.40649 -0.87837 0.033202
-0.0060434 0.16879 1.0843 8.943e-39 412 321 0 0 0 0.16068 0.42368 -0.89145 0.035494
-0.0022378 0.16879 1.0843 8.943e-39 415 321 0 0 0 0.18628 0.42296 -0.88679 0.033572
0.0053734 0.16879 1.0843 7.2835e-39 421 321 0 0 0 0.23648 0.4257 -0.87342 0.034609
0.010457 0.16893 1.0852 6.5459e-39 425 321 0 0 0 0.20616 0.38951 -0.89765 0.035608
