# .PCD v.7 - Point Cloud Data file format
VERSION .7
FIELDS x y z rgb u v vx vy vz normal_x normal_y normal_z curvature
SIZE 4 4 4 4 4 4 4 4 4 4 4 4 4
TYPE F F F F F F F F F F F F F
COUNT 1 1 1 1 1 1 1 1 1 1 1 1 1
WIDTH 557
HEIGHT 1
VIEWPOINT 0 0 0 1 0 0 0
POINTS 557
DATA ascii
0.09856 -0.04902 1.2719 9.8649e-39 377 246 0 0 0 -0.38021 0.40011 -0.83388 0.024671
0.097072 -0.047532 1.2719 7.3757e-39 194 247 0 0 0 -0.40743 0.41263 -0.8147 0.023713
0.099945 -0.047483 1.2705 7.3757e-39 196 247 0 0 0 -0.37323 0.38984 -0.84186 0.023584
0.10005 -0.046044 1.2719 9.4961e-39 373 247 0 0 0 -0.38038 0.39446 -0.83649 0.021398
0.10005 -0.044556 1.2719 8.3898e-39 407 247 0 0 0 -0.40027 0.3925 -0.82809 0.020083
0.10143 -0.043024 1.2705 8.3898e-39 232 248 0 0 0 -0.39247 0.38443 -0.83557 0.019127
0.10154 -0.04158 1.2719 9.4961e-39 358 248 0 0 0 -0.40254 0.39706 -0.8248 0.016445
0.10297 -0.040815 1.2712 9.404e-39 376 248 0 0 0 -0.39131 0.3949 -0.83122 0.015783
0.1052 -0.040815 1.2712 9.2887e-39 377.5 248 0 0 0 -0.37334 0.3883 -0.84252 0.014912
0.10738 -0.040051 1.2705 9.8649e-39 396 248 0 0 0 -0.35862 0.38197 -0.85175 0.013965
0.10886 -0.040051 1.2705 9.5883e-39 397 248 0 0 0 -0.34687 0.37782 -0.85845 0.013542
0.11481 -0.040051 1.2705 9.404e-39 401 248 0 0 0 -0.2841 0.35494 -0.89068 0.011131
0.1461 -0.040815 1.2712 8.5742e-39 287.5 248.5 0 0 0 0.208 0.33777 -0.91796 0.011777
0.10749 -0.038604 1.2719 7.0991e-39 195 249 0 0 0 -0.36597 0.39084 -0.84458 0.012562
0.10898 -0.038604 1.2719 7.0991e-39 196 249 0 0 0 -0.35409 0.38709 -0.85134 0.012208
0.11035 -0.038565 1.2705 7.3757e-39 197 249 0 0 0 -0.33972 0.38132 -0.85976 0.012216
0.11481 -0.038565 1.2705 8.021e-39 200 249 0 0 0 -0.2915 0.36167 -0.88556 0.011058
0.14618 -0.038604 1.2719 7.7444e-39 221 249 0 0 0 0.21881 0.36871 -0.90342 0.011324
0.10898 -0.037116 1.2719 8.3898e-39 230 249 0 0 0 -0.3574 0.39478 -0.84641 0.011222
0.11035 -0.037078 1.2705 8.5742e-39 231 249 0 0 0 -0.34642 0.38934 -0.85347 0.01131
0.11481 -0.037078 1.2705 8.943e-39 234 249 0 0 0 -0.30021 0.37223 -0.87825 0.010908
0.14454 -0.037078 1.2705 1.0142e-38 254 249 0 0 0 0.20389 0.3722 -0.90548 0.010221
0.11088 -0.034612 1.271 9.8036e-39 337.67 249 0 0 0 -0.35485 0.40263 -0.84378 0.010231
0.11332 -0.034849 1.2705 9.2195e-39 321 249 0 0 0 -0.32756 0.39326 -0.8591 0.010856
0.11493 -0.034884 1.2719 8.8968e-39 322 249 0 0 0 -0.31692 0.39492 -0.86232 0.010378
0.14157 -0.034105 1.2705 9.404e-39 395 249 0 0 0 0.17238 0.39664 -0.90164 0.0096606
0.14469 -0.034884 1.2719 9.1735e-39 380.5 249 0 0 0 0.22486 0.39707 -0.88982 0.0096464
0.11115 -0.032636 1.2712 7.5139e-39 406.5 249 0 0 0 -0.35616 0.40831 -0.8405 0.0094275
0.11332 -0.032619 1.2705 7.7444e-39 408 249 0 0 0 -0.33348 0.40509 -0.85129 0.010201
0.11493 -0.032652 1.2719 7.7444e-39 409 249 0 0 0 -0.31626 0.40305 -0.85879 0.0099166
0.1163 -0.032619 1.2705 7.4678e-39 410 249 0 0 0 -0.28618 0.40221 -0.86967 0.0092226
0.14157 -0.032619 1.2705 7.6522e-39 182 250 0 0 0 0.17639 0.40469 -0.89728 0.0089552
0.14305 -0.032619 1.2705 7.4678e-39 183 250 0 0 0 0.20366 0.4045 -0.89157 0.0086987
0.11115 -0.031148 1.2712 7.3757e-39 193.5 250 0 0 0 -0.36182 0.41434 -0.83511 0.0090238
0.11344 -0.031164 1.2719 7.0991e-39 195 250 0 0 0 -0.33807 0.41236 -0.84597 0.0097379
0.11704 -0.031132 1.2705 7.5601e-39 197.5 250 0 0 0 -0.28269 0.40833 -0.86796 0.0088663
0.11927 -0.031132 1.2705 8.2054e-39 199 250 0 0 0 -0.24594 0.40716 -0.87963 0.0088614
0.12076 -0.031132 1.2705 8.2054e-39 200 250 0 0 0 -0.21635 0.40643 -0.8877 0.0092448
0.13859 -0.031132 1.2705 7.6522e-39 212 250 0 0 0 0.12537 0.40795 -0.90436 0.0095057
0.1409 -0.031148 1.2712 7.7444e-39 213.5 250 0 0 0 0.1706 0.41226 -0.89495 0.0086614
0.1432 -0.031164 1.2719 8.2976e-39 215 250 0 0 0 0.21521 0.4184 -0.8824 0.008006
0.11195 -0.029676 1.2719 8.1132e-39 226 250 0 0 0 -0.35684 0.41285 -0.83799 0.0087849
0.11716 -0.029676 1.2719 8.8508e-39 229.5 250 0 0 0 -0.28554 0.418 -0.8624 0.0083813
0.11939 -0.029676 1.2719 8.8508e-39 231 250 0 0 0 -0.24735 0.41918 -0.87356 0.0085563
0.12082 -0.028917 1.2712 9.3579e-39 248 250 0 0 0 -0.21565 0.42217 -0.88049 0.0091691
0.12305 -0.028917 1.2712 8.5281e-39 249.5 250 0 0 0 -0.16923 0.42128 -0.891 0.009974
0.12522 -0.028159 1.2705 7.6522e-39 267 250 0 0 0 -0.11044 0.42109 -0.90027 0.00958
0.1267 -0.028159 1.2705 7.7444e-39 268 250 0 0 0 -0.076179 0.42216 -0.90331 0.010834
0.12896 -0.02891 1.2708 9.0814e-39 253.5 250 0 0 0 -0.030321 0.41869 -0.90762 0.011569
0.13123 -0.028917 1.2712 9.6806e-39 255 250 0 0 0 -0.0012766 0.41927 -0.90786 0.012303
0.13265 -0.028903 1.2705 9.9111e-39 256 250 0 0 0 0.024419 0.41843 -0.90792 0.012106
0.13512 -0.028655 1.2705 9.066e-39 263 250 0 0 0 0.067953 0.41579 -0.90692 0.010688
0.13718 -0.028917 1.2712 9.3115e-39 259 250 0 0 0 0.10393 0.4167 -0.90308 0.010056
0.13866 -0.028917 1.2712 9.3579e-39 260 250 0 0 0 0.13226 0.41991 -0.89788 0.0093223
0.14022 -0.029676 1.2719 1.051e-38 245 250 0 0 0 0.153 0.4197 -0.89468 0.0089864
0.12534 -0.0267 1.2719 9.2196e-39 373 250 0 0 0 -0.11547 0.43375 -0.8936 0.010465
0.1267 -0.026673 1.2705 9.4961e-39 374 250 0 0 0 -0.077829 0.43112 -0.89893 0.011061
0.12907 -0.0267 1.2719 9.6344e-39 375.5 250 0 0 0 -0.034015 0.43373 -0.9004 0.012004
0.1313 -0.0267 1.2719 9.2196e-39 377 250 0 0 0 -0.0051795 0.43074 -0.90246 0.012259
0.13278 -0.0267 1.2719 9.2196e-39 378 250 0 0 0 0.020498 0.42548 -0.90473 0.012301
0.13487 -0.026673 1.2705 9.404e-39 379.5 250 0 0 0 0.06435 0.4242 -0.90328 0.011427
0.13725 -0.0267 1.2719 9.2196e-39 381 250 0 0 0 0.099823 0.42647 -0.89898 0.010621
0.13874 -0.0267 1.2719 9.404e-39 382 250 0 0 0 0.13859 0.42519 -0.89443 0.0095322
0.12534 -0.025212 1.2719 8.1132e-39 403 250 0 0 0 -0.11079 0.4404 -0.89094 0.010885
0.1267 -0.025186 1.2705 7.7444e-39 404 250 0 0 0 -0.081594 0.44022 -0.89417 0.010926
0.12907 -0.025212 1.2719 7.3296e-39 405.5 250 0 0 0 -0.034634 0.43955 -0.89755 0.012358
0.13278 -0.025212 1.2719 7.56e-39 408 250 0 0 0 0.017418 0.43568 -0.89993 0.012373
0.13501 -0.025212 1.2719 7.4679e-39 409.5 250 0 0 0 0.059777 0.43218 -0.8998 0.011752
0.12534 -0.023724 1.2719 7.1913e-39 183 251 0 0 0 -0.10409 0.44574 -0.88909 0.011369
0.12683 -0.023724 1.2719 7.3757e-39 184 251 0 0 0 -0.081492 0.44824 -0.89019 0.011275
0.12981 -0.023724 1.2719 7.2835e-39 186 251 0 0 0 -0.02935 0.44333 -0.89588 0.012488
0.13501 -0.023724 1.2719 7.6061e-39 189.5 251 0 0 0 0.053061 0.4373 -0.89775 0.011778
0.095682 -0.047581 1.2732 7.6522e-39 193 247 0 0 0 -0.4218 0.42329 -0.80182 0.02352
0.097172 -0.046092 1.2732 9.8649e-39 371 247 0 0 0 -0.41744 0.4107 -0.8106 0.021553
0.098661 -0.046836 1.2732 8.5281e-39 283.5 247 0 0 0 -0.39596 0.40574 -0.82376 0.021706
0.10015 -0.043113 1.2732 8.2976e-39 231 248 0 0 0 -0.41065 0.39796 -0.82036 0.01759
0.10164 -0.040134 1.2732 8.7586e-39 392 248 0 0 0 -0.41475 0.40821 -0.81323 0.014351
0.10611 -0.038644 1.2732 7.2835e-39 194 249 0 0 0 -0.37949 0.39811 -0.83516 0.012297
0.1076 -0.037155 1.2732 8.6664e-39 229 249 0 0 0 -0.37415 0.40483 -0.83434 0.011168
0.1076 -0.035665 1.2732 1.0234e-38 262 249 0 0 0 -0.37701 0.41142 -0.82982 0.010273
0.10909 -0.03492 1.2732 9.6805e-39 318 249 0 0 0 -0.36841 0.40986 -0.83444 0.0097385
0.14484 -0.032686 1.2732 7.7444e-39 184 250 0 0 0 0.24896 0.42245 -0.87153 0.0076728
0.11505 -0.031196 1.2732 7.0069e-39 196 250 0 0 0 -0.32631 0.40953 -0.85194 0.0094024
0.11058 -0.029707 1.2732 8.1132e-39 225 250 0 0 0 -0.37364 0.41574 -0.82918 0.0083414
0.11282 -0.028962 1.2732 9.5422e-39 242.5 250 0 0 0 -0.3474 0.41661 -0.84009 0.0090021
0.11654 -0.028217 1.2732 1.051e-38 261 250 0 0 0 -0.29551 0.42463 -0.85578 0.0082179
0.11877 -0.028217 1.2732 1.0787e-38 262.5 250 0 0 0 -0.25914 0.4296 -0.86503 0.0083966
0.14111 -0.028962 1.2732 9.8648e-39 299 250 0 0 0 0.17982 0.42426 -0.88751 0.0088074
0.14335 -0.029707 1.2732 1.0695e-38 247 250 0 0 0 0.22374 0.42656 -0.87635 0.0078925
0.121 -0.026728 1.2732 9.4961e-39 370 250 0 0 0 -0.21699 0.43538 -0.8737 0.009412
0.12324 -0.026728 1.2732 9.3118e-39 371.5 250 0 0 0 -0.16779 0.43429 -0.88501 0.011139
0.14037 -0.026728 1.2732 9.3118e-39 383 250 0 0 0 0.15957 0.42993 -0.88865 0.0095745
0.121 -0.025238 1.2732 8.021e-39 400 250 0 0 0 -0.21529 0.43741 -0.87311 0.0096131
0.12324 -0.025238 1.2732 7.9749e-39 401.5 250 0 0 0 -0.16121 0.44086 -0.88298 0.011704
0.13143 -0.025238 1.2732 7.3757e-39 407 250 0 0 0 -0.0070972 0.43504 -0.90038 0.012264
0.13739 -0.025238 1.2732 7.0991e-39 411 250 0 0 0 0.095757 0.43169 -0.89693 0.010966
0.13888 -0.025238 1.2732 7.0991e-39 412 250 0 0 0 0.1434 0.43151 -0.89064 0.0096043
0.12324 -0.023749 1.2732 7.514e-39 181.5 251 0 0 0 -0.16045 0.44399 -0.88155 0.011364
0.12547 -0.022259 1.2732 7.56e-39 213 251 0 0 0 -0.10063 0.45343 -0.88559 0.012399
0.12696 -0.022259 1.2732 7.6522e-39 214 251 0 0 0 -0.080463 0.45212 -0.88832 0.011953
0.1292 -0.023004 1.2732 7.7905e-39 200.5 251 0 0 0 -0.043432 0.44773 -0.89311 0.012781
0.13143 -0.023749 1.2732 7.3757e-39 187 251 0 0 0 -0.015858 0.44149 -0.89713 0.012395
0.13292 -0.023749 1.2732 7.2835e-39 188 251 0 0 0 0.0093085 0.4394 -0.89824 0.012909
0.13515 -0.022259 1.2732 8.1132e-39 219.5 251 0 0 0 0.048675 0.44198 -0.8957 0.012503
0.13739 -0.023749 1.2732 8.021e-39 191 251 0 0 0 0.095003 0.43547 -0.89518 0.011301
0.13888 -0.023749 1.2732 7.8366e-39 192 251 0 0 0 0.13977 0.43414 -0.88994 0.010004
0.09588 -0.046187 1.2758 9.5883e-39 370 247 0 0 0 -0.44877 0.43168 -0.78247 0.019434
0.097272 -0.044648 1.2745 8.482e-39 405 247 0 0 0 -0.43317 0.41651 -0.7993 0.019588
0.098763 -0.044648 1.2745 8.482e-39 406 247 0 0 0 -0.42512 0.4067 -0.80862 0.019207
0.097373 -0.043202 1.2758 7.7444e-39 225 248 0 0 0 -0.44921 0.42066 -0.7882 0.016995
0.098865 -0.043202 1.2758 7.8366e-39 226 248 0 0 0 -0.43723 0.41178 -0.79954 0.017507
0.10025 -0.041666 1.2745 8.8508e-39 357 248 0 0 0 -0.42143 0.4132 -0.80725 0.015986
0.10185 -0.038724 1.2758 7.9288e-39 191 249 0 0 0 -0.42751 0.4204 -0.80031 0.012772
0.10324 -0.038684 1.2745 7.7444e-39 192 249 0 0 0 -0.40454 0.40971 -0.81761 0.012855
0.10473 -0.038684 1.2745 7.3757e-39 193 249 0 0 0 -0.3993 0.40742 -0.82132 0.012261
0.10334 -0.037231 1.2758 7.9288e-39 226 249 0 0 0 -0.41728 0.42155 -0.80509 0.01089
0.10484 -0.037231 1.2758 8.482e-39 227 249 0 0 0 -0.4047 0.41601 -0.81434 0.010806
0.10622 -0.037193 1.2745 8.7586e-39 228 249 0 0 0 -0.38947 0.41047 -0.82452 0.01105
0.10484 -0.035739 1.2758 1.051e-38 260 249 0 0 0 -0.41221 0.42557 -0.80559 0.0099373
0.10675 -0.03472 1.2749 1.0019e-38 334.67 249 0 0 0 -0.39444 0.41916 -0.81775 0.0096123
0.10782 -0.032753 1.2758 7.8366e-39 404 249 0 0 0 -0.39537 0.41964 -0.81706 0.0084426
0.1092 -0.03272 1.2745 7.3757e-39 405 249 0 0 0 -0.38084 0.4161 -0.82573 0.0084718
0.1092 -0.031229 1.2745 7.9288e-39 192 250 0 0 0 -0.38582 0.41666 -0.82313 0.0081221
0.14514 -0.031261 1.2758 8.3898e-39 216 250 0 0 0 0.26097 0.43473 -0.86192 0.0080626
0.10931 -0.029768 1.2758 8.2976e-39 224 250 0 0 0 -0.39585 0.41967 -0.81681 0.0079144
0.11069 -0.028246 1.2745 1.0326e-38 257 250 0 0 0 -0.37771 0.41675 -0.82683 0.0082833
0.11367 -0.028246 1.2745 1.0418e-38 259 250 0 0 0 -0.33715 0.42019 -0.84248 0.0089898
0.11517 -0.028991 1.2745 9.7266e-39 244 250 0 0 0 -0.32306 0.41967 -0.84824 0.0089789
0.14275 -0.028246 1.2745 8.7125e-39 353.5 250 0 0 0 0.20229 0.43188 -0.87895 0.0091218
0.11304 -0.026783 1.2758 9.6345e-39 364.5 250 0 0 0 -0.35332 0.41752 -0.83716 0.0087097
0.11528 -0.026783 1.2758 1.0142e-38 366 250 0 0 0 -0.321 0.42328 -0.84723 0.0087508
0.11666 -0.026755 1.2745 9.8649e-39 367 250 0 0 0 -0.29855 0.42559 -0.85425 0.0083148
0.1189 -0.026755 1.2745 9.7727e-39 368.5 250 0 0 0 -0.25997 0.43325 -0.86297 0.0082644
0.14282 -0.026769 1.2752 8.8969e-39 384.5 250 0 0 0 0.20496 0.43388 -0.87735 0.0095088
0.1123 -0.02529 1.2758 8.3898e-39 394 250 0 0 0 -0.3508 0.41165 -0.84112 0.0089242
0.11528 -0.02529 1.2758 8.8508e-39 396 250 0 0 0 -0.31404 0.42107 -0.85093 0.0087105
0.11666 -0.025264 1.2745 8.943e-39 397 250 0 0 0 -0.29332 0.42606 -0.85583 0.0082199
0.1189 -0.025264 1.2745 8.3898e-39 398.5 250 0 0 0 -0.2591 0.43214 -0.86378 0.0082598
0.14051 -0.025264 1.2745 7.0991e-39 413 250 0 0 0 0.15913 0.4331 -0.88719 0.0098609
0.14283 -0.025277 1.2752 7.053e-39 414.5 250 0 0 0 0.20053 0.43227 -0.87916 0.0098511
0.11678 -0.023798 1.2758 8.2976e-39 177 251 0 0 0 -0.28626 0.42504 -0.85872 0.0085532
0.11902 -0.023798 1.2758 7.7905e-39 178.5 251 0 0 0 -0.25805 0.43101 -0.86466 0.0085125
0.12113 -0.023028 1.2745 7.6983e-39 195 251 0 0 0 -0.21125 0.4394 -0.8731 0.01
0.12262 -0.022282 1.2745 7.7444e-39 211 251 0 0 0 -0.18039 0.4465 -0.87641 0.011455
0.12411 -0.022282 1.2745 7.6522e-39 212 251 0 0 0 -0.13512 0.45126 -0.8821 0.012624
0.12858 -0.022282 1.2745 8.1132e-39 215 251 0 0 0 -0.056187 0.44936 -0.89158 0.012877
0.13157 -0.022282 1.2745 8.1132e-39 217 251 0 0 0 -0.018569 0.44711 -0.89429 0.012957
0.13306 -0.022282 1.2745 8.1132e-39 218 251 0 0 0 0.0071334 0.44548 -0.89527 0.012654
0.13767 -0.022305 1.2758 7.9288e-39 221 251 0 0 0 0.090007 0.44068 -0.89314 0.012081
0.13917 -0.022305 1.2758 8.6664e-39 222 251 0 0 0 0.13489 0.43919 -0.88821 0.010758
0.14051 -0.023773 1.2745 7.1913e-39 193 251 0 0 0 0.15608 0.43326 -0.88765 0.010392
0.14289 -0.023798 1.2758 7.1452e-39 194.5 251 0 0 0 0.20456 0.43454 -0.87711 0.010273
0.12125 -0.020812 1.2758 1.1156e-38 240 251 0 0 0 -0.20227 0.4401 -0.87487 0.011094
0.12275 -0.020812 1.2758 1.1248e-38 241 251 0 0 0 -0.17086 0.44571 -0.87872 0.012014
0.12492 -0.020801 1.2752 1.0787e-38 242.5 251 0 0 0 -0.11866 0.45063 -0.88479 0.01328
0.12709 -0.020791 1.2745 1.0418e-38 244 251 0 0 0 -0.081585 0.45348 -0.88752 0.012482
0.12858 -0.020791 1.2745 1.0418e-38 245 251 0 0 0 -0.059436 0.45117 -0.89046 0.013257
0.13089 -0.020801 1.2752 1.0741e-38 246.5 251 0 0 0 -0.029189 0.44798 -0.89357 0.013122
0.13306 -0.020791 1.2745 1.1156e-38 248 251 0 0 0 0.00040354 0.44574 -0.89516 0.013303
0.13455 -0.020791 1.2745 1.0879e-38 249 251 0 0 0 0.026664 0.44538 -0.89494 0.012844
0.13604 -0.020791 1.2745 1.0326e-38 250 251 0 0 0 0.048284 0.4452 -0.89413 0.013072
0.12125 -0.01932 1.2758 8.021e-39 269 251 0 0 0 -0.19564 0.43851 -0.87718 0.010484
0.12275 -0.01932 1.2758 8.482e-39 270 251 0 0 0 -0.16501 0.44389 -0.88076 0.011987
0.12498 -0.01932 1.2758 8.3898e-39 271.5 251 0 0 0 -0.1131 0.44752 -0.88709 0.013419
0.12723 -0.01932 1.2758 8.021e-39 273 251 0 0 0 -0.083626 0.44871 -0.88976 0.01222
0.12872 -0.01932 1.2758 7.7444e-39 274 251 0 0 0 -0.067851 0.44485 -0.89303 0.01306
0.13008 -0.0193 1.2745 7.56e-39 275 251 0 0 0 -0.040672 0.4453 -0.89446 0.013383
0.1332 -0.01932 1.2758 9.3118e-39 351 251 0 0 0 -0.0011273 0.44107 -0.89747 0.013128
0.13469 -0.01932 1.2758 9.2196e-39 352 251 0 0 0 0.021697 0.44131 -0.89709 0.012549
0.13618 -0.01932 1.2758 8.7586e-39 353 251 0 0 0 0.041274 0.43968 -0.89721 0.012676
0.12573 -0.017827 1.2758 9.4961e-39 375 251 0 0 0 -0.099162 0.44209 -0.89147 0.012595
0.13021 -0.017081 1.2758 8.3437e-39 391.5 251 0 0 0 -0.054704 0.43757 -0.89752 0.011856
0.13469 -0.017827 1.2758 9.0352e-39 381 251 0 0 0 0.019451 0.44115 -0.89722 0.012295
0.13618 -0.017081 1.2758 8.482e-39 395.5 251 0 0 0 0.033965 0.43025 -0.90207 0.012782
0.13021 -0.014842 1.2758 7.6522e-39 178 252 0 0 0 -0.054602 0.42705 -0.90258 0.012009
0.13618 -0.014842 1.2758 7.0069e-39 182 252 0 0 0 0.029634 0.42345 -0.90544 0.012613
0.095979 -0.044741 1.2771 8.7586e-39 404 247 0 0 0 -0.4706 0.43325 -0.76865 0.016932
0.095979 -0.043246 1.2771 7.9288e-39 224 248 0 0 0 -0.47785 0.43686 -0.76211 0.015047
0.097473 -0.041752 1.2771 8.7586e-39 355 248 0 0 0 -0.47018 0.43055 -0.77043 0.015439
0.098967 -0.041752 1.2771 8.5742e-39 356 248 0 0 0 -0.45105 0.42213 -0.78636 0.015462
0.10046 -0.040258 1.2771 9.1274e-39 391 248 0 0 0 -0.45015 0.4266 -0.78446 0.013397
0.10196 -0.03727 1.2771 7.8366e-39 225 249 0 0 0 -0.43828 0.43168 -0.78839 0.010397
0.10196 -0.035776 1.2771 1.0602e-38 258 249 0 0 0 -0.44415 0.43711 -0.78209 0.0097554
0.10345 -0.035776 1.2771 1.051e-38 259 249 0 0 0 -0.4274 0.42978 -0.79538 0.0098947
0.10644 -0.032787 1.2771 8.482e-39 403 249 0 0 0 -0.41009 0.42776 -0.80551 0.008678
0.10793 -0.031293 1.2771 7.9288e-39 191 250 0 0 0 -0.40592 0.41964 -0.81187 0.0080703
0.10943 -0.028305 1.2771 1.0326e-38 256 250 0 0 0 -0.39749 0.4193 -0.8162 0.0077955
0.11092 -0.026811 1.2771 9.1274e-39 363 250 0 0 0 -0.37611 0.41461 -0.82864 0.0085417
0.11391 -0.025316 1.2771 8.5742e-39 395 250 0 0 0 -0.32998 0.41497 -0.84789 0.0092882
0.11316 -0.023822 1.2771 8.1132e-39 174.5 251 0 0 0 -0.3401 0.40719 -0.84766 0.0090869
0.1154 -0.023075 1.2771 8.2976e-39 191 251 0 0 0 -0.30277 0.41536 -0.85779 0.0089631
0.1169 -0.022328 1.2771 7.8366e-39 207 251 0 0 0 -0.27891 0.41947 -0.86386 0.008706
0.11914 -0.022328 1.2771 7.7905e-39 208.5 251 0 0 0 -0.25075 0.43011 -0.86725 0.0088607
0.1408 -0.022328 1.2771 8.7586e-39 223 251 0 0 0 0.1503 0.43924 -0.88571 0.010599
0.1423 -0.022328 1.2771 8.6664e-39 224 251 0 0 0 0.18018 0.43253 -0.88343 0.011062
0.11914 -0.020834 1.2771 9.957e-39 238.5 251 0 0 0 -0.24275 0.42802 -0.87056 0.00913
0.13782 -0.020834 1.2771 9.9571e-39 251 251 0 0 0 0.076829 0.4417 -0.89387 0.012135
0.13931 -0.020834 1.2771 9.8649e-39 252 251 0 0 0 0.11711 0.43778 -0.89142 0.011321
0.13184 -0.01934 1.2771 7.8366e-39 276 251 0 0 0 -0.028008 0.4412 -0.89697 0.013337
0.13782 -0.01934 1.2771 8.6664e-39 354 251 0 0 0 0.073968 0.43446 -0.89765 0.012044
0.12138 -0.017098 1.2771 8.4359e-39 385.5 251 0 0 0 -0.18937 0.42494 -0.88519 0.0098037
0.12287 -0.017098 1.2771 8.3437e-39 386.5 251 0 0 0 -0.15605 0.43176 -0.88839 0.011371
0.12487 -0.016849 1.2771 8.2976e-39 392.33 251 0 0 0 -0.11793 0.42916 -0.8955 0.013181
0.12736 -0.017098 1.2771 8.7586e-39 389.5 251 0 0 0 -0.087475 0.43386 -0.89673 0.01243
0.12885 -0.017098 1.2771 8.5281e-39 390.5 251 0 0 0 -0.071793 0.43414 -0.89798 0.012225
0.13333 -0.017098 1.2771 8.3898e-39 393.5 251 0 0 0 -0.0079808 0.42985 -0.90286 0.013224
0.13483 -0.016351 1.2771 7.6522e-39 408 251 0 0 0 0.014566 0.42914 -0.90312 0.012804
0.12885 -0.014857 1.2771 8.021e-39 177 252 0 0 0 -0.067915 0.42132 -0.90437 0.011608
0.13333 -0.014857 1.2771 7.1913e-39 180 252 0 0 0 -0.015392 0.42047 -0.90718 0.013097
0.13483 -0.014857 1.2771 7.1913e-39 181 252 0 0 0 0.01151 0.41916 -0.90784 0.012881
0.13034 -0.013363 1.2771 7.8366e-39 202 252 0 0 0 -0.055008 0.40845 -0.91112 0.01189
0.13333 -0.013363 1.2771 8.2054e-39 204 252 0 0 0 -0.022568 0.41347 -0.91024 0.012339
0.13483 -0.013363 1.2771 8.3898e-39 205 252 0 0 0 0.0035977 0.40822 -0.91288 0.012902
0.13632 -0.013363 1.2771 8.1132e-39 206 252 0 0 0 0.026808 0.40514 -0.91386 0.012866
0.13034 -0.011869 1.2771 8.3898e-39 225 252 0 0 0 -0.051949 0.40104 -0.91459 0.012015
0.13483 -0.011869 1.2771 9.0352e-39 228 252 0 0 0 -0.0040575 0.40021 -0.91642 0.012409
0.13632 -0.011869 1.2771 9.0352e-39 229 252 0 0 0 0.015362 0.39788 -0.91731 0.0126
0.096877 -0.041069 1.2791 9.404e-39 371.5 248 0 0 0 -0.49511 0.4492 -0.74369 0.012468
0.099173 -0.040342 1.2798 9.4961e-39 390 248 0 0 0 -0.47314 0.442 -0.76209 0.012749
0.10057 -0.038804 1.2784 7.56e-39 190 249 0 0 0 -0.45683 0.43541 -0.77571 0.011419
0.10067 -0.037347 1.2798 8.1132e-39 224 249 0 0 0 -0.4699 0.44421 -0.7628 0.010078
0.10067 -0.03585 1.2798 1.0418e-38 257 249 0 0 0 -0.4702 0.44218 -0.7638 0.0096
0.10281 -0.034317 1.2784 9.404e-39 368.5 249 0 0 0 -0.44537 0.4361 -0.78196 0.0092155
0.10505 -0.034317 1.2784 9.7727e-39 370 249 0 0 0 -0.42601 0.43096 -0.79548 0.0091693
0.10286 -0.032838 1.2791 8.943e-39 400.5 249 0 0 0 -0.44724 0.43576 -0.78108 0.0092077
0.10505 -0.032821 1.2784 8.8508e-39 402 249 0 0 0 -0.42659 0.43161 -0.79482 0.0087693
0.10292 -0.031358 1.2798 7.3757e-39 187.5 250 0 0 0 -0.45566 0.43097 -0.77887 0.0089997
0.10516 -0.031358 1.2798 7.1913e-39 189 250 0 0 0 -0.43589 0.42672 -0.79241 0.0088468
0.10655 -0.031326 1.2784 7.56e-39 190 250 0 0 0 -0.42257 0.42509 -0.80046 0.0084167
0.10366 -0.029112 1.2798 8.6203e-39 236 250 0 0 0 -0.44928 0.41787 -0.78964 0.0090312
0.10516 -0.029861 1.2798 7.8366e-39 221 250 0 0 0 -0.43666 0.42173 -0.79465 0.0088879
0.10661 -0.029096 1.2791 9.1734e-39 238 250 0 0 0 -0.4256 0.41795 -0.80261 0.0087336
0.10804 -0.029082 1.2784 9.3119e-39 239 250 0 0 0 -0.41205 0.41898 -0.80912 0.0080025
0.14544 -0.02983 1.2784 1.0787e-38 248 250 0 0 0 0.29011 0.44519 -0.84714 0.0086947
0.10885 -0.026852 1.2791 9.0352e-39 361.5 250 0 0 0 -0.40088 0.40829 -0.82012 0.0086573
0.10965 -0.025369 1.2798 8.2054e-39 392 250 0 0 0 -0.38513 0.392 -0.83547 0.0093301
0.11104 -0.025343 1.2784 8.2976e-39 393 250 0 0 0 -0.37278 0.40148 -0.83657 0.0090149
0.10965 -0.023123 1.2798 7.7444e-39 187 251 0 0 0 -0.3662 0.37379 -0.85216 0.0099176
0.11109 -0.023111 1.2791 7.7905e-39 188 251 0 0 0 -0.35659 0.38368 -0.85184 0.009619
0.11253 -0.022351 1.2784 8.2976e-39 204 251 0 0 0 -0.33103 0.39551 -0.85673 0.0094039
0.11403 -0.022351 1.2784 8.3898e-39 205 251 0 0 0 -0.31273 0.40131 -0.8609 0.0095627
0.14394 -0.022351 1.2784 8.2976e-39 225 251 0 0 0 0.22814 0.42869 -0.87417 0.0111
0.11115 -0.020877 1.2798 8.7586e-39 233 251 0 0 0 -0.33202 0.37742 -0.86447 0.0098532
0.11253 -0.020856 1.2784 8.3898e-39 234 251 0 0 0 -0.31889 0.39327 -0.86235 0.0094442
0.11484 -0.020867 1.2791 8.3437e-39 235.5 251 0 0 0 -0.29689 0.40162 -0.86635 0.0095406
0.11702 -0.020856 1.2784 8.5742e-39 237 251 0 0 0 -0.26668 0.41445 -0.87012 0.0089114
0.14095 -0.020856 1.2784 9.8649e-39 253 251 0 0 0 0.14748 0.43164 -0.88991 0.011088
0.14245 -0.020856 1.2784 9.9571e-39 254 251 0 0 0 0.1821 0.43028 -0.88414 0.01074
0.14409 -0.020877 1.2798 1.0234e-38 255 251 0 0 0 0.21433 0.42386 -0.88 0.010966
0.11115 -0.01938 1.2798 1.0971e-38 262 251 0 0 0 -0.31575 0.36601 -0.87541 0.0097318
0.11253 -0.01936 1.2784 1.0971e-38 263 251 0 0 0 -0.30353 0.38529 -0.87145 0.0096623
0.11484 -0.01937 1.2791 9.9109e-39 264.5 251 0 0 0 -0.2839 0.39203 -0.87505 0.0094012
0.11702 -0.01936 1.2784 8.1132e-39 266 251 0 0 0 -0.25974 0.41053 -0.87407 0.0088164
0.11851 -0.01936 1.2784 7.56e-39 267 251 0 0 0 -0.23963 0.41724 -0.87664 0.0092399
0.12001 -0.01936 1.2784 7.56e-39 268 251 0 0 0 -0.21595 0.42493 -0.87909 0.009913
0.13945 -0.01936 1.2784 9.0352e-39 355 251 0 0 0 0.10981 0.43361 -0.89439 0.011148
0.1411 -0.01938 1.2798 9.0352e-39 356 251 0 0 0 0.14082 0.42568 -0.89385 0.01094
0.14259 -0.01938 1.2798 9.0352e-39 357 251 0 0 0 0.17838 0.41975 -0.88994 0.010635
0.11265 -0.017883 1.2798 9.8649e-39 366 251 0 0 0 -0.2851 0.36937 -0.88447 0.0094655
0.11564 -0.017134 1.2798 8.9891e-39 381.5 251 0 0 0 -0.2521 0.38452 -0.88803 0.0088724
0.11708 -0.017125 1.2791 8.8047e-39 382.5 251 0 0 0 -0.24275 0.39233 -0.88722 0.0084163
0.11857 -0.017125 1.2791 8.6203e-39 383.5 251 0 0 0 -0.22595 0.40275 -0.88698 0.0089118
0.12001 -0.017116 1.2784 8.482e-39 384.5 251 0 0 0 -0.20496 0.41346 -0.88715 0.0097495
0.13198 -0.017116 1.2784 8.3438e-39 392.5 251 0 0 0 -0.032745 0.42975 -0.90235 0.013059
0.13796 -0.017116 1.2784 8.1132e-39 396.5 251 0 0 0 0.060481 0.42403 -0.90363 0.01251
0.1396 -0.017134 1.2798 7.8827e-39 397.5 251 0 0 0 0.092625 0.42075 -0.90243 0.011977
0.14259 -0.017883 1.2798 8.6664e-39 386 251 0 0 0 0.15494 0.41381 -0.89708 0.011065
0.11564 -0.014888 1.2798 7.6522e-39 156 252 0 0 0 -0.23735 0.37211 -0.89733 0.0080612
0.11714 -0.014888 1.2798 7.7444e-39 166 252 0 0 0 -0.22729 0.37893 -0.89708 0.0078365
0.11864 -0.014888 1.2798 7.6522e-39 170 252 0 0 0 -0.21309 0.39081 -0.89547 0.0082993
0.12082 -0.01488 1.2791 7.4218e-39 171.5 252 0 0 0 -0.18765 0.39813 -0.89793 0.0094388
0.123 -0.014873 1.2784 7.3757e-39 173 252 0 0 0 -0.15374 0.40886 -0.89955 0.011341
0.12525 -0.014873 1.2784 7.8366e-39 174.5 252 0 0 0 -0.1161 0.41178 -0.90386 0.012434
0.12749 -0.014873 1.2784 8.1132e-39 176 252 0 0 0 -0.0869 0.416 -0.9052 0.011608
0.13198 -0.014873 1.2784 7.2835e-39 179 252 0 0 0 -0.039404 0.41989 -0.90672 0.011797
0.13796 -0.014873 1.2784 7.0069e-39 183 252 0 0 0 0.053536 0.41126 -0.90994 0.012633
0.1396 -0.014888 1.2798 7.0991e-39 184 252 0 0 0 0.086833 0.40751 -0.90906 0.012262
0.12163 -0.013391 1.2798 7.56e-39 196 252 0 0 0 -0.17247 0.38745 -0.90561 0.009025
0.12313 -0.013391 1.2798 7.56e-39 197 252 0 0 0 -0.1459 0.39014 -0.90912 0.010655
0.12531 -0.013384 1.2791 8.2976e-39 198.5 252 0 0 0 -0.11902 0.39482 -0.91102 0.011557
0.12762 -0.013391 1.2798 8.5742e-39 200 252 0 0 0 -0.084019 0.39882 -0.91317 0.011604
0.12898 -0.013377 1.2784 8.2054e-39 201 252 0 0 0 -0.068318 0.4035 -0.91243 0.011726
0.13211 -0.013391 1.2798 7.8366e-39 203 252 0 0 0 -0.0385 0.39951 -0.91592 0.012124
0.1381 -0.013391 1.2798 7.9288e-39 207 252 0 0 0 0.051774 0.39715 -0.91629 0.012834
0.12687 -0.011894 1.2798 8.8969e-39 222.5 252 0 0 0 -0.091428 0.38884 -0.91676 0.011226
0.12905 -0.011139 1.2791 9.9573e-39 236.5 252 0 0 0 -0.065607 0.38816 -0.91926 0.011742
0.13048 -0.010386 1.2784 1.0787e-38 250 252 0 0 0 -0.055492 0.38471 -0.92137 0.011891
0.13283 -0.011142 1.2794 9.3578e-39 239 252 0 0 0 -0.031328 0.38674 -0.92166 0.012448
0.13497 -0.010386 1.2784 9.9571e-39 253 252 0 0 0 -0.00080026 0.38595 -0.92252 0.012493
0.13646 -0.010386 1.2784 9.9571e-39 254 252 0 0 0 0.012611 0.3861 -0.92237 0.012531
0.1381 -0.011894 1.2798 8.8508e-39 230 252 0 0 0 0.043348 0.38351 -0.92252 0.01283
0.12912 -0.008899 1.2798 7.8366e-39 274 252 0 0 0 -0.065069 0.37096 -0.92637 0.011526
0.13048 -0.0088898 1.2784 7.9288e-39 275 252 0 0 0 -0.052054 0.37566 -0.92529 0.012224
0.13361 -0.008899 1.2798 8.6664e-39 277 252 0 0 0 -0.019043 0.37188 -0.92808 0.012038
0.13511 -0.008899 1.2798 8.7586e-39 278 252 0 0 0 -0.0066683 0.37009 -0.92897 0.012034
0.1366 -0.008899 1.2798 8.2976e-39 279 252 0 0 0 0.0035827 0.36965 -0.92917 0.012277
0.13062 -0.0074018 1.2798 8.8508e-39 378 252 0 0 0 -0.053057 0.35575 -0.93308 0.011909
0.097777 -0.038885 1.2811 7.4678e-39 188 249 0 0 0 -0.51345 0.45217 -0.72932 0.010293
0.099275 -0.038885 1.2811 7.3757e-39 189 249 0 0 0 -0.47935 0.45084 -0.75297 0.0114
0.097777 -0.037386 1.2811 8.021e-39 222 249 0 0 0 -0.51377 0.4529 -0.72864 0.0098258
0.099275 -0.037386 1.2811 8.2976e-39 223 249 0 0 0 -0.48297 0.45116 -0.75047 0.010348
0.10077 -0.034388 1.2811 9.7727e-39 367 249 0 0 0 -0.47897 0.4415 -0.75873 0.0093486
0.10077 -0.032889 1.2811 8.8508e-39 399 249 0 0 0 -0.48372 0.4382 -0.75763 0.0091152
0.10077 -0.031391 1.2811 7.8366e-39 186 250 0 0 0 -0.48119 0.43039 -0.76369 0.0096783
0.10077 -0.029142 1.2811 8.8506e-39 234 250 0 0 0 -0.47465 0.4137 -0.77689 0.010108
0.10227 -0.029142 1.2811 8.7124e-39 235 250 0 0 0 -0.46468 0.41383 -0.78283 0.0097968
0.10527 -0.028393 1.2811 9.8649e-39 253 250 0 0 0 -0.43854 0.40885 -0.80033 0.0095767
0.10302 -0.026894 1.2811 8.8508e-39 357.5 250 0 0 0 -0.44174 0.38875 -0.80854 0.010459
0.10527 -0.026894 1.2811 9.3118e-39 359 250 0 0 0 -0.42536 0.38691 -0.81815 0.010194
0.10677 -0.026894 1.2811 9.404e-39 360 250 0 0 0 -0.41863 0.38408 -0.82294 0.009646
0.10827 -0.025395 1.2811 8.3898e-39 391 250 0 0 0 -0.40009 0.38231 -0.83293 0.0096057
0.10827 -0.023147 1.2811 7.8827e-39 186 251 0 0 0 -0.38173 0.3634 -0.84983 0.01019
0.10977 -0.020899 1.2811 8.7586e-39 232 251 0 0 0 -0.33531 0.36016 -0.87055 0.010186
0.10977 -0.0194 1.2811 1.0602e-38 261 251 0 0 0 -0.31963 0.3501 -0.88049 0.0097021
0.14424 -0.0194 1.2811 9.3118e-39 358 251 0 0 0 0.19388 0.41226 -0.8902 0.011367
0.10977 -0.017152 1.2811 8.6664e-39 377.5 251 0 0 0 -0.2889 0.33832 -0.89559 0.0094264
0.11127 -0.017152 1.2811 8.8507e-39 378.5 251 0 0 0 -0.28674 0.34872 -0.89229 0.0091189
0.11276 -0.016402 1.2811 8.2976e-39 393 251 0 0 0 -0.26836 0.35842 -0.89416 0.0092002
0.11426 -0.017152 1.2811 9.2196e-39 380.5 251 0 0 0 -0.26648 0.36833 -0.89068 0.0092108
0.14124 -0.017152 1.2811 7.8366e-39 398.5 251 0 0 0 0.13404 0.41246 -0.90106 0.011439
0.14274 -0.016402 1.2811 7.1913e-39 413 251 0 0 0 0.15216 0.40476 -0.90168 0.011579
0.11276 -0.014904 1.2811 7.6522e-39 429 251 0 0 0 -0.25572 0.34439 -0.90333 0.0082983
0.14124 -0.014904 1.2811 7.0991e-39 185 252 0 0 0 0.1181 0.39578 -0.91072 0.011751
0.11276 -0.013405 1.2811 8.021e-39 190 252 0 0 0 -0.24533 0.33581 -0.90942 0.0073431
0.11576 -0.013405 1.2811 7.9288e-39 192 252 0 0 0 -0.22475 0.35674 -0.90676 0.0073635
0.11726 -0.013405 1.2811 7.3757e-39 193 252 0 0 0 -0.21741 0.36672 -0.90457 0.0072527
0.11876 -0.013405 1.2811 7.56e-39 194 252 0 0 0 -0.20482 0.37457 -0.90429 0.0074649
0.12026 -0.013405 1.2811 7.3757e-39 195 252 0 0 0 -0.19013 0.37777 -0.90617 0.0082975
0.13974 -0.013405 1.2811 7.6522e-39 208 252 0 0 0 0.078871 0.38755 -0.91847 0.012461
0.11726 -0.011906 1.2811 8.8508e-39 216 252 0 0 0 -0.21168 0.3525 -0.91156 0.0066407
0.11876 -0.011906 1.2811 8.482e-39 217 252 0 0 0 -0.19903 0.36219 -0.9106 0.0069416
0.12126 -0.011406 1.2811 9.0967e-39 227 252 0 0 0 -0.17316 0.36702 -0.91396 0.0078135
0.12326 -0.011156 1.2811 9.5882e-39 232.5 252 0 0 0 -0.1452 0.37368 -0.91612 0.0092166
0.12476 -0.011156 1.2811 9.5884e-39 233.5 252 0 0 0 -0.12456 0.37511 -0.91857 0.010225
0.127 -0.010407 1.2811 1.1248e-38 247.5 252 0 0 0 -0.091818 0.37769 -0.92137 0.010719
0.12101 -0.0089083 1.2811 7.7444e-39 268.5 252 0 0 0 -0.16559 0.35583 -0.91976 0.0069626
0.12326 -0.0089083 1.2811 8.5742e-39 270 252 0 0 0 -0.13898 0.36239 -0.92161 0.0083402
0.12476 -0.0089083 1.2811 8.3898e-39 271 252 0 0 0 -0.11935 0.36484 -0.92339 0.0091668
0.127 -0.0089083 1.2811 8.021e-39 272.5 252 0 0 0 -0.091139 0.36651 -0.92594 0.010369
0.13225 -0.0089083 1.2811 8.1132e-39 276 252 0 0 0 -0.03663 0.36441 -0.93052 0.012234
0.13824 -0.0089083 1.2811 8.2054e-39 280 252 0 0 0 0.034415 0.36363 -0.93091 0.01256
0.12775 -0.0074094 1.2811 9.1274e-39 376 252 0 0 0 -0.083695 0.35172 -0.93236 0.010463
0.12925 -0.0074094 1.2811 8.943e-39 377 252 0 0 0 -0.070453 0.34971 -0.9342 0.011226
0.13375 -0.0074094 1.2811 9.1274e-39 380 252 0 0 0 -0.016029 0.35165 -0.93599 0.011997
0.13525 -0.0074094 1.2811 8.943e-39 381 252 0 0 0 -0.0016082 0.35181 -0.93607 0.012234
0.13675 -0.0074094 1.2811 8.943e-39 382 252 0 0 0 0.013758 0.35078 -0.93636 0.01279
0.13075 -0.0059106 1.2811 7.7444e-39 407 252 0 0 0 -0.051486 0.33838 -0.9396 0.0113
0.13525 -0.0059106 1.2811 7.6522e-39 410 252 0 0 0 0.008154 0.33969 -0.9405 0.013179
0.097878 -0.035174 1.2824 9.9112e-39 310 249 0 0 0 -0.52572 0.45014 -0.7218 0.0093713
0.099379 -0.035174 1.2824 1.0095e-38 311 249 0 0 0 -0.50119 0.44814 -0.74026 0.0095273
0.099379 -0.032923 1.2824 9.1274e-39 398 249 0 0 0 -0.5079 0.43679 -0.74246 0.009778
0.099379 -0.031423 1.2824 7.9288e-39 185 250 0 0 0 -0.50902 0.43284 -0.74401 0.0097519
0.099482 -0.029203 1.2838 9.3115e-39 233 250 0 0 0 -0.49739 0.39807 -0.77081 0.010315
0.099482 -0.02695 1.2838 8.5742e-39 355 250 0 0 0 -0.45603 0.35859 -0.81452 0.012366
0.10088 -0.026922 1.2824 8.5742e-39 356 250 0 0 0 -0.44606 0.37113 -0.81443 0.011838
0.10088 -0.025422 1.2824 8.943e-39 386 250 0 0 0 -0.43475 0.3579 -0.82637 0.011796
0.10313 -0.025422 1.2824 9.0813e-39 387.5 250 0 0 0 -0.42421 0.35972 -0.83105 0.011473
0.10538 -0.025422 1.2824 8.943e-39 389 250 0 0 0 -0.41512 0.36464 -0.83349 0.011298
0.10688 -0.025422 1.2824 8.6664e-39 390 250 0 0 0 -0.40213 0.36871 -0.83806 0.010738
0.10088 -0.023171 1.2824 7.0991e-39 306 250.5 0 0 0 -0.40643 0.3217 -0.85517 0.011162
0.10313 -0.023171 1.2824 7.4909e-39 308.5 250.5 0 0 0 -0.39819 0.33113 -0.85545 0.010851
0.10538 -0.023171 1.2824 7.8827e-39 312 250.5 0 0 0 -0.38618 0.34191 -0.85672 0.011074
0.10688 -0.023171 1.2824 7.9288e-39 314 250.5 0 0 0 -0.3836 0.35133 -0.85406 0.01075
0.10098 -0.020942 1.2838 8.2054e-39 226 251 0 0 0 -0.35426 0.2829 -0.89133 0.0099961
0.10324 -0.020942 1.2838 8.943e-39 227.5 251 0 0 0 -0.35384 0.30032 -0.88578 0.0096643
0.10538 -0.02092 1.2824 9.0352e-39 229 251 0 0 0 -0.36051 0.32424 -0.87459 0.010065
0.10699 -0.020942 1.2838 8.8508e-39 230 251 0 0 0 -0.34874 0.32239 -0.88003 0.0098973
0.10838 -0.02092 1.2824 8.8508e-39 231 251 0 0 0 -0.35216 0.3428 -0.8709 0.01018
0.10324 -0.01944 1.2838 1.0326e-38 256.5 251 0 0 0 -0.32747 0.29576 -0.89738 0.0095316
0.10538 -0.01942 1.2824 1.0418e-38 258 251 0 0 0 -0.33349 0.31254 -0.88944 0.0098152
0.10699 -0.01944 1.2838 1.0326e-38 259 251 0 0 0 -0.32108 0.31782 -0.89213 0.0094388
0.10838 -0.01942 1.2824 1.0234e-38 260 251 0 0 0 -0.32729 0.33602 -0.88316 0.0094561
0.10349 -0.017437 1.2838 9.3732e-39 368.67 251 0 0 0 -0.29857 0.28239 -0.91165 0.0081765
0.10549 -0.017187 1.2838 9.1735e-39 374.5 251 0 0 0 -0.29483 0.292 -0.90984 0.0086511
0.10699 -0.017187 1.2838 8.8508e-39 375.5 251 0 0 0 -0.29171 0.3064 -0.90611 0.0087978
0.10838 -0.01717 1.2824 8.5742e-39 376.5 251 0 0 0 -0.28914 0.32314 -0.9011 0.0089992
0.10549 -0.014935 1.2838 7.0991e-39 414 251 0 0 0 -0.26634 0.2854 -0.92066 0.0071262
0.10699 -0.014935 1.2838 7.0991e-39 416 251 0 0 0 -0.26412 0.29647 -0.91779 0.0075818
0.10918 -0.014927 1.2831 7.3757e-39 425.5 251 0 0 0 -0.25864 0.31224 -0.91412 0.0077338
0.11138 -0.014919 1.2824 7.4678e-39 428 251 0 0 0 -0.25951 0.3332 -0.90644 0.0079824
0.11438 -0.014919 1.2824 7.6522e-39 155 252 0 0 0 -0.24365 0.35411 -0.9029 0.0083502
0.10699 -0.013433 1.2838 7.0991e-39 186 252 0 0 0 -0.24791 0.292 -0.92373 0.0066412
0.10918 -0.013426 1.2831 7.2374e-39 187.5 252 0 0 0 -0.24433 0.30897 -0.91915 0.0072512
0.11138 -0.013419 1.2824 7.6522e-39 189 252 0 0 0 -0.24411 0.32159 -0.91487 0.0071031
0.11438 -0.013419 1.2824 8.2976e-39 191 252 0 0 0 -0.23258 0.34156 -0.91063 0.0073341
0.10925 -0.01118 1.2838 7.8597e-39 223 252 0 0 0 -0.22399 0.2987 -0.92769 0.0056202
0.1115 -0.01118 1.2838 7.9749e-39 224.5 252 0 0 0 -0.22321 0.30651 -0.92533 0.005566
0.11288 -0.011168 1.2824 8.2515e-39 225.5 252 0 0 0 -0.22153 0.32322 -0.92003 0.0060811
0.11516 -0.011171 1.2828 9.2887e-39 227 252 0 0 0 -0.21292 0.33488 -0.91789 0.0062817
0.11738 -0.010418 1.2824 1.1063e-38 241 252 0 0 0 -0.20214 0.3423 -0.91759 0.0060255
0.11888 -0.010418 1.2824 1.0695e-38 242 252 0 0 0 -0.1891 0.34971 -0.91758 0.0062762
0.12038 -0.010418 1.2824 1.0326e-38 243 252 0 0 0 -0.17659 0.35805 -0.91685 0.0071881
0.11 -0.0089268 1.2838 1.051e-38 261 252 0 0 0 -0.20462 0.29603 -0.933 0.0048302
0.1115 -0.0089268 1.2838 1.0971e-38 262 252 0 0 0 -0.20699 0.30415 -0.92987 0.0048871
0.11288 -0.0089175 1.2824 1.1063e-38 263 252 0 0 0 -0.20649 0.3119 -0.9274 0.0051814
0.11519 -0.0089222 1.2831 1.0326e-38 264.5 252 0 0 0 -0.20454 0.32349 -0.92386 0.0054284
0.11738 -0.0089175 1.2824 8.6664e-39 266 252 0 0 0 -0.19059 0.33613 -0.92233 0.0054774
0.11888 -0.0089175 1.2824 8.021e-39 267 252 0 0 0 -0.18359 0.34261 -0.92137 0.0059373
0.11 -0.0074248 1.2838 9.2196e-39 358 252 0 0 0 -0.19622 0.28893 -0.93703 0.0043275
0.1115 -0.0074248 1.2838 9.2196e-39 359 252 0 0 0 -0.19801 0.29651 -0.93428 0.0043364
0.113 -0.0074248 1.2838 9.404e-39 360 252 0 0 0 -0.20194 0.30303 -0.93134 0.0044815
0.11519 -0.007421 1.2831 9.45e-39 361.5 252 0 0 0 -0.19632 0.3118 -0.92964 0.0048637
0.11738 -0.0074171 1.2824 9.0352e-39 363 252 0 0 0 -0.18665 0.3255 -0.92694 0.0050506
0.11888 -0.0074171 1.2824 9.0352e-39 369 252 0 0 0 -0.17803 0.32969 -0.92715 0.0051625
0.12113 -0.0074171 1.2824 8.7586e-39 370.5 252 0 0 0 -0.15987 0.33844 -0.92731 0.006569
0.12338 -0.0074171 1.2824 8.6664e-39 372 252 0 0 0 -0.13535 0.344 -0.92916 0.0073025
0.12488 -0.0074171 1.2824 8.6664e-39 373 252 0 0 0 -0.1176 0.34757 -0.93025 0.0083055
0.12639 -0.0074171 1.2824 8.8508e-39 374 252 0 0 0 -0.10024 0.34903 -0.93173 0.009643
0.13239 -0.0074171 1.2824 8.943e-39 379 252 0 0 0 -0.0376 0.34274 -0.93868 0.011994
0.13839 -0.0074171 1.2824 8.3898e-39 383 252 0 0 0 0.037114 0.34857 -0.93655 0.013319
0.14003 -0.0074248 1.2838 8.2976e-39 384 252 0 0 0 0.081527 0.34865 -0.9337 0.014341
0.113 -0.0059229 1.2838 8.6664e-39 395 252 0 0 0 -0.19205 0.2974 -0.93524 0.0040435
0.116 -0.0051719 1.2838 7.9288e-39 283 252.5 0 0 0 -0.18241 0.3038 -0.93511 0.003935
0.11751 -0.0051719 1.2838 7.5601e-39 284 252.5 0 0 0 -0.1772 0.30703 -0.93506 0.0039884
0.11901 -0.0059229 1.2838 7.6522e-39 399 252 0 0 0 -0.17155 0.31858 -0.93224 0.0046803
0.12097 -0.0054202 1.2833 7.3756e-39 324.33 252.33 0 0 0 -0.15607 0.32036 -0.93435 0.0058277
0.12301 -0.0049216 1.2838 7.4064e-39 249.67 252.67 0 0 0 -0.13247 0.32363 -0.93687 0.006177
0.12494 -0.0051689 1.2831 7.8366e-39 289 252.5 0 0 0 -0.11539 0.33159 -0.93634 0.0076402
0.12693 -0.0054182 1.2829 7.6215e-39 328.33 252.33 0 0 0 -0.092519 0.33258 -0.93853 0.0091259
0.12893 -0.0049181 1.2829 7.7137e-39 253.67 252.67 0 0 0 -0.072254 0.33045 -0.94105 0.0099541
0.13089 -0.0044164 1.2824 7.4678e-39 179 253 0 0 0 -0.053429 0.32692 -0.94354 0.010755
0.13293 -0.0054182 1.2829 7.3449e-39 332.33 252.33 0 0 0 -0.02142 0.32911 -0.94405 0.012057
0.13471 -0.0044187 1.2831 6.8686e-39 181.5 253 0 0 0 0.0064946 0.32506 -0.94567 0.012908
0.13689 -0.0051666 1.2824 7.3296e-39 297 252.5 0 0 0 0.02721 0.32912 -0.9439 0.013651
0.13846 -0.0051689 1.2831 7.4218e-39 304.5 252.5 0 0 0 0.059606 0.33004 -0.94208 0.014677
0.14154 -0.0051719 1.2838 7.2374e-39 306.5 252.5 0 0 0 0.14168 0.33225 -0.93249 0.016679
0.12276 -0.002919 1.2838 8.0671e-39 206.5 253 0 0 0 -0.13158 0.31031 -0.94149 0.005737
0.12501 -0.002919 1.2838 7.8366e-39 208 253 0 0 0 -0.10895 0.3142 -0.94308 0.007327
0.12652 -0.002919 1.2838 7.9288e-39 209 253 0 0 0 -0.093061 0.31528 -0.94443 0.0084086
0.1287 -0.0029175 1.2831 7.8827e-39 210.5 253 0 0 0 -0.071072 0.32068 -0.94452 0.0098043
0.13089 -0.002916 1.2824 7.9288e-39 212 253 0 0 0 -0.046298 0.32233 -0.9455 0.011285
0.13252 -0.002919 1.2838 7.9288e-39 213 253 0 0 0 -0.028444 0.31607 -0.94831 0.012577
0.13471 -0.0029175 1.2831 8.482e-39 214.5 253 0 0 0 0.014668 0.32207 -0.9466 0.014141
0.13689 -0.002916 1.2824 9.0352e-39 216 253 0 0 0 0.043548 0.32181 -0.9458 0.014986
0.13853 -0.002919 1.2838 8.5742e-39 217 253 0 0 0 0.079171 0.3179 -0.94481 0.017787
0.14154 -0.002919 1.2838 9.1274e-39 219 253 0 0 0 0.15707 0.31986 -0.93436 0.018458
0.12652 -0.0014171 1.2838 1.0418e-38 244 253 0 0 0 -0.089618 0.30567 -0.94791 0.0082421
0.12952 -0.0014171 1.2838 1.0787e-38 246 253 0 0 0 -0.060614 0.31057 -0.94862 0.010403
0.13089 -0.0014156 1.2824 1.1156e-38 247 253 0 0 0 -0.047169 0.3131 -0.94855 0.011112
0.13252 -0.0014171 1.2838 1.1156e-38 248 253 0 0 0 -0.027573 0.31136 -0.94989 0.012562
0.13471 -0.0014164 1.2831 1.1109e-38 249.5 253 0 0 0 0.01422 0.30996 -0.95064 0.014151
0.13703 -0.0014171 1.2838 1.051e-38 251 253 0 0 0 0.061221 0.3149 -0.94715 0.01778
0.13853 -0.0014171 1.2838 1.0049e-38 252 253 0 0 0 0.089694 0.31657 -0.94432 0.01938
0.14154 -0.0014171 1.2838 9.6805e-39 254 253 0 0 0 0.15411 0.3094 -0.93836 0.019358
0.12652 0.00083581 1.2838 8.1132e-39 336.5 253 0 0 0 -0.084883 0.29063 -0.95306 0.0079758
0.12952 0.00083581 1.2838 8.7125e-39 338.5 253 0 0 0 -0.0529 0.29746 -0.95327 0.01112
0.13089 0.00083491 1.2824 8.5281e-39 373 253 0 0 0 -0.04199 0.3017 -0.95248 0.012213
0.13252 0.00083581 1.2838 8.3437e-39 374 253 0 0 0 -0.022926 0.3021 -0.953 0.013953
0.13475 0.00083579 1.2835 8.2054e-39 375.5 253 0 0 0 0.030594 0.30386 -0.95222 0.0175
0.13703 0.00083581 1.2838 8.2977e-39 377 253 0 0 0 0.072683 0.30546 -0.94943 0.019714
0.13853 0.00083581 1.2838 8.4359e-39 378 253 0 0 0 0.097606 0.30768 -0.94647 0.021343
0.14154 8.4818e-05 1.2838 9.1274e-39 357 253 0 0 0 0.16157 0.29917 -0.94042 0.021095
0.12952 0.0030887 1.2838 7.0991e-39 174 254 0 0 0 -0.047881 0.28398 -0.95763 0.011459
0.13102 0.0030887 1.2838 7.6522e-39 175 254 0 0 0 -0.029118 0.28772 -0.95727 0.013312
0.13478 0.0030887 1.2838 7.8827e-39 177.5 254 0 0 0 0.042076 0.2923 -0.9554 0.019113
0.13703 0.0030887 1.2838 7.1913e-39 179 254 0 0 0 0.082229 0.29704 -0.95132 0.021792
0.12952 0.0045906 1.2838 7.9288e-39 211 254 0 0 0 -0.042552 0.27083 -0.96169 0.011287
0.13102 0.0045906 1.2838 7.9288e-39 212 254 0 0 0 -0.023913 0.27465 -0.96125 0.013471
0.13478 0.0045906 1.2838 8.482e-39 214.5 254 0 0 0 0.047791 0.27968 -0.9589 0.019315
0.13102 0.0060925 1.2838 1.0695e-38 251 254 0 0 0 -0.017844 0.26315 -0.96459 0.013657
0.13553 0.0068435 1.2838 9.3118e-39 312.5 254 0 0 0 0.062929 0.26712 -0.96161 0.02127
0.10485 -0.01044 1.2851 8.8508e-39 232.5 252 0 0 0 -0.22514 0.26652 -0.93717 0.0043018
0.1071 -0.011192 1.2851 8.0671e-39 221.5 252 0 0 0 -0.22683 0.27978 -0.93288 0.0048958
0.10485 -0.0089361 1.2851 1.0326e-38 257.5 252 0 0 0 -0.21579 0.26554 -0.93964 0.0037174
0.1071 -0.0089361 1.2851 1.0602e-38 259 252 0 0 0 -0.21275 0.27527 -0.93753 0.0042665
0.10861 -0.0089361 1.2851 1.051e-38 260 252 0 0 0 -0.20721 0.28539 -0.93575 0.0044134
0.10485 -0.0074326 1.2851 9.45e-39 354.5 252 0 0 0 -0.21016 0.26617 -0.94074 0.0033568
0.1071 -0.0074326 1.2851 9.404e-39 356 252 0 0 0 -0.20254 0.27429 -0.94008 0.0037424
0.10861 -0.0074326 1.2851 9.3118e-39 357 252 0 0 0 -0.20046 0.27803 -0.93942 0.0038735
0.1056 -0.0059291 1.2851 7.8366e-39 390 252 0 0 0 -0.20521 0.26947 -0.94089 0.0033071
0.1071 -0.0059291 1.2851 7.8366e-39 391 252 0 0 0 -0.19847 0.27381 -0.94108 0.003477
0.10861 -0.0051773 1.2851 8.2515e-39 278 252.5 0 0 0 -0.18911 0.27876 -0.94156 0.0033321
0.11086 -0.0051773 1.2851 8.2054e-39 279.5 252.5 0 0 0 -0.18667 0.28471 -0.94026 0.0034838
0.11312 -0.0044256 1.2851 7.8366e-39 167 253 0 0 0 -0.18214 0.28814 -0.94011 0.0033863
0.11462 -0.0051773 1.2851 8.2515e-39 282 252.5 0 0 0 -0.188 0.2986 -0.93568 0.0037688
0.11913 -0.0044256 1.2851 7.1913e-39 171 253 0 0 0 -0.16641 0.30552 -0.93753 0.0042438
0.14018 -0.0051773 1.2851 7.3296e-39 305.5 252.5 0 0 0 0.11449 0.33241 -0.93616 0.017078
0.14319 -0.0044256 1.2851 7.1913e-39 187 253 0 0 0 0.19368 0.32461 -0.92581 0.017594
0.11312 -0.0029221 1.2851 8.482e-39 200 253 0 0 0 -0.17994 0.2836 -0.94191 0.0030469
0.11688 -0.0029221 1.2851 7.9288e-39 202.5 253 0 0 0 -0.17648 0.29295 -0.9397 0.0034208
0.11913 -0.0029221 1.2851 8.3898e-39 204 253 0 0 0 -0.16146 0.29736 -0.94102 0.0040004
0.12063 -0.0029221 1.2851 8.482e-39 205 253 0 0 0 -0.14993 0.30131 -0.94166 0.0050911
0.14018 -0.0029221 1.2851 8.482e-39 218 253 0 0 0 0.12352 0.31799 -0.94001 0.018664
0.14319 -0.0029221 1.2851 8.8508e-39 220 253 0 0 0 0.20282 0.31547 -0.92701 0.019424
0.11688 -0.0014186 1.2851 8.1593e-39 237.5 253 0 0 0 -0.17486 0.28526 -0.94236 0.0030463
0.11913 -0.0014186 1.2851 9.1274e-39 239 253 0 0 0 -0.16048 0.28635 -0.94459 0.0035398
0.12063 -0.0014186 1.2851 9.8649e-39 240 253 0 0 0 -0.14716 0.28912 -0.94592 0.0045117
0.12289 -0.0014186 1.2851 1.0372e-38 241.5 253 0 0 0 -0.12894 0.2922 -0.94763 0.0053441
0.12514 -0.0014186 1.2851 1.0142e-38 243 253 0 0 0 -0.10342 0.29611 -0.94954 0.0071812
0.12815 -0.0014186 1.2851 1.051e-38 245 253 0 0 0 -0.077975 0.30351 -0.94963 0.0088674
0.14018 -0.0014186 1.2851 9.7727e-39 253 253 0 0 0 0.13668 0.31449 -0.93937 0.020689
0.14319 -0.0014186 1.2851 9.6805e-39 255 253 0 0 0 0.22578 0.30832 -0.9241 0.022875
0.11688 0.00083665 1.2851 8.2745e-39 330 253 0 0 0 -0.17219 0.27564 -0.94571 0.0025817
0.11913 0.00083665 1.2851 8.1132e-39 331.5 253 0 0 0 -0.15789 0.27669 -0.9479 0.0031374
0.12063 0.00083665 1.2851 8.1593e-39 332.5 253 0 0 0 -0.14771 0.27951 -0.94871 0.0038866
0.12289 0.00083665 1.2851 8.3206e-39 334 253 0 0 0 -0.1241 0.28101 -0.95165 0.0050703
0.12514 0.00083665 1.2851 8.1593e-39 335.5 253 0 0 0 -0.10009 0.28643 -0.95286 0.0067973
0.12815 0.00083665 1.2851 8.5742e-39 337.5 253 0 0 0 -0.067734 0.29179 -0.95408 0.0094994
0.14068 0.0010872 1.2851 7.9903e-39 387 253 0 0 0 0.18617 0.30292 -0.93466 0.025203
0.14319 0.00083665 1.2851 8.1593e-39 381 253 0 0 0 0.24057 0.29597 -0.92441 0.025491
0.12063 0.0030919 1.2851 7.7444e-39 168 254 0 0 0 -0.14891 0.27109 -0.95097 0.003065
0.12289 0.0030919 1.2851 7.4679e-39 169.5 254 0 0 0 -0.1237 0.2703 -0.9548 0.0042437
0.12665 0.0030919 1.2851 7.0991e-39 172 254 0 0 0 -0.076916 0.27477 -0.95843 0.0079228
0.12815 0.0030919 1.2851 6.9147e-39 173 254 0 0 0 -0.061313 0.27671 -0.95899 0.0095618
0.13266 0.0030919 1.2851 7.8366e-39 176 254 0 0 0 0.0049649 0.29038 -0.9569 0.018394
0.13868 0.0030919 1.2851 7.2835e-39 180 254 0 0 0 0.13032 0.29494 -0.94659 0.026502
0.14093 0.0030919 1.2851 7.1452e-39 181.5 254 0 0 0 0.20309 0.29283 -0.93434 0.029064
0.12665 0.0045954 1.2851 8.021e-39 209 254 0 0 0 -0.072968 0.25826 -0.96332 0.0074936
0.12815 0.0045954 1.2851 8.021e-39 210 254 0 0 0 -0.056298 0.26386 -0.96292 0.0095144
0.13266 0.0045954 1.2851 8.021e-39 213 254 0 0 0 0.0071836 0.28091 -0.95971 0.018298
0.13717 0.0045954 1.2851 8.943e-39 216 254 0 0 0 0.11062 0.28495 -0.95214 0.026133
0.13868 0.0045954 1.2851 8.6664e-39 217 254 0 0 0 0.13136 0.27733 -0.95175 0.026873
0.14093 0.0045954 1.2851 8.6203e-39 218.5 254 0 0 0 0.23789 0.27477 -0.93162 0.033652
0.12665 0.0060989 1.2851 1.0695e-38 248 254 0 0 0 -0.076501 0.25015 -0.96518 0.0069958
0.12916 0.0066001 1.2851 1.0449e-38 284.67 254 0 0 0 -0.038382 0.2534 -0.9666 0.010828
0.13116 0.0076024 1.2851 9.5883e-39 356 254 0 0 0 0.00079171 0.2591 -0.96585 0.01601
0.13266 0.0068507 1.2851 9.6347e-39 304.5 254 0 0 0 0.022856 0.2601 -0.96531 0.019531
0.13417 0.0068507 1.2851 9.3118e-39 311.5 254 0 0 0 0.044113 0.26067 -0.96442 0.020172
0.13717 0.0068507 1.2851 9.0812e-39 313.5 254 0 0 0 0.11186 0.26294 -0.9583 0.026224
0.13868 0.0060989 1.2851 1.0234e-38 256 254 0 0 0 0.14274 0.26737 -0.95296 0.028814
0.14093 0.0060989 1.2851 1.0925e-38 257.5 254 0 0 0 0.24418 0.2608 -0.934 0.033244
0.12966 0.0091059 1.2851 7.4678e-39 426 254 0 0 0 -0.033625 0.23859 -0.97054 0.011023
0.13116 0.0091059 1.2851 7.3757e-39 427 254 0 0 0 0.0037447 0.24623 -0.9692 0.015701
0.13266 0.0091059 1.2851 7.4678e-39 428 254 0 0 0 0.026058 0.2444 -0.96932 0.01922
0.13492 0.0091059 1.2851 7.7444e-39 429.5 254 0 0 0 0.072061 0.24638 -0.96649 0.022212
0.13717 0.0091059 1.2851 7.6522e-39 431 254 0 0 0 0.12505 0.24826 -0.96059 0.027466
0.12966 0.010609 1.2851 7.2835e-39 186 255 0 0 0 -0.03732 0.23266 -0.97184 0.011363
0.13116 0.010609 1.2851 7.1913e-39 187 255 0 0 0 0.00049571 0.23297 -0.97248 0.015466
0.13492 0.010609 1.2851 7.7905e-39 189.5 255 0 0 0 0.075541 0.2328 -0.96959 0.022233
0.12966 0.012113 1.2851 7.8366e-39 226 255 0 0 0 -0.039283 0.23321 -0.97163 0.011886
0.13116 0.012113 1.2851 7.8366e-39 227 255 0 0 0 -0.0057405 0.22485 -0.97438 0.016115
0.13567 0.012113 1.2851 8.021e-39 230 255 0 0 0 0.087335 0.23015 -0.96923 0.024716
0.1027 -0.01045 1.2864 8.7586e-39 231 252 0 0 0 -0.22368 0.25656 -0.94029 0.0038746
0.10119 -0.0089454 1.2864 1.0049e-38 255 252 0 0 0 -0.22016 0.2547 -0.94162 0.0036551
0.1027 -0.0089454 1.2864 1.0142e-38 256 252 0 0 0 -0.21742 0.25871 -0.94117 0.003622
0.099689 -0.0074403 1.2864 9.2196e-39 351 252 0 0 0 -0.22142 0.25183 -0.9421 0.0036272
0.10119 -0.0074403 1.2864 8.943e-39 352 252 0 0 0 -0.21941 0.25752 -0.94103 0.0036423
0.10281 -0.0074481 1.2878 8.8508e-39 353 252 0 0 0 -0.21281 0.26157 -0.94143 0.0035384
0.099291 -0.0054392 1.2878 8.1439e-39 400.33 252 0 0 0 -0.22177 0.26406 -0.93866 0.0038488
0.10119 -0.0051828 1.2864 7.8366e-39 409 252 0 0 0 -0.21449 0.26366 -0.94047 0.0037371
0.10281 -0.0051881 1.2878 8.0671e-39 271 252.5 0 0 0 -0.21146 0.26617 -0.94045 0.0035042
0.1047 -0.0049319 1.2864 7.9903e-39 235.33 252.67 0 0 0 -0.20377 0.26977 -0.94112 0.0032117
0.10721 -0.0044302 1.2864 8.2976e-39 163 253 0 0 0 -0.19492 0.27516 -0.94143 0.0031913
0.095273 -0.0029282 1.2878 7.3757e-39 188 253 0 0 0 -0.23065 0.28198 -0.93128 0.0063364
0.099793 -0.0029282 1.2878 8.2976e-39 191 253 0 0 0 -0.22118 0.27195 -0.93655 0.004436
0.1013 -0.0029282 1.2878 8.021e-39 192 253 0 0 0 -0.21599 0.27275 -0.93753 0.0040814
0.10281 -0.0029282 1.2878 8.021e-39 193 253 0 0 0 -0.21391 0.27155 -0.93835 0.0037576
0.10501 -0.0029266 1.2871 7.9288e-39 194.5 253 0 0 0 -0.20588 0.27355 -0.93956 0.0032899
0.10721 -0.0029251 1.2864 7.6522e-39 196 253 0 0 0 -0.1946 0.27492 -0.94157 0.0030936
0.10872 -0.0029251 1.2864 7.56e-39 197 253 0 0 0 -0.18862 0.27645 -0.94234 0.0030602
0.11097 -0.0029251 1.2864 8.1593e-39 198.5 253 0 0 0 -0.18292 0.28023 -0.94234 0.003069
0.11474 -0.0029251 1.2864 8.1132e-39 201 253 0 0 0 -0.17899 0.2836 -0.94209 0.0030518
0.14484 -0.0029251 1.2864 8.482e-39 221 253 0 0 0 0.26238 0.31406 -0.91242 0.0219
0.095273 -0.0014215 1.2878 9.2196e-39 223 253 0 0 0 -0.23119 0.29929 -0.92573 0.0074054
0.099793 -0.0014215 1.2878 8.3898e-39 226 253 0 0 0 -0.22695 0.28445 -0.93144 0.0053228
0.1013 -0.0014215 1.2878 8.3898e-39 227 253 0 0 0 -0.21836 0.28366 -0.93373 0.0045882
0.10501 -0.0014208 1.2871 8.5281e-39 229.5 253 0 0 0 -0.20754 0.27553 -0.93862 0.0034012
