# .PCD v.7 - Point Cloud Data file format
VERSION .7
FIELDS x y z rgb u v vx vy vz normal_x normal_y normal_z curvature
SIZE 4 4 4 4 4 4 4 4 4 4 4 4 4
TYPE F F F F F F F F F F F F F
COUNT 1 1 1 1 1 1 1 1 1 1 1 1 1
WIDTH 558
HEIGHT 1
VIEWPOINT 0 0 0 1 0 0 0
POINTS 558
DATA ascii
0.22941 -0.020622 1.1795 8.3898e-39 407 263 0 0 0 -0.32664 0.28765 -0.90031 0.039026
0.2311 -0.021068 1.1788 8.4205e-39 355.67 263 0 0 0 -0.25281 0.28706 -0.92395 0.049222
0.23746 -0.020602 1.1784 9.6805e-39 413 263 0 0 0 0.057723 0.30696 -0.94997 0.052777
0.23884 -0.021292 1.1784 9.1274e-39 335 263 0 0 0 0.14331 0.29526 -0.94461 0.050754
0.24045 -0.020622 1.1795 8.6664e-39 415 263 0 0 0 0.21306 0.29916 -0.93011 0.043205
0.23332 -0.019224 1.1784 7.56e-39 166 264 0 0 0 -0.14389 0.33506 -0.93114 0.047152
0.2347 -0.019224 1.1784 7.6522e-39 167 264 0 0 0 -0.084009 0.34079 -0.93638 0.048085
0.23769 -0.019242 1.1795 7.0069e-39 169 264 0 0 0 0.070097 0.33715 -0.93884 0.048461
0.23884 -0.019224 1.1784 6.9147e-39 170 264 0 0 0 0.13704 0.33355 -0.93272 0.045418
0.24045 -0.019242 1.1795 7.1913e-39 171 264 0 0 0 0.21135 0.3253 -0.92169 0.039624
0.23355 -0.017862 1.1795 1.0695e-38 285 264 0 0 0 -0.12534 0.35688 -0.9257 0.045271
0.23493 -0.017862 1.1795 1.0602e-38 286 264 0 0 0 -0.075824 0.35825 -0.93054 0.045092
0.23669 -0.017396 1.1791 9.8652e-39 338.33 264 0 0 0 0.020488 0.36495 -0.9308 0.04504
0.23907 -0.017862 1.1795 8.3898e-39 289 264 0 0 0 0.13911 0.34756 -0.92728 0.04246
0.22915 -0.040018 1.1818 1.0556e-38 217.5 258 0 0 0 -0.28829 -0.51966 -0.80426 0.065559
0.23123 -0.040018 1.1818 1.0234e-38 219 258 0 0 0 -0.20715 -0.55624 -0.80479 0.068463
0.23676 -0.041401 1.1818 6.4537e-39 440 257 0 0 0 0.0083625 -0.64439 -0.76465 0.065082
0.23883 -0.041401 1.1818 7.514e-39 441.5 257 0 0 0 0.083397 -0.63839 -0.76518 0.063985
0.24782 -0.040018 1.1818 8.1132e-39 231 258 0 0 0 0.42528 -0.44436 -0.78847 0.061204
0.2257 -0.038636 1.1818 8.021e-39 378 258 0 0 0 -0.4214 -0.38933 -0.81905 0.062011
0.22708 -0.038636 1.1818 8.021e-39 379 258 0 0 0 -0.38214 -0.41182 -0.82727 0.064746
0.23308 -0.03998 1.1807 9.7266e-39 220.5 258 0 0 0 -0.12812 -0.55258 -0.82355 0.072779
0.23791 -0.03998 1.1807 9.0352e-39 224 258 0 0 0 0.046647 -0.56253 -0.82546 0.075095
0.24068 -0.03998 1.1807 8.1132e-39 226 258 0 0 0 0.16364 -0.53362 -0.82974 0.070941
0.24344 -0.03998 1.1807 7.4678e-39 228 258 0 0 0 0.29153 -0.48987 -0.82161 0.06344
0.24482 -0.03998 1.1807 7.4678e-39 229 258 0 0 0 0.33914 -0.48565 -0.80569 0.061192
0.24689 -0.03929 1.1807 8.9891e-39 312 258 0 0 0 0.4192 -0.3906 -0.81958 0.057824
0.2492 -0.038636 1.1818 9.9571e-39 395 258 0 0 0 0.48169 -0.34694 -0.80474 0.059968
0.25058 -0.038636 1.1818 9.2196e-39 396 258 0 0 0 0.50185 -0.31515 -0.8055 0.053983
0.22548 -0.037218 1.1807 7.7444e-39 151 259 0 0 0 -0.44019 -0.29794 -0.84704 0.059808
0.22686 -0.037218 1.1807 7.2835e-39 159 259 0 0 0 -0.40284 -0.30483 -0.86302 0.062826
0.24758 -0.037218 1.1807 7.7444e-39 174 259 0 0 0 0.46777 -0.27355 -0.84046 0.052479
0.2492 -0.037253 1.1818 7.56e-39 175 259 0 0 0 0.50079 -0.24443 -0.83034 0.049813
0.22548 -0.035836 1.1807 1.0142e-38 272 259 0 0 0 -0.44379 -0.23632 -0.86441 0.059608
0.22686 -0.035836 1.1807 9.9571e-39 273 259 0 0 0 -0.41391 -0.24335 -0.87719 0.062993
0.24695 -0.035154 1.181 7.7444e-39 367.5 259 0 0 0 0.47104 -0.20903 -0.85699 0.050339
0.2492 -0.035871 1.1818 9.0352e-39 289 259 0 0 0 0.51113 -0.20127 -0.83561 0.047621
0.24644 -0.033105 1.1818 8.2976e-39 228 260 0 0 0 0.45858 -0.12555 -0.87974 0.046265
0.22548 -0.031001 1.1807 8.3437e-39 449 260 0 0 0 -0.47291 -0.048122 -0.87979 0.050251
0.2462 -0.031001 1.1807 8.0671e-39 273.5 260.5 0 0 0 0.4467 -0.038791 -0.89384 0.043731
0.2257 -0.028957 1.1818 1.0787e-38 264 261 0 0 0 -0.47282 0.021302 -0.8809 0.045855
0.22686 -0.02893 1.1807 1.0879e-38 265 261 0 0 0 -0.43959 0.027785 -0.89777 0.051097
0.24644 -0.028957 1.1818 9.9571e-39 279 261 0 0 0 0.4601 0.045246 -0.88671 0.036719
0.2257 -0.027575 1.1818 9.1274e-39 424 261 0 0 0 -0.46946 0.074886 -0.87977 0.041591
0.22697 -0.02687 1.1812 8.6663e-39 310 261.5 0 0 0 -0.42936 0.10574 -0.89692 0.04611
0.24344 -0.026167 1.1807 9.7727e-39 207 262 0 0 0 0.33846 0.14303 -0.93005 0.048188
0.24494 -0.02687 1.1812 9.0813e-39 323 261.5 0 0 0 0.40323 0.12043 -0.90714 0.039529
0.22708 -0.024809 1.1818 8.021e-39 360 262 0 0 0 -0.42673 0.16065 -0.89 0.04093
0.22824 -0.024786 1.1807 8.021e-39 361 262 0 0 0 -0.38052 0.17307 -0.90843 0.047536
0.24275 -0.024786 1.1807 8.6664e-39 371.5 262 0 0 0 0.31341 0.18969 -0.93048 0.04545
0.22835 -0.022724 1.1812 8.4359e-39 377 262.5 0 0 0 -0.36599 0.23486 -0.9005 0.041069
0.24292 -0.02273 1.1815 9.5422e-39 387.5 262.5 0 0 0 0.31034 0.25043 -0.91704 0.038189
0.22846 -0.020662 1.1818 8.2054e-39 406 263 0 0 0 -0.35781 0.27686 -0.89181 0.035838
0.24298 -0.020662 1.1818 8.4359e-39 416.5 263 0 0 0 0.30898 0.29081 -0.90552 0.033626
0.22962 -0.01926 1.1807 7.56e-39 163 264 0 0 0 -0.31007 0.30726 -0.8997 0.036335
0.23101 -0.01926 1.1807 7.2835e-39 164 264 0 0 0 -0.25378 0.3209 -0.91248 0.041306
0.23239 -0.01926 1.1807 7.0991e-39 165 264 0 0 0 -0.18063 0.33036 -0.92641 0.046394
0.24298 -0.019279 1.1818 7.6522e-39 172.5 264 0 0 0 0.30724 0.30347 -0.90195 0.03268
0.22984 -0.017205 1.1818 9.4502e-39 358.5 264 0 0 0 -0.28853 0.33048 -0.89863 0.036126
0.23123 -0.017205 1.1818 9.3579e-39 359.5 264 0 0 0 -0.23658 0.34464 -0.90843 0.039285
0.23292 -0.016964 1.1811 9.4655e-39 386.33 264 0 0 0 -0.14421 0.36052 -0.92154 0.042339
0.23515 -0.016498 1.1807 9.8649e-39 439 264 0 0 0 -0.065533 0.36885 -0.92718 0.043547
0.23791 -0.016498 1.1807 9.9571e-39 441 264 0 0 0 0.088677 0.36069 -0.92846 0.044202
0.23929 -0.016498 1.1807 9.7727e-39 442 264 0 0 0 0.146 0.34558 -0.92696 0.042287
0.24068 -0.017189 1.1807 8.8047e-39 366.5 264 0 0 0 0.21452 0.33575 -0.9172 0.038706
0.24367 -0.017205 1.1818 8.1593e-39 368.5 264 0 0 0 0.31221 0.31482 -0.89633 0.029804
0.23399 -0.015131 1.1818 6.9147e-39 187 265 0 0 0 -0.11116 0.35613 -0.9278 0.041971
0.23538 -0.015131 1.1818 6.8225e-39 188 265 0 0 0 -0.047011 0.36102 -0.93137 0.042964
0.23722 -0.015116 1.1807 7.0991e-39 189.5 265 0 0 0 0.052263 0.35908 -0.93184 0.042371
0.23929 -0.015116 1.1807 7.1913e-39 191 265 0 0 0 0.14358 0.34423 -0.92784 0.039448
0.24091 -0.015131 1.1818 7.7444e-39 192 265 0 0 0 0.21513 0.33168 -0.91853 0.035817
0.23676 -0.013748 1.1818 8.482e-39 341 265 0 0 0 0.024503 0.35095 -0.93607 0.040443
0.23814 -0.013748 1.1818 8.943e-39 342 265 0 0 0 0.087825 0.34674 -0.93384 0.040408
0.22522 -0.040057 1.1829 1.0418e-38 214.5 258 0 0 0 -0.41157 -0.46206 -0.78556 0.058375
0.2273 -0.040057 1.1829 1.0602e-38 216 258 0 0 0 -0.34887 -0.49931 -0.79308 0.061319
0.23283 -0.041441 1.1829 5.9927e-39 437 257 0 0 0 -0.14092 -0.64673 -0.74959 0.061674
0.23491 -0.041441 1.1829 6.2232e-39 438.5 257 0 0 0 -0.06684 -0.66533 -0.74355 0.060814
0.24114 -0.041441 1.1829 9.404e-39 443 257 0 0 0 0.18303 -0.66192 -0.72689 0.059993
0.24321 -0.041441 1.1829 1.1432e-38 444.5 257 0 0 0 0.25648 -0.6369 -0.72703 0.058608
0.24529 -0.041441 1.1829 1.0695e-38 446 257 0 0 0 0.33305 -0.58634 -0.73843 0.060976
0.24667 -0.041441 1.1829 1.0326e-38 447 257 0 0 0 0.35994 -0.56156 -0.74505 0.06069
0.24944 -0.040057 1.1829 8.7586e-39 232 258 0 0 0 0.4592 -0.41907 -0.78327 0.058685
0.25082 -0.040057 1.1829 8.6664e-39 233 258 0 0 0 0.48383 -0.38917 -0.78387 0.055263
0.22314 -0.038673 1.1829 8.8508e-39 376 258 0 0 0 -0.4899 -0.34933 -0.79873 0.05787
0.22453 -0.038673 1.1829 8.482e-39 377 258 0 0 0 -0.44818 -0.38629 -0.80617 0.061508
0.22314 -0.037289 1.1829 8.1132e-39 145 259 0 0 0 -0.50267 -0.30564 -0.80865 0.055577
0.22453 -0.037289 1.1829 8.021e-39 150 259 0 0 0 -0.47408 -0.32215 -0.81943 0.05857
0.25082 -0.037289 1.1829 7.4678e-39 176 259 0 0 0 0.52132 -0.27429 -0.80808 0.050802
0.22314 -0.035213 1.1829 1.051e-38 350 259 0 0 0 -0.52766 -0.21152 -0.8227 0.052187
0.22453 -0.035213 1.1829 1.0418e-38 351 259 0 0 0 -0.4891 -0.23033 -0.84127 0.055241
0.24944 -0.034521 1.1829 8.943e-39 449 259 0 0 0 0.51982 -0.16206 -0.83876 0.044563
0.25082 -0.035905 1.1829 8.5742e-39 290 259 0 0 0 0.53797 -0.1828 -0.8229 0.043101
0.22314 -0.033137 1.1829 1.051e-38 206 260 0 0 0 -0.52687 -0.12558 -0.84062 0.046549
0.22453 -0.033137 1.1829 1.051e-38 207 260 0 0 0 -0.49583 -0.13483 -0.85789 0.051126
0.24806 -0.033137 1.1829 7.9288e-39 229 260 0 0 0 0.51493 -0.11433 -0.84957 0.041664
0.22314 -0.031753 1.1829 8.2054e-39 371 260 0 0 0 -0.53413 -0.068039 -0.84266 0.042908
0.22453 -0.031061 1.1829 8.2976e-39 448 260 0 0 0 -0.49936 -0.063078 -0.86409 0.047058
0.24806 -0.031753 1.1829 8.3898e-39 389 260 0 0 0 0.51409 -0.065384 -0.85524 0.03721
0.22453 -0.028985 1.1829 1.051e-38 263 261 0 0 0 -0.50892 0.014007 -0.8607 0.04019
0.22522 -0.026909 1.1829 8.3437e-39 308.5 261.5 0 0 0 -0.48381 0.09123 -0.87041 0.038476
0.24667 -0.026909 1.1829 9.3579e-39 324 261.5 0 0 0 0.4632 0.11789 -0.87838 0.028503
0.24529 -0.024833 1.1829 9.3118e-39 373 262 0 0 0 0.41012 0.18291 -0.8935 0.030835
0.2273 -0.022757 1.1829 8.1593e-39 376 262.5 0 0 0 -0.40329 0.23253 -0.88503 0.036773
0.24529 -0.022757 1.1829 9.4502e-39 389 262.5 0 0 0 0.40244 0.23888 -0.88373 0.026429
0.2273 -0.020681 1.1829 8.2976e-39 405 263 0 0 0 -0.39595 0.27033 -0.87758 0.031843
0.24529 -0.020681 1.1829 8.5742e-39 418 263 0 0 0 0.38845 0.26783 -0.88169 0.024725
0.2273 -0.019297 1.1829 7.0991e-39 161 264 0 0 0 -0.38323 0.29081 -0.87668 0.030798
0.22868 -0.019297 1.1829 7.3757e-39 162 264 0 0 0 -0.35096 0.29934 -0.88725 0.033176
0.24529 -0.019297 1.1829 7.0069e-39 174 264 0 0 0 0.37852 0.28762 -0.87977 0.025113
0.2273 -0.017221 1.1829 9.3118e-39 356.5 264 0 0 0 -0.37036 0.3084 -0.8762 0.030132
0.22868 -0.017221 1.1829 9.3579e-39 357.5 264 0 0 0 -0.33074 0.32483 -0.88606 0.033011
0.24252 -0.017221 1.1829 8.482e-39 367.5 264 0 0 0 0.26935 0.31565 -0.90984 0.035132
0.22868 -0.015145 1.1829 7.0069e-39 183 265 0 0 0 -0.31805 0.31909 -0.89276 0.031195
0.23076 -0.015145 1.1829 7.0991e-39 184.5 265 0 0 0 -0.23129 0.33381 -0.91382 0.038027
0.23283 -0.015145 1.1829 6.9147e-39 186 265 0 0 0 -0.14773 0.34275 -0.92774 0.041705
0.2439 -0.015145 1.1829 7.0069e-39 194 265 0 0 0 0.31388 0.30746 -0.8983 0.027891
0.23006 -0.013761 1.1829 9.4961e-39 336 265 0 0 0 -0.26107 0.32497 -0.90898 0.033102
0.23468 -0.0133 1.1829 8.482e-39 376.67 265 0 0 0 -0.065953 0.33902 -0.93846 0.038828
0.23698 -0.012378 1.1829 7.6522e-39 453 265 0 0 0 0.036829 0.33811 -0.94038 0.038223
0.23929 -0.012839 1.1829 8.0518e-39 417.33 265 0 0 0 0.1411 0.33158 -0.93281 0.035759
0.24114 -0.013069 1.1829 8.4359e-39 400 265 0 0 0 0.22994 0.32291 -0.91807 0.031003
0.2439 -0.013761 1.1829 8.482e-39 346 265 0 0 0 0.31096 0.31 -0.89844 0.026738
0.23975 -0.010994 1.1829 6.8225e-39 199 266 0 0 0 0.16731 0.32336 -0.93137 0.029945
0.22912 -0.042907 1.1852 9.9571e-39 266 257 0 0 0 -0.24407 -0.69059 -0.68082 0.048594
0.23051 -0.042907 1.1852 1.0049e-38 267 257 0 0 0 -0.21249 -0.70048 -0.6813 0.048345
0.23328 -0.042907 1.1852 9.9571e-39 269 257 0 0 0 -0.1133 -0.72423 -0.68019 0.046526
0.23467 -0.042907 1.1852 1.051e-38 270 257 0 0 0 -0.076805 -0.72951 -0.67964 0.048262
0.23663 -0.042886 1.1846 1.005e-38 271.5 257 0 0 0 -0.0016957 -0.73396 -0.67919 0.047665
0.23929 -0.042866 1.1841 9.9571e-39 273.5 257 0 0 0 0.093591 -0.73305 -0.6737 0.048803
0.2416 -0.042907 1.1852 1.0142e-38 275 257 0 0 0 0.17695 -0.72971 -0.66046 0.048442
0.24299 -0.042907 1.1852 1.051e-38 276 257 0 0 0 0.22361 -0.7166 -0.66067 0.050594
0.24507 -0.042907 1.1852 1.0418e-38 277.5 257 0 0 0 0.28335 -0.67471 -0.68153 0.054442
0.24715 -0.042907 1.1852 1.0049e-38 279 257 0 0 0 0.32794 -0.6505 -0.68505 0.058336
0.2208 -0.040134 1.1852 1.0234e-38 211 258 0 0 0 -0.50469 -0.40607 -0.76183 0.059846
0.22304 -0.040583 1.1848 1.005e-38 285 257.67 0 0 0 -0.45243 -0.47308 -0.75598 0.061974
0.22496 -0.04152 1.1852 9.5883e-39 431 257 0 0 0 -0.37921 -0.57877 -0.72195 0.063504
0.22682 -0.041481 1.1841 8.3898e-39 432.5 257 0 0 0 -0.33024 -0.58475 -0.74096 0.05823
0.2289 -0.041481 1.1841 7.4678e-39 434 257 0 0 0 -0.26912 -0.61784 -0.73882 0.058374
0.23098 -0.041481 1.1841 6.6842e-39 435.5 257 0 0 0 -0.20186 -0.64456 -0.73742 0.058552
0.24898 -0.041481 1.1841 4.241e-39 503.5 257 0 0 0 0.42091 -0.50322 -0.75472 0.059998
0.25131 -0.04152 1.1852 4.5176e-39 505 257 0 0 0 0.46356 -0.45434 -0.76072 0.059395
0.25257 -0.040808 1.1846 6.6381e-39 370 257.5 0 0 0 0.49142 -0.42457 -0.76042 0.057395
0.22139 -0.038729 1.1846 8.1593e-39 374.5 258 0 0 0 -0.52282 -0.31739 -0.79115 0.056742
0.25245 -0.03871 1.1841 9.0352e-39 397 258 0 0 0 0.53001 -0.30105 -0.79275 0.053539
0.22139 -0.037342 1.1846 7.9288e-39 143.5 259 0 0 0 -0.54022 -0.28079 -0.7933 0.054073
0.25245 -0.037325 1.1841 7.9288e-39 177 259 0 0 0 0.54687 -0.25662 -0.79692 0.049417
0.2208 -0.034587 1.1852 1.0049e-38 428 259 0 0 0 -0.57734 -0.16953 -0.79871 0.048374
0.22219 -0.03528 1.1852 1.0188e-38 349 259 0 0 0 -0.55266 -0.22612 -0.80214 0.052397
0.25106 -0.034554 1.1841 1.0326e-38 450 259 0 0 0 0.55014 -0.16191 -0.81922 0.0433
0.25269 -0.035974 1.1852 8.021e-39 291 259 0 0 0 0.56379 -0.21438 -0.79761 0.046676
0.2208 -0.033201 1.1852 9.9571e-39 204 260 0 0 0 -0.58466 -0.13939 -0.79921 0.046016
0.22219 -0.033201 1.1852 1.0326e-38 205 260 0 0 0 -0.568 -0.14788 -0.80963 0.047256
0.24968 -0.033169 1.1841 7.7444e-39 230 260 0 0 0 0.53968 -0.10734 -0.835 0.037473
0.25131 -0.033201 1.1852 8.021e-39 231 260 0 0 0 0.55709 -0.10586 -0.82368 0.037383
0.2208 -0.031121 1.1852 8.8969e-39 445 260 0 0 0 -0.58647 -0.053145 -0.80822 0.036468
0.22258 -0.03088 1.1848 8.6664e-39 471.67 260 0 0 0 -0.56049 -0.043933 -0.827 0.037999
0.24922 -0.03086 1.1841 7.4064e-39 237 260.67 0 0 0 0.54448 -0.038865 -0.83787 0.030838
0.25131 -0.031121 1.1852 7.9288e-39 276.5 260.5 0 0 0 0.56634 -0.029479 -0.82364 0.027866
0.2208 -0.029041 1.1852 1.0879e-38 260 261 0 0 0 -0.59195 0.015763 -0.80582 0.029578
0.22277 -0.029027 1.1846 1.0694e-38 261.5 261 0 0 0 -0.56041 0.0079227 -0.82818 0.034891
0.24911 -0.029027 1.1846 1.0003e-38 280.5 261 0 0 0 0.54512 0.018341 -0.83816 0.026643
0.2208 -0.027654 1.1852 1.0234e-38 420 261 0 0 0 -0.58907 0.066463 -0.80535 0.024871
0.22283 -0.026954 1.1849 8.8508e-39 306.5 261.5 0 0 0 -0.55453 0.08701 -0.8276 0.027772
0.22474 -0.026242 1.1841 8.2054e-39 193 262 0 0 0 -0.49888 0.10888 -0.8598 0.033512
0.24916 -0.026954 1.1849 9.3348e-39 329.5 261.5 0 0 0 0.53947 0.10672 -0.83521 0.017106
0.22357 -0.024881 1.1852 9.1274e-39 357 262 0 0 0 -0.53274 0.15708 -0.83157 0.023561
0.22474 -0.024857 1.1841 8.5742e-39 358 262 0 0 0 -0.49846 0.15307 -0.85329 0.029328
0.22613 -0.024857 1.1841 8.2054e-39 359 262 0 0 0 -0.45893 0.15716 -0.87446 0.035476
0.24691 -0.024857 1.1841 8.7586e-39 374 262 0 0 0 0.46801 0.17839 -0.86553 0.021569
0.24853 -0.024881 1.1852 8.3898e-39 375 262 0 0 0 0.51957 0.15859 -0.83958 0.015072
0.22357 -0.022801 1.1852 7.9749e-39 373 262.5 0 0 0 -0.52401 0.21412 -0.82436 0.020552
0.22474 -0.022779 1.1841 8.021e-39 374 262.5 0 0 0 -0.49254 0.21604 -0.84305 0.024081
0.22613 -0.022779 1.1841 7.9749e-39 375 262.5 0 0 0 -0.44987 0.21925 -0.86576 0.030034
0.24691 -0.022779 1.1841 9.5881e-39 390 262.5 0 0 0 0.45345 0.2246 -0.86252 0.019276
0.24853 -0.023494 1.1852 8.5742e-39 520 262 0 0 0 0.51378 0.1945 -0.83559 0.012784
0.22357 -0.020721 1.1852 9.7727e-39 402 263 0 0 0 -0.51326 0.23946 -0.82415 0.019182
0.22474 -0.020701 1.1841 9.0352e-39 403 263 0 0 0 -0.48068 0.24709 -0.84136 0.022936
0.22613 -0.020701 1.1841 8.482e-39 404 263 0 0 0 -0.43905 0.2618 -0.85948 0.027375
0.24691 -0.020701 1.1841 8.943e-39 419 263 0 0 0 0.44166 0.26013 -0.85865 0.017876
0.22474 -0.019316 1.1841 7.7444e-39 159 264 0 0 0 -0.47201 0.26698 -0.84019 0.02217
0.22613 -0.019316 1.1841 7.4678e-39 160 264 0 0 0 -0.43263 0.27427 -0.85884 0.027439
0.24691 -0.019316 1.1841 6.8225e-39 175 264 0 0 0 0.43123 0.27265 -0.86006 0.018446
0.22474 -0.017238 1.1841 9.7266e-39 353.5 264 0 0 0 -0.45302 0.27898 -0.84672 0.022789
0.22624 -0.017246 1.1846 9.404e-39 354.5 264 0 0 0 -0.4119 0.28753 -0.86468 0.027389
0.24552 -0.017238 1.1841 8.2515e-39 369.5 264 0 0 0 0.38378 0.29065 -0.87649 0.023174
0.24691 -0.017238 1.1841 8.2515e-39 370.5 264 0 0 0 0.42287 0.27679 -0.86288 0.018267
0.22496 -0.015175 1.1852 7.7444e-39 180 265 0 0 0 -0.44703 0.27477 -0.85127 0.022765
0.22693 -0.015167 1.1846 7.3757e-39 181.5 265 0 0 0 -0.38172 0.29416 -0.87622 0.026692
0.24275 -0.01516 1.1841 7.6522e-39 193 265 0 0 0 0.28569 0.30992 -0.90682 0.031089
0.24552 -0.01516 1.1841 7.1913e-39 195 265 0 0 0 0.37201 0.29499 -0.88011 0.023147
0.24715 -0.015175 1.1852 7.56e-39 196 265 0 0 0 0.42863 0.28012 -0.85896 0.01719
0.22496 -0.013094 1.1852 8.482e-39 370 265 0 0 0 -0.43162 0.27297 -0.85976 0.022496
0.22699 -0.013091 1.1849 8.2976e-39 371.5 265 0 0 0 -0.35735 0.29352 -0.88665 0.024707
0.22901 -0.013088 1.1846 9.3116e-39 391 265 0 0 0 -0.3022 0.3072 -0.90239 0.02855
0.23121 -0.012851 1.1841 8.9122e-39 411.33 265 0 0 0 -0.21081 0.3228 -0.92269 0.03578
0.23306 -0.013082 1.1841 8.8968e-39 394 265 0 0 0 -0.13577 0.33146 -0.93365 0.038486
0.23583 -0.012389 1.1841 8.1132e-39 452 265 0 0 0 -0.014998 0.32983 -0.94392 0.038239
0.24299 -0.013094 1.1852 7.9288e-39 401 265 0 0 0 0.29253 0.30705 -0.90562 0.027446
0.24522 -0.012859 1.1848 6.3308e-39 421.33 265 0 0 0 0.36101 0.30142 -0.88251 0.02229
0.24715 -0.013094 1.1852 6.4998e-39 404 265 0 0 0 0.42164 0.29036 -0.85902 0.018088
0.22496 -0.011015 1.1852 7.56e-39 188 266 0 0 0 -0.41116 0.27008 -0.87064 0.022343
0.22773 -0.011015 1.1852 7.4678e-39 190 266 0 0 0 -0.3278 0.28604 -0.9004 0.024696
0.22912 -0.011015 1.1852 7.6522e-39 191 266 0 0 0 -0.2948 0.29555 -0.90871 0.025799
0.23109 -0.011009 1.1846 7.9288e-39 192.5 266 0 0 0 -0.21033 0.30786 -0.92789 0.031359
0.23328 -0.011015 1.1852 7.2835e-39 194 266 0 0 0 -0.12058 0.31738 -0.9406 0.034918
0.23513 -0.011004 1.1841 7.514e-39 195.5 266 0 0 0 -0.033096 0.32276 -0.9459 0.035455
0.23721 -0.011004 1.1841 7.3757e-39 197 266 0 0 0 0.054327 0.32354 -0.94465 0.034372
0.2386 -0.011004 1.1841 6.9147e-39 198 266 0 0 0 0.11386 0.32509 -0.9388 0.032306
0.24137 -0.011004 1.1841 7.0069e-39 200 266 0 0 0 0.23704 0.31552 -0.91883 0.0278
0.24299 -0.011015 1.1852 7.4678e-39 201 266 0 0 0 0.27841 0.30518 -0.91069 0.025205
0.24495 -0.011009 1.1846 7.9288e-39 202.5 266 0 0 0 0.34465 0.29652 -0.89067 0.022013
0.22773 -0.009628 1.1852 8.2976e-39 341 266 0 0 0 -0.32721 0.28367 -0.90137 0.024338
0.2312 -0.0089347 1.1852 8.8968e-39 400 266 0 0 0 -0.19601 0.29879 -0.93397 0.029645
0.23328 -0.0089347 1.1852 8.2515e-39 401.5 266 0 0 0 -0.10108 0.30758 -0.94614 0.030214
0.23506 -0.0091627 1.1848 7.8059e-39 384 266 0 0 0 -0.026281 0.30797 -0.95103 0.030551
0.23682 -0.0086979 1.1845 6.5459e-39 423 266 0 0 0 0.039276 0.31509 -0.94825 0.029537
0.23935 -0.0089281 1.1844 6.7534e-39 406 266 0 0 0 0.14407 0.31144 -0.93928 0.027495
0.24148 -0.0089301 1.1846 7.1913e-39 407.5 266 0 0 0 0.22724 0.30556 -0.92466 0.025452
0.24437 -0.0089347 1.1852 6.9608e-39 409.5 266 0 0 0 0.32247 0.29362 -0.89989 0.02246
0.23051 -0.0068548 1.1852 7.2835e-39 195 267 0 0 0 -0.21707 0.2818 -0.9346 0.025646
0.23467 -0.0068548 1.1852 7.0991e-39 198 267 0 0 0 -0.04322 0.30211 -0.95229 0.027821
0.23674 -0.0068548 1.1852 6.9147e-39 199.5 267 0 0 0 0.046324 0.30658 -0.95072 0.02777
0.23941 -0.0068515 1.1846 7.6983e-39 201.5 267 0 0 0 0.14817 0.30783 -0.93983 0.025343
0.2416 -0.0068548 1.1852 7.7444e-39 203 267 0 0 0 0.22996 0.29752 -0.92661 0.024691
0.23051 -0.0054682 1.1852 9.0352e-39 342 267 0 0 0 -0.22358 0.26814 -0.93708 0.024257
0.23467 -0.0054682 1.1852 8.3898e-39 345 267 0 0 0 -0.026765 0.29637 -0.9547 0.025062
0.23674 -0.0047749 1.1852 8.3206e-39 402.5 267 0 0 0 0.056622 0.29412 -0.95409 0.024879
0.23883 -0.0054682 1.1852 8.3898e-39 348 267 0 0 0 0.13412 0.2912 -0.94722 0.024799
0.24021 -0.0047749 1.1852 8.0671e-39 405 267 0 0 0 0.18274 0.29311 -0.93845 0.023853
0.23744 -0.0026949 1.1852 7.0991e-39 192 268 0 0 0 0.080558 0.27998 -0.95662 0.022796
0.22539 -0.044379 1.1875 7.8366e-39 143 257 0 0 0 -0.2832 -0.70272 -0.65268 0.05302
0.22886 -0.044379 1.1875 7.6061e-39 146 257 0 0 0 -0.21872 -0.759 -0.61326 0.041699
0.23095 -0.044379 1.1875 7.2835e-39 148 257 0 0 0 -0.16381 -0.78826 -0.59314 0.037404
0.23303 -0.044379 1.1875 7.3757e-39 149.5 257 0 0 0 -0.10323 -0.80133 -0.58925 0.031675
0.23512 -0.044379 1.1875 7.6522e-39 151 257 0 0 0 -0.040187 -0.81362 -0.58001 0.031748
0.2372 -0.044379 1.1875 7.2374e-39 155 257 0 0 0 0.02118 -0.82026 -0.5716 0.0307
0.23906 -0.044336 1.1863 7.2835e-39 159 257 0 0 0 0.079435 -0.79269 -0.60442 0.036866
0.24067 -0.044379 1.1875 7.1913e-39 160 257 0 0 0 0.14095 -0.79843 -0.58536 0.036834
0.24275 -0.044379 1.1875 7.4218e-39 161.5 257 0 0 0 0.19119 -0.78229 -0.59285 0.039112
0.22122 -0.042989 1.1875 1.0879e-38 260 257 0 0 0 -0.3895 -0.5768 -0.71805 0.057094
0.22261 -0.042989 1.1875 1.051e-38 261 257 0 0 0 -0.35507 -0.61927 -0.70031 0.057219
0.22459 -0.042969 1.1869 1.0418e-38 262.5 257 0 0 0 -0.32847 -0.64389 -0.69103 0.057592
0.22726 -0.042948 1.1863 1.028e-38 264.5 257 0 0 0 -0.28677 -0.68192 -0.67286 0.051357
0.23212 -0.042948 1.1863 9.8649e-39 268 257 0 0 0 -0.14712 -0.74124 -0.65491 0.04429
0.24877 -0.042948 1.1863 9.8649e-39 280 257 0 0 0 0.3613 -0.63082 -0.68668 0.05687
0.25085 -0.042948 1.1863 9.6344e-39 281.5 257 0 0 0 0.40863 -0.5976 -0.68986 0.060728
0.25293 -0.042948 1.1863 9.5883e-39 283 257 0 0 0 0.44868 -0.54255 -0.71015 0.057301
0.21521 -0.040674 1.1875 1.008e-38 279 257.67 0 0 0 -0.5421 -0.36751 -0.75569 0.051796
0.21706 -0.040905 1.1875 1.0003e-38 316.5 257.5 0 0 0 -0.52248 -0.39068 -0.75788 0.052422
0.21904 -0.040886 1.1869 9.7958e-39 318 257.5 0 0 0 -0.49398 -0.43379 -0.75353 0.05848
0.22101 -0.04156 1.1863 8.8508e-39 428 257 0 0 0 -0.44809 -0.49593 -0.74382 0.060615
0.2224 -0.04156 1.1863 9.404e-39 429 257 0 0 0 -0.42758 -0.51043 -0.74608 0.061003
0.25432 -0.040866 1.1863 7.0069e-39 371 257.5 0 0 0 0.51419 -0.41638 -0.74983 0.053654
0.21497 -0.038822 1.1875 8.8047e-39 369.5 258 0 0 0 -0.57826 -0.27446 -0.76831 0.04772
0.21706 -0.038822 1.1875 7.9288e-39 371 258 0 0 0 -0.56192 -0.30389 -0.76935 0.054946
0.21893 -0.038784 1.1863 7.6522e-39 372.5 258 0 0 0 -0.54923 -0.3102 -0.77597 0.055004
0.25432 -0.038784 1.1863 9.4961e-39 398 258 0 0 0 0.55053 -0.29437 -0.78119 0.051134
0.21567 -0.037432 1.1875 7.0069e-39 139 259 0 0 0 -0.60063 -0.20936 -0.77162 0.044284
0.21706 -0.036738 1.1875 8.5284e-39 202.5 259 0 0 0 -0.5872 -0.22066 -0.77878 0.049067
0.21893 -0.036702 1.1863 8.8506e-39 204 259 0 0 0 -0.57508 -0.23041 -0.78498 0.050421
0.22101 -0.036008 1.1863 1.0326e-38 268 259 0 0 0 -0.55628 -0.24296 -0.79468 0.053057
0.25432 -0.036702 1.1863 7.9749e-39 259 259 0 0 0 0.57563 -0.21429 -0.78913 0.046617
0.21706 -0.034654 1.1875 1.0234e-38 425 259 0 0 0 -0.61307 -0.13277 -0.77879 0.039244
0.21893 -0.03462 1.1863 1.0418e-38 426.5 259 0 0 0 -0.59704 -0.15827 -0.78645 0.045141
0.25293 -0.03462 1.1863 9.9571e-39 451 259 0 0 0 0.5781 -0.1735 -0.79731 0.043616
0.25432 -0.03462 1.1863 9.4961e-39 452 259 0 0 0 0.59128 -0.14819 -0.79273 0.038436
0.21706 -0.033264 1.1875 9.9571e-39 201 260 0 0 0 -0.62843 -0.098169 -0.77165 0.03618
0.21893 -0.033232 1.1863 9.9571e-39 202.5 260 0 0 0 -0.61349 -0.11241 -0.78166 0.040481
0.25293 -0.033232 1.1863 8.7586e-39 232 260 0 0 0 0.59034 -0.11009 -0.79961 0.036119
0.25457 -0.033264 1.1875 8.8508e-39 233 260 0 0 0 0.6048 -0.11169 -0.78851 0.035267
0.21706 -0.031875 1.1875 9.404e-39 366 260 0 0 0 -0.6309 -0.048778 -0.77433 0.030734
0.21893 -0.031151 1.1863 9.1504e-39 443.5 260 0 0 0 -0.62229 -0.038504 -0.78184 0.031912
0.25293 -0.031151 1.1863 8.1132e-39 277.5 260.5 0 0 0 0.59052 -0.016158 -0.80686 0.02339
0.25457 -0.031181 1.1875 8.1593e-39 278.5 260.5 0 0 0 0.6072 -0.016402 -0.79438 0.022937
0.21903 -0.029083 1.1869 1.1109e-38 258.5 261 0 0 0 -0.62821 0.01747 -0.77785 0.02646
0.25155 -0.029069 1.1863 1.0049e-38 282 261 0 0 0 0.58318 0.021435 -0.81206 0.021539
0.25318 -0.029097 1.1875 1.0142e-38 283 261 0 0 0 0.59895 0.028556 -0.80028 0.019026
0.25457 -0.029097 1.1875 9.6805e-39 284 261 0 0 0 0.61135 0.036618 -0.79051 0.017435
0.21903 -0.027 1.1869 8.1594e-39 303.5 261.5 0 0 0 -0.62609 0.089008 -0.77466 0.019328
0.22101 -0.026293 1.1863 7.1913e-39 190 262 0 0 0 -0.59976 0.10032 -0.79386 0.021375
0.25155 -0.026987 1.1863 9.4962e-39 331 261.5 0 0 0 0.57998 0.093999 -0.80919 0.01256
0.25318 -0.027013 1.1875 9.0812e-39 332 261.5 0 0 0 0.60108 0.081555 -0.79501 0.012685
0.25457 -0.027013 1.1875 8.8046e-39 333 261.5 0 0 0 0.61266 0.090109 -0.78519 0.011043
0.21914 -0.024929 1.1875 9.3118e-39 353.5 262 0 0 0 -0.62874 0.14013 -0.76489 0.014766
0.22101 -0.024905 1.1863 9.1274e-39 355 262 0 0 0 -0.59147 0.14602 -0.79299 0.018578
0.2224 -0.024905 1.1863 9.404e-39 356 262 0 0 0 -0.56754 0.14702 -0.81011 0.021145
0.25085 -0.024905 1.1863 8.6664e-39 376.5 262 0 0 0 0.56549 0.14514 -0.81188 0.010964
0.25318 -0.024929 1.1875 8.2976e-39 378 262 0 0 0 0.59738 0.13828 -0.78994 0.0082182
0.25457 -0.024929 1.1875 8.6664e-39 379 262 0 0 0 0.60858 0.14579 -0.77999 0.0066585
0.21984 -0.022845 1.1875 7.6061e-39 370 262.5 0 0 0 -0.60894 0.19103 -0.76987 0.011784
0.22101 -0.022823 1.1863 7.56e-39 371 262.5 0 0 0 -0.57705 0.20149 -0.79146 0.014025
0.2224 -0.022823 1.1863 7.8366e-39 372 262.5 0 0 0 -0.55564 0.20605 -0.80549 0.016886
0.24877 -0.022129 1.1863 1.0602e-38 262 263 0 0 0 0.515 0.22197 -0.82795 0.010657
0.25091 -0.022828 1.1866 9.7955e-39 392.5 262.5 0 0 0 0.55213 0.20597 -0.80792 0.0080192
0.25318 -0.022845 1.1875 1.0142e-38 394 262.5 0 0 0 0.58969 0.19286 -0.78426 0.0050588
0.25457 -0.023539 1.1875 9.3118e-39 524 262 0 0 0 0.60189 0.17354 -0.77949 0.005186
0.21984 -0.020761 1.1875 9.3118e-39 399 263 0 0 0 -0.59699 0.21237 -0.77363 0.011611
0.22101 -0.020741 1.1863 9.8649e-39 400 263 0 0 0 -0.56668 0.22226 -0.7934 0.013305
0.2224 -0.020741 1.1863 1.0049e-38 401 263 0 0 0 -0.5442 0.23132 -0.80644 0.015321
0.24877 -0.020741 1.1863 9.7727e-39 420 263 0 0 0 0.50866 0.24491 -0.8254 0.010774
0.25098 -0.020751 1.1869 9.45e-39 421.5 263 0 0 0 0.54483 0.2333 -0.80544 0.0082322
0.21984 -0.019372 1.1875 6.9147e-39 150 264 0 0 0 -0.5894 0.22337 -0.77634 0.011914
0.22101 -0.019353 1.1863 6.9147e-39 151 264 0 0 0 -0.55977 0.22895 -0.79639 0.013599
0.22309 -0.019353 1.1863 6.9147e-39 153 264 0 0 0 -0.52636 0.24263 -0.81491 0.016504
0.24877 -0.019353 1.1863 6.8225e-39 176 264 0 0 0 0.49662 0.2558 -0.82942 0.011975
0.25098 -0.019362 1.1869 6.8225e-39 177.5 264 0 0 0 0.53944 0.24003 -0.80709 0.008623
0.21984 -0.017288 1.1875 9.45e-39 349.5 264 0 0 0 -0.58084 0.226 -0.78201 0.012446
0.22111 -0.017279 1.1869 9.7266e-39 350.5 264 0 0 0 -0.55654 0.23576 -0.79667 0.013714
0.22309 -0.017271 1.1863 1.0072e-38 352 264 0 0 0 -0.50762 0.25264 -0.82371 0.017436
0.24877 -0.017271 1.1863 8.2515e-39 371.5 264 0 0 0 0.48951 0.26342 -0.83126 0.012544
0.25098 -0.017279 1.1869 8.6433e-39 393.5 264 0 0 0 0.53103 0.24956 -0.80977 0.0094041
0.22122 -0.015204 1.1875 6.8225e-39 177 265 0 0 0 -0.55227 0.2384 -0.79885 0.014672
0.22309 -0.015189 1.1863 7.2835e-39 178.5 265 0 0 0 -0.49961 0.25203 -0.82878 0.018174
0.24901 -0.015204 1.1875 7.2835e-39 197 265 0 0 0 0.49228 0.26731 -0.82837 0.012915
0.25098 -0.015197 1.1869 6.8686e-39 198.5 265 0 0 0 0.52378 0.25731 -0.81206 0.01016
0.22122 -0.01312 1.1875 8.7124e-39 367 265 0 0 0 -0.54089 0.23908 -0.8064 0.015443
0.22315 -0.01311 1.1866 8.5281e-39 368.5 265 0 0 0 -0.49305 0.2525 -0.83255 0.018367
0.24901 -0.013814 1.1875 8.6664e-39 349 265 0 0 0 0.48628 0.27102 -0.83071 0.013816
0.25078 -0.013347 1.1871 7.7443e-39 387.67 265 0 0 0 0.51064 0.27234 -0.81552 0.012498
0.2232 -0.011031 1.1869 7.6061e-39 186.5 266 0 0 0 -0.48171 0.25109 -0.83959 0.019896
0.22656 -0.011025 1.1863 7.2835e-39 189 266 0 0 0 -0.38389 0.27561 -0.88129 0.023753
0.24738 -0.011025 1.1863 7.8366e-39 204 266 0 0 0 0.42865 0.28808 -0.85631 0.019067
0.2504 -0.011036 1.1875 9.0352e-39 206 266 0 0 0 0.50794 0.27431 -0.81655 0.013867
0.2232 -0.0089476 1.1869 8.7816e-39 394 266 0 0 0 -0.48084 0.24017 -0.84327 0.019968
0.22518 -0.0089433 1.1863 8.2054e-39 395.5 266 0 0 0 -0.40638 0.25485 -0.87744 0.022347
0.22702 -0.008712 1.1863 8.1132e-39 415.67 266 0 0 0 -0.34505 0.26579 -0.90016 0.021687
0.22934 -0.0089433 1.1863 8.4359e-39 398.5 266 0 0 0 -0.28548 0.28506 -0.91501 0.025209
0.24322 -0.0089433 1.1863 7.099e-39 408.5 266 0 0 0 0.30141 0.2967 -0.90616 0.023471
0.246 -0.0089433 1.1863 7.3296e-39 410.5 266 0 0 0 0.38302 0.29089 -0.87675 0.021401
0.24738 -0.0089433 1.1863 8.1594e-39 411.5 266 0 0 0 0.42134 0.28598 -0.86063 0.019456
0.22459 -0.0068647 1.1869 7.514e-39 190.5 267 0 0 0 -0.42886 0.23821 -0.8714 0.022696
0.22737 -0.0068647 1.1869 7.6522e-39 192.5 267 0 0 0 -0.33505 0.25643 -0.90663 0.022446
0.22934 -0.0068614 1.1863 7.2835e-39 194 267 0 0 0 -0.26339 0.27184 -0.9256 0.023498
0.23281 -0.0068614 1.1863 7.2374e-39 196.5 267 0 0 0 -0.12298 0.2905 -0.94894 0.029414
0.24322 -0.0068614 1.1863 7.3757e-39 204 267 0 0 0 0.29319 0.29201 -0.91037 0.023594
0.24531 -0.0068614 1.1863 7.5601e-39 205.5 267 0 0 0 0.36215 0.2851 -0.88745 0.022212
0.24762 -0.006868 1.1875 8.1132e-39 207 267 0 0 0 0.43572 0.281 -0.8551 0.01973
0.2247 -0.0047841 1.1875 8.8507e-39 393.5 267 0 0 0 -0.421 0.2333 -0.87654 0.023615
0.22717 -0.0050138 1.1871 8.5127e-39 376.67 267 0 0 0 -0.33239 0.25251 -0.90871 0.023681
0.2291 -0.0045525 1.1875 8.7279e-39 415.33 267 0 0 0 -0.28115 0.25973 -0.92385 0.026031
0.23073 -0.0040855 1.1863 8.5742e-39 454 267 0 0 0 -0.20074 0.25903 -0.94478 0.025309
0.23281 -0.0047794 1.1863 9.0122e-39 399.5 267 0 0 0 -0.1132 0.27908 -0.95357 0.026192
0.23489 -0.0040855 1.1863 9.404e-39 457 267 0 0 0 -0.020417 0.28187 -0.95924 0.026272
0.23906 -0.0040855 1.1863 7.56e-39 460 267 0 0 0 0.13976 0.28124 -0.94941 0.02354
0.24183 -0.0047794 1.1863 8.1593e-39 406 267 0 0 0 0.23885 0.28551 -0.92813 0.024578
0.24345 -0.0047841 1.1875 8.2054e-39 407 267 0 0 0 0.31314 0.27895 -0.90782 0.024019
0.24472 -0.0047814 1.1869 7.7444e-39 408 267 0 0 0 0.34701 0.27965 -0.8952 0.022855
0.24669 -0.0050156 1.1875 7.5293e-39 390.67 267 0 0 0 0.40437 0.27692 -0.87167 0.021807
0.22539 -0.0027001 1.1875 6.9147e-39 183 268 0 0 0 -0.38884 0.23421 -0.89104 0.025035
0.22886 -0.0027001 1.1875 7.8366e-39 185.5 268 0 0 0 -0.27677 0.24709 -0.92862 0.026889
0.23073 -0.0026975 1.1863 7.6522e-39 187 268 0 0 0 -0.20617 0.2511 -0.94575 0.024653
0.23281 -0.0026975 1.1863 7.2374e-39 188.5 268 0 0 0 -0.10199 0.26076 -0.96 0.026348
0.23489 -0.0026975 1.1863 7.1913e-39 190 268 0 0 0 -0.012806 0.27018 -0.96272 0.024506
0.23628 -0.0026975 1.1863 7.0991e-39 191 268 0 0 0 0.030893 0.27346 -0.96139 0.02475
0.23906 -0.0026975 1.1863 7.0991e-39 193 268 0 0 0 0.14526 0.2809 -0.94868 0.024075
0.24044 -0.0026975 1.1863 7.1913e-39 194 268 0 0 0 0.19207 0.28175 -0.94007 0.024136
0.24275 -0.0027001 1.1875 7.4218e-39 195.5 268 0 0 0 0.28336 0.27257 -0.91946 0.023788
0.24484 -0.0027001 1.1875 7.3757e-39 197 268 0 0 0 0.36009 0.2729 -0.89211 0.022992
0.24623 -0.0027001 1.1875 7.0991e-39 198 268 0 0 0 0.39447 0.27179 -0.87779 0.023379
0.22886 -0.0013108 1.1875 7.3296e-39 298.5 268 0 0 0 -0.26994 0.23996 -0.9325 0.026577
0.23073 -0.0013096 1.1863 7.3757e-39 300 268 0 0 0 -0.19618 0.24846 -0.94857 0.023392
0.23292 -0.0013102 1.1869 8.0671e-39 301.5 268 0 0 0 -0.091928 0.25241 -0.96324 0.026889
0.23489 -0.0013096 1.1863 1.0602e-38 334 268 0 0 0 0.0045938 0.2634 -0.96468 0.023743
0.23697 -0.0013096 1.1863 1.0372e-38 335.5 268 0 0 0 0.063638 0.2678 -0.96137 0.024371
0.23929 -0.0013108 1.1875 7.7444e-39 337 268 0 0 0 0.16063 0.26922 -0.94959 0.023614
0.24044 -0.0013096 1.1863 7.4678e-39 338 268 0 0 0 0.19137 0.26775 -0.94429 0.024068
0.24275 -0.0013108 1.1875 8.2515e-39 339.5 268 0 0 0 0.28061 0.26381 -0.92286 0.024051
0.24484 -0.0013108 1.1875 9.1274e-39 341 268 0 0 0 0.34405 0.26488 -0.90081 0.023432
0.23095 0.00077308 1.1875 8.3437e-39 314.5 268.5 0 0 0 -0.18422 0.23438 -0.95453 0.026502
0.23303 0.00077308 1.1875 8.6433e-39 316 268.5 0 0 0 -0.080071 0.23295 -0.96919 0.026893
0.23512 0.00077308 1.1875 8.9428e-39 317.5 268.5 0 0 0 0.00012035 0.24061 -0.97062 0.02545
0.23715 0.00077306 1.1872 8.5741e-39 319 268.5 0 0 0 0.072687 0.25043 -0.9654 0.023799
0.23929 0.00077308 1.1875 8.2055e-39 320.5 268.5 0 0 0 0.16839 0.25229 -0.95289 0.024395
0.24067 0.00077308 1.1875 8.1593e-39 321.5 268.5 0 0 0 0.21057 0.25768 -0.94301 0.024271
0.24206 7.8457e-05 1.1875 9.1274e-39 454 268 0 0 0 0.2437 0.25822 -0.93484 0.024262
0.23234 0.002857 1.1875 7.8366e-39 297 269 0 0 0 -0.11377 0.22726 -0.96716 0.028924
0.23512 0.002857 1.1875 6.8225e-39 299 269 0 0 0 -0.0020044 0.22624 -0.97407 0.024751
0.2372 0.002857 1.1875 7.1913e-39 300.5 269 0 0 0 0.089186 0.23055 -0.96896 0.023942
0.23234 0.0042463 1.1875 9.2196e-39 442 269 0 0 0 -0.11123 0.22026 -0.96908 0.028282
0.22165 -0.044464 1.1898 7.6522e-39 140 257 0 0 0 -0.32223 -0.66663 -0.67214 0.053884
0.22304 -0.044464 1.1898 7.56e-39 141 257 0 0 0 -0.30097 -0.68337 -0.66515 0.052301
0.22502 -0.045139 1.1892 7.9749e-39 251 256.5 0 0 0 -0.2574 -0.73198 -0.63084 0.046419
0.227 -0.044421 1.1886 7.8366e-39 144 257 0 0 0 -0.24431 -0.74784 -0.6173 0.045983
0.24508 -0.044421 1.1886 7.7444e-39 163 257 0 0 0 0.24248 -0.77002 -0.59014 0.045386
0.24716 -0.044421 1.1886 7.9288e-39 164.5 257 0 0 0 0.27601 -0.74366 -0.60893 0.049146
0.24925 -0.044421 1.1886 7.4678e-39 166 257 0 0 0 0.32928 -0.7007 -0.63292 0.055511
0.25088 -0.044464 1.1898 7.1913e-39 167 257 0 0 0 0.35069 -0.69822 -0.6241 0.054506
0.25297 -0.044464 1.1898 7.0991e-39 168.5 257 0 0 0 0.39555 -0.64426 -0.65458 0.055026
0.2133 -0.043072 1.1898 9.1274e-39 254 257 0 0 0 -0.52253 -0.44919 -0.72471 0.048382
0.21469 -0.043072 1.1898 1.0142e-38 255 257 0 0 0 -0.49962 -0.47281 -0.72583 0.050362
0.21678 -0.043072 1.1898 1.1156e-38 256.5 257 0 0 0 -0.46394 -0.51188 -0.72301 0.05457
0.21866 -0.043031 1.1886 1.1709e-38 258 257 0 0 0 -0.43611 -0.54279 -0.71776 0.055039
0.22005 -0.043031 1.1886 1.134e-38 259 257 0 0 0 -0.39618 -0.59366 -0.70044 0.058567
0.25481 -0.043031 1.1886 9.2196e-39 284 257 0 0 0 0.47146 -0.53552 -0.70068 0.054578
0.25645 -0.043072 1.1898 8.3898e-39 285 257 0 0 0 0.4977 -0.50412 -0.7058 0.052946
0.21121 -0.040984 1.1898 9.7727e-39 312 257.5 0 0 0 -0.5922 -0.30726 -0.74491 0.043525
0.21309 -0.040945 1.1886 9.5422e-39 313.5 257.5 0 0 0 -0.56225 -0.33164 -0.75756 0.046636
0.21448 -0.04164 1.1886 9.2196e-39 423 257 0 0 0 -0.53282 -0.38578 -0.75318 0.049745
0.25675 -0.040726 1.189 7.5293e-39 327 257.67 0 0 0 0.53696 -0.41917 -0.7321 0.054461
0.25923 -0.040984 1.1898 7.514e-39 374 257.5 0 0 0 0.58251 -0.35665 -0.73039 0.047017
0.21121 -0.038896 1.1898 9.3118e-39 366.5 258 0 0 0 -0.6283 -0.20952 -0.74922 0.039577
0.21309 -0.038859 1.1886 9.404e-39 368 258 0 0 0 -0.59786 -0.24055 -0.76466 0.043309
0.25702 -0.038877 1.1892 1.0418e-38 399.5 258 0 0 0 0.578 -0.31494 -0.75281 0.049842
0.25923 -0.038896 1.1898 1.0142e-38 401 258 0 0 0 0.60404 -0.28655 -0.74366 0.044927
0.21121 -0.036808 1.1898 9.4039e-39 393.5 258.5 0 0 0 -0.64213 -0.14013 -0.75368 0.033716
0.2133 -0.036808 1.1898 9.2657e-39 395 258.5 0 0 0 -0.62295 -0.17377 -0.76272 0.038698
0.21494 -0.036541 1.1886 8.943e-39 221.67 259 0 0 0 -0.61399 -0.17926 -0.76869 0.042107
0.25702 -0.036791 1.1892 7.8136e-39 260.5 259 0 0 0 0.60825 -0.20052 -0.768 0.039881
0.25923 -0.036112 1.1898 9.3118e-39 343 259 0 0 0 0.63103 -0.14973 -0.76117 0.033406
0.21121 -0.034721 1.1898 1.0695e-38 420.5 259 0 0 0 -0.65773 -0.071432 -0.74986 0.026088
0.2133 -0.034721 1.1898 9.6805e-39 422 259 0 0 0 -0.64265 -0.10133 -0.75943 0.031635
0.21518 -0.034687 1.1886 9.8648e-39 423.5 259 0 0 0 -0.63186 -0.11602 -0.76635 0.035643
0.25702 -0.034704 1.1892 9.0813e-39 453.5 259 0 0 0 0.61475 -0.13506 -0.77707 0.034966
0.21191 -0.033329 1.1898 1.0234e-38 197 260 0 0 0 -0.66173 -0.037026 -0.74882 0.024438
0.2133 -0.033329 1.1898 1.0049e-38 198 260 0 0 0 -0.65487 -0.053654 -0.75383 0.026445
0.21518 -0.033296 1.1886 1.0096e-38 199.5 260 0 0 0 -0.63863 -0.084634 -0.76485 0.032492
0.25702 -0.033312 1.1892 8.0671e-39 234.5 260 0 0 0 0.62411 -0.089731 -0.77617 0.02997
0.2133 -0.031241 1.1898 8.8508e-39 439 260 0 0 0 -0.66683 0.0074303 -0.74517 0.019238
0.21518 -0.031211 1.1886 8.8278e-39 440.5 260 0 0 0 -0.65524 -0.0096957 -0.75536 0.023096
0.21727 -0.030515 1.1886 8.8508e-39 518 260 0 0 0 -0.64201 -0.0087281 -0.76664 0.025847
0.25702 -0.031226 1.1892 8.5281e-39 280 260.5 0 0 0 0.63398 -0.023982 -0.77298 0.02224
0.2133 -0.029153 1.1898 8.1132e-39 254 261 0 0 0 -0.66908 0.048962 -0.74157 0.015993
0.21518 -0.029125 1.1886 8.8508e-39 255.5 261 0 0 0 -0.65935 0.037855 -0.75088 0.018692
0.21727 -0.029125 1.1886 9.8649e-39 257 261 0 0 0 -0.64941 0.030792 -0.75981 0.021411
0.25714 -0.029153 1.1898 9.0813e-39 285.5 261 0 0 0 0.6388 0.040707 -0.76829 0.014013
0.2133 -0.027065 1.1898 8.5742e-39 299 261.5 0 0 0 -0.67382 0.093965 -0.7329 0.011971
0.21523 -0.027045 1.1889 8.3667e-39 300.5 261.5 0 0 0 -0.66682 0.095358 -0.73909 0.012979
0.21727 -0.027038 1.1886 8.1593e-39 302 261.5 0 0 0 -0.65193 0.08768 -0.75319 0.016129
0.25714 -0.027065 1.1898 8.5971e-39 334.5 261.5 0 0 0 0.64416 0.098399 -0.75854 0.0092914
0.2133 -0.024977 1.1898 8.1132e-39 349 262 0 0 0 -0.6727 0.13879 -0.72678 0.008967
0.21528 -0.024965 1.1892 8.8969e-39 350.5 262 0 0 0 -0.66088 0.13472 -0.7383 0.010262
0.21727 -0.024953 1.1886 9.7727e-39 352 262 0 0 0 -0.64758 0.1354 -0.74987 0.011947
0.25714 -0.024977 1.1898 9.2196e-39 380.5 262 0 0 0 0.64177 0.14443 -0.75317 0.0065049
0.21469 -0.023585 1.1898 4.7942e-39 495 262 0 0 0 -0.66265 0.15832 -0.732 0.0085144
0.21667 -0.022878 1.1892 7.2604e-39 367.5 262.5 0 0 0 -0.64627 0.1752 -0.74273 0.0092431
0.21866 -0.022866 1.1886 7.6983e-39 369 262.5 0 0 0 -0.62636 0.18511 -0.75724 0.01065
0.25481 -0.022171 1.1886 1.0787e-38 266 263 0 0 0 0.6075 0.19383 -0.77031 0.0051869
0.25714 -0.022889 1.1898 9.4501e-39 396.5 262.5 0 0 0 0.63678 0.18458 -0.74863 0.0056133
0.21667 -0.020791 1.1892 8.6203e-39 396.5 263 0 0 0 -0.63882 0.19261 -0.74486 0.0090812
0.21866 -0.020781 1.1886 8.6664e-39 398 263 0 0 0 -0.61632 0.20089 -0.76144 0.01023
0.25342 -0.020781 1.1886 8.6664e-39 423 263 0 0 0 0.5916 0.21568 -0.77685 0.0056052
0.25481 -0.020781 1.1886 8.6664e-39 424 263 0 0 0 0.60515 0.21248 -0.76723 0.0054948
0.25714 -0.020801 1.1898 8.8047e-39 425.5 263 0 0 0 0.63004 0.20359 -0.7494 0.005809
0.2133 -0.019409 1.1898 6.8225e-39 139 264 0 0 0 -0.66311 0.18709 -0.72476 0.008362
0.21648 -0.018939 1.1894 8.0825e-39 184 264 0 0 0 -0.63565 0.1978 -0.7462 0.0090381
0.21866 -0.01939 1.1886 7.3757e-39 145 264 0 0 0 -0.61312 0.20964 -0.76167 0.010291
0.25342 -0.01939 1.1886 7.3757e-39 179 264 0 0 0 0.58556 0.22761 -0.77802 0.0062949
0.25481 -0.01939 1.1886 7.56e-39 180 264 0 0 0 0.60054 0.2197 -0.76882 0.005792
0.25645 -0.019409 1.1898 7.2835e-39 181 264 0 0 0 0.62192 0.21797 -0.75214 0.0058254
0.21687 -0.017078 1.189 8.8815e-39 373 264 0 0 0 -0.622 0.20652 -0.75529 0.0099862
0.21866 -0.017304 1.1886 9.2196e-39 348.5 264 0 0 0 -0.60528 0.21527 -0.76635 0.011106
0.25342 -0.017304 1.1886 8.3437e-39 395 264 0 0 0 0.57602 0.23948 -0.78157 0.0077211
0.25493 -0.017313 1.1892 7.7905e-39 396 264 0 0 0 0.59513 0.23263 -0.76922 0.0066047
0.21747 -0.015233 1.1898 7.2835e-39 174 265 0 0 0 -0.61281 0.21224 -0.76119 0.010824
0.21866 -0.015218 1.1886 7.0991e-39 175 265 0 0 0 -0.59422 0.21999 -0.77363 0.011899
0.22005 -0.015218 1.1886 7.0991e-39 176 265 0 0 0 -0.57501 0.22804 -0.78572 0.013251
0.25342 -0.015218 1.1886 7.0069e-39 200 265 0 0 0 0.57279 0.25033 -0.78054 0.0084601
0.25506 -0.015233 1.1898 7.56e-39 201 265 0 0 0 0.60692 0.24983 -0.75448 0.007267
0.21747 -0.013145 1.1898 9.1273e-39 364 265 0 0 0 -0.60917 0.21672 -0.76285 0.011888
0.21887 -0.013145 1.1898 9.2657e-39 365 265 0 0 0 -0.59053 0.22294 -0.77561 0.01297
0.22005 -0.013132 1.1886 9.2197e-39 366 265 0 0 0 -0.57032 0.22854 -0.78899 0.014066
0.24925 -0.012437 1.1886 4.0566e-39 461 265 0 0 0 0.49793 0.27458 -0.8226 0.01461
0.25285 -0.013139 1.1892 7.0069e-39 407.5 265 0 0 0 0.56732 0.26784 -0.77872 0.0096483
0.21887 -0.011057 1.1898 7.1913e-39 183 266 0 0 0 -0.58561 0.21981 -0.78022 0.014275
0.22085 -0.011052 1.1892 7.2835e-39 184.5 266 0 0 0 -0.54911 0.23139 -0.80308 0.016211
0.24925 -0.011046 1.1886 8.5742e-39 205 266 0 0 0 0.49456 0.27925 -0.82306 0.015005
0.25203 -0.011046 1.1886 9.1274e-39 207 266 0 0 0 0.54173 0.27425 -0.79455 0.012656
0.21887 -0.0089692 1.1898 8.021e-39 373 266 0 0 0 -0.58485 0.21986 -0.78078 0.015568
0.22085 -0.0089648 1.1892 9.6346e-39 392 266 0 0 0 -0.54832 0.22361 -0.80582 0.01741
0.24949 -0.0089692 1.1898 8.6204e-39 412.5 266 0 0 0 0.50853 0.28674 -0.8119 0.016354
0.25076 -0.0089645 1.1892 8.2979e-39 413.5 266 0 0 0 0.52922 0.28155 -0.80041 0.014706
0.25227 -0.0096651 1.1898 9.3118e-39 358 266 0 0 0 0.56078 0.28274 -0.77819 0.012808
0.22085 -0.0068779 1.1892 7.6983e-39 187.5 267 0 0 0 -0.5411 0.21917 -0.8119 0.01916
0.22283 -0.0068746 1.1886 7.2835e-39 189 267 0 0 0 -0.49418 0.22788 -0.83896 0.020844
0.22085 -0.004791 1.1892 9.7265e-39 390.5 267 0 0 0 -0.53853 0.22001 -0.81338 0.021083
0.22283 -0.0047887 1.1886 9.6806e-39 392 267 0 0 0 -0.48759 0.22613 -0.84328 0.02295
0.24786 -0.0040933 1.1886 4.9786e-39 466 267 0 0 0 0.45696 0.27524 -0.84583 0.020702
0.22085 -0.002704 1.1892 7.514e-39 179.5 268 0 0 0 -0.53731 0.22624 -0.81248 0.023463
0.22283 -0.0027027 1.1886 7.6522e-39 181 268 0 0 0 -0.48244 0.22363 -0.8469 0.025062
0.22422 -0.0027027 1.1886 7.0991e-39 182 268 0 0 0 -0.44252 0.2283 -0.86721 0.025822
0.227 -0.0027027 1.1886 7.2835e-39 184 268 0 0 0 -0.34993 0.23862 -0.90587 0.026673
0.24786 -0.0027027 1.1886 6.9147e-39 199 268 0 0 0 0.45582 0.27336 -0.84705 0.021055
0.22085 -0.0013127 1.1892 7.6522e-39 292.5 268 0 0 0 -0.5392 0.22484 -0.81161 0.023846
0.22283 -0.0013121 1.1886 7.4678e-39 294 268 0 0 0 -0.48205 0.22533 -0.84667 0.025215
0.22491 -0.0013121 1.1886 8.1132e-39 295.5 268 0 0 0 -0.40446 0.22887 -0.88545 0.026209
0.227 -0.0013121 1.1886 8.2054e-39 297 268 0 0 0 -0.34636 0.23051 -0.90934 0.027612
0.24716 -0.0013121 1.1886 9.1735e-39 342.5 268 0 0 0 0.44388 0.26976 -0.85452 0.021895
0.22119 0.00054261 1.1898 9.4963e-39 351 268.33 0 0 0 -0.54465 0.22512 -0.80788 0.02654
0.22283 0.00077387 1.1886 8.8045e-39 308.5 268.5 0 0 0 -0.4817 0.22341 -0.84738 0.026833
0.22491 0.00077387 1.1886 8.5282e-39 310 268.5 0 0 0 -0.41 0.22527 -0.88383 0.028212
0.227 0.00077387 1.1886 8.6203e-39 311.5 268.5 0 0 0 -0.33747 0.22831 -0.91323 0.029774
0.22908 0.00077387 1.1886 8.482e-39 313 268.5 0 0 0 -0.27021 0.23541 -0.93358 0.029217
0.24323 0.0010056 1.1886 7.7752e-39 279.33 268.67 0 0 0 0.31251 0.25663 -0.91459 0.0253
0.24508 0.00077387 1.1886 8.4359e-39 324.5 268.5 0 0 0 0.37564 0.25731 -0.89033 0.023542
0.24659 0.00077457 1.1892 8.9431e-39 325.5 268.5 0 0 0 0.43061 0.26154 -0.86381 0.024852
0.2481 0.0007746 1.1898 9.1736e-39 326.5 268.5 0 0 0 0.48583 0.26329 -0.83346 0.022836
0.22165 0.0028625 1.1898 9.5883e-39 289 269 0 0 0 -0.53291 0.23034 -0.81421 0.027811
0.22304 0.0028625 1.1898 9.3118e-39 290 269 0 0 0 -0.49626 0.23225 -0.83653 0.02999
0.22502 0.0028612 1.1892 8.7586e-39 291.5 269 0 0 0 -0.42451 0.22516 -0.87698 0.031358
0.227 0.0028598 1.1886 7.8366e-39 293 269 0 0 0 -0.33562 0.22325 -0.91516 0.031493
0.22908 0.0028598 1.1886 7.9288e-39 294.5 269 0 0 0 -0.26205 0.21966 -0.93972 0.031431
0.23117 0.0028598 1.1886 8.2054e-39 296 269 0 0 0 -0.18079 0.22223 -0.95809 0.030394
0.23395 0.0028598 1.1886 7.1913e-39 298 269 0 0 0 -0.046996 0.22176 -0.97397 0.028432
0.23952 0.0028598 1.1886 8.021e-39 302 269 0 0 0 0.17919 0.23795 -0.95461 0.025858
0.24091 0.0028598 1.1886 7.9288e-39 303 269 0 0 0 0.22538 0.23827 -0.94469 0.025308
0.24299 0.0028598 1.1886 8.9428e-39 319 269 0 0 0 0.31205 0.24462 -0.91803 0.025696
0.24531 0.0028625 1.1898 1.0695e-38 335 269 0 0 0 0.39714 0.24997 -0.88306 0.024532
0.24671 0.0028625 1.1898 9.5883e-39 336 269 0 0 0 0.4548 0.25263 -0.85401 0.024341
0.22304 0.0042545 1.1898 9.0352e-39 435 269 0 0 0 -0.49464 0.23125 -0.83777 0.031507
0.22513 0.0049505 1.1898 8.8508e-39 301 269.5 0 0 0 -0.43134 0.22825 -0.87284 0.034552
0.22722 0.0049505 1.1898 9.2657e-39 302.5 269.5 0 0 0 -0.34507 0.22947 -0.91009 0.036821
0.22925 0.0049495 1.1895 9.1273e-39 304 269.5 0 0 0 -0.26727 0.22157 -0.9378 0.035364
0.23117 0.0049457 1.1886 8.7124e-39 305.5 269.5 0 0 0 -0.17919 0.21619 -0.95977 0.032044
0.23349 0.0051775 1.1886 8.3591e-39 262 269.67 0 0 0 -0.058811 0.2104 -0.97584 0.030389
0.23534 0.0049457 1.1886 8.6664e-39 308.5 269.5 0 0 0 0.016521 0.22093 -0.97515 0.028572
0.23673 0.0049457 1.1886 8.7124e-39 309.5 269.5 0 0 0 0.067669 0.21959 -0.97324 0.028667
0.23893 0.0049481 1.1892 8.6433e-39 311 269.5 0 0 0 0.16153 0.22404 -0.9611 0.027461
0.24103 0.0049484 1.1892 8.4359e-39 312.5 269.5 0 0 0 0.23859 0.22915 -0.9437 0.025639
0.24346 0.0047185 1.1898 9.3119e-39 359.33 269.33 0 0 0 0.34828 0.23863 -0.90651 0.026174
0.24531 0.0049505 1.1898 8.8507e-39 315.5 269.5 0 0 0 0.40586 0.2454 -0.88038 0.024918
0.22513 0.0070384 1.1898 8.943e-39 279.5 270 0 0 0 -0.43344 0.23243 -0.8707 0.036154
0.22722 0.0070384 1.1898 8.3898e-39 281 270 0 0 0 -0.34468 0.23202 -0.9096 0.038016
0.2293 0.0070384 1.1898 7.8366e-39 282.5 270 0 0 0 -0.27225 0.22064 -0.93659 0.039989
0.23117 0.0070317 1.1886 7.56e-39 284 270 0 0 0 -0.17229 0.21327 -0.96168 0.032396
0.23325 0.0070317 1.1886 8.021e-39 285.5 270 0 0 0 -0.08715 0.21047 -0.97371 0.033687
0.23534 0.0070317 1.1886 9.404e-39 287 270 0 0 0 0.01959 0.21732 -0.9759 0.029124
0.23673 0.0070317 1.1886 9.7727e-39 288 270 0 0 0 0.05985 0.2138 -0.97504 0.030147
0.23893 0.0070351 1.1892 9.5884e-39 289.5 270 0 0 0 0.15267 0.21738 -0.96407 0.028385
0.24114 0.0070384 1.1898 8.8508e-39 291 270 0 0 0 0.26371 0.22857 -0.93713 0.027848
0.24392 0.0070384 1.1898 8.3898e-39 293 270 0 0 0 0.36701 0.24056 -0.89858 0.025657
0.2249 0.0088944 1.1898 9.0968e-39 328.67 270.33 0 0 0 -0.43686 0.23594 -0.86804 0.038389
0.22722 0.0091264 1.1898 8.5281e-39 284.5 270.5 0 0 0 -0.36331 0.23425 -0.90174 0.039722
0.2293 0.0091264 1.1898 8.0211e-39 286 270.5 0 0 0 -0.27902 0.22985 -0.93237 0.041982
0.23117 0.0091176 1.1886 7.7905e-39 287.5 270.5 0 0 0 -0.17497 0.22348 -0.95888 0.036591
0.23325 0.0091176 1.1886 7.7675e-39 289 270.5 0 0 0 -0.073463 0.22253 -0.97215 0.034899
0.23534 0.0091176 1.1886 7.8827e-39 290.5 270.5 0 0 0 0.013609 0.21985 -0.97544 0.031793
0.23696 0.0091264 1.1898 8.4359e-39 291.5 270.5 0 0 0 0.086102 0.21978 -0.97174 0.035401
0.23899 0.0091244 1.1895 8.8507e-39 293 270.5 0 0 0 0.16181 0.22493 -0.96085 0.031769
0.24114 0.0084304 1.1898 9.5883e-39 432 270 0 0 0 0.26787 0.22414 -0.93702 0.028291
0.22443 0.011214 1.1898 7.7444e-39 260 271 0 0 0 -0.47163 0.25342 -0.8446 0.038671
0.22722 0.011214 1.1898 7.8366e-39 262 271 0 0 0 -0.37887 0.24283 -0.89303 0.041005
0.2293 0.011214 1.1898 7.9288e-39 263.5 271 0 0 0 -0.27959 0.24561 -0.92817 0.042517
0.23117 0.011204 1.1886 8.5742e-39 265 271 0 0 0 -0.17954 0.23699 -0.95478 0.039349
0.23325 0.011204 1.1886 8.8969e-39 266.5 271 0 0 0 -0.07738 0.22824 -0.97053 0.037159
0.23534 0.011204 1.1886 9.6805e-39 268 271 0 0 0 0.0035062 0.23052 -0.97306 0.033968
0.23696 0.011214 1.1898 1.0418e-38 269 271 0 0 0 0.078926 0.2365 -0.96842 0.036709
0.23812 0.011204 1.1886 1.0602e-38 270 271 0 0 0 0.12381 0.2263 -0.96616 0.030744
0.22722 0.013302 1.1898 8.2976e-39 464.5 271 0 0 0 -0.3837 0.26794 -0.88373 0.043547
0.2293 0.013302 1.1898 8.2745e-39 466 271 0 0 0 -0.28635 0.26527 -0.92067 0.044579
0.23117 0.01329 1.1886 8.482e-39 467.5 271 0 0 0 -0.17609 0.2511 -0.95181 0.041814
0.23325 0.01329 1.1886 8.6664e-39 469.25 271 0 0 0 -0.070679 0.249 -0.96592 0.038834
0.23534 0.01329 1.1886 8.0211e-39 274 271.5 0 0 0 -0.0038261 0.24769 -0.96883 0.035418
0.23696 0.013302 1.1898 8.021e-39 276 271.5 0 0 0 0.09427 0.2546 -0.96244 0.038757
0.23823 0.013296 1.1892 7.9749e-39 277 271.5 0 0 0 0.132 0.25283 -0.95846 0.037986
0.22722 0.01539 1.1898 9.8649e-39 249 272 0 0 0 -0.38155 0.28948 -0.87785 0.045045
0.2293 0.01539 1.1898 9.0351e-39 250.5 272 0 0 0 -0.28768 0.28663 -0.91383 0.046039
0.23117 0.015375 1.1886 7.9288e-39 252 272 0 0 0 -0.17261 0.2692 -0.94749 0.043234
0.23325 0.015375 1.1886 7.6983e-39 253.5 272 0 0 0 -0.072472 0.26792 -0.96071 0.041269
