# .PCD v.7 - Point Cloud Data file format
VERSION .7
FIELDS x y z rgb u v vx vy vz normal_x normal_y normal_z curvature
SIZE 4 4 4 4 4 4 4 4 4 4 4 4 4
TYPE F F F F F F F F F F F F F
COUNT 1 1 1 1 1 1 1 1 1 1 1 1 1
WIDTH 556
HEIGHT 1
VIEWPOINT 0 0 0 1 0 0 0
POINTS 556
DATA ascii
0.27242 0.10542 0.83388 6.5459e-39 278 273 0 0 0 -0.057285 -0.83387 -0.54898 0.02695
0.2773 0.10542 0.83388 6.2693e-39 283 273 0 0 0 -0.0032129 -0.88634 -0.46302 0.0091045
0.27867 0.10539 0.8336 7.7905e-39 284.5 273 0 0 0 0.0090571 -0.89329 -0.44939 0.0065257
0.28071 0.10542 0.83388 8.8508e-39 286.5 273 0 0 0 0.02677 -0.90514 -0.42427 0.0020524
0.2893 0.10535 0.83331 8.3437e-39 295.5 273 0 0 0 0.027387 -0.90533 -0.42382 0.0017932
0.29115 0.10531 0.83303 7.8827e-39 297.5 273 0 0 0 0.024061 -0.90559 -0.42347 0.0020773
0.293 0.10528 0.83275 8.1132e-39 299.5 273 0 0 0 0.021841 -0.90477 -0.42534 0.0022943
0.29486 0.10542 0.83388 8.5742e-39 301 273 0 0 0 0.015951 -0.90436 -0.42648 0.0025047
0.24488 0.10679 0.83313 7.3142e-39 303 273.5 0 0 0 -0.38006 -0.31137 -0.87098 0.078096
0.24712 0.1067 0.83247 6.5689e-39 305.5 273.5 0 0 0 -0.37286 -0.35536 -0.85714 0.080112
0.2709 0.10618 0.83219 9.5883e-39 430 273 0 0 0 -0.10187 -0.78994 -0.60467 0.040902
0.27333 0.10618 0.83219 9.404e-39 432.5 273 0 0 0 -0.073523 -0.81381 -0.57646 0.032853
0.27537 0.10622 0.83247 8.9891e-39 434.5 273 0 0 0 -0.051874 -0.84025 -0.53971 0.023566
0.27723 0.10618 0.83219 8.943e-39 436.5 273 0 0 0 -0.025067 -0.85597 -0.51641 0.018209
0.28122 0.10622 0.83247 9.5423e-39 440.5 273 0 0 0 0.01513 -0.88963 -0.45643 0.0076247
0.28316 0.10622 0.83247 9.0813e-39 442.5 273 0 0 0 0.03177 -0.8962 -0.4425 0.0044587
0.28482 0.10678 0.83303 9.8186e-39 344 273.5 0 0 0 0.034833 -0.90086 -0.4327 0.0028273
0.28686 0.10632 0.83331 9.2503e-39 446 273 0 0 0 0.031696 -0.90577 -0.42258 0.0015387
0.28891 0.10618 0.83219 8.9891e-39 448.5 273 0 0 0 0.0368 -0.89893 -0.43655 0.0031723
0.29329 0.10618 0.83219 9.0352e-39 463 273 0 0 0 0.020935 -0.90518 -0.42451 0.0024394
0.29505 0.10629 0.83303 7.9749e-39 469.5 273 0 0 0 0.020286 -0.90466 -0.42564 0.0026249
0.29687 0.10695 0.83313 9.189e-39 329.67 273.67 0 0 0 0.011262 -0.90579 -0.42357 0.0028469
0.29836 0.10674 0.83275 8.8971e-39 368 273.5 0 0 0 0.0044275 -0.90735 -0.42036 0.0030046
0.24486 0.10872 0.83303 6.7303e-39 253 274.5 0 0 0 -0.4168 -0.19203 -0.88848 0.070482
0.24709 0.10863 0.83233 6.8917e-39 255.5 274.5 0 0 0 -0.41781 -0.24255 -0.87556 0.075532
0.29719 0.10813 0.83219 6.8225e-39 409 274 0 0 0 0.01128 -0.90655 -0.42194 0.0030188
0.24507 0.11058 0.83309 7.0806e-39 322.6 275 0 0 0 -0.45215 -0.11592 -0.88438 0.061721
0.24664 0.1106 0.83247 6.8225e-39 338.5 275 0 0 0 -0.43136 -0.13929 -0.89136 0.067258
0.24543 0.11266 0.83331 7.9058e-39 240.5 276 0 0 0 -0.46849 -0.040851 -0.88252 0.053343
0.24712 0.11303 0.83247 8.7125e-39 300.5 276 0 0 0 -0.46398 -0.037774 -0.88504 0.052114
0.24591 0.11412 0.83331 8.2054e-39 421 276 0 0 0 -0.48225 0.014423 -0.87591 0.043102
0.24685 0.11484 0.83317 8.021e-39 255.5 276.75 0 0 0 -0.47976 0.026687 -0.87699 0.041706
0.24888 0.11562 0.83238 8.6357e-39 263 277 0 0 0 -0.472 0.031308 -0.88104 0.041022
0.24746 0.11611 0.8336 8.2976e-39 291.5 277 0 0 0 -0.48167 0.067898 -0.87372 0.034996
0.24896 0.11723 0.83289 7.4218e-39 357.5 277.25 0 0 0 -0.47693 0.085369 -0.87479 0.031034
0.25077 0.11754 0.83219 7.1298e-39 266.33 277.67 0 0 0 -0.47457 0.077474 -0.8768 0.03437
0.24954 0.11902 0.8335 6.8225e-39 294 278 0 0 0 -0.48578 0.12986 -0.86438 0.023101
0.25111 0.11941 0.83275 7.6522e-39 349 278 0 0 0 -0.48492 0.13231 -0.86449 0.023014
0.24998 0.12152 0.83388 7.9749e-39 240 279 0 0 0 -0.49462 0.21289 -0.84263 0.0081039
0.25128 0.12144 0.83331 7.8136e-39 241.5 279 0 0 0 -0.49106 0.19595 -0.8488 0.012113
0.2524 0.12176 0.83219 8.7586e-39 298 279 0 0 0 -0.49055 0.19808 -0.8486 0.011644
0.25155 0.12328 0.83369 8.6664e-39 365.33 279.33 0 0 0 -0.49626 0.25402 -0.83018 0.0038872
0.25293 0.12324 0.83233 7.8136e-39 333 279.5 0 0 0 -0.494 0.23957 -0.8358 0.0060245
0.25435 0.12322 0.83219 7.5601e-39 341 279.5 0 0 0 -0.49437 0.22956 -0.83839 0.0075043
0.25314 0.12529 0.83303 7.7675e-39 269.5 280.5 0 0 0 -0.49842 0.2793 -0.82071 0.0019964
0.25492 0.12521 0.83247 8.0902e-39 271.5 280.5 0 0 0 -0.49911 0.27238 -0.82262 0.0026794
0.25331 0.12684 0.8336 8.0671e-39 292.5 281 0 0 0 -0.49732 0.29652 -0.81532 0.0013831
0.25517 0.12729 0.83331 7.6292e-39 375 281 0 0 0 -0.49813 0.29969 -0.81366 0.0013444
0.25629 0.1276 0.83219 6.9147e-39 457 281 0 0 0 -0.49827 0.29901 -0.81383 0.0013437
0.25526 0.12928 0.8336 9.6574e-39 313 282 0 0 0 -0.49699 0.30794 -0.81128 0.0011892
0.25683 0.12908 0.83233 9.934e-39 315 282 0 0 0 -0.49717 0.30583 -0.81197 0.0011091
0.25584 0.13079 0.83388 6.5459e-39 183 283 0 0 0 -0.49791 0.30874 -0.81041 0.0011934
0.25695 0.13109 0.83275 7.537e-39 242.5 283 0 0 0 -0.49892 0.30691 -0.81049 0.0011157
0.25862 0.1312 0.83238 7.6522e-39 263.67 283 0 0 0 -0.49937 0.30566 -0.81068 0.0010408
0.25721 0.1327 0.8336 7.2835e-39 455.5 283 0 0 0 -0.5015 0.30816 -0.80842 0.0012201
0.25907 0.13313 0.83331 8.2285e-39 360.5 283.5 0 0 0 -0.50177 0.30608 -0.80903 0.0011206
0.26068 0.13344 0.83219 8.7586e-39 265.5 284 0 0 0 -0.49873 0.30372 -0.8118 0.0010563
0.25941 0.13501 0.83388 8.2976e-39 345.33 284.33 0 0 0 -0.50392 0.30622 -0.80765 0.0012322
0.26085 0.13499 0.83275 8.2745e-39 319 284.5 0 0 0 -0.49969 0.30377 -0.81119 0.0011689
0.26213 0.1349 0.83219 7.9749e-39 320.5 284.5 0 0 0 -0.49418 0.30352 -0.81466 0.0011393
0.26103 0.13703 0.83331 7.7905e-39 289.5 285.5 0 0 0 -0.50092 0.30619 -0.80952 0.0012929
0.26252 0.13704 0.83238 7.0683e-39 263.67 285.67 0 0 0 -0.49315 0.30565 -0.81448 0.0013091
0.26169 0.13859 0.83388 6.5459e-39 348 286 0 0 0 -0.50006 0.30842 -0.80921 0.0014974
0.26289 0.13894 0.83303 7.0991e-39 252.5 286.5 0 0 0 -0.49387 0.30683 -0.8136 0.0014821
0.26447 0.13899 0.83238 7.7444e-39 222 286.67 0 0 0 -0.48398 0.30693 -0.81948 0.0014709
0.26326 0.14084 0.83369 7.4371e-39 342.33 287 0 0 0 -0.49397 0.31033 -0.81222 0.0017544
0.26475 0.14084 0.83275 7.6292e-39 368.5 287 0 0 0 -0.48096 0.30922 -0.8204 0.0018083
0.26521 0.14279 0.83369 9.8343e-39 304 288 0 0 0 -0.47944 0.31333 -0.81973 0.0022697
0.26688 0.14282 0.83241 9.6805e-39 342.4 288 0 0 0 -0.4582 0.31319 -0.83185 0.0029492
0.26687 0.14483 0.83331 8.482e-39 281.5 289 0 0 0 -0.45876 0.31964 -0.82908 0.0037514
0.26816 0.14474 0.83275 8.8047e-39 283 289 0 0 0 -0.43681 0.32387 -0.83923 0.0054692
0.26687 0.14678 0.83331 6.6842e-39 376 289.5 0 0 0 -0.45805 0.32209 -0.82852 0.0041439
0.26816 0.14669 0.83275 6.4998e-39 377.5 289.5 0 0 0 -0.43476 0.32537 -0.83971 0.0059489
0.26701 0.14881 0.83374 8.0211e-39 336 290.5 0 0 0 -0.45552 0.32741 -0.82783 0.0051093
0.26867 0.14889 0.83253 8.4267e-39 348.6 290.6 0 0 0 -0.41711 0.33232 -0.84592 0.0077228
0.2709 0.14999 0.83219 9.5883e-39 393 291 0 0 0 -0.36704 0.34208 -0.86502 0.011832
0.28891 0.14999 0.83219 7.8366e-39 411.5 291 0 0 0 0.11801 0.41265 -0.90321 0.03348
0.29037 0.14999 0.83219 8.6664e-39 413 291 0 0 0 0.21499 0.4078 -0.8874 0.036645
0.26754 0.1503 0.83388 9.1274e-39 389 291 0 0 0 -0.44199 0.33242 -0.83315 0.0064257
0.26893 0.15085 0.83289 7.9749e-39 258 291.75 0 0 0 -0.41034 0.33509 -0.84814 0.008326
0.2709 0.15097 0.83219 7.3757e-39 216 292 0 0 0 -0.36746 0.3406 -0.86543 0.011459
0.28998 0.15127 0.83388 7.56e-39 234 292 0 0 0 0.19901 0.40437 -0.89268 0.037781
0.26922 0.15258 0.83303 7.9288e-39 267 292.5 0 0 0 -0.40074 0.34376 -0.84926 0.0096708
0.27108 0.15285 0.83275 7.7137e-39 265.5 292.67 0 0 0 -0.36327 0.34467 -0.86558 0.011988
0.28524 0.1536 0.83238 8.3284e-39 302.67 293 0 0 0 -0.029942 0.40131 -0.91545 0.034179
0.28719 0.15327 0.83238 7.6215e-39 256.67 293 0 0 0 0.050959 0.40589 -0.9125 0.036738
0.26949 0.1542 0.83388 9.0352e-39 334 293 0 0 0 -0.40474 0.34657 -0.84621 0.0098106
0.27091 0.15467 0.83374 7.3296e-39 252 293.5 0 0 0 -0.38019 0.34769 -0.85707 0.011586
0.27258 0.15522 0.83238 7.0069e-39 213 294 0 0 0 -0.33008 0.35246 -0.87568 0.014278
0.27479 0.15534 0.83219 7.2835e-39 236.5 294 0 0 0 -0.27939 0.36578 -0.88778 0.017241
0.28498 0.15525 0.83256 6.6073e-39 225.67 294 0 0 0 -0.022094 0.3955 -0.9182 0.03684
0.28696 0.15464 0.8336 8.2055e-39 271 293.5 0 0 0 0.040835 0.39862 -0.91621 0.037119
0.27145 0.15615 0.83388 7.1913e-39 296 294 0 0 0 -0.35815 0.35401 -0.86395 0.013909
0.27307 0.15694 0.83286 7.7997e-39 398 294.2 0 0 0 -0.31666 0.3652 -0.87542 0.015402
0.27488 0.15735 0.83247 7.4218e-39 380 294.5 0 0 0 -0.26928 0.37087 -0.88879 0.018326
0.27869 0.15778 0.83219 7.0069e-39 294 295 0 0 0 -0.19875 0.37128 -0.907 0.022359
0.28306 0.1573 0.83219 7.514e-39 228.75 295 0 0 0 -0.094935 0.38339 -0.9187 0.02853
0.28511 0.15695 0.83294 7.9288e-39 267 294.67 0 0 0 -0.02904 0.38939 -0.92061 0.036635
0.28657 0.15664 0.83388 7.7905e-39 251.5 294.5 0 0 0 0.01337 0.39003 -0.92071 0.037192
0.2733 0.15854 0.8336 7.9749e-39 379 295 0 0 0 -0.31248 0.3673 -0.87604 0.01602
0.27527 0.15913 0.83289 7.7675e-39 425.25 295.25 0 0 0 -0.26159 0.36565 -0.89324 0.018943
0.27732 0.1593 0.83247 8.0902e-39 380.5 295.5 0 0 0 -0.21224 0.36599 -0.90609 0.021929
0.27922 0.15927 0.83233 7.998e-39 382.5 295.5 0 0 0 -0.18224 0.36965 -0.91113 0.022163
0.28112 0.15924 0.83219 7.2143e-39 219.5 296 0 0 0 -0.13461 0.37413 -0.91756 0.025549
0.28316 0.1593 0.83247 7.3065e-39 221.5 296 0 0 0 -0.091665 0.37891 -0.92088 0.029273
0.28491 0.15946 0.83331 7.2835e-39 223 296 0 0 0 -0.02512 0.3819 -0.92386 0.036532
0.28608 0.15859 0.83388 7.56e-39 227 295.5 0 0 0 0.018223 0.3889 -0.9211 0.039128
0.27486 0.16005 0.83388 8.2976e-39 283.5 296 0 0 0 -0.27916 0.36753 -0.88712 0.019133
0.27685 0.16128 0.8335 7.5293e-39 375 296.33 0 0 0 -0.22185 0.36641 -0.90362 0.022788
0.27891 0.16133 0.83343 7.8735e-39 380 296.4 0 0 0 -0.19051 0.36882 -0.90977 0.022194
0.28109 0.16144 0.83297 8.3714e-39 351.8 296.6 0 0 0 -0.13946 0.37267 -0.91743 0.025188
0.2834 0.16138 0.83317 8.2745e-39 373 296.5 0 0 0 -0.05116 0.37345 -0.92624 0.03621
0.2851 0.16151 0.83388 8.021e-39 374.5 296.5 0 0 0 0.0013766 0.37241 -0.92807 0.039449
0.28608 0.16054 0.83388 7.4678e-39 382.5 296 0 0 0 0.034595 0.38254 -0.92329 0.04327
0.28071 0.16298 0.83388 6.7764e-39 422.5 297 0 0 0 -0.15264 0.37222 -0.91551 0.025084
0.28267 0.16298 0.83388 7.053e-39 424.5 297 0 0 0 -0.077553 0.36926 -0.92608 0.031878
0.28949 0.16981 0.83388 7.053e-39 158.5 301 0 0 0 0.25121 0.34148 -0.9057 0.054005
0.28998 0.17078 0.83388 8.3898e-39 283 301 0 0 0 0.25232 0.35066 -0.90187 0.047798
0.24544 0.10165 0.835 8.8508e-39 373 271 0 0 0 -0.2169 -0.65163 -0.72687 0.077159
0.24641 0.10165 0.835 9.2196e-39 374 271 0 0 0 -0.20297 -0.66238 -0.72115 0.076084
0.24321 0.10331 0.83519 7.6522e-39 253 272 0 0 0 -0.29493 -0.54596 -0.78418 0.084086
0.24429 0.10256 0.83444 7.3757e-39 171 272 0 0 0 -0.27696 -0.57035 -0.7733 0.081851
0.25406 0.10256 0.83444 6.5459e-39 181 272 0 0 0 -0.15584 -0.74002 -0.65428 0.058204
0.25716 0.10361 0.835 9.7727e-39 340 272 0 0 0 -0.1394 -0.74747 -0.64951 0.054921
0.25929 0.10368 0.83557 8.482e-39 342 272 0 0 0 -0.12509 -0.76652 -0.62992 0.048941
0.24307 0.10511 0.83528 9.6804e-39 348 272.5 0 0 0 -0.35908 -0.41006 -0.8384 0.083716
0.26138 0.10451 0.83444 6.8225e-39 486.5 272 0 0 0 -0.1191 -0.76072 -0.63806 0.051636
0.2636 0.10511 0.83528 6.9147e-39 378.5 272.5 0 0 0 -0.1067 -0.77834 -0.61871 0.045577
0.2648 0.10549 0.83444 7.2835e-39 270 273 0 0 0 -0.10897 -0.77211 -0.62608 0.048022
0.26687 0.10554 0.83482 6.761e-39 272 273 0 0 0 -0.095967 -0.78959 -0.60608 0.042122
0.2687 0.10549 0.83444 6.5459e-39 274 273 0 0 0 -0.083892 -0.80131 -0.59234 0.038214
0.27123 0.10553 0.83472 6.4076e-39 276.5 273 0 0 0 -0.064281 -0.82983 -0.5543 0.027408
0.27328 0.10508 0.835 6.6381e-39 216 273 0 0 0 -0.038226 -0.85967 -0.50942 0.017007
0.27514 0.10553 0.83472 6.7303e-39 280.5 273 0 0 0 -0.027428 -0.87045 -0.4915 0.013836
0.27718 0.10508 0.835 7.2374e-39 220 273 0 0 0 0.011852 -0.89714 -0.44159 0.0046334
0.27933 0.10466 0.83557 7.5139e-39 159.5 273 0 0 0 0.028775 -0.90648 -0.42126 0.0015332
0.28128 0.10466 0.83557 7.2835e-39 161.5 273 0 0 0 0.030004 -0.90659 -0.42094 0.0014807
0.28282 0.10521 0.83482 7.7137e-39 246.67 273 0 0 0 0.028274 -0.90786 -0.41833 0.0014148
0.28491 0.10553 0.83472 7.1452e-39 290.5 273 0 0 0 0.028984 -0.90649 -0.42122 0.0014775
0.28705 0.1056 0.83528 7.8827e-39 292.5 273 0 0 0 0.027383 -0.90693 -0.42039 0.0015093
0.28891 0.10508 0.835 7.7905e-39 233.5 273 0 0 0 0.026176 -0.90512 -0.42436 0.0016411
0.29096 0.10463 0.83528 7.0069e-39 174.5 273 0 0 0 0.021871 -0.90479 -0.4253 0.0020034
0.29272 0.10455 0.83472 7.1452e-39 176.5 273 0 0 0 0.021889 -0.90441 -0.42611 0.002139
0.29477 0.10458 0.835 6.6842e-39 178.5 273 0 0 0 0.017032 -0.90347 -0.42832 0.0024422
0.29663 0.10553 0.83472 8.5742e-39 302.5 273 0 0 0 0.014405 -0.90464 -0.42594 0.0026248
0.29956 0.10553 0.83472 8.3437e-39 336.5 273 0 0 0 0.0034344 -0.90582 -0.42365 0.0031076
0.24307 0.10706 0.83528 7.3757e-39 300.5 273.5 0 0 0 -0.39611 -0.30215 -0.86707 0.080216
0.29819 0.10654 0.835 7.1913e-39 477 273 0 0 0 0.0074854 -0.90487 -0.42561 0.0029955
0.24303 0.109 0.83514 6.6381e-39 250.5 274.5 0 0 0 -0.43463 -0.18825 -0.88071 0.071362
0.24365 0.11101 0.83557 8.0672e-39 334.5 275 0 0 0 -0.45219 -0.11335 -0.88469 0.065629
0.24429 0.11135 0.83444 6.7303e-39 406 275 0 0 0 -0.45764 -0.091432 -0.88442 0.060425
0.24454 0.11293 0.83528 7.6522e-39 239 276 0 0 0 -0.4728 -0.037985 -0.88035 0.054386
0.24511 0.11468 0.835 7.4371e-39 345.67 276.33 0 0 0 -0.48181 0.029449 -0.87578 0.042274
0.24552 0.11683 0.83528 7.7444e-39 349.5 277 0 0 0 -0.49344 0.096046 -0.86446 0.028609
0.24674 0.11696 0.835 7.3142e-39 371 277 0 0 0 -0.49029 0.087484 -0.86716 0.031487
0.24756 0.11834 0.83557 7.1913e-39 185 278 0 0 0 -0.49277 0.12819 -0.86067 0.023424
0.24858 0.11886 0.83463 6.4537e-39 251.67 278 0 0 0 -0.48936 0.14007 -0.86076 0.021701
0.24913 0.1206 0.83538 6.6381e-39 333 278.33 0 0 0 -0.49577 0.18625 -0.84825 0.01264
0.25015 0.12306 0.83444 9.0352e-39 432 279 0 0 0 -0.49776 0.25878 -0.82781 0.0029486
0.25081 0.12461 0.835 8.1132e-39 296.5 280 0 0 0 -0.49882 0.27999 -0.82023 0.0017793
0.2521 0.12502 0.83444 8.8508e-39 367 280 0 0 0 -0.49813 0.28236 -0.81984 0.0018242
0.25098 0.12616 0.83557 6.131e-39 166.5 281 0 0 0 -0.49821 0.29318 -0.81598 0.0013981
0.25236 0.12661 0.83528 6.8224e-39 229.5 281 0 0 0 -0.49722 0.29715 -0.81515 0.0012497
0.25406 0.12794 0.83444 6.8225e-39 454 281 0 0 0 -0.49731 0.30246 -0.81314 0.0012289
0.25325 0.12852 0.835 7.3296e-39 347.5 281.5 0 0 0 -0.49635 0.30409 -0.81313 0.0011536
0.25414 0.12946 0.83472 8.9429e-39 311.5 282 0 0 0 -0.49698 0.30852 -0.81107 0.0011917
0.25342 0.13056 0.83557 7.8827e-39 279.5 282.5 0 0 0 -0.49594 0.30988 -0.81118 0.0011832
0.25472 0.13096 0.835 6.5459e-39 181.5 283 0 0 0 -0.49725 0.3108 -0.81003 0.0012229
0.25601 0.13185 0.83444 8.6664e-39 299 283 0 0 0 -0.49962 0.30937 -0.80912 0.0012526
0.25538 0.13203 0.83557 8.2976e-39 298 283 0 0 0 -0.49838 0.31017 -0.80958 0.0012519
0.25692 0.13365 0.835 9.0814e-39 309.25 283.75 0 0 0 -0.50163 0.30949 -0.80782 0.0013081
0.25733 0.13496 0.83557 7.7444e-39 399 284 0 0 0 -0.50444 0.3102 -0.8058 0.0013701
0.25841 0.13549 0.83481 7.1298e-39 287.67 284.67 0 0 0 -0.50504 0.30835 -0.80614 0.0013457
0.25895 0.13723 0.83512 7.4863e-39 303.4 285.4 0 0 0 -0.50752 0.30987 -0.80399 0.0014218
0.26009 0.1378 0.835 6.8225e-39 205 286 0 0 0 -0.50652 0.30929 -0.80485 0.0014164
0.25929 0.13887 0.83557 6.7303e-39 345 286 0 0 0 -0.50931 0.31258 -0.8018 0.0014822
0.26103 0.13924 0.83486 6.8686e-39 250 286.5 0 0 0 -0.50707 0.30992 -0.80426 0.0015159
0.26145 0.14109 0.83519 7.8673e-39 340 287 0 0 0 -0.5068 0.31102 -0.804 0.0016741
0.26244 0.14166 0.83472 7.4218e-39 438.5 287 0 0 0 -0.50212 0.31167 -0.80668 0.0018247
0.26325 0.14309 0.83512 9.9203e-39 310.6 288 0 0 0 -0.49887 0.3152 -0.80733 0.0021153
0.26497 0.14366 0.835 9.5883e-39 394 288 0 0 0 -0.48808 0.31702 -0.81319 0.002425
0.2632 0.14523 0.83557 6.4998e-39 277 289 0 0 0 -0.50011 0.31693 -0.80588 0.0023579
0.26526 0.14491 0.83514 7.2604e-39 245.25 289 0 0 0 -0.48534 0.31859 -0.81421 0.0028087
0.2632 0.14718 0.83557 7.6522e-39 371.5 289.5 0 0 0 -0.50031 0.32131 -0.80402 0.0025297
0.26595 0.14708 0.835 7.2374e-39 374.5 289.5 0 0 0 -0.47424 0.32242 -0.81923 0.0036485
0.2632 0.14865 0.83557 9.3118e-39 419 290 0 0 0 -0.50027 0.3228 -0.80345 0.002522
0.26595 0.14855 0.835 8.6664e-39 422 290 0 0 0 -0.47425 0.32442 -0.81844 0.0039608
0.26613 0.14962 0.83557 7.1913e-39 247 291 0 0 0 -0.47009 0.32978 -0.8187 0.0047149
0.26673 0.15109 0.835 7.7998e-39 281.6 291.6 0 0 0 -0.46236 0.33179 -0.82228 0.0051411
0.26751 0.1525 0.83528 9.5884e-39 352.5 292 0 0 0 -0.44287 0.34045 -0.82943 0.0071941
0.26856 0.1531 0.835 7.7444e-39 236.33 292.67 0 0 0 -0.4252 0.34488 -0.83682 0.0083747
0.26946 0.15495 0.83528 7.9288e-39 250 293.5 0 0 0 -0.41201 0.35103 -0.84085 0.0095188
0.27079 0.15683 0.83486 7.4448e-39 379.5 294 0 0 0 -0.37901 0.35616 -0.85411 0.011857
0.28725 0.15723 0.83444 5.9927e-39 170 295 0 0 0 0.073903 0.3935 -0.91635 0.044985
0.27102 0.15842 0.83557 8.8508e-39 285 295 0 0 0 -0.37766 0.36506 -0.85094 0.012769
0.27247 0.15864 0.835 8.6357e-39 347.33 295 0 0 0 -0.3392 0.36708 -0.86614 0.015581
0.28764 0.15842 0.83557 7.3757e-39 302 295 0 0 0 0.097104 0.38567 -0.91751 0.049163
0.27356 0.16067 0.83538 7.7137e-39 328.67 296 0 0 0 -0.31491 0.36876 -0.87455 0.017225
0.27505 0.16114 0.83444 7.2835e-39 424.5 296 0 0 0 -0.27738 0.36812 -0.88744 0.019073
0.27533 0.16228 0.83528 9.6344e-39 269.5 297 0 0 0 -0.27727 0.37118 -0.8862 0.018963
0.27702 0.16287 0.835 7.3142e-39 369.33 297 0 0 0 -0.23055 0.36805 -0.90077 0.023134
0.27924 0.16326 0.83528 6.8686e-39 420.5 297 0 0 0 -0.18523 0.37351 -0.90894 0.025306
0.28491 0.16315 0.83472 6.7764e-39 426.5 297 0 0 0 0.013878 0.37298 -0.92774 0.042802
0.28627 0.16211 0.83444 8.021e-39 281 297 0 0 0 0.04763 0.37464 -0.92595 0.043469
0.27982 0.16429 0.83557 7.56e-39 254 298 0 0 0 -0.18141 0.37364 -0.90966 0.025837
0.28109 0.16467 0.835 8.0441e-39 327.5 298 0 0 0 -0.1483 0.3682 -0.91784 0.025463
0.28305 0.16467 0.835 7.998e-39 329.5 298 0 0 0 -0.052946 0.37007 -0.9275 0.038269
0.28497 0.16458 0.83538 7.7137e-39 307.33 298 0 0 0 0.016572 0.36889 -0.92933 0.043442
0.28373 0.16624 0.83557 7.1913e-39 221 299 0 0 0 -0.010925 0.36668 -0.93028 0.04242
0.2892 0.16797 0.83444 7.3757e-39 194 300 0 0 0 0.22261 0.34822 -0.9106 0.05069
0.29057 0.16918 0.83557 9.6805e-39 340 300 0 0 0 0.38836 0.32988 -0.86044 0.061994
0.2893 0.17145 0.83472 7.4218e-39 353 301 0 0 0 0.20509 0.35938 -0.91038 0.048394
0.29096 0.17163 0.83481 7.7751e-39 378.33 301 0 0 0 0.31408 0.33554 -0.88812 0.054606
0.29096 0.17303 0.83528 7.4218e-39 236.5 302 0 0 0 0.29711 0.36047 -0.88419 0.049158
0.24088 0.102 0.83784 6.6381e-39 367.5 271 0 0 0 -0.27867 -0.58736 -0.75984 0.083339
0.24316 0.10193 0.83727 7.4064e-39 370 271 0 0 0 -0.24769 -0.62555 -0.73982 0.079702
0.24479 0.10179 0.83613 8.2054e-39 372 271 0 0 0 -0.21783 -0.64912 -0.72883 0.078621
0.24773 0.10179 0.83613 9.6805e-39 375 271 0 0 0 -0.17846 -0.69529 -0.69622 0.07132
0.24919 0.10179 0.83613 1.0003e-38 376.5 271 0 0 0 -0.16989 -0.71239 -0.6809 0.067248
0.25132 0.10186 0.8367 9.7266e-39 378.5 271 0 0 0 -0.15227 -0.73701 -0.65851 0.060622
0.25336 0.1019 0.83698 9.1735e-39 380.5 271 0 0 0 -0.13342 -0.76635 -0.62842 0.050088
0.2559 0.10193 0.83727 8.7586e-39 383 271 0 0 0 -0.10946 -0.79198 -0.60066 0.040693
0.23892 0.10347 0.83784 7.8136e-39 226 272 0 0 0 -0.35023 -0.46139 -0.81514 0.083046
0.24104 0.10333 0.8367 7.2066e-39 229.17 272 0 0 0 -0.31971 -0.51062 -0.79816 0.084187
0.24283 0.10277 0.83613 6.2693e-39 169 272 0 0 0 -0.2864 -0.55759 -0.77915 0.080788
0.2567 0.10284 0.8367 7.0069e-39 183 272 0 0 0 -0.12494 -0.77038 -0.62522 0.047673
0.25924 0.10337 0.83698 8.4359e-39 263.5 272 0 0 0 -0.10377 -0.78648 -0.60883 0.041861
0.26129 0.10389 0.83727 8.4359e-39 343.5 272 0 0 0 -0.096989 -0.79502 -0.59878 0.039038
0.26315 0.10385 0.83698 8.6664e-39 345.5 272 0 0 0 -0.078464 -0.80696 -0.58537 0.034667
0.26538 0.10396 0.83784 7.7905e-39 347.5 272 0 0 0 -0.05995 -0.83106 -0.55294 0.02645
0.26734 0.10396 0.83784 6.6842e-39 349.5 272 0 0 0 -0.047184 -0.84504 -0.53262 0.021447
0.26921 0.10393 0.83756 6.6842e-39 351.5 272 0 0 0 -0.028968 -0.85782 -0.51314 0.015596
0.27117 0.10393 0.83756 6.4076e-39 353.5 272 0 0 0 -0.0058184 -0.87389 -0.48609 0.010162
0.27314 0.10393 0.83756 6.7764e-39 355.5 272 0 0 0 0.015099 -0.88992 -0.45586 0.0048641
0.27509 0.10393 0.83756 7.2374e-39 357.5 272 0 0 0 0.026069 -0.90065 -0.43376 0.0019793
0.27705 0.10393 0.83756 6.592e-39 359.5 272 0 0 0 0.025393 -0.90194 -0.43111 0.0017443
0.27883 0.10385 0.83698 6.9147e-39 361.5 272 0 0 0 0.030496 -0.90374 -0.42699 0.0016374
0.28069 0.10382 0.8367 6.6842e-39 363.5 272 0 0 0 0.030337 -0.90447 -0.42545 0.0015004
0.28284 0.10389 0.83727 6.3154e-39 365.5 272 0 0 0 0.031033 -0.90512 -0.42402 0.0014527
0.28479 0.10389 0.83727 6.5459e-39 367.5 272 0 0 0 0.028489 -0.90498 -0.42449 0.0014051
0.28695 0.10396 0.83784 7.6061e-39 369.5 272 0 0 0 0.025729 -0.90315 -0.42855 0.0015704
0.28891 0.10396 0.83784 8.6203e-39 371.5 272 0 0 0 0.021839 -0.90254 -0.43005 0.0018123
0.29087 0.10396 0.83784 9.2656e-39 373.5 272 0 0 0 0.019076 -0.90152 -0.43231 0.0019926
0.29273 0.10393 0.83756 9.9109e-39 375.5 272 0 0 0 0.01915 -0.90232 -0.43064 0.0021368
0.29449 0.10385 0.83698 1.0003e-38 377.5 272 0 0 0 0.0152 -0.90271 -0.42999 0.0023561
0.29675 0.10396 0.83784 9.45e-39 379.5 272 0 0 0 0.013781 -0.90237 -0.43075 0.0026184
0.29822 0.10396 0.83784 8.943e-39 381 272 0 0 0 0.011456 -0.90201 -0.43156 0.0028416
0.30067 0.10396 0.83784 8.8047e-39 383.5 272 0 0 0 0.0050454 -0.90289 -0.42984 0.0032642
0.30214 0.10396 0.83784 9.0352e-39 385 272 0 0 0 0.0018221 -0.90409 -0.42734 0.0034296
0.23892 0.10543 0.83784 9.5883e-39 343 272.5 0 0 0 -0.40008 -0.34451 -0.84927 0.081565
0.24104 0.10529 0.8367 1.0126e-38 345.5 272.5 0 0 0 -0.37398 -0.38721 -0.84274 0.082893
0.26502 0.1048 0.8367 7.1913e-39 144.5 273 0 0 0 -0.088012 -0.80642 -0.58476 0.035707
0.26698 0.1048 0.8367 7.053e-39 146.5 273 0 0 0 -0.073102 -0.82132 -0.56576 0.03063
0.26885 0.10476 0.83642 6.4998e-39 148.5 273 0 0 0 -0.062693 -0.83358 -0.54883 0.02582
0.27071 0.10473 0.83613 6.592e-39 150.5 273 0 0 0 -0.041722 -0.84948 -0.52596 0.01968
0.27237 0.1048 0.8367 6.7303e-39 152 273 0 0 0 -0.017806 -0.87111 -0.49077 0.011831
0.27472 0.10476 0.83642 7.6983e-39 154.5 273 0 0 0 0.0096441 -0.89252 -0.45091 0.0048274
0.27667 0.10476 0.83642 7.9749e-39 156.5 273 0 0 0 0.023684 -0.90127 -0.43262 0.0021804
0.28392 0.10473 0.83613 6.4537e-39 167 273 0 0 0 0.030027 -0.90671 -0.42067 0.0013918
0.2849 0.10473 0.83613 6.3615e-39 168 273 0 0 0 0.028446 -0.90632 -0.42164 0.0014442
0.28656 0.1048 0.8367 6.5459e-39 169.5 273 0 0 0 0.02658 -0.90526 -0.42402 0.0014602
0.28842 0.10476 0.83642 7.3296e-39 171.5 273 0 0 0 0.022048 -0.90479 -0.42529 0.0017168
0.29713 0.10473 0.83613 6.5459e-39 180.5 273 0 0 0 0.013133 -0.90307 -0.4293 0.0027019
0.29912 0.10513 0.8367 7.2835e-39 233.33 273 0 0 0 0.0067984 -0.90314 -0.42929 0.0030058
0.30055 0.10473 0.83613 7.3757e-39 184 273 0 0 0 0.0014522 -0.90455 -0.42636 0.0032139
0.23908 0.10723 0.83784 8.6357e-39 329 273.33 0 0 0 -0.43932 -0.224 -0.86995 0.075476
0.24104 0.10724 0.8367 8.2669e-39 298 273.5 0 0 0 -0.42433 -0.25993 -0.8674 0.077872
0.2411 0.10923 0.83689 6.9147e-39 248 274.5 0 0 0 -0.44254 -0.16441 -0.88155 0.070293
0.24137 0.11131 0.83784 8.4359e-39 331.5 275 0 0 0 -0.47179 -0.084252 -0.87768 0.061048
0.24242 0.11112 0.83642 8.5741e-39 333 275 0 0 0 -0.47494 -0.095769 -0.87479 0.060864
0.24303 0.11313 0.8368 7.975e-39 237 276 0 0 0 -0.47821 -0.025428 -0.87788 0.052995
0.24297 0.11505 0.83727 7.0438e-39 327.8 276.4 0 0 0 -0.49403 0.053556 -0.8678 0.037147
0.24446 0.11557 0.8367 6.9147e-39 196.5 277 0 0 0 -0.49046 0.048724 -0.8701 0.040202
0.24284 0.11719 0.83784 6.9147e-39 346 277 0 0 0 -0.50627 0.12704 -0.85297 0.023223
0.24459 0.11709 0.83713 7.7214e-39 348 277 0 0 0 -0.49909 0.10409 -0.86027 0.02793
0.24333 0.11866 0.83784 6.2693e-39 180 278 0 0 0 -0.51326 0.17432 -0.84034 0.013033
0.24525 0.11894 0.83704 6.2509e-39 221.4 278 0 0 0 -0.50492 0.16857 -0.84655 0.01463
0.24713 0.1191 0.83632 6.3308e-39 249.67 278 0 0 0 -0.49678 0.15005 -0.85481 0.019718
0.24529 0.12111 0.83784 7.2374e-39 290 278.5 0 0 0 -0.51105 0.23568 -0.82661 0.003935
0.24685 0.12092 0.83716 6.6012e-39 315.2 278.4 0 0 0 -0.50643 0.22058 -0.83359 0.0061852
0.24838 0.12144 0.8367 6.4076e-39 182.5 279 0 0 0 -0.50304 0.22532 -0.83437 0.0062214
0.24687 0.12288 0.83765 8.3283e-39 336.33 279 0 0 0 -0.50691 0.26796 -0.81929 0.0019201
0.24887 0.12291 0.8367 8.7125e-39 361.5 279 0 0 0 -0.50316 0.26703 -0.8219 0.0021515
0.24725 0.12454 0.83784 8.021e-39 223 280 0 0 0 -0.50486 0.28216 -0.81578 0.00155
0.24901 0.12493 0.83718 8.5588e-39 294 280 0 0 0 -0.50258 0.2864 -0.81571 0.0014862
0.24921 0.127 0.83784 6.9147e-39 225.5 281 0 0 0 -0.49926 0.29788 -0.81364 0.0013232
0.25058 0.12707 0.8367 7.2834e-39 258 281 0 0 0 -0.49762 0.29867 -0.81436 0.0012432
0.25092 0.12883 0.83699 7.5447e-39 344.5 281.5 0 0 0 -0.49637 0.30609 -0.81236 0.0011951
0.25262 0.12869 0.83613 7.3757e-39 346.5 281.5 0 0 0 -0.49575 0.30665 -0.81253 0.0011418
0.25123 0.13075 0.83738 8.0764e-39 295.8 282.4 0 0 0 -0.49498 0.31137 -0.8112 0.00119
0.25279 0.13074 0.8367 7.9288e-39 277.5 282.5 0 0 0 -0.49401 0.31108 -0.8119 0.0011664
0.25117 0.13239 0.83784 7.9288e-39 293 283 0 0 0 -0.49552 0.31367 -0.80998 0.0012307
0.25293 0.13277 0.83718 7.852e-39 372.5 283 0 0 0 -0.49529 0.31348 -0.8102 0.001235
0.25496 0.1328 0.83632 7.4064e-39 400.67 283 0 0 0 -0.49722 0.31197 -0.8096 0.0012178
0.25326 0.13471 0.83761 8.9062e-39 311.4 284 0 0 0 -0.49683 0.31461 -0.80882 0.0012874
0.25528 0.13467 0.83684 8.8046e-39 327.5 284 0 0 0 -0.4993 0.31177 -0.80839 0.0013043
0.25653 0.13505 0.83613 7.2835e-39 398 284 0 0 0 -0.50204 0.31084 -0.80706 0.0013429
0.25522 0.13666 0.83761 7.5416e-39 282.4 285 0 0 0 -0.5005 0.31618 -0.80593 0.0014154
0.2571 0.13656 0.83642 7.3296e-39 298.5 285 0 0 0 -0.50487 0.31161 -0.80499 0.0014235
0.2555 0.13822 0.83756 7.1913e-39 199 286 0 0 0 -0.50325 0.31741 -0.80374 0.0015162
0.25704 0.13874 0.83716 8.5373e-39 285.8 286 0 0 0 -0.5068 0.31616 -0.802 0.0015047
0.25897 0.13945 0.83613 7.8827e-39 412.5 286 0 0 0 -0.51062 0.31359 -0.80058 0.0014663
0.26044 0.13994 0.83613 7.0991e-39 152 287 0 0 0 -0.51012 0.31141 -0.80175 0.0015733
0.25745 0.14067 0.83756 6.131e-39 376.75 286.5 0 0 0 -0.51004 0.31755 -0.79939 0.0015892
0.25906 0.14097 0.83642 7.2143e-39 371.25 286.75 0 0 0 -0.51134 0.31524 -0.79947 0.0015706
0.26044 0.14092 0.83613 8.2976e-39 290 287 0 0 0 -0.51078 0.31372 -0.80043 0.0016282
0.25705 0.14219 0.83784 9.1274e-39 432 287 0 0 0 -0.51133 0.31813 -0.79833 0.0016461
0.25884 0.14258 0.83727 8.943e-39 342.5 287.5 0 0 0 -0.51328 0.31776 -0.79723 0.0016498
0.26107 0.14295 0.83656 9.0581e-39 333.25 287.75 0 0 0 -0.5114 0.31645 -0.79895 0.0017644
0.2624 0.14386 0.83613 8.8508e-39 391 288 0 0 0 -0.50682 0.31617 -0.80198 0.002066
0.25942 0.14459 0.83756 7.076e-39 296 288.5 0 0 0 -0.51476 0.31844 -0.796 0.0017221
0.26118 0.14474 0.83746 7.3757e-39 267.33 288.67 0 0 0 -0.51408 0.318 -0.79662 0.0017903
0.26249 0.14537 0.83642 6.8686e-39 276 289 0 0 0 -0.50635 0.31789 -0.8016 0.0021687
0.26485 0.14581 0.83613 7.3296e-39 346.5 289 0 0 0 -0.48957 0.31959 -0.81128 0.0027664
0.25961 0.1464 0.83765 8.2054e-39 379.33 289 0 0 0 -0.51488 0.31999 -0.7953 0.0017889
0.26149 0.14685 0.83761 8.1132e-39 376.6 289.2 0 0 0 -0.51236 0.3208 -0.7966 0.0019786
0.26258 0.14738 0.8367 8.0671e-39 370.5 289.5 0 0 0 -0.50537 0.32173 -0.80068 0.0023186
0.26485 0.14728 0.83613 7.3987e-39 373 289.5 0 0 0 -0.4902 0.32121 -0.81027 0.0029327
0.25999 0.14856 0.83784 8.8508e-39 346 290 0 0 0 -0.51599 0.32111 -0.79413 0.0018711
0.26124 0.14869 0.83765 8.9737e-39 370.33 290 0 0 0 -0.5123 0.32209 -0.79612 0.0019968
0.26285 0.14947 0.83651 8.2054e-39 301.67 290.67 0 0 0 -0.50336 0.32424 -0.80094 0.0025539
0.26485 0.14924 0.83613 7.998e-39 333 290.5 0 0 0 -0.49046 0.3251 -0.80855 0.0031504
0.25999 0.15101 0.83784 7.7137e-39 274.33 291.33 0 0 0 -0.51498 0.32115 -0.79477 0.0019126
0.26195 0.15101 0.83784 7.7444e-39 276.33 291.33 0 0 0 -0.50889 0.32423 -0.79744 0.0021976
0.26302 0.15127 0.83656 8.1824e-39 295 291.5 0 0 0 -0.50222 0.32586 -0.80099 0.0026168
0.26502 0.1513 0.8367 7.9288e-39 297 291.5 0 0 0 -0.48759 0.32905 -0.80869 0.0034186
0.26324 0.15336 0.83727 7.7905e-39 259.5 292.5 0 0 0 -0.50073 0.32981 -0.80031 0.0027372
0.26516 0.15333 0.83713 7.6983e-39 261.5 292.5 0 0 0 -0.48416 0.33321 -0.80905 0.0038519
0.2667 0.15335 0.83632 7.7137e-39 234 292.67 0 0 0 -0.46498 0.33697 -0.81868 0.0052181
0.29077 0.15292 0.83756 7.3757e-39 375.5 292 0 0 0 0.35388 0.3933 -0.84858 0.048426
0.26391 0.15493 0.83784 7.4678e-39 305 293 0 0 0 -0.49439 0.33399 -0.80252 0.0031258
0.26538 0.15493 0.83784 8.0671e-39 306.5 293 0 0 0 -0.48332 0.33618 -0.80832 0.0037587
0.26716 0.15532 0.83727 7.4909e-39 392 293 0 0 0 -0.45357 0.34418 -0.82208 0.0064286
0.26866 0.15531 0.83632 7.2527e-39 421.67 293 0 0 0 -0.42272 0.34961 -0.83611 0.008814
0.2673 0.15735 0.8377 6.7995e-39 367 294 0 0 0 -0.44689 0.34646 -0.82478 0.0068799
0.26899 0.1572 0.83684 7.03e-39 369 294 0 0 0 -0.41714 0.35344 -0.8373 0.0096049
0.27022 0.15755 0.83613 7.8366e-39 462 294 0 0 0 -0.3953 0.35857 -0.84567 0.010831
0.26783 0.15885 0.83784 8.2976e-39 281 295 0 0 0 -0.4337 0.35277 -0.82913 0.0082916
0.26921 0.15929 0.83756 7.7675e-39 359.5 295 0 0 0 -0.4087 0.3584 -0.83935 0.010755
0.27073 0.15929 0.8367 8.2054e-39 405.67 295 0 0 0 -0.38306 0.36557 -0.84831 0.012548
0.27218 0.15951 0.83613 7.9288e-39 468 295 0 0 0 -0.34797 0.36957 -0.86159 0.01547
0.26979 0.16081 0.83784 8.6664e-39 277 296 0 0 0 -0.39529 0.36257 -0.84397 0.011766
0.27104 0.16116 0.83713 7.537e-39 349 296 0 0 0 -0.37006 0.3713 -0.85158 0.013773
0.27257 0.16117 0.83632 7.2527e-39 374.33 296 0 0 0 -0.3498 0.37538 -0.85833 0.013782
0.28803 0.16157 0.8367 7.1913e-39 471 296 0 0 0 0.19784 0.37899 -0.90401 0.059483
0.27136 0.16306 0.83765 8.4205e-39 313.67 297 0 0 0 -0.36371 0.3731 -0.85353 0.01399
0.27304 0.16315 0.83727 7.9058e-39 340 297 0 0 0 -0.34482 0.37843 -0.859 0.014063
0.27453 0.16313 0.83632 7.222e-39 366.33 297 0 0 0 -0.29781 0.37631 -0.87732 0.018933
0.27609 0.16342 0.83613 6.0849e-39 417 297 0 0 0 -0.25822 0.37241 -0.89142 0.023724
0.28705 0.16353 0.8367 6.6381e-39 428 297 0 0 0 0.13597 0.37474 -0.9171 0.057556
0.27175 0.16473 0.83784 6.9147e-39 245 298 0 0 0 -0.35281 0.37629 -0.85669 0.014127
0.27318 0.16519 0.8377 8.2285e-39 318.5 298 0 0 0 -0.33665 0.37991 -0.86159 0.014047
0.2749 0.16506 0.83698 8.8968e-39 320.5 298 0 0 0 -0.29525 0.38016 -0.87653 0.018798
0.27672 0.16497 0.83656 8.6664e-39 322.5 298 0 0 0 -0.25563 0.37948 -0.88918 0.021293
0.27863 0.16495 0.83641 8.3207e-39 324.5 298 0 0 0 -0.20673 0.3748 -0.90376 0.025752
0.28001 0.16538 0.83613 9.3118e-39 398 298 0 0 0 -0.17712 0.37177 -0.91127 0.0266
0.28588 0.16538 0.83613 8.6664e-39 404 298 0 0 0 0.077952 0.36873 -0.92626 0.051936
0.28744 0.16522 0.83784 8.021e-39 333 298 0 0 0 0.23455 0.35946 -0.9032 0.062314
0.27372 0.16669 0.83784 6.4537e-39 210 299 0 0 0 -0.32673 0.38325 -0.86393 0.01457
0.27529 0.16698 0.83765 7.0069e-39 260 299 0 0 0 -0.30443 0.38732 -0.87023 0.014391
0.27705 0.16713 0.83756 7.7214e-39 286 299 0 0 0 -0.25787 0.38088 -0.88794 0.021718
0.27902 0.16713 0.83756 8.3207e-39 288 299 0 0 0 -0.1951 0.37839 -0.90485 0.030588
0.28094 0.16684 0.83659 8.6111e-39 275.8 299 0 0 0 -0.14069 0.37522 -0.9162 0.033596
0.28274 0.16709 0.83651 9.2504e-39 316.33 299 0 0 0 -0.054345 0.36932 -0.92771 0.044636
0.2847 0.16709 0.83651 9.4036e-39 318.33 299 0 0 0 0.015422 0.36325 -0.93156 0.045637
0.28659 0.16691 0.83727 8.6048e-39 271.67 299 0 0 0 0.17387 0.36399 -0.91503 0.061714
0.27568 0.16865 0.83784 6.3615e-39 173 300 0 0 0 -0.2938 0.38723 -0.87392 0.014465
0.27666 0.16865 0.83784 6.9147e-39 174 300 0 0 0 -0.27614 0.38863 -0.87904 0.01663
0.2796 0.16865 0.83784 6.7303e-39 180 300 0 0 0 -0.18171 0.38265 -0.90585 0.029314
0.28117 0.16894 0.83765 7.4986e-39 223.67 300 0 0 0 -0.14289 0.38105 -0.91345 0.033772
0.28294 0.1686 0.83756 6.8686e-39 183.5 300 0 0 0 -0.066815 0.37232 -0.9257 0.04646
0.28489 0.16909 0.83756 8.2516e-39 260.75 300 0 0 0 0.055956 0.36574 -0.92903 0.051184
0.28646 0.16865 0.83784 6.5459e-39 190 300 0 0 0 0.16218 0.36243 -0.91779 0.061784
0.28979 0.1732 0.83613 7.9288e-39 235 302 0 0 0 0.29452 0.36483 -0.88327 0.052943
0.28999 0.1743 0.8367 1.0142e-38 374 302 0 0 0 0.30501 0.36749 -0.87859 0.054096
0.29018 0.1754 0.83727 7.2835e-39 180 303 0 0 0 0.3178 0.37433 -0.87114 0.053261
0.23941 0.10123 0.83955 6.9147e-39 204.5 271 0 0 0 -0.26297 -0.6236 -0.73619 0.080364
0.24121 0.10116 0.83897 7.1452e-39 206.5 271 0 0 0 -0.23314 -0.66155 -0.71274 0.076048
0.24333 0.10123 0.83955 7.1913e-39 208.5 271 0 0 0 -0.20444 -0.69655 -0.68776 0.070415
0.2453 0.10123 0.83955 7.0991e-39 210.5 271 0 0 0 -0.18592 -0.71696 -0.67186 0.06577
0.24701 0.10113 0.83869 7.7905e-39 212.5 271 0 0 0 -0.15838 -0.72803 -0.667 0.063576
0.23755 0.10284 0.83936 7.0069e-39 228.33 271.67 0 0 0 -0.3425 -0.49425 -0.79901 0.088088
0.23908 0.10207 0.83841 6.3154e-39 365.5 271 0 0 0 -0.30424 -0.54996 -0.77781 0.084029
0.25526 0.10207 0.83841 8.8508e-39 382 271 0 0 0 -0.11409 -0.78838 -0.60451 0.041732
0.25758 0.10221 0.83955 8.8508e-39 384 271 0 0 0 -0.094431 -0.80732 -0.5825 0.034471
0.2587 0.10305 0.83841 7.4218e-39 184.5 272 0 0 0 -0.099713 -0.79706 -0.59561 0.038024
0.2615 0.10319 0.83955 7.0991e-39 187 272 0 0 0 -0.065947 -0.82817 -0.55659 0.02647
0.2628 0.10312 0.83898 7.053e-39 188.5 272 0 0 0 -0.056017 -0.83364 -0.54946 0.024928
0.26427 0.10312 0.83897 6.9147e-39 190 272 0 0 0 -0.045438 -0.8416 -0.53819 0.021754
0.26691 0.10319 0.83955 7.2374e-39 192.5 272 0 0 0 -0.025971 -0.86336 -0.50392 0.013435
0.26878 0.10316 0.83926 7.514e-39 194.5 272 0 0 0 -0.000979 -0.8773 -0.47994 0.0078813
0.27065 0.10312 0.83897 7.6983e-39 196.5 272 0 0 0 0.016724 -0.88799 -0.45956 0.0046905
0.27304 0.1031 0.83878 7.2528e-39 199 272 0 0 0 0.028728 -0.89608 -0.44297 0.0026413
0.27457 0.10263 0.83898 8.021e-39 301 271.5 0 0 0 0.028796 -0.89602 -0.44308 0.002435
0.27697 0.1031 0.83878 7.4064e-39 203 272 0 0 0 0.026255 -0.89932 -0.4365 0.001997
0.279 0.10263 0.83898 6.6612e-39 305.5 271.5 0 0 0 0.030607 -0.89901 -0.43686 0.0018521
0.28096 0.10263 0.83898 7.0068e-39 307.5 271.5 0 0 0 0.032444 -0.89914 -0.43646 0.0016924
0.28292 0.10279 0.83898 7.0069e-39 276 271.67 0 0 0 0.031276 -0.90007 -0.43463 0.0015251
0.28537 0.10312 0.83897 7.4679e-39 211.5 272 0 0 0 0.027644 -0.90114 -0.43265 0.0015272
0.28704 0.10319 0.83955 8.021e-39 213 272 0 0 0 0.027372 -0.89887 -0.43735 0.0016612
0.28901 0.10319 0.83955 7.8366e-39 215 272 0 0 0 0.022863 -0.89949 -0.43635 0.0018529
0.29539 0.10319 0.83955 7.0991e-39 221.5 272 0 0 0 0.018324 -0.89906 -0.43745 0.0024549
0.29735 0.10319 0.83955 7.6983e-39 223.5 272 0 0 0 0.015993 -0.90014 -0.4353 0.0026998
0.29883 0.10319 0.83955 7.6522e-39 225 272 0 0 0 0.014591 -0.90065 -0.43429 0.0028779
0.30108 0.10312 0.83897 7.0991e-39 227.5 272 0 0 0 0.0054377 -0.90214 -0.43141 0.0032104
0.30314 0.10266 0.83926 7.8136e-39 330 271.5 0 0 0 0.0038499 -0.90322 -0.42916 0.003431
0.30472 0.1027 0.83955 8.6664e-39 331.5 271.5 0 0 0 -0.0098996 -0.90783 -0.41922 0.0038756
0.23597 0.10466 0.83955 9.2196e-39 363 272 0 0 0 -0.40567 -0.34358 -0.84698 0.081894
0.23741 0.1049 0.83909 9.3302e-39 339.8 272.2 0 0 0 -0.41565 -0.3315 -0.84696 0.08123
0.2994 0.10403 0.83841 8.6664e-39 382 272 0 0 0 0.0086553 -0.90241 -0.43079 0.0029607
0.30333 0.10403 0.83841 9.4961e-39 386 272 0 0 0 -0.0077497 -0.90529 -0.42472 0.0037171
0.23597 0.10663 0.83955 1.0049e-38 315.5 273 0 0 0 -0.44002 -0.23885 -0.86564 0.077083
0.23717 0.10674 0.83916 9.5271e-39 342.33 273 0 0 0 -0.44338 -0.25578 -0.85906 0.078439
0.23859 0.10795 0.83841 7.1913e-39 195 274 0 0 0 -0.44921 -0.19706 -0.87142 0.07275
0.23736 0.10855 0.83926 7.8366e-39 269.5 274 0 0 0 -0.46106 -0.16194 -0.87247 0.069934
0.23912 0.10944 0.83855 7.076e-39 417 274 0 0 0 -0.46579 -0.14133 -0.87354 0.067128
0.23744 0.11056 0.83955 8.6896e-39 370 274.5 0 0 0 -0.48833 -0.075148 -0.86942 0.058278
0.23924 0.11146 0.83897 8.5513e-39 329 275 0 0 0 -0.4791 -0.055216 -0.87602 0.056935
0.24055 0.11139 0.83841 8.2976e-39 330.5 275 0 0 0 -0.47698 -0.074982 -0.87571 0.060383
0.23793 0.11252 0.83955 7.3757e-39 288.5 275.5 0 0 0 -0.49792 -0.00041318 -0.86722 0.046605
0.23936 0.11348 0.83941 6.4076e-39 232.5 276 0 0 0 -0.5015 0.013228 -0.86506 0.04499
0.24112 0.11339 0.83869 7.4679e-39 234.5 276 0 0 0 -0.49337 -0.0092003 -0.86977 0.050133
0.23941 0.11547 0.83955 6.9608e-39 301 276.5 0 0 0 -0.51141 0.087349 -0.85488 0.030703
0.24125 0.11541 0.83911 7.0069e-39 303 276.5 0 0 0 -0.5051 0.064478 -0.86065 0.036987
0.2399 0.11694 0.83955 6.0849e-39 282 277 0 0 0 -0.51419 0.14729 -0.84494 0.018583
0.24133 0.11741 0.83941 6.4306e-39 344 277 0 0 0 -0.5142 0.1428 -0.8457 0.020181
0.24186 0.1194 0.83955 6.6842e-39 227 278 0 0 0 -0.5166 0.20476 -0.83139 0.007991
0.24284 0.11939 0.83841 6.5766e-39 244.67 278 0 0 0 -0.51631 0.19454 -0.83402 0.0096266
0.24447 0.11972 0.83841 6.1771e-39 279 278 0 0 0 -0.51404 0.19294 -0.83579 0.010414
0.24313 0.12126 0.83883 7.076e-39 287.5 278.5 0 0 0 -0.51518 0.24865 -0.82022 0.0024101
0.24447 0.1212 0.83841 7.1452e-39 289 278.5 0 0 0 -0.51204 0.24251 -0.82402 0.0030157
0.24321 0.12326 0.83911 8.3437e-39 354.75 279 0 0 0 -0.51301 0.2727 -0.81391 0.0015431
0.24505 0.1232 0.83869 9.0121e-39 357 279 0 0 0 -0.5103 0.27115 -0.81613 0.0016402
0.24644 0.12365 0.83841 9.404e-39 427 279 0 0 0 -0.50762 0.27603 -0.81616 0.0016333
0.24333 0.12529 0.83955 6.9839e-39 287.5 280 0 0 0 -0.51159 0.28618 -0.81017 0.0014305
0.24521 0.12525 0.83926 7.2143e-39 289.5 280 0 0 0 -0.50877 0.28715 -0.8116 0.001436
0.24677 0.12528 0.83841 8.6971e-39 314.33 280 0 0 0 -0.5058 0.28575 -0.81395 0.0014791
0.24382 0.12676 0.83955 7.56e-39 158 281 0 0 0 -0.50944 0.29313 -0.80904 0.0014014
0.24546 0.12709 0.83955 6.7303e-39 200.67 281 0 0 0 -0.50631 0.2964 -0.80981 0.0013719
0.24701 0.12712 0.83869 6.4998e-39 223 281 0 0 0 -0.50268 0.29651 -0.81203 0.0013624
0.2484 0.12708 0.83841 6.5459e-39 224.5 281 0 0 0 -0.5006 0.29763 -0.81291 0.0013457
0.24579 0.12873 0.83955 9.0352e-39 432 281 0 0 0 -0.50423 0.30354 -0.80847 0.0013453
0.24718 0.12918 0.83926 8.0902e-39 334 281.5 0 0 0 -0.50119 0.30589 -0.80947 0.0013545
0.24898 0.12909 0.83869 7.9749e-39 342 281.5 0 0 0 -0.49794 0.30608 -0.8114 0.0013123
0.24775 0.13118 0.83955 7.1913e-39 271.5 282.5 0 0 0 -0.499 0.31282 -0.80817 0.0012696
0.2491 0.13111 0.83911 7.3987e-39 273 282.5 0 0 0 -0.49673 0.31213 -0.80984 0.0012751
0.25036 0.1315 0.83841 6.4537e-39 174 283 0 0 0 -0.4949 0.31353 -0.81042 0.0012287
0.24775 0.13266 0.83955 7.3757e-39 289 283 0 0 0 -0.49782 0.31631 -0.80754 0.0012139
0.24923 0.13315 0.83955 8.1593e-39 361 283 0 0 0 -0.4975 0.31555 -0.80804 0.0012501
0.25069 0.13313 0.83841 7.222e-39 395.67 283 0 0 0 -0.49489 0.31548 -0.80966 0.0012335
0.24972 0.13462 0.83955 9.8649e-39 252 284 0 0 0 -0.49675 0.31731 -0.80781 0.0012695
0.25094 0.13498 0.83869 8.5743e-39 322.5 284 0 0 0 -0.4962 0.31698 -0.80828 0.0012572
0.25232 0.13542 0.83841 6.8225e-39 393 284 0 0 0 -0.49656 0.31635 -0.8083 0.0013373
0.25111 0.13703 0.83926 8.7585e-39 291.5 285 0 0 0 -0.49742 0.32085 -0.80599 0.0013648
0.25289 0.13693 0.83869 8.7586e-39 293.5 285 0 0 0 -0.49799 0.31955 -0.80616 0.0014204
0.25428 0.13738 0.83841 9.1274e-39 364 285 0 0 0 -0.49963 0.31976 -0.80506 0.0014398
0.25168 0.13904 0.83955 7.1452e-39 255 286 0 0 0 -0.49768 0.32482 -0.80425 0.001538
0.25302 0.13897 0.83911 7.1682e-39 266.5 286 0 0 0 -0.49995 0.32252 -0.80376 0.0015584
0.25461 0.13901 0.83841 7.6522e-39 292 286 0 0 0 -0.50254 0.32068 -0.80288 0.0015899
0.25332 0.14084 0.83955 6.6688e-39 400.33 286.33 0 0 0 -0.50105 0.32329 -0.80276 0.0016361
0.2549 0.14088 0.83883 6.2693e-39 372.5 286.5 0 0 0 -0.50568 0.32134 -0.80064 0.0016703
0.25625 0.14081 0.83841 6.3615e-39 374 286.5 0 0 0 -0.50721 0.31949 -0.80041 0.0016334
0.25508 0.14295 0.83941 8.4128e-39 338 287.5 0 0 0 -0.50662 0.32213 -0.79973 0.0017335
0.25663 0.14297 0.8386 8.2361e-39 309.33 287.67 0 0 0 -0.51086 0.32043 -0.79771 0.0017074
0.25821 0.14327 0.83841 8.1132e-39 250 288 0 0 0 -0.513 0.31909 -0.79688 0.0016765
0.25561 0.14444 0.83955 6.6381e-39 383 288 0 0 0 -0.50884 0.32201 -0.79837 0.0017762
0.25695 0.14486 0.83912 7.1682e-39 293 288.5 0 0 0 -0.51324 0.32 -0.79636 0.0017225
0.25829 0.14479 0.83869 7.1913e-39 294.5 288.5 0 0 0 -0.51405 0.31921 -0.79615 0.0017172
0.2574 0.1468 0.83897 7.0991e-39 395.5 289 0 0 0 -0.51388 0.3213 -0.79542 0.0018112
0.25865 0.14693 0.83878 7.4678e-39 416 289 0 0 0 -0.5153 0.32144 -0.79445 0.0018078
0.25749 0.14881 0.83926 8.2054e-39 343 290 0 0 0 -0.51388 0.32124 -0.79545 0.0018294
0.25883 0.14874 0.83884 8.943e-39 344.5 290 0 0 0 -0.51531 0.32116 -0.79455 0.00184
0.25758 0.15034 0.83955 6.6381e-39 237 291 0 0 0 -0.51338 0.31896 -0.79668 0.0019358
0.25904 0.15056 0.83898 7.0991e-39 285.33 291 0 0 0 -0.51536 0.32124 -0.79449 0.0019137
0.26115 0.15062 0.83841 7.6983e-39 311 291 0 0 0 -0.51138 0.32263 -0.79649 0.0020135
0.25945 0.15274 0.83926 8.2054e-39 272.5 292 0 0 0 -0.51282 0.32129 -0.7961 0.0020502
0.26082 0.15275 0.83841 8.4205e-39 297.67 292 0 0 0 -0.51086 0.32337 -0.79652 0.0020865
0.26213 0.15308 0.83841 9.0352e-39 346 292 0 0 0 -0.50768 0.3249 -0.79793 0.002297
0.26079 0.15462 0.83883 6.9838e-39 235 293 0 0 0 -0.50914 0.32578 -0.79665 0.0022223
0.26264 0.15482 0.83898 7.0376e-39 259 293 0 0 0 -0.50142 0.32984 -0.79986 0.0026482
0.26101 0.15623 0.83955 7.6061e-39 468.5 293 0 0 0 -0.50355 0.32968 -0.79859 0.002398
0.26308 0.15652 0.83936 7.7752e-39 409 293.33 0 0 0 -0.49569 0.33355 -0.8019 0.0028437
0.26458 0.15651 0.83841 8.021e-39 380 293.5 0 0 0 -0.48654 0.33645 -0.80627 0.0035831
0.26605 0.15651 0.83841 7.2374e-39 381.5 293.5 0 0 0 -0.47122 0.34097 -0.81344 0.0048648
0.26347 0.15819 0.83955 6.7303e-39 435 294 0 0 0 -0.49339 0.33697 -0.80188 0.003058
0.26476 0.15858 0.83897 7.7444e-39 357 294.5 0 0 0 -0.48289 0.34083 -0.80663 0.0038374
0.26663 0.15901 0.83869 7.7214e-39 356.5 294.75 0 0 0 -0.46247 0.34813 -0.81543 0.0055356
0.26802 0.15994 0.83841 7.0991e-39 426 295 0 0 0 -0.43083 0.35381 -0.83018 0.008792
0.26494 0.16016 0.83955 7.0069e-39 422.5 295 0 0 0 -0.47889 0.34434 -0.80752 0.0039959
0.26669 0.16078 0.83936 7.9903e-39 323.67 295.67 0 0 0 -0.46031 0.34895 -0.8163 0.0057676
0.269 0.16141 0.83841 7.3065e-39 346.5 296 0 0 0 -0.40883 0.36061 -0.83834 0.010852
0.26731 0.16256 0.83926 7.0068e-39 337.5 296.5 0 0 0 -0.43965 0.35701 -0.82416 0.0071863
0.26895 0.16297 0.83886 7.9473e-39 322.2 296.8 0 0 0 -0.40443 0.36297 -0.83946 0.010646
0.27056 0.16392 0.83869 8.3437e-39 410.5 297 0 0 0 -0.37088 0.37438 -0.84987 0.013992
0.28861 0.16288 0.83841 7.6522e-39 282 297 0 0 0 0.32984 0.35582 -0.87441 0.071075
0.2674 0.16409 0.83955 8.3898e-39 407 297 0 0 0 -0.43974 0.35803 -0.82368 0.0070862
0.26871 0.16474 0.83955 7.6522e-39 297 297.67 0 0 0 -0.41356 0.36512 -0.83406 0.0089551
0.2711 0.16542 0.83883 7.975e-39 316 298 0 0 0 -0.3606 0.37246 -0.85512 0.013755
0.28901 0.16409 0.83955 7.1913e-39 444 297 0 0 0 0.42566 0.34122 -0.83808 0.071167
0.26887 0.16605 0.83955 9.5422e-39 385.5 298 0 0 0 -0.40891 0.36435 -0.83669 0.0092082
0.27094 0.1667 0.83912 7.6523e-39 252 298.75 0 0 0 -0.36133 0.37335 -0.85443 0.013419
0.27297 0.16757 0.83855 8.6895e-39 317.75 299 0 0 0 -0.3315 0.37945 -0.86378 0.014251
0.27488 0.16779 0.83841 8.8508e-39 356 299 0 0 0 -0.30898 0.38271 -0.87067 0.0143
0.28763 0.16779 0.83841 1.0234e-38 369 299 0 0 0 0.28348 0.35021 -0.89274 0.06612
0.2894 0.16747 0.83926 8.9428e-39 298 299 0 0 0 0.46269 0.3224 -0.82582 0.069762
0.27133 0.169 0.83955 8.4513e-39 272.33 299.67 0 0 0 -0.34934 0.37188 -0.86004 0.01312
0.27291 0.16928 0.83897 7.5969e-39 221.4 300 0 0 0 -0.32494 0.37847 -0.8667 0.013623
0.27498 0.16956 0.83869 8.0441e-39 268.75 300 0 0 0 -0.3021 0.3831 -0.87291 0.014388
0.27733 0.16926 0.83841 7.514e-39 239.5 300 0 0 0 -0.26288 0.38278 -0.88565 0.019231
0.27886 0.16954 0.83855 7.6061e-39 273 300 0 0 0 -0.21179 0.38525 -0.89818 0.027057
0.28077 0.16975 0.83841 8.482e-39 307 300 0 0 0 -0.16015 0.38052 -0.9108 0.033799
0.28322 0.16975 0.83841 9.2196e-39 321 300 0 0 0 -0.050278 0.37461 -0.92582 0.04697
0.28737 0.16946 0.8386 8.5742e-39 288 300 0 0 0 0.23174 0.36208 -0.90288 0.061468
0.28925 0.1691 0.83909 8.5373e-39 286.4 299.8 0 0 0 0.43146 0.3334 -0.83826 0.068896
0.2728 0.17145 0.83955 8.966e-39 367.5 300.5 0 0 0 -0.32407 0.37573 -0.86822 0.013099
0.27467 0.1714 0.83926 7.099e-39 203.5 301 0 0 0 -0.30184 0.37872 -0.87491 0.013655
0.27649 0.17131 0.83883 7.3987e-39 205.5 301 0 0 0 -0.27516 0.38939 -0.87901 0.01386
0.27906 0.17138 0.83916 8.1286e-39 208 301 0 0 0 -0.21371 0.3889 -0.89615 0.025152
0.28135 0.17128 0.83869 8.0671e-39 210.5 301 0 0 0 -0.14921 0.38959 -0.90882 0.030481
0.28318 0.17114 0.83878 7.7137e-39 191.67 301 0 0 0 -0.057303 0.38469 -0.92127 0.04102
0.285 0.17139 0.83875 8.482e-39 226.6 301 0 0 0 0.079056 0.37235 -0.92472 0.054301
0.28685 0.17134 0.83897 8.2515e-39 216 301 0 0 0 0.23039 0.36703 -0.90123 0.062173
0.28889 0.17129 0.83921 7.6707e-39 205.6 301 0 0 0 0.36683 0.34662 -0.8633 0.064473
0.27477 0.17293 0.83955 7.0069e-39 407.5 301 0 0 0 -0.29406 0.38188 -0.87618 0.013548
0.27668 0.17339 0.83941 7.0991e-39 315 301.5 0 0 0 -0.26469 0.38938 -0.88223 0.014514
0.27853 0.17326 0.83955 7.0684e-39 348.33 301.33 0 0 0 -0.24038 0.39388 -0.88717 0.014272
0.28092 0.1733 0.83943 7.3572e-39 338.2 301.4 0 0 0 -0.17072 0.39655 -0.902 0.027808
0.28262 0.17342 0.83955 7.1913e-39 321 301.5 0 0 0 -0.10692 0.39716 -0.9115 0.034602
0.28547 0.17287 0.83926 6.2232e-39 418.5 301 0 0 0 0.07505 0.38141 -0.92135 0.049728
0.28655 0.17342 0.83955 6.8686e-39 325 301.5 0 0 0 0.17559 0.38128 -0.90763 0.05786
0.28999 0.17293 0.83955 6.5459e-39 423 301 0 0 0 0.43219 0.34345 -0.83382 0.062729
0.27722 0.17489 0.83955 1.0049e-38 360 302 0 0 0 -0.25486 0.38995 -0.88486 0.013761
0.23169 0.099531 0.84183 9.7727e-39 244 270 0 0 0 -0.31339 -0.54264 -0.77931 0.07862
0.23309 0.099497 0.84154 1.0418e-38 245.5 270 0 0 0 -0.29148 -0.5805 -0.7603 0.078535
0.23464 0.099531 0.84183 1.0326e-38 247 270 0 0 0 -0.25259 -0.63423 -0.73072 0.077676
0.23661 0.099531 0.84183 1.0049e-38 249 270 0 0 0 -0.22574 -0.67205 -0.70526 0.074552
0.23125 0.10113 0.84145 8.1132e-39 264.67 270.67 0 0 0 -0.36287 -0.46347 -0.80841 0.078662
0.23289 0.10089 0.84083 7.4448e-39 301 270.5 0 0 0 -0.33912 -0.50643 -0.79279 0.081385
0.23489 0.10091 0.84098 6.8686e-39 303 270.5 0 0 0 -0.30713 -0.55153 -0.77555 0.084385
0.23686 0.10091 0.84098 7.0991e-39 305 270.5 0 0 0 -0.26565 -0.61192 -0.74497 0.080746
0.23864 0.10073 0.84088 7.2528e-39 341.33 270.33 0 0 0 -0.2408 -0.65982 -0.7118 0.076013
0.2408 0.10042 0.84098 7.053e-39 412.5 270 0 0 0 -0.20606 -0.70026 -0.68351 0.06972
0.24292 0.10048 0.84154 6.0388e-39 414.5 270 0 0 0 -0.18136 -0.72512 -0.66431 0.063975
0.24939 0.10129 0.84012 8.0671e-39 214.5 271 0 0 0 -0.13314 -0.76028 -0.63581 0.054098
0.25104 0.10136 0.84069 7.7444e-39 216 271 0 0 0 -0.12667 -0.77745 -0.61606 0.048295
0.25269 0.10143 0.84126 7.6983e-39 217.5 271 0 0 0 -0.10621 -0.79291 -0.60001 0.04083
0.25434 0.1015 0.84183 7.2835e-39 219 271 0 0 0 -0.088998 -0.80802 -0.58239 0.033625
0.25729 0.1015 0.84183 7.1913e-39 222 271 0 0 0 -0.060459 -0.8303 -0.55403 0.023818
0.27299 0.10148 0.84164 1.0725e-38 238 271 0 0 0 0.02668 -0.8863 -0.46234 0.0027346
0.27533 0.10143 0.84126 1.0464e-38 240.5 271 0 0 0 0.026898 -0.88715 -0.46069 0.0025186
0.27739 0.10147 0.84154 1.0003e-38 242.5 271 0 0 0 0.027591 -0.88818 -0.45867 0.0022126
0.27916 0.10139 0.84098 1.0188e-38 244.5 271 0 0 0 0.02919 -0.88999 -0.45504 0.0019121
0.28123 0.10143 0.84126 1.0418e-38 246.5 271 0 0 0 0.032662 -0.89031 -0.45419 0.0017426
0.28339 0.1015 0.84183 9.911e-39 248.5 271 0 0 0 0.032856 -0.88945 -0.45585 0.0017147
0.28487 0.1015 0.84183 1.0234e-38 250 271 0 0 0 0.033756 -0.88912 -0.45642 0.0017025
0.30161 0.1015 0.84183 7.0069e-39 267 271 0 0 0 0.017942 -0.90059 -0.4343 0.0034945
