# .PCD v.7 - Point Cloud Data file format
VERSION .7
FIELDS x y z rgb u v vx vy vz normal_x normal_y normal_z curvature
SIZE 4 4 4 4 4 4 4 4 4 4 4 4 4
TYPE F F F F F F F F F F F F F
COUNT 1 1 1 1 1 1 1 1 1 1 1 1 1
WIDTH 552
HEIGHT 1
VIEWPOINT 0 0 0 1 0 0 0
POINTS 552
DATA ascii
0.041577 0.0069509 1.0692 6.4998e-39 204.5 258 0 0 0 -0.60117 -0.30204 -0.73984 0.014689
0.04281 0.0069476 1.0688 6.7764e-39 205.5 258 0 0 0 -0.62318 -0.30005 -0.72223 0.01241
-0.032827 0.0088197 1.0683 6.7764e-39 416.5 258 0 0 0 0.63804 -0.31868 -0.70096 0.025263
0.0077941 0.0088197 1.0683 7.0991e-39 476 258 0 0 0 0.53837 -0.19015 -0.82098 0.1436
0.040933 0.0088236 1.0688 5.8083e-39 141.5 259 0 0 0 -0.58824 -0.33377 -0.7366 0.015034
-0.032619 0.010486 1.0683 6.0542e-39 269 259 0 0 0 0.64686 -0.30706 -0.69806 0.026983
-0.030979 0.010704 1.0692 6.638e-39 307.5 259 0 0 0 0.61126 -0.30297 -0.73114 0.028376
0.009044 0.011319 1.0683 6.2693e-39 481 259 0 0 0 0.49988 -0.1408 -0.85457 0.12528
0.010303 0.011329 1.0692 5.9927e-39 482 259 0 0 0 0.48184 -0.20127 -0.85283 0.11161
0.039075 0.011329 1.0692 5.2552e-39 151 260 0 0 0 -0.55492 -0.3628 -0.74863 0.019715
0.040308 0.010699 1.0688 6.1311e-39 210 259.5 0 0 0 -0.58093 -0.3565 -0.73173 0.016453
-0.032202 0.013194 1.0683 7.3757e-39 305 260 0 0 0 0.65459 -0.29387 -0.69653 0.030296
-0.030965 0.013199 1.0688 7.6522e-39 306 260 0 0 0 0.6312 -0.28557 -0.72114 0.032887
-0.0047047 0.013819 1.0683 9.2196e-39 441 260 0 0 0 -0.41241 0.18696 -0.89161 0.12544
0.011554 0.013831 1.0692 7.3757e-39 476 260 0 0 0 0.45529 -0.11291 -0.88315 0.10459
0.039075 0.013206 1.0692 6.2232e-39 210 260.5 0 0 0 -0.55894 -0.37319 -0.74048 0.020121
-0.030952 0.015069 1.0683 6.9147e-39 195 261 0 0 0 0.64595 -0.2709 -0.71369 0.035657
-0.028477 0.015082 1.0692 7.2835e-39 197 261 0 0 0 0.58732 -0.24382 -0.77176 0.039913
-0.0047087 0.015082 1.0692 7.3757e-39 216 261 0 0 0 -0.39221 0.18719 -0.90063 0.12719
-0.0034548 0.015069 1.0683 7.3757e-39 217 261 0 0 0 -0.36857 0.30133 -0.8794 0.13266
0.011554 0.015082 1.0692 6.9147e-39 231 261 0 0 0 0.43609 -0.11445 -0.8926 0.10719
0.037824 0.015082 1.0692 7.1913e-39 265 261 0 0 0 -0.53608 -0.38916 -0.74912 0.02379
0.039075 0.015082 1.0692 7.0991e-39 266 261 0 0 0 -0.56452 -0.38115 -0.73215 0.020658
-0.029103 0.016959 1.0692 5.9927e-39 285 261.5 0 0 0 0.61024 -0.23874 -0.75539 0.042747
-0.027226 0.016959 1.0692 6.1771e-39 286.5 261.5 0 0 0 0.56568 -0.22187 -0.79421 0.052068
-0.0047087 0.016959 1.0692 7.6061e-39 307.5 261.5 0 0 0 -0.38071 0.27931 -0.8815 0.11053
0.011549 0.016951 1.0688 8.2976e-39 323.5 261.5 0 0 0 0.43478 -0.060785 -0.89848 0.10538
0.03719 0.016955 1.069 7.2143e-39 352.75 261.5 0 0 0 -0.53912 -0.39085 -0.74604 0.024677
0.039058 0.016951 1.0688 7.2835e-39 354.5 261.5 0 0 0 -0.57195 -0.39377 -0.71959 0.020373
-0.029103 0.018835 1.0692 6.7764e-39 369.5 262 0 0 0 0.6209 -0.20397 -0.75689 0.05111
-0.027226 0.018835 1.0692 6.7303e-39 371 262 0 0 0 0.57913 -0.17911 -0.79532 0.05847
-0.0047087 0.018835 1.0692 7.56e-39 394 262 0 0 0 -0.35169 0.30056 -0.88655 0.10126
-0.0034578 0.018835 1.0692 7.56e-39 395 262 0 0 0 -0.31647 0.37979 -0.86926 0.11303
0.011544 0.018819 1.0683 8.021e-39 412 262 0 0 0 0.42202 -0.010759 -0.90652 0.10151
0.037198 0.018835 1.0692 8.8508e-39 436.5 262 0 0 0 -0.53652 -0.40198 -0.742 0.02609
0.039075 0.018835 1.0692 8.943e-39 438 262 0 0 0 -0.57249 -0.40197 -0.71462 0.021898
-0.029728 0.020086 1.0692 5.9005e-39 480 262 0 0 0 0.63327 -0.18863 -0.75059 0.053293
-0.027226 0.020086 1.0692 5.9927e-39 482 262 0 0 0 0.58347 -0.14976 -0.79821 0.061879
-0.0047047 0.020069 1.0683 5.9927e-39 138 263 0 0 0 -0.33356 0.34977 -0.87544 0.090511
0.011544 0.020694 1.0683 4.7942e-39 230 263 0 0 0 0.40502 0.026815 -0.91392 0.094626
0.03699 0.020503 1.0692 7.7444e-39 256.33 263 0 0 0 -0.54118 -0.40492 -0.737 0.026447
0.039075 0.020086 1.0692 7.6522e-39 196 263 0 0 0 -0.57939 -0.40556 -0.70699 0.021289
-0.032202 0.022568 1.0683 6.7303e-39 416 263 0 0 0 0.70337 -0.21029 -0.679 0.049007
0.010924 0.023203 1.0688 7.56e-39 317.5 263.5 0 0 0 0.39156 0.063324 -0.91797 0.092224
0.0040445 0.025068 1.0683 6.9147e-39 232 264 0 0 0 -0.018899 0.52815 -0.84894 0.12126
0.009044 0.025068 1.0683 6.3615e-39 236 264 0 0 0 0.32337 0.18836 -0.92734 0.10548
0.010303 0.02509 1.0692 6.3615e-39 237 264 0 0 0 0.37577 0.12546 -0.91818 0.092771
0.0046723 0.026961 1.069 7.3987e-39 346.5 264 0 0 0 -0.011564 0.53721 -0.84337 0.11063
0.0069608 0.027151 1.0683 7.0068e-39 384.67 264 0 0 0 0.20261 0.37098 -0.90627 0.10699
0.0090518 0.026341 1.0692 6.3615e-39 349 264 0 0 0 0.32231 0.21714 -0.9214 0.098339
0.014674 0.068843 1.0688 8.1132e-39 402.5 270 0 0 0 0.39562 0.68935 -0.60687 0.046548
0.011544 0.071314 1.0683 6.1771e-39 450 270 0 0 0 0.44454 0.62397 -0.64268 0.048803
0.012794 0.070064 1.0683 9.4961e-39 422 270 0 0 0 0.41955 0.65329 -0.63023 0.050072
0.0046717 0.073845 1.0688 6.3615e-39 485.5 270 0 0 0 0.52631 0.53665 -0.65955 0.04215
0.0071754 0.073877 1.0692 6.5459e-39 487.5 270 0 0 0 0.51206 0.54544 -0.66355 0.04913
0.009044 0.072564 1.0683 6.0849e-39 467 270 0 0 0 0.49874 0.56809 -0.65463 0.047569
0.010294 0.072564 1.0683 6.2693e-39 468 270 0 0 0 0.49617 0.56726 -0.65729 0.050526
0.00091977 0.075063 1.0683 2.2588e-39 552.5 270 0 0 0 0.52531 0.54469 -0.65373 0.03981
0.002797 0.075128 1.0692 6.0849e-39 167 271 0 0 0 0.52775 0.51965 -0.67189 0.043584
0.0009206 0.076379 1.0692 6.2693e-39 181.5 271 0 0 0 0.52318 0.52325 -0.67267 0.047631
-0.00095503 0.080688 1.0683 7.0069e-39 249.5 271 0 0 0 0.4915 0.47793 -0.72802 0.067733
-0.00095544 0.083224 1.0688 6.4998e-39 283.5 271 0 0 0 0.32638 0.44077 -0.83618 0.084458
-0.00095586 0.085136 1.0692 6.5459e-39 352 271 0 0 0 0.24996 0.36495 -0.89685 0.088886
-0.0084763 -0.017473 1.0711 8.3898e-39 237 242 0 0 0 -0.8025 0.24385 -0.54455 0.024984
-0.0072169 -0.016832 1.0702 8.5742e-39 237.5 242.5 0 0 0 -0.81988 0.23266 -0.52314 0.034201
-0.0072169 -0.014954 1.0702 3.4112e-39 150 245 0 0 0 -0.8269 0.19667 -0.52684 0.042465
-0.0072201 -0.013082 1.0706 5.3012e-39 189.5 246.5 0 0 0 -0.82806 0.14714 -0.54099 0.040001
0.041649 -0.012461 1.0711 7.9288e-39 245 247 0 0 0 -0.63052 -0.13251 -0.76478 0.028746
0.042865 -0.011198 1.0702 6.7303e-39 250 248 0 0 0 -0.64208 -0.14345 -0.7531 0.025187
0.044117 -0.011198 1.0702 6.7303e-39 251 248 0 0 0 -0.68768 -0.11802 -0.71636 0.018928
-0.044817 -0.0093277 1.0711 7.6522e-39 383 248.5 0 0 0 0.15605 -0.7513 -0.64125 0.047726
-0.043564 -0.0093277 1.0711 7.4679e-39 384.5 248.5 0 0 0 0.19219 -0.7217 -0.66499 0.047156
0.045369 -0.0086936 1.0702 6.3615e-39 223 250 0 0 0 -0.68303 -0.15042 -0.71473 0.015619
-0.059855 -0.0061949 1.0711 4.6098e-39 542 250 0 0 0 -0.23107 -0.82684 -0.51277 0.040845
-0.04603 -0.0074416 1.0702 8.2976e-39 229 250 0 0 0 0.16271 -0.75242 -0.63827 0.052461
-0.044778 -0.0074416 1.0702 8.3898e-39 230 250 0 0 0 0.18396 -0.73546 -0.65212 0.050854
-0.042938 -0.0068214 1.0711 7.1913e-39 188 250.5 0 0 0 0.23106 -0.69393 -0.68196 0.049165
-0.041058 -0.0061949 1.0711 5.5317e-39 146 251 0 0 0 0.31478 -0.62243 -0.71659 0.043748
-0.039805 -0.0061949 1.0711 5.163e-39 147 251 0 0 0 0.35332 -0.58738 -0.72811 0.038556
-0.0059649 -0.0068155 1.0702 6.7764e-39 310 250.5 0 0 0 -0.8214 0.049962 -0.56816 0.087265
0.045408 -0.0068214 1.0711 7.5601e-39 439.5 250.5 0 0 0 -0.66463 -0.18438 -0.72407 0.012287
0.047257 -0.0068169 1.0704 7.7214e-39 441.25 250.5 0 0 0 -0.68602 -0.17275 -0.70677 0.014284
-0.059855 -0.0049418 1.0711 7.0991e-39 415 251 0 0 0 -0.2248 -0.82957 -0.51115 0.038247
-0.054795 -0.0049375 1.0702 7.6522e-39 419 251 0 0 0 -0.02588 -0.82621 -0.56277 0.04883
-0.042274 -0.0049375 1.0702 8.6664e-39 476 251 0 0 0 0.26751 -0.67334 -0.68924 0.050703
-0.041022 -0.0049375 1.0702 8.482e-39 477 251 0 0 0 0.32663 -0.6108 -0.72127 0.044904
-0.03916 -0.0049397 1.0706 8.4359e-39 478.5 251 0 0 0 0.38623 -0.54937 -0.74095 0.038747
-0.00597 -0.0049418 1.0711 5.163e-39 147 252 0 0 0 -0.77375 -0.0045898 -0.63348 0.098723
0.045408 -0.0049418 1.0711 7.1913e-39 231 252 0 0 0 -0.65574 -0.20681 -0.72611 0.012327
0.047268 -0.0049397 1.0706 7.2374e-39 232.5 252 0 0 0 -0.67251 -0.20226 -0.71192 0.010697
-0.059829 -0.003061 1.0706 1.051e-38 225.5 252.5 0 0 0 -0.22585 -0.8226 -0.52184 0.037127
-0.056464 -0.0032681 1.0702 7.9596e-39 234.67 252.33 0 0 0 -0.065503 -0.82772 -0.5573 0.045331
-0.054795 -0.0036854 1.0702 6.9147e-39 249 252 0 0 0 -0.015144 -0.81901 -0.57358 0.049521
-0.038518 -0.0036854 1.0702 7.3757e-39 396 252 0 0 0 0.41104 -0.53147 -0.74067 0.037806
-0.036452 -0.0032702 1.0708 6.884e-39 340 252.33 0 0 0 0.47076 -0.47422 -0.74398 0.029539
-0.034792 -0.0024355 1.0711 6.6381e-39 226 253 0 0 0 0.52491 -0.41907 -0.74084 0.01581
-0.0059674 -0.003061 1.0706 7.8827e-39 349.5 252.5 0 0 0 -0.75241 -0.031025 -0.65797 0.10279
0.045388 -0.003061 1.0706 6.085e-39 298.5 253 0 0 0 -0.6505 -0.2299 -0.72388 0.012162
0.04747 -0.0032691 1.0705 5.6854e-39 251.33 253 0 0 0 -0.66653 -0.22155 -0.71179 0.010579
-0.056047 -0.0011813 1.0702 6.4537e-39 488 253 0 0 0 -0.027656 -0.82303 -0.56733 0.048094
-0.036014 -0.0011813 1.0702 5.4395e-39 143 254 0 0 0 0.5 -0.44559 -0.7426 0.025787
-0.034792 -0.0011824 1.0711 5.3473e-39 144 254 0 0 0 0.53143 -0.41665 -0.73755 0.017103
-0.0059649 -0.0011813 1.0702 3.2268e-39 167 254 0 0 0 -0.73136 -0.048202 -0.68029 0.10404
0.044762 -0.0011818 1.0706 6.9608e-39 240.5 254 0 0 0 -0.63975 -0.24418 -0.72876 0.012534
-0.061081 0.00069678 1.0706 8.6203e-39 294.5 254.5 0 0 0 -0.29582 -0.78556 -0.54349 0.037198
-0.034762 0.00069675 1.0702 7.1913e-39 319.5 254.5 0 0 0 0.5453 -0.40479 -0.73403 0.016581
-0.033539 0.0013239 1.0711 7.1913e-39 225 255 0 0 0 0.55665 -0.38438 -0.73647 0.013613
-0.0059649 0.00069675 1.0702 7.7444e-39 362.5 254.5 0 0 0 -0.69712 -0.047921 -0.71535 0.11348
0.042902 0.0013239 1.0711 7.7444e-39 422 255 0 0 0 -0.61165 -0.26265 -0.74626 0.015291
0.044155 0.00069733 1.0711 6.1771e-39 290 255 0 0 0 -0.6306 -0.25683 -0.73238 0.013223
-0.034762 0.0025748 1.0702 4.4254e-39 548 255 0 0 0 0.56545 -0.38992 -0.72679 0.017958
-0.032913 0.0032036 1.0711 6.131e-39 243 256 0 0 0 0.56471 -0.35918 -0.74303 0.014894
0.041231 0.0034125 1.0711 6.5766e-39 396.67 256 0 0 0 -0.58866 -0.27461 -0.76031 0.016746
0.042884 0.0032019 1.0706 6.8225e-39 354.5 256 0 0 0 -0.61533 -0.27186 -0.73991 0.013915
0.044117 0.0025748 1.0702 7.2835e-39 225 256 0 0 0 -0.63655 -0.26475 -0.72437 0.012342
-0.032884 0.0050789 1.0702 4.7481e-39 162.5 257 0 0 0 0.58599 -0.34882 -0.7314 0.019255
-0.031033 0.0050833 1.0711 4.5176e-39 164 257 0 0 0 0.57293 -0.33268 -0.74905 0.018389
-0.0059649 0.0050789 1.0702 7.2835e-39 207 257 0 0 0 -0.60258 -0.086223 -0.79339 0.13238
0.039143 0.0050833 1.0711 6.6381e-39 242 257 0 0 0 -0.55101 -0.2905 -0.7823 0.019741
0.041005 0.0050811 1.0706 6.6842e-39 243.5 257 0 0 0 -0.58373 -0.2849 -0.76033 0.016584
-0.032258 0.0063309 1.0702 7.56e-39 401 257 0 0 0 0.59742 -0.33476 -0.72872 0.020769
-0.031019 0.0069597 1.0706 6.9146e-39 302.5 257.5 0 0 0 0.58099 -0.31577 -0.75016 0.021053
-0.028944 0.0071718 1.0711 7.2527e-39 273 257.67 0 0 0 0.56227 -0.30164 -0.76998 0.023519
-0.0059649 0.0063309 1.0702 8.943e-39 439 257 0 0 0 -0.57775 -0.09982 -0.81009 0.13133
0.0078144 0.0063364 1.0711 9.1274e-39 449 257 0 0 0 0.50917 -0.33879 -0.79118 0.13347
0.03789 0.0075895 1.0711 7.0069e-39 266 258 0 0 0 -0.51443 -0.32446 -0.79378 0.021184
0.039126 0.0069597 1.0706 6.4537e-39 202.5 258 0 0 0 -0.5528 -0.31215 -0.77264 0.018974
0.040361 0.0069569 1.0702 6.4076e-39 203.5 258 0 0 0 -0.57746 -0.305 -0.75731 0.017329
-0.031006 0.008835 1.0702 7.0991e-39 418 258 0 0 0 0.59701 -0.30199 -0.74323 0.025846
-0.029141 0.0088389 1.0706 7.8827e-39 419.5 258 0 0 0 0.56832 -0.29001 -0.77 0.024495
-0.027273 0.0088427 1.0711 7.9288e-39 421 258 0 0 0 0.52958 -0.2866 -0.79838 0.028949
0.0090675 0.0088427 1.0711 7.1913e-39 477 258 0 0 0 0.47757 -0.30214 -0.82501 0.12306
0.037263 0.0088427 1.0711 6.0849e-39 138.5 259 0 0 0 -0.49868 -0.34324 -0.79593 0.022266
0.039109 0.008835 1.0702 5.9927e-39 140 259 0 0 0 -0.54981 -0.33426 -0.7655 0.018677
-0.029135 0.010715 1.0704 6.8685e-39 309 259 0 0 0 0.57933 -0.28179 -0.76483 0.027964
-0.027273 0.010722 1.0711 7.0068e-39 310.5 259 0 0 0 0.53737 -0.27127 -0.79853 0.032542
-0.00597 0.010722 1.0711 8.5742e-39 331 259 0 0 0 -0.46671 -0.1244 -0.87562 0.12474
0.0090597 0.010087 1.0702 7.1913e-39 228 259 0 0 0 0.48384 -0.25154 -0.83823 0.12465
0.012827 0.011349 1.0711 6.0849e-39 484 259 0 0 0 0.42864 -0.26831 -0.86272 0.090881
0.037255 0.01072 1.0709 6.3384e-39 203.5 259.5 0 0 0 -0.50292 -0.35867 -0.7864 0.02315
0.039109 0.010087 1.0702 7.1913e-39 267 259 0 0 0 -0.549 -0.3431 -0.76216 0.018862
-0.029128 0.013217 1.0702 7.6753e-39 307.5 260 0 0 0 0.58597 -0.26066 -0.76726 0.034871
-0.026635 0.013223 1.0706 7.3987e-39 309.5 260 0 0 0 0.51711 -0.26124 -0.81508 0.042797
-0.024767 0.013855 1.0711 6.9147e-39 418 260 0 0 0 0.45949 -0.24417 -0.85396 0.05853
-0.00597 0.012602 1.0711 7.3757e-39 219 260 0 0 0 -0.43848 -0.093515 -0.89386 0.12435
0.011564 0.012591 1.0702 6.5459e-39 237 260 0 0 0 0.45069 -0.20547 -0.86872 0.10271
0.012816 0.013217 1.0702 7.0069e-39 357.5 260 0 0 0 0.43527 -0.19742 -0.87839 0.095127
0.035383 0.013855 1.0711 4.3332e-39 548 260 0 0 0 -0.46737 -0.36133 -0.80685 0.025327
0.037231 0.013217 1.0702 5.4857e-39 415.5 260 0 0 0 -0.50958 -0.37232 -0.7757 0.024729
-0.029754 0.015095 1.0702 7.1913e-39 196 261 0 0 0 0.60381 -0.24728 -0.75781 0.037172
-0.026635 0.015101 1.0706 7.514e-39 198.5 261 0 0 0 0.52286 -0.23239 -0.82013 0.050326
-0.024767 0.015108 1.0711 8.2976e-39 200 261 0 0 0 0.46071 -0.22457 -0.85867 0.063473
-0.023514 0.015108 1.0711 8.482e-39 201 261 0 0 0 0.40094 -0.23817 -0.8846 0.080324
0.012816 0.015095 1.0702 7.0991e-39 232 261 0 0 0 0.41932 -0.16128 -0.8934 0.096641
0.01408 0.015108 1.0711 7.2835e-39 233 261 0 0 0 0.38272 -0.21726 -0.89795 0.089872
0.032877 0.015108 1.0711 7.1913e-39 261 261 0 0 0 -0.40953 -0.36198 -0.83741 0.029196
0.035383 0.015108 1.0711 6.9147e-39 263 261 0 0 0 -0.47102 -0.36921 -0.80114 0.027369
0.036605 0.015095 1.0702 7.0069e-39 264 261 0 0 0 -0.49858 -0.37436 -0.78184 0.026525
-0.025383 0.01698 1.0706 5.9697e-39 288 261.5 0 0 0 0.48527 -0.21009 -0.84875 0.067899
-0.023514 0.016988 1.0711 5.6701e-39 289.5 261.5 0 0 0 0.40413 -0.19977 -0.89262 0.085776
-0.0034608 0.016973 1.0702 7.7905e-39 308.5 261.5 0 0 0 -0.34038 0.26532 -0.90208 0.13062
0.012816 0.016973 1.0702 8.482e-39 324.5 261.5 0 0 0 0.41123 -0.13481 -0.90151 0.094722
0.01408 0.016988 1.0711 8.5281e-39 325.5 261.5 0 0 0 0.38918 -0.16279 -0.90666 0.086863
0.031624 0.016988 1.0711 7.2835e-39 345.5 261.5 0 0 0 -0.36723 -0.36599 -0.8551 0.034267
0.032877 0.016988 1.0711 6.9147e-39 347.5 261.5 0 0 0 -0.41236 -0.38174 -0.82718 0.032494
0.034757 0.016988 1.0711 6.9147e-39 349.25 261.5 0 0 0 -0.45785 -0.37658 -0.80533 0.029143
-0.025383 0.01886 1.0706 7.0991e-39 372.5 262 0 0 0 0.49247 -0.15727 -0.856 0.073554
-0.023514 0.018868 1.0711 6.8225e-39 374 262 0 0 0 0.40242 -0.15133 -0.90286 0.089993
-0.00597 0.018868 1.0711 7.1913e-39 393 262 0 0 0 -0.36772 0.11637 -0.92263 0.092934
0.012816 0.018851 1.0702 8.2054e-39 413 262 0 0 0 0.40085 -0.097678 -0.91092 0.090284
0.014068 0.018851 1.0702 7.9288e-39 414 262 0 0 0 0.39822 -0.10771 -0.91095 0.085378
0.031624 0.018868 1.0711 9.4961e-39 428 262 0 0 0 -0.36661 -0.35901 -0.85832 0.036793
0.032877 0.018868 1.0711 9.1274e-39 429 262 0 0 0 -0.41834 -0.38067 -0.82467 0.03427
0.034757 0.018868 1.0711 8.8508e-39 432.5 262 0 0 0 -0.46071 -0.38065 -0.80178 0.03136
-0.028927 0.020944 1.0705 6.2386e-39 317.33 262.67 0 0 0 0.62311 -0.13207 -0.77091 0.056544
-0.026635 0.020738 1.0706 6.2693e-39 360 262.5 0 0 0 0.54646 -0.10549 -0.83081 0.071336
-0.00597 0.020121 1.0711 6.1771e-39 137 263 0 0 0 -0.36271 0.20753 -0.9085 0.086934
0.012816 0.020729 1.0702 4.4254e-39 231 263 0 0 0 0.40356 -0.065439 -0.91261 0.089349
0.014068 0.020729 1.0702 4.8403e-39 232 263 0 0 0 0.39358 -0.063397 -0.9171 0.081668
0.032877 0.020121 1.0711 7.4678e-39 191 263 0 0 0 -0.41449 -0.37703 -0.82828 0.036312
0.012816 0.023234 1.0702 7.7444e-39 319 263.5 0 0 0 0.39426 0.035266 -0.91832 0.08172
0.014068 0.023234 1.0702 7.514e-39 321 263.5 0 0 0 0.39016 0.014461 -0.92063 0.077331
0.011564 0.025112 1.0702 6.9147e-39 238 264 0 0 0 0.38819 0.08586 -0.91757 0.084564
0.012827 0.025133 1.0711 6.8225e-39 239 264 0 0 0 0.38846 0.042401 -0.92049 0.075385
0.014068 0.025112 1.0702 6.6381e-39 240 264 0 0 0 0.3861 0.052857 -0.92094 0.070885
0.0090597 0.027616 1.0702 7.2835e-39 405 264 0 0 0 0.31238 0.23206 -0.92118 0.095331
0.010736 0.026797 1.0708 6.9454e-39 369 264 0 0 0 0.37801 0.1291 -0.91675 0.082464
0.012827 0.026386 1.0711 7.0991e-39 368 264 0 0 0 0.3958 0.089251 -0.91399 0.070115
0.01408 0.026386 1.0711 6.8225e-39 369 264 0 0 0 0.38989 0.070132 -0.91819 0.06567
0.0053035 0.028868 1.0702 8.7586e-39 446 264 0 0 0 0.025238 0.53285 -0.84583 0.10706
0.0071816 0.028868 1.0702 8.8969e-39 447.5 264 0 0 0 0.21496 0.35767 -0.90877 0.096509
0.0090675 0.028893 1.0711 9.3118e-39 449 264 0 0 0 0.31135 0.26372 -0.91297 0.082522
0.0053081 0.030146 1.0711 4.241e-39 551 264 0 0 0 0.032905 0.53738 -0.8427 0.10039
0.0071878 0.030146 1.0711 6.0849e-39 137.5 265 0 0 0 0.20436 0.39329 -0.89642 0.093646
0.019076 0.066429 1.0702 6.1771e-39 361 270 0 0 0 0.41898 0.72139 -0.55141 0.050597
0.012816 0.071437 1.0702 5.9005e-39 451 270 0 0 0 0.46851 0.58084 -0.66568 0.056581
0.0090597 0.073941 1.0702 7.0069e-39 489 270 0 0 0 0.51784 0.50381 -0.69138 0.053955
0.010938 0.073315 1.0702 6.6381e-39 505.5 270 0 0 0 0.48531 0.53455 -0.6919 0.057397
0.0046775 0.075193 1.0702 5.67e-39 168.5 271 0 0 0 0.52346 0.5022 -0.68832 0.05082
0.0071878 0.075259 1.0711 6.0849e-39 170.5 271 0 0 0 0.51814 0.48083 -0.70734 0.05375
0.011156 0.074841 1.0711 6.3615e-39 296.67 270.67 0 0 0 0.50487 0.48391 -0.7148 0.054026
0.00092138 0.077697 1.0702 7.9288e-39 196.5 271 0 0 0 0.49037 0.49649 -0.71626 0.062816
0.0028006 0.077105 1.0706 7.099e-39 190.5 271 0 0 0 0.50724 0.48624 -0.71153 0.061226
0.0046795 0.077105 1.0706 7.4217e-39 192 271 0 0 0 0.50712 0.47989 -0.71591 0.060938
0.0065613 0.076512 1.0711 7.56e-39 186 271 0 0 0 0.51481 0.46262 -0.72177 0.05572
0.00092151 0.078984 1.0706 7.3296e-39 223.5 271 0 0 0 0.47762 0.47308 -0.74032 0.069439
0.0028019 0.079018 1.0711 7.1913e-39 225 271 0 0 0 0.47953 0.45745 -0.74886 0.071015
0.0046815 0.079018 1.0711 6.4076e-39 227.5 271 0 0 0 0.47344 0.44423 -0.7606 0.068373
0.00092215 0.080897 1.0711 7.053e-39 251 271 0 0 0 0.41211 0.44694 -0.79398 0.084882
0.0028019 0.080271 1.0711 6.4537e-39 240 271 0 0 0 0.43436 0.4335 -0.78956 0.077157
0.0046815 0.080897 1.0711 6.8455e-39 254 271 0 0 0 0.40291 0.40091 -0.82276 0.078589
0.00092215 0.082777 1.0711 6.592e-39 277.5 271 0 0 0 0.33569 0.39101 -0.85699 0.084349
0.0046815 0.082777 1.0711 6.6381e-39 280.5 271 0 0 0 0.32376 0.35735 -0.87606 0.083915
0.004055 0.08403 1.0711 6.6381e-39 295 271 0 0 0 0.33028 0.32404 -0.88652 0.084348
-0.00095669 0.087088 1.0702 7.2374e-39 376.5 271 0 0 0 0.0067686 0.25835 -0.96603 0.0824
-0.00095669 0.088966 1.0702 9.0352e-39 405 271 0 0 0 -0.067077 0.19802 -0.9779 0.072505
-0.00095752 0.090296 1.0711 9.1274e-39 422 271 0 0 0 -0.042642 0.18303 -0.98218 0.073983
-0.00095752 0.10157 1.0711 7.56e-39 270 272 0 0 0 -0.26313 0.26486 -0.92769 0.082802
-0.0009571 0.10341 1.0706 6.3154e-39 316.5 272 0 0 0 -0.27145 0.28785 -0.9184 0.087479
-0.00095752 0.10533 1.0711 6.6381e-39 363 272 0 0 0 -0.29255 0.35888 -0.88635 0.085163
0.00071331 0.10491 1.0711 6.423e-39 359 272 0 0 0 -0.23929 0.35213 -0.90485 0.081071
0.00029561 0.10659 1.0711 7.9288e-39 378 272 0 0 0 -0.18414 0.40755 -0.89443 0.071104
-0.0093283 -0.016666 1.073 5.3473e-39 178.67 242.67 0 0 0 -0.70527 0.34487 -0.61941 0.049786
-0.0084837 -0.01498 1.072 3.5034e-39 149 245 0 0 0 -0.758 0.26517 -0.59592 0.057218
-0.0084947 -0.013115 1.0734 5.7622e-39 188.5 246.5 0 0 0 -0.70511 0.23505 -0.669 0.093991
0.037988 -0.013749 1.0739 9.1274e-39 238 246 0 0 0 -0.53697 -0.15369 -0.82949 0.043899
0.040466 -0.013109 1.073 1.005e-38 241.5 246.5 0 0 0 -0.58702 -0.13591 -0.79808 0.036454
-0.039908 -0.011237 1.0739 6.7303e-39 248 247 0 0 0 0.34244 -0.58485 -0.73531 0.032149
-0.0072294 -0.011217 1.072 4.9786e-39 227 248 0 0 0 -0.76961 0.15507 -0.6194 0.090065
0.041685 -0.011217 1.072 6.9147e-39 249 248 0 0 0 -0.6086 -0.15831 -0.77752 0.030849
-0.042421 -0.009352 1.0739 7.3757e-39 385.5 248.5 0 0 0 0.2276 -0.6712 -0.70547 0.043018
-0.039891 -0.0093482 1.0734 7.2374e-39 392 248.5 0 0 0 0.32998 -0.58346 -0.74208 0.036243
-0.0072388 -0.0093477 1.0734 1.0096e-38 352 249 0 0 0 -0.71231 0.093851 -0.69556 0.13416
0.024168 -0.0099802 1.0739 8.8508e-39 236 249 0 0 0 -0.26456 -0.24454 -0.93285 0.027143
0.041721 -0.009344 1.073 6.4076e-39 233.5 249.5 0 0 0 -0.5982 -0.18616 -0.77942 0.029107
0.042939 -0.0093358 1.072 6.085e-39 234.5 249.5 0 0 0 -0.62179 -0.17023 -0.76446 0.025366
0.044193 -0.0093358 1.072 6.4076e-39 235.5 249.5 0 0 0 -0.64879 -0.17473 -0.74063 0.016463
-0.042384 -0.007461 1.073 9.3118e-39 232 250 0 0 0 0.2404 -0.66354 -0.70846 0.045598
-0.041129 -0.007461 1.073 9.3118e-39 233 250 0 0 0 0.29591 -0.62385 -0.72336 0.040942
-0.039037 -0.0070429 1.073 7.6523e-39 205.67 250.33 0 0 0 0.37136 -0.55285 -0.74595 0.036077
-0.036736 -0.0068336 1.073 6.7073e-39 193 250.5 0 0 0 0.45484 -0.47464 -0.75355 0.023015
-0.034868 -0.0068365 1.0734 7.0069e-39 194.5 250.5 0 0 0 0.48816 -0.40711 -0.77198 0.015812
-0.032998 -0.006211 1.0739 4.4715e-39 152.5 251 0 0 0 0.49619 -0.37338 -0.78382 0.015128
0.041314 -0.0066259 1.0733 7.7752e-39 420.67 250.67 0 0 0 -0.57144 -0.21948 -0.79075 0.028722
0.042939 -0.0068274 1.072 8.021e-39 437.5 250.5 0 0 0 -0.60998 -0.2075 -0.76477 0.023825
0.044232 -0.0068333 1.073 7.7444e-39 438.5 250.5 0 0 0 -0.63305 -0.19989 -0.74786 0.017624
-0.061267 -0.0049546 1.0739 7.4678e-39 414 251 0 0 0 -0.27686 -0.79804 -0.53523 0.047404
-0.036704 -0.004946 1.072 8.2515e-39 480.5 251 0 0 0 0.45349 -0.47281 -0.75551 0.028169
-0.034852 -0.0049503 1.073 8.1132e-39 482 251 0 0 0 0.50568 -0.41349 -0.75717 0.0146
-0.032998 -0.0049546 1.0739 8.4359e-39 484.5 251 0 0 0 0.50181 -0.36829 -0.78266 0.014889
0.041111 -0.0049524 1.0734 6.9147e-39 227.5 252 0 0 0 -0.56194 -0.23428 -0.79331 0.026274
0.042939 -0.004946 1.072 7.3757e-39 229 252 0 0 0 -0.60212 -0.22517 -0.766 0.022717
0.044232 -0.0049503 1.073 7.1913e-39 230 252 0 0 0 -0.62825 -0.22513 -0.74472 0.016123
-0.061241 -0.003069 1.0734 1.1386e-38 224.5 252.5 0 0 0 -0.2824 -0.79337 -0.53927 0.042917
-0.034822 -0.0036918 1.072 6.9147e-39 399 252 0 0 0 0.5161 -0.41964 -0.74669 0.015338
-0.032977 -0.0030682 1.0732 7.0991e-39 314.25 252.5 0 0 0 0.5183 -0.37662 -0.76781 0.012524
-0.031114 -0.00307 1.0739 7.4218e-39 316 252.5 0 0 0 0.51172 -0.3493 -0.78494 0.011765
0.037988 -0.0024418 1.0739 7.6522e-39 421 253 0 0 0 -0.49719 -0.26187 -0.82718 0.02557
0.039245 -0.00307 1.0739 6.4076e-39 284.5 253 0 0 0 -0.52438 -0.25119 -0.81359 0.026617
0.041084 -0.0030668 1.0727 6.3384e-39 286 253 0 0 0 -0.57022 -0.24072 -0.78543 0.025146
0.042939 -0.0030647 1.072 5.9005e-39 295 253 0 0 0 -0.60284 -0.24211 -0.76024 0.019336
0.044193 -0.0030647 1.072 6.2232e-39 297.5 253 0 0 0 -0.63076 -0.23547 -0.73939 0.014721
-0.061161 -0.0011834 1.072 7.0069e-39 484 253 0 0 0 -0.28425 -0.79373 -0.53777 0.042643
-0.032955 -0.0011839 1.0725 5.67e-39 145.5 254 0 0 0 0.53524 -0.38543 -0.75164 0.011681
-0.031087 -0.0011844 1.073 5.2552e-39 147 254 0 0 0 0.52546 -0.36326 -0.76937 0.0098747
-0.029857 -0.0011854 1.0739 4.9786e-39 148 254 0 0 0 0.50195 -0.35098 -0.79048 0.010741
0.037988 -0.0011854 1.0739 6.7303e-39 235 254 0 0 0 -0.49251 -0.268 -0.82802 0.025051
0.039245 -0.0011854 1.0739 6.5459e-39 236 254 0 0 0 -0.51918 -0.2601 -0.81412 0.023974
0.041075 -0.0011839 1.0725 6.5459e-39 237.5 254 0 0 0 -0.56668 -0.25485 -0.78353 0.022229
0.042939 -0.0011834 1.072 7.0069e-39 239 254 0 0 0 -0.60638 -0.25096 -0.75453 0.016858
-0.032732 0.00048889 1.072 7.0069e-39 353 254.33 0 0 0 0.54348 -0.38527 -0.74579 0.01175
-0.031087 0.00069855 1.073 7.3296e-39 322.5 254.5 0 0 0 0.52766 -0.36713 -0.76602 0.00967
-0.029222 0.00069888 1.0737 7.4679e-39 324 254.5 0 0 0 0.50608 -0.35664 -0.7853 0.0092321
0.037558 0.00090818 1.0736 6.8532e-39 329 255 0 0 0 -0.48768 -0.26988 -0.83026 0.024553
0.039211 0.00069855 1.073 6.592e-39 286 255 0 0 0 -0.52834 -0.26407 -0.80692 0.023065
0.041075 0.00069823 1.0725 6.3384e-39 287.5 255 0 0 0 -0.57023 -0.26301 -0.77824 0.019681
0.042939 7.0829e-05 1.072 4.4254e-39 156 255 0 0 0 -0.60754 -0.25571 -0.75201 0.016191
-0.031073 0.0032075 1.0725 6.4998e-39 244.5 256 0 0 0 0.54685 -0.3485 -0.76125 0.012308
-0.029204 0.0032092 1.073 6.4537e-39 248.5 256 0 0 0 0.5228 -0.34118 -0.7812 0.011677
-0.026716 0.0032119 1.0739 6.1771e-39 253 256 0 0 0 0.45728 -0.33844 -0.82241 0.016033
0.035476 0.0038401 1.0739 7.1913e-39 479 256 0 0 0 -0.44005 -0.28505 -0.85153 0.023022
0.037327 0.0032089 1.073 7.2604e-39 350 256 0 0 0 -0.48925 -0.27831 -0.82655 0.024419
0.039177 0.0032064 1.072 6.8686e-39 351.5 256 0 0 0 -0.54116 -0.27562 -0.79447 0.020874
0.040431 0.0025793 1.072 7.1913e-39 222 256 0 0 0 -0.56025 -0.27471 -0.78144 0.018308
-0.029178 0.0050877 1.072 3.5957e-39 166 257 0 0 0 0.54481 -0.31271 -0.77807 0.018975
-0.026693 0.0050921 1.073 3.0886e-39 168.5 257 0 0 0 0.47758 -0.30731 -0.82309 0.02306
-0.024832 0.0050965 1.0739 3.1347e-39 170 257 0 0 0 0.41519 -0.30556 -0.85688 0.032687
0.0078348 0.0050965 1.0739 7.9288e-39 217 257 0 0 0 0.39833 -0.47764 -0.78307 0.12362
0.034847 0.0050965 1.0739 6.8225e-39 238.5 257 0 0 0 -0.41885 -0.29886 -0.85747 0.021551
0.037311 0.0050899 1.0725 6.9147e-39 240.5 257 0 0 0 -0.49212 -0.28865 -0.82128 0.02289
-0.029805 0.0063419 1.072 7.56e-39 404 257 0 0 0 0.55693 -0.30709 -0.7717 0.020221
-0.026681 0.006972 1.0725 7.9058e-39 309.5 257.5 0 0 0 0.48305 -0.29986 -0.82264 0.028282
-0.024821 0.0069778 1.0734 8.021e-39 311 257.5 0 0 0 0.4189 -0.29838 -0.85761 0.036724
-0.023575 0.0069811 1.0739 7.9749e-39 312 257.5 0 0 0 0.39083 -0.28682 -0.87464 0.042185
-0.007242 0.0063529 1.0739 8.1132e-39 438 257 0 0 0 -0.50497 -0.29542 -0.811 0.12471
0.0090833 0.0076027 1.073 7.2835e-39 231 258 0 0 0 0.41969 -0.38924 -0.81997 0.11292
0.01286 0.0069811 1.0739 7.053e-39 355.5 257.5 0 0 0 0.35719 -0.42863 -0.82988 0.07135
0.031278 0.0071883 1.0736 6.6381e-39 354.67 257.67 0 0 0 -0.32358 -0.32622 -0.88819 0.022963
0.032963 0.0069811 1.0739 5.8083e-39 403.5 257.5 0 0 0 -0.36839 -0.31874 -0.87332 0.020479
0.034825 0.0069764 1.0732 5.647e-39 405 257.5 0 0 0 -0.41858 -0.3173 -0.85094 0.021554
0.037086 0.00676 1.072 5.8083e-39 316.67 257.67 0 0 0 -0.4905 -0.31825 -0.81125 0.022037
-0.026043 0.0088504 1.072 7.7444e-39 422 258 0 0 0 0.48389 -0.28233 -0.82834 0.033454
-0.02481 0.008858 1.073 7.9288e-39 423 258 0 0 0 0.43292 -0.28023 -0.85677 0.041336
-0.022937 0.0088619 1.0734 7.8827e-39 424.5 258 0 0 0 0.36047 -0.28976 -0.88663 0.056203
0.010348 0.0088657 1.0739 7.0991e-39 478 258 0 0 0 0.36335 -0.3967 -0.84297 0.092749
0.012849 0.008858 1.073 6.9147e-39 480 258 0 0 0 0.37789 -0.36682 -0.85008 0.07699
0.031064 0.0088619 1.0734 4.4254e-39 546.5 258 0 0 0 -0.31863 -0.32797 -0.88933 0.024345
0.032934 0.008858 1.073 4.3332e-39 548 258 0 0 0 -0.37597 -0.32651 -0.8672 0.022038
0.034817 0.008858 1.073 5.3012e-39 343 258.5 0 0 0 -0.43198 -0.33495 -0.83738 0.022177
-0.026043 0.010732 1.072 7.2374e-39 311.5 259 0 0 0 0.49258 -0.2685 -0.82781 0.038203
-0.024799 0.010736 1.0725 7.514e-39 312.5 259 0 0 0 0.4386 -0.2713 -0.85676 0.047519
-0.022927 0.010741 1.073 7.6061e-39 314 259 0 0 0 0.36072 -0.27806 -0.89026 0.062113
-0.021062 0.011379 1.0739 7.9288e-39 427 259 0 0 0 0.26268 -0.29013 -0.92023 0.079033
-0.0072357 0.010741 1.073 8.6664e-39 330 259 0 0 0 -0.45258 -0.2917 -0.84266 0.11449
0.011173 0.010529 1.0726 6.8225e-39 314.67 259 0 0 0 0.40349 -0.31741 -0.85816 0.095142
0.012849 0.010113 1.073 7.3757e-39 232 259 0 0 0 0.39226 -0.33804 -0.85549 0.081765
0.014117 0.011379 1.0739 5.9927e-39 485 259 0 0 0 0.3198 -0.33989 -0.88442 0.080849
0.017886 0.011379 1.0739 7.2835e-39 540 259 0 0 0 0.095582 -0.38143 -0.91944 0.066419
0.019142 0.011379 1.0739 6.8225e-39 541 259 0 0 0 0.056466 -0.37328 -0.926 0.064678
0.02123 0.010957 1.0736 6.6074e-39 441.33 259 0 0 0 -0.017569 -0.37081 -0.92854 0.055378
0.022902 0.010746 1.0734 5.9928e-39 392 259 0 0 0 -0.060493 -0.3655 -0.92885 0.049243
0.024796 0.011379 1.0739 4.4254e-39 545.5 259 0 0 0 -0.12109 -0.35395 -0.92739 0.040456
0.027309 0.01075 1.0739 5.8775e-39 399 259 0 0 0 -0.20737 -0.34722 -0.91457 0.032416
0.029194 0.011379 1.0739 4.241e-39 549 259 0 0 0 -0.26021 -0.34102 -0.90333 0.028715
0.031045 0.010738 1.0727 6.3384e-39 302 259.25 0 0 0 -0.33165 -0.34255 -0.87901 0.02826
0.03292 0.010736 1.0725 6.6381e-39 200 259.5 0 0 0 -0.39221 -0.34155 -0.85412 0.023882
0.034794 0.010734 1.0723 6.4998e-39 201.5 259.5 0 0 0 -0.44295 -0.34904 -0.82581 0.023792
-0.024788 0.012613 1.072 8.021e-39 204 260 0 0 0 0.45137 -0.25462 -0.85524 0.054613
-0.022912 0.013243 1.0723 8.2745e-39 312.5 260 0 0 0 0.34462 -0.25442 -0.90361 0.079449
-0.021044 0.013252 1.073 8.6203e-39 314 260 0 0 0 0.25976 -0.25533 -0.93131 0.087996
-0.019382 0.013468 1.0736 8.0825e-39 351 260 0 0 0 0.17892 -0.26982 -0.94614 0.10556
-0.017293 0.013891 1.0739 7.6522e-39 424 260 0 0 0 0.042644 -0.29899 -0.9533 0.11982
-0.0084984 0.013263 1.0739 7.9749e-39 327.5 260 0 0 0 -0.4072 -0.2961 -0.86401 0.09571
-0.0072357 0.013252 1.073 8.2054e-39 328.5 260 0 0 0 -0.42044 -0.25329 -0.87125 0.10255
-0.0059752 0.013867 1.072 9.0352e-39 440 260 0 0 0 -0.41435 -0.094163 -0.90523 0.1214
0.014736 0.013254 1.0732 6.9147e-39 359 260 0 0 0 0.32126 -0.29344 -0.90038 0.085271
0.017258 0.013263 1.0739 6.2923e-39 361 260 0 0 0 0.14901 -0.34171 -0.92792 0.077441
0.019126 0.013252 1.073 5.9927e-39 362.5 260 0 0 0 0.099866 -0.3376 -0.93598 0.074109
0.021017 0.013257 1.0734 7.0299e-39 370.5 260 0 0 0 0.020295 -0.3525 -0.93559 0.062047
0.022892 0.013252 1.073 7.0991e-39 372 260 0 0 0 -0.032793 -0.3502 -0.9361 0.058149
0.024796 0.013263 1.0739 6.8686e-39 373.5 260 0 0 0 -0.1142 -0.34183 -0.9328 0.043779
0.027298 0.013257 1.0734 6.9608e-39 402 260 0 0 0 -0.19028 -0.35478 -0.91538 0.038271
0.029194 0.013263 1.0739 6.7303e-39 403.5 260 0 0 0 -0.25865 -0.34762 -0.90125 0.031052
0.031038 0.013246 1.0725 6.0158e-39 405 260 0 0 0 -0.33192 -0.3635 -0.87046 0.031639
0.032906 0.01324 1.072 5.7622e-39 406.5 260 0 0 0 -0.40216 -0.35369 -0.84449 0.026788
0.034578 0.013031 1.072 6.0849e-39 361.33 260 0 0 0 -0.44172 -0.34952 -0.82627 0.025461
-0.02228 0.015121 1.072 8.2976e-39 202 261 0 0 0 0.32912 -0.22539 -0.91699 0.09339
-0.021026 0.015121 1.072 8.021e-39 203 261 0 0 0 0.2446 -0.23031 -0.94187 0.10462
-0.019161 0.015135 1.073 8.2515e-39 204.5 261 0 0 0 0.17395 -0.2404 -0.95496 0.11484
-0.016665 0.015148 1.0739 8.8047e-39 206.5 261 0 0 0 0.0015792 -0.29397 -0.95581 0.12495
-0.0084984 0.015148 1.0739 8.2054e-39 213 261 0 0 0 -0.39936 -0.2742 -0.87483 0.092891
-0.007242 0.015148 1.0739 7.8366e-39 214 261 0 0 0 -0.37762 -0.24486 -0.893 0.092617
-0.0059752 0.015121 1.072 7.4678e-39 215 261 0 0 0 -0.39058 -0.087313 -0.91642 0.11259
0.01536 0.015135 1.073 6.8225e-39 234 261 0 0 0 0.31744 -0.27617 -0.90717 0.087749
0.017258 0.015148 1.0739 6.4076e-39 235.5 261 0 0 0 0.17281 -0.30392 -0.93689 0.07804
0.019126 0.015135 1.073 6.4537e-39 237 261 0 0 0 0.12026 -0.30175 -0.94577 0.074812
0.021027 0.015148 1.0739 6.9608e-39 238.5 261 0 0 0 0.040164 -0.31245 -0.94908 0.06624
0.022892 0.015135 1.073 6.8225e-39 240 261 0 0 0 -0.018684 -0.32093 -0.94692 0.061536
0.024796 0.015148 1.0739 6.4998e-39 241.5 261 0 0 0 -0.10229 -0.32228 -0.9411 0.047839
0.027298 0.015142 1.0734 7.2374e-39 250 261 0 0 0 -0.18309 -0.33539 -0.92412 0.042882
0.029194 0.015148 1.0739 8.1132e-39 258 261 0 0 0 -0.26307 -0.34313 -0.9017 0.034045
0.031038 0.015128 1.0725 7.8366e-39 259.5 261 0 0 0 -0.32105 -0.36552 -0.87368 0.035217
0.03416 0.015121 1.072 7.0069e-39 262 261 0 0 0 -0.43279 -0.35683 -0.82787 0.026735
-0.02228 0.017003 1.072 5.8544e-39 290.5 261.5 0 0 0 0.30924 -0.18967 -0.93188 0.099679
-0.021026 0.017003 1.072 6.2693e-39 291.5 261.5 0 0 0 0.24144 -0.20903 -0.94764 0.10657
-0.019152 0.01701 1.0725 6.6842e-39 293 261.5 0 0 0 0.14354 -0.22212 -0.96439 0.12188
-0.016654 0.017021 1.0732 6.3615e-39 295 261.5 0 0 0 -0.012345 -0.27235 -0.96212 0.13172
-0.0084984 0.017033 1.0739 7.1452e-39 304.5 261.5 0 0 0 -0.40288 -0.16807 -0.89969 0.089794
-0.0072388 0.017024 1.0734 6.9608e-39 305.5 261.5 0 0 0 -0.37606 -0.13115 -0.91727 0.090064
-0.0059752 0.017003 1.072 7.2374e-39 306.5 261.5 0 0 0 -0.37493 0.0059614 -0.92703 0.099183
0.01536 0.017017 1.073 8.7585e-39 326.5 261.5 0 0 0 0.31545 -0.23827 -0.91854 0.084371
0.01725 0.017025 1.0734 8.6433e-39 328 261.5 0 0 0 0.22944 -0.26082 -0.93773 0.080319
0.019126 0.017017 1.073 8.0671e-39 329.5 261.5 0 0 0 0.14288 -0.26089 -0.95473 0.076524
0.021027 0.017032 1.0739 7.9289e-39 331 261.5 0 0 0 0.048095 -0.2814 -0.95838 0.064032
0.022892 0.017017 1.073 7.9288e-39 332.5 261.5 0 0 0 -0.016365 -0.29401 -0.95566 0.061365
0.024796 0.017032 1.0739 8.021e-39 334 261.5 0 0 0 -0.10918 -0.29081 -0.95053 0.050495
0.027298 0.017025 1.0734 8.2055e-39 336 261.5 0 0 0 -0.17406 -0.31575 -0.93274 0.047904
0.029181 0.017024 1.0734 8.2054e-39 337.5 261.5 0 0 0 -0.26571 -0.33277 -0.9048 0.03548
0.030411 0.01701 1.0725 8.1132e-39 342.5 261.5 0 0 0 -0.30739 -0.35521 -0.8828 0.038064
-0.02228 0.018884 1.072 7.0991e-39 377 262 0 0 0 0.32123 -0.14183 -0.93632 0.10016
-0.021026 0.018884 1.072 6.9147e-39 378 262 0 0 0 0.23891 -0.15477 -0.95863 0.11166
-0.019152 0.018893 1.0725 7.5601e-39 379.5 262 0 0 0 0.14285 -0.18269 -0.97274 0.11637
-0.016651 0.018901 1.073 7.6522e-39 381.5 262 0 0 0 -0.0015239 -0.24659 -0.96912 0.13198
-0.0091266 0.018917 1.0739 6.8686e-39 387.5 262 0 0 0 -0.40766 -0.097429 -0.90792 0.10022
-0.0072357 0.018901 1.073 6.8225e-39 392 262 0 0 0 -0.38462 -0.0023554 -0.92307 0.084273
0.01536 0.018901 1.073 7.3757e-39 415 262 0 0 0 0.32835 -0.1919 -0.92485 0.084159
0.017242 0.018901 1.073 6.6842e-39 416.5 262 0 0 0 0.26909 -0.20235 -0.94162 0.083077
0.019126 0.018901 1.073 6.6381e-39 418 262 0 0 0 0.17368 -0.21716 -0.96056 0.077007
0.021027 0.018917 1.0739 7.6522e-39 419.5 262 0 0 0 0.069935 -0.25412 -0.96464 0.06353
0.022892 0.018901 1.073 8.2054e-39 421 262 0 0 0 -0.006489 -0.25902 -0.96585 0.061913
0.024796 0.018917 1.0739 7.8827e-39 422.5 262 0 0 0 -0.098756 -0.26965 -0.95788 0.050359
0.027309 0.018917 1.0739 8.3898e-39 424.5 262 0 0 0 -0.18875 -0.2875 -0.939 0.046969
0.029168 0.018901 1.073 9.0352e-39 426 262 0 0 0 -0.27289 -0.31507 -0.90899 0.039929
0.030424 0.018901 1.073 9.4961e-39 427 262 0 0 0 -0.29541 -0.33337 -0.89532 0.039707
-0.026043 0.021393 1.072 7.0069e-39 238 263 0 0 0 0.49944 -0.071828 -0.86336 0.074757
-0.024799 0.020774 1.0725 6.6842e-39 361.5 262.5 0 0 0 0.43159 -0.084949 -0.89806 0.080298
-0.022917 0.020775 1.0725 6.569e-39 363 262.5 0 0 0 0.32323 -0.081966 -0.94276 0.097528
-0.021053 0.020793 1.0734 6.592e-39 364.5 262.5 0 0 0 0.25441 -0.094977 -0.96242 0.10223
-0.019161 0.020784 1.073 7.1913e-39 395.5 262.5 0 0 0 0.14539 -0.11288 -0.98291 0.11663
-0.016658 0.020793 1.0734 7.3065e-39 400.5 262.5 0 0 0 -0.0018303 -0.22546 -0.97425 0.13227
-0.012896 0.020173 1.0739 4.3332e-39 546.5 262 0 0 0 -0.23728 -0.28771 -0.92786 0.12183
-0.0091248 0.020797 1.0737 5.6701e-39 406.5 262.5 0 0 0 -0.38627 -0.045762 -0.92125 0.097108
-0.0072325 0.020774 1.0725 5.8544e-39 408 262.5 0 0 0 -0.39414 0.14334 -0.9078 0.080419
-0.0059752 0.021393 1.072 7.2835e-39 266 263 0 0 0 -0.35511 0.24863 -0.90115 0.081374
0.015346 0.020765 1.072 5.3473e-39 233 263 0 0 0 0.34881 -0.13945 -0.92676 0.083709
0.017242 0.020784 1.073 5.0938e-39 248.75 263 0 0 0 0.27932 -0.16357 -0.94617 0.079973
0.019118 0.020774 1.0725 5.0246e-39 264.5 263 0 0 0 0.18736 -0.17175 -0.96716 0.075818
0.021027 0.020801 1.0739 5.0938e-39 266 263 0 0 0 0.098032 -0.20033 -0.97481 0.064443
0.022892 0.020783 1.073 4.8864e-39 272.5 263 0 0 0 0.01253 -0.22759 -0.97368 0.065179
0.024796 0.020173 1.0739 4.9785e-39 184.5 263 0 0 0 -0.062325 -0.24108 -0.9685 0.051036
0.0271 0.020592 1.0739 6.0542e-39 248 263 0 0 0 -0.16672 -0.2605 -0.95097 0.051257
0.029194 0.020801 1.0739 6.5459e-39 280.5 263 0 0 0 -0.24759 -0.27179 -0.92996 0.041464
0.031044 0.020779 1.0727 6.6381e-39 282.25 263 0 0 0 -0.3268 -0.32608 -0.88706 0.038292
0.032906 0.021393 1.072 7.0991e-39 377 263 0 0 0 -0.3986 -0.35273 -0.84658 0.036267
0.034787 0.020766 1.072 7.6522e-39 285.5 263 0 0 0 -0.45793 -0.37855 -0.80436 0.033444
-0.032314 0.023901 1.072 4.5176e-39 550 263 0 0 0 0.66825 -0.087066 -0.73883 0.061046
-0.03106 0.023901 1.072 4.241e-39 551 263 0 0 0 0.64039 -0.066559 -0.76516 0.06426
-0.029178 0.022647 1.072 7.053e-39 418.5 263 0 0 0 0.59089 -0.053059 -0.80501 0.064558
-0.026692 0.022667 1.073 8.2976e-39 420.5 263 0 0 0 0.48818 -0.039417 -0.87185 0.074404
-0.024832 0.022686 1.0739 8.482e-39 422 263 0 0 0 0.39958 -0.033853 -0.91607 0.081835
-0.023575 0.022686 1.0739 8.7586e-39 423 263 0 0 0 0.35498 -0.052956 -0.93337 0.08943
-0.019806 0.022686 1.0739 9.2196e-39 426 263 0 0 0 0.179 -0.063659 -0.98179 0.11221
0.015346 0.023274 1.072 7.8366e-39 322 263.5 0 0 0 0.36222 -0.044174 -0.93105 0.076658
0.017232 0.023279 1.0723 7.7675e-39 323.5 263.5 0 0 0 0.32058 -0.061023 -0.94525 0.076538
0.019126 0.023294 1.073 7.7905e-39 325 263.5 0 0 0 0.19925 -0.11282 -0.97343 0.071354
0.020818 0.023105 1.0739 7.6523e-39 371 263.33 0 0 0 0.1249 -0.13614 -0.98279 0.06404
0.022892 0.023294 1.073 7.1452e-39 328 263.5 0 0 0 0.034599 -0.16384 -0.98588 0.060557
0.015346 0.025155 1.072 6.6381e-39 241 264 0 0 0 0.37094 0.033262 -0.92806 0.068755
0.017228 0.025155 1.072 7.053e-39 242.5 264 0 0 0 0.31168 0.008453 -0.95015 0.070688
0.019109 0.025155 1.072 7.9288e-39 256 264 0 0 0 0.23252 -0.022827 -0.97232 0.068771
0.020399 0.025199 1.0739 8.1132e-39 257 264 0 0 0 0.16571 -0.058897 -0.98441 0.064024
0.022912 0.025199 1.0739 8.1132e-39 259 264 0 0 0 0.093114 -0.054089 -0.99419 0.052798
0.011584 0.027664 1.072 7.4678e-39 407 264 0 0 0 0.38412 0.12705 -0.9145 0.068732
0.012849 0.027688 1.073 7.56e-39 408 264 0 0 0 0.40076 0.10714 -0.9099 0.062676
0.014933 0.027254 1.0723 7.3142e-39 396.67 264 0 0 0 0.38418 0.10779 -0.91694 0.060825
0.017235 0.027048 1.0725 7.4909e-39 392 264 0 0 0 0.31575 0.081784 -0.94531 0.061839
0.019134 0.027072 1.0734 7.6522e-39 393.5 264 0 0 0 0.24949 0.060618 -0.96648 0.060778
0.020399 0.026455 1.0739 6.7303e-39 374 264 0 0 0 0.19015 -0.0036846 -0.98175 0.059056
0.010962 0.028931 1.0725 9.3579e-39 450.5 264 0 0 0 0.36975 0.19838 -0.9077 0.070363
0.01286 0.028968 1.0739 8.943e-39 452 264 0 0 0 0.42672 0.17327 -0.88763 0.0505
0.014117 0.028968 1.0739 8.482e-39 454 264 0 0 0 0.42056 0.16132 -0.89281 0.049375
0.0078212 0.031426 1.072 7.56e-39 225 265 0 0 0 0.24807 0.3828 -0.8899 0.08405
0.0090794 0.030813 1.0725 6.4997e-39 182.5 265 0 0 0 0.33181 0.30358 -0.89316 0.070119
0.010348 0.030225 1.0739 5.8083e-39 166 265 0 0 0 0.36684 0.24171 -0.89833 0.059136
0.016601 0.067799 1.072 7.4678e-39 382 270 0 0 0 0.40658 0.68577 -0.60366 0.05894
0.019126 0.067857 1.073 7.2835e-39 384 270 0 0 0 0.46369 0.67668 -0.57193 0.058318
0.014725 0.070338 1.0725 8.943e-39 423.5 270 0 0 0 0.45854 0.58561 -0.66843 0.06546
0.012838 0.072815 1.072 7.0069e-39 470 270 0 0 0 0.48186 0.53155 -0.69661 0.060378
0.0090754 0.075324 1.072 6.1771e-39 172 271 0 0 0 0.48483 0.46466 -0.74097 0.058117
0.012844 0.07473 1.0725 6.6842e-39 359.5 270.5 0 0 0 0.48901 0.46735 -0.73652 0.059152
0.0074054 0.077437 1.0723 7.56e-39 196.67 271 0 0 0 0.43879 0.43464 -0.78648 0.065543
0.0090794 0.077239 1.0725 7.4218e-39 195.5 271 0 0 0 0.46713 0.41872 -0.77876 0.061716
0.010957 0.077205 1.072 7.3296e-39 197.25 271 0 0 0 0.4742 0.41102 -0.77859 0.05994
0.012844 0.077239 1.0725 7.5601e-39 200 271 0 0 0 0.47386 0.39332 -0.78788 0.061905
0.014117 0.07734 1.0739 7.1452e-39 201.5 271 0 0 0 0.47405 0.37224 -0.79795 0.06124
0.0071975 0.079121 1.0725 6.6842e-39 229.5 271 0 0 0 0.42354 0.41505 -0.8052 0.074341
0.0090833 0.079155 1.073 6.9147e-39 231 271 0 0 0 0.41761 0.37761 -0.82645 0.072754
0.010957 0.079087 1.072 6.7764e-39 232.5 271 0 0 0 0.45708 0.37462 -0.80669 0.063185
0.012838 0.079087 1.072 6.2693e-39 234 271 0 0 0 0.4566 0.35425 -0.8161 0.062853
0.014117 0.079224 1.0739 5.9005e-39 235 271 0 0 0 0.45564 0.33156 -0.82611 0.067171
0.0028043 0.081595 1.072 7.6522e-39 265 271 0 0 0 0.35015 0.39188 -0.85078 0.083178
0.0071975 0.081003 1.0725 6.6612e-39 256 271 0 0 0 0.37606 0.3649 -0.85172 0.079836
0.0090833 0.081039 1.073 6.9608e-39 257.5 271 0 0 0 0.37289 0.34814 -0.86009 0.07887
0.010957 0.080968 1.072 7.1682e-39 259 271 0 0 0 0.41754 0.34586 -0.84026 0.070463
0.012838 0.080968 1.072 7.3296e-39 260.5 271 0 0 0 0.41734 0.31969 -0.85066 0.065933
0.014117 0.081109 1.0739 7.1913e-39 267.5 271 0 0 0 0.40569 0.27704 -0.87101 0.068179
0.0028043 0.082849 1.072 6.7303e-39 279 271 0 0 0 0.33656 0.36504 -0.86803 0.084485
0.0072004 0.082921 1.073 6.4076e-39 282.5 271 0 0 0 0.29639 0.32223 -0.89907 0.086297
0.0090833 0.082921 1.073 6.2693e-39 284 271 0 0 0 0.31055 0.30445 -0.90048 0.08557
0.010961 0.082885 1.0725 6.4998e-39 285.5 271 0 0 0 0.34286 0.28727 -0.89439 0.079324
0.012838 0.082849 1.072 6.9147e-39 287 271 0 0 0 0.39416 0.25944 -0.88166 0.065763
0.014117 0.082993 1.0739 7.0991e-39 288 271 0 0 0 0.37581 0.23719 -0.89583 0.065039
0.00092299 0.08473 1.072 6.1771e-39 323 271 0 0 0 0.21236 0.29824 -0.93057 0.084304
0.0028055 0.084768 1.0725 6.4076e-39 324.5 271 0 0 0 0.28535 0.29289 -0.91257 0.089328
0.0048946 0.08494 1.072 6.6688e-39 336.33 271 0 0 0 0.29056 0.27548 -0.91635 0.090088
0.0072004 0.084804 1.073 6.2923e-39 328 271 0 0 0 0.23824 0.25132 -0.93813 0.087486
0.0090833 0.084804 1.073 5.9466e-39 329.5 271 0 0 0 0.24204 0.22982 -0.94266 0.086066
0.010964 0.084786 1.0727 6.3154e-39 354 271 0 0 0 0.28403 0.21287 -0.93489 0.077351
0.012849 0.084804 1.073 6.4998e-39 355.5 271 0 0 0 0.32157 0.20756 -0.92386 0.067301
0.014105 0.084804 1.073 6.6381e-39 356.5 271 0 0 0 0.33954 0.1913 -0.92093 0.059883
0.00071455 0.087105 1.073 7.3449e-39 375 271 0 0 0 0.18541 0.21321 -0.95925 0.090155
0.0028067 0.086687 1.073 7.3757e-39 371 271 0 0 0 0.24846 0.23843 -0.93884 0.09248
0.0046856 0.087239 1.072 7.1913e-39 381 271 0 0 0 0.20228 0.2001 -0.95867 0.08881
0.0072066 0.086762 1.0739 6.9608e-39 374.5 271 0 0 0 0.18087 0.18962 -0.96505 0.091828
0.0090912 0.086762 1.0739 7.56e-39 376 271 0 0 0 0.1848 0.18142 -0.96589 0.087518
0.011179 0.08713 1.0733 7.7444e-39 384 271 0 0 0 0.22173 0.16109 -0.96171 0.078661
0.012849 0.087315 1.073 7.7905e-39 388.5 271 0 0 0 0.26607 0.13646 -0.95425 0.062806
0.014105 0.087315 1.073 7.6983e-39 389.5 271 0 0 0 0.30979 0.13178 -0.94163 0.052904
0.0011339 0.088831 1.0736 8.6664e-39 400 271 0 0 0 0.14534 0.17271 -0.97419 0.087528
0.0028092 0.088647 1.0739 8.4359e-39 398 271 0 0 0 0.16284 0.1617 -0.97331 0.08756
0.0046898 0.089198 1.073 9.5883e-39 409.5 271 0 0 0 0.13644 0.15006 -0.97922 0.082807
0.0072066 0.088647 1.0739 8.482e-39 402.5 271 0 0 0 0.16383 0.15216 -0.97468 0.086477
0.0090912 0.088647 1.0739 8.4823e-39 404 271 0 0 0 0.14532 0.14801 -0.97825 0.085786
0.010763 0.088831 1.0736 9.619e-39 408.33 271 0 0 0 0.16726 0.13834 -0.97616 0.07962
0.012849 0.089198 1.073 9.4961e-39 416 271 0 0 0 0.27295 0.11301 -0.95537 0.059099
0.014117 0.089275 1.0739 8.5742e-39 417 271 0 0 0 0.2896 0.096413 -0.95228 0.05308
-0.00095835 0.091629 1.072 7.1913e-39 446 271 0 0 0 -0.057913 0.159 -0.98558 0.069754
0.00071519 0.090951 1.0739 8.2669e-39 431.33 271 0 0 0 0.10159 0.1427 -0.98454 0.08547
0.0028092 0.09116 1.0739 7.6061e-39 437 271 0 0 0 0.1006 0.13394 -0.98587 0.08357
0.0046906 0.0911 1.0732 7.4448e-39 438.5 271 0 0 0 0.10012 0.14319 -0.98462 0.080662
0.0090912 0.09116 1.0739 7.7905e-39 445.5 271 0 0 0 0.13252 0.11739 -0.9842 0.082968
0.010976 0.09116 1.0739 8.1593e-39 447 271 0 0 0 0.1484 0.10831 -0.98298 0.080567
0.012849 0.091081 1.073 8.2516e-39 448.5 271 0 0 0 0.2638 0.091673 -0.96021 0.058464
0.014117 0.09116 1.0739 7.5601e-39 449.5 271 0 0 0 0.27239 0.084375 -0.95848 0.058259
-0.00095835 0.092883 1.072 6.6381e-39 462 271 0 0 0 -0.079409 0.1562 -0.98453 0.072487
0.00029639 0.093044 1.0739 6.4537e-39 463 271 0 0 0 -0.0074703 0.14591 -0.98927 0.077833
0.0028092 0.093044 1.0739 6.2693e-39 465 271 0 0 0 0.063363 0.12791 -0.98976 0.085672
0.0046938 0.093044 1.0739 6.131e-39 466.5 271 0 0 0 0.068246 0.13808 -0.98807 0.0826
0.0090912 0.093044 1.0739 7.1913e-39 470 271 0 0 0 0.1104 0.12192 -0.98638 0.08745
0.010976 0.093044 1.0739 7.5139e-39 471.5 271 0 0 0 0.10619 0.10689 -0.98858 0.088358
0.012849 0.092964 1.073 6.8225e-39 476 271 0 0 0 0.25743 0.093908 -0.96172 0.063362
-0.00095959 0.094888 1.0734 4.0566e-39 515.5 271 0 0 0 -0.097665 0.17217 -0.98021 0.072999
0.00029639 0.094301 1.0739 5.9005e-39 482 271 0 0 0 -0.046343 0.15692 -0.98652 0.078295
0.0028092 0.094301 1.0739 6.3615e-39 484 271 0 0 0 0.020113 0.15357 -0.98793 0.082584
0.0049032 0.09472 1.0739 6.1156e-39 374.33 271.33 0 0 0 0.050544 0.15963 -0.98588 0.085974
0.0090912 0.094929 1.0739 6.4537e-39 329 271.5 0 0 0 0.097118 0.14229 -0.98505 0.093292
0.010976 0.094929 1.0739 6.6151e-39 357 271.5 0 0 0 0.099187 0.13024 -0.98651 0.095429
0.012854 0.094888 1.0734 6.6381e-39 358.5 271.5 0 0 0 0.24017 0.1129 -0.96414 0.075841
0.01663 0.095557 1.0739 6.1771e-39 175 272 0 0 0 0.34827 0.11359 -0.93049 0.061742
-0.00095959 0.0974 1.0734 7.3296e-39 186 272 0 0 0 -0.16852 0.21206 -0.96262 0.077229
0.00092459 0.096814 1.0739 6.0849e-39 179 272 0 0 0 -0.10763 0.21426 -0.97083 0.079066
0.0028092 0.096814 1.0739 5.9927e-39 181 272 0 0 0 -0.045411 0.20615 -0.97747 0.085115
0.0046938 0.096814 1.0739 6.4998e-39 182.5 272 0 0 0 0.010904 0.18443 -0.98279 0.0943
0.0090912 0.096814 1.0739 7.6522e-39 186 272 0 0 0 0.076413 0.17831 -0.981 0.097646
0.010976 0.096814 1.0739 7.2835e-39 187.5 272 0 0 0 0.092752 0.17087 -0.98092 0.096224
0.012854 0.0974 1.0734 6.9608e-39 199.5 272 0 0 0 0.29668 0.1701 -0.9397 0.076292
0.017243 0.097357 1.073 7.3526e-39 205.25 272 0 0 0 0.35304 0.12114 -0.92773 0.069849
-0.00095918 0.09924 1.073 7.1913e-39 224 272 0 0 0 -0.21564 0.2452 -0.94518 0.077863
0.00092459 0.098698 1.0739 7.2604e-39 211.75 272 0 0 0 -0.13879 0.24333 -0.95996 0.082062
0.0028092 0.098698 1.0739 7.0068e-39 213.5 272 0 0 0 -0.084181 0.23984 -0.96716 0.088956
0.0046938 0.09807 1.0739 7.5139e-39 200.5 272 0 0 0 -0.04703 0.21823 -0.97476 0.088749
0.0090912 0.09807 1.0739 7.1913e-39 204 272 0 0 0 0.044014 0.18432 -0.98188 0.10485
0.010976 0.098698 1.0739 6.569e-39 221 272 0 0 0 0.15895 0.19699 -0.96744 0.095239
0.01286 0.099326 1.0739 6.5459e-39 236 272 0 0 0 0.28569 0.21807 -0.93318 0.087692
0.014117 0.09807 1.0739 6.6381e-39 211 272 0 0 0 0.32941 0.18033 -0.92681 0.073151
0.017235 0.099197 1.0725 6.7764e-39 239.5 272 0 0 0 0.32446 0.14562 -0.93462 0.074295
0.019126 0.09924 1.073 6.2693e-39 241 272 0 0 0 0.37899 0.14056 -0.91466 0.092754
-0.00095835 0.10041 1.072 6.0849e-39 242 272 0 0 0 -0.24425 0.25247 -0.93627 0.080498
0.00092418 0.10116 1.0734 6.8225e-39 257.5 272 0 0 0 -0.19965 0.27884 -0.93936 0.083226
0.0028092 0.10184 1.0739 7.3757e-39 273 272 0 0 0 -0.16497 0.29918 -0.93983 0.086718
0.010348 0.10184 1.0739 6.3615e-39 279 272 0 0 0 0.1128 0.30424 -0.94589 0.085423
0.017231 0.10106 1.0723 6.8225e-39 276 272 0 0 0 0.27327 0.22124 -0.93615 0.075191
0.019126 0.1005 1.073 7.3757e-39 269 272 0 0 0 0.36505 0.16282 -0.91664 0.08999
0.00092299 0.10292 1.072 6.9147e-39 287.5 272 0 0 0 -0.24854 0.29344 -0.9231 0.084742
0.0028067 0.10301 1.073 6.9147e-39 289 272 0 0 0 -0.21224 0.31642 -0.92457 0.083612
0.0040656 0.1031 1.0739 6.7303e-39 290 272 0 0 0 -0.17709 0.3171 -0.93171 0.087072
0.0090912 0.1031 1.0739 6.1771e-39 294 272 0 0 0 0.07477 0.34085 -0.93714 0.084045
0.010976 0.1031 1.0739 6.592e-39 295.5 272 0 0 0 0.15669 0.34775 -0.9244 0.078992
0.01286 0.1031 1.0739 6.1771e-39 297 272 0 0 0 0.24768 0.33754 -0.90814 0.068208
0.017228 0.10292 1.072 5.8544e-39 323 272 0 0 0 0.27506 0.2794 -0.91993 0.080793
0.0015501 0.10417 1.072 6.8225e-39 349 272 0 0 0 -0.21239 0.34219 -0.91531 0.08118
0.0028043 0.1048 1.072 6.592e-39 358 272 0 0 0 -0.1744 0.36047 -0.91632 0.078889
