# .PCD v.7 - Point Cloud Data file format
VERSION .7
FIELDS x y z rgb u v vx vy vz normal_x normal_y normal_z curvature
SIZE 4 4 4 4 4 4 4 4 4 4 4 4 4
TYPE F F F F F F F F F F F F F
COUNT 1 1 1 1 1 1 1 1 1 1 1 1 1
WIDTH 550
HEIGHT 1
VIEWPOINT 0 0 0 1 0 0 0
POINTS 550
DATA ascii
0.26985 0.20745 0.84414 1.2354e-38 443 314 0 0 0 0.81915 0.30059 -0.4885 0.0087218
0.27102 0.20759 0.84471 1.2262e-38 444 314 0 0 0 0.82022 0.29884 -0.48779 0.0096818
0.27238 0.20689 0.84587 1.2539e-38 371 314 0 0 0 0.81655 0.30318 -0.49126 0.01112
0.22389 0.20936 0.84587 7.8827e-39 185 315 0 0 0 -0.60222 0.3093 -0.73597 0.0023253
0.2253 0.20929 0.84558 8.021e-39 186.5 315 0 0 0 -0.60255 0.30981 -0.7355 0.0023843
0.22639 0.20943 0.84414 9.0352e-39 226 315 0 0 0 -0.6046 0.31071 -0.73343 0.0024435
0.27055 0.20905 0.84529 7.9595e-39 217.67 315 0 0 0 0.82001 0.29331 -0.49148 0.010575
0.22389 0.21085 0.84587 1.1063e-38 293 315 0 0 0 -0.6019 0.30782 -0.73686 0.0025193
0.22587 0.21135 0.84587 1.5028e-38 337.5 315 0 0 0 -0.60345 0.30775 -0.73562 0.0025943
0.22677 0.21112 0.84433 1.3707e-38 353 315 0 0 0 -0.60435 0.30985 -0.734 0.0025799
0.22587 0.21283 0.84587 1.1893e-38 446 315 0 0 0 -0.60269 0.31119 -0.7348 0.0027544
0.2272 0.21318 0.84529 9.1964e-39 317 315.5 0 0 0 -0.60282 0.31159 -0.73452 0.0027713
0.22844 0.21295 0.84442 9.3117e-39 319 315.5 0 0 0 -0.60504 0.31043 -0.73319 0.0026988
0.22747 0.21509 0.84568 1.0418e-38 270.67 316 0 0 0 -0.60197 0.31778 -0.73256 0.0028729
0.22885 0.21517 0.84471 1.3e-38 290.33 316 0 0 0 -0.60385 0.31436 -0.73249 0.0029443
0.22917 0.21713 0.84529 1.0994e-38 397 316 0 0 0 -0.60198 0.32489 -0.72943 0.0031399
0.231 0.21699 0.84471 1.1501e-38 399 316 0 0 0 -0.60308 0.32076 -0.73035 0.0030649
0.22983 0.21876 0.84587 6.9147e-39 142 317 0 0 0 -0.60134 0.33473 -0.7255 0.0031965
0.23143 0.21904 0.84568 6.7918e-39 158.33 317 0 0 0 -0.60205 0.33252 -0.72593 0.0031853
0.2329 0.21937 0.84442 7.4218e-39 193.5 317 0 0 0 -0.60135 0.32894 -0.72813 0.002968
0.23335 0.22097 0.84548 1.0818e-38 256 317 0 0 0 -0.60057 0.34175 -0.72286 0.0030654
0.23453 0.22101 0.845 1.1386e-38 264.5 317 0 0 0 -0.59962 0.3425 -0.72329 0.0028232
0.23503 0.22249 0.84501 1.5766e-38 341.5 317 0 0 0 -0.59881 0.3502 -0.72027 0.0026993
0.17156 0.095125 0.84645 1.0787e-38 260 266 0 0 0 -0.68261 -0.45768 -0.56972 0.13283
0.20699 0.095256 0.84761 9.1735e-39 318.5 266 0 0 0 -0.036448 -0.90948 -0.41414 0.0037825
0.20884 0.095191 0.84703 8.943e-39 337.5 266 0 0 0 -0.0361 -0.9065 -0.42065 0.0035447
0.21081 0.095191 0.84703 8.6203e-39 339.5 266 0 0 0 -0.034292 -0.90542 -0.42312 0.0035047
0.2128 0.095191 0.84703 8.943e-39 341.5 266 0 0 0 -0.027796 -0.90544 -0.42357 0.0035916
0.21493 0.095256 0.84761 9.6344e-39 343.5 266 0 0 0 -0.020496 -0.90621 -0.42234 0.0038284
0.21691 0.095256 0.84761 9.2195e-39 345.5 266 0 0 0 -0.012116 -0.90671 -0.42157 0.0037803
0.2184 0.095256 0.84761 8.7586e-39 347 266 0 0 0 -0.0067058 -0.9091 -0.41653 0.0038466
0.22733 0.095256 0.84761 9.7727e-39 356 266 0 0 0 0.010969 -0.91604 -0.40094 0.0035722
0.17142 0.096556 0.84742 6.761e-39 463 266.33 0 0 0 -0.73541 -0.41931 -0.5323 0.12139
0.17278 0.096744 0.84761 6.8686e-39 440 266.5 0 0 0 -0.69879 -0.45838 -0.54916 0.12348
0.17774 0.097239 0.84761 7.0069e-39 372 267 0 0 0 -0.52113 -0.57792 -0.62804 0.12474
0.17917 0.097206 0.84732 6.3154e-39 388.5 267 0 0 0 -0.45413 -0.6085 -0.65076 0.11914
0.18115 0.096711 0.84732 6.5459e-39 284.5 267 0 0 0 -0.33074 -0.68151 -0.6528 0.10935
0.18307 0.096677 0.84703 6.9608e-39 286.5 267 0 0 0 -0.25338 -0.71514 -0.65143 0.09552
0.18506 0.097172 0.84703 8.2515e-39 394.5 267 0 0 0 -0.21909 -0.73036 -0.64697 0.084132
0.18654 0.097173 0.84703 8.5742e-39 396 267 0 0 0 -0.19547 -0.74846 -0.63372 0.075875
0.19107 0.097206 0.84732 9.3578e-39 400.5 267 0 0 0 -0.13959 -0.79894 -0.58498 0.044191
0.20315 0.096887 0.84742 8.7586e-39 348.33 267 0 0 0 -0.047877 -0.90274 -0.42751 0.0041091
0.2048 0.096644 0.84674 8.1363e-39 318 267 0 0 0 -0.043377 -0.90355 -0.42627 0.0036965
0.20672 0.096116 0.84645 7.9288e-39 223.5 267 0 0 0 -0.036758 -0.90497 -0.42389 0.0034079
0.21117 0.096116 0.84645 7.8366e-39 230 267 0 0 0 -0.033154 -0.90444 -0.42531 0.0034467
0.21266 0.096116 0.84645 8.1132e-39 231.5 267 0 0 0 -0.029087 -0.90449 -0.42549 0.0035447
0.21471 0.096149 0.84674 7.3757e-39 233.5 267 0 0 0 -0.022922 -0.90411 -0.42669 0.0035366
0.21677 0.096182 0.84703 7.2835e-39 235.5 267 0 0 0 -0.013677 -0.90581 -0.42347 0.003676
0.21891 0.096512 0.84703 7.6522e-39 301.33 267 0 0 0 -0.004346 -0.90667 -0.42181 0.003715
0.22061 0.096865 0.84722 7.9596e-39 366.67 267 0 0 0 0.00389 -0.90782 -0.41933 0.0035949
0.22255 0.096512 0.84703 8.9737e-39 305 267 0 0 0 0.0086866 -0.90783 -0.41926 0.0034578
0.22477 0.096215 0.84732 1.0003e-38 243.5 267 0 0 0 0.0091243 -0.91096 -0.4124 0.0036219
0.22618 0.096182 0.84703 1.0418e-38 245 267 0 0 0 0.0085889 -0.91283 -0.40826 0.0036071
0.22965 0.096677 0.84703 9.4499e-39 344 267 0 0 0 0.0021091 -0.91724 -0.39833 0.0033702
0.23129 0.096248 0.84761 1.134e-38 250 267 0 0 0 0.0038041 -0.92198 -0.38721 0.0030102
0.23278 0.096248 0.84761 1.0649e-38 251.5 267 0 0 0 0.0013908 -0.92407 -0.38222 0.0027197
0.23499 0.096798 0.84664 7.9903e-39 381.33 267 0 0 0 -0.0020808 -0.92405 -0.38227 0.0023359
0.23724 0.096248 0.84761 1.0695e-38 256 267 0 0 0 -0.0062019 -0.92783 -0.37294 0.0018265
0.23902 0.096661 0.84688 9.1271e-39 361.5 267 0 0 0 -0.0080475 -0.92753 -0.37365 0.0016681
0.24099 0.09682 0.84684 8.3897e-39 413.33 267 0 0 0 -0.006913 -0.92744 -0.3739 0.0014746
0.24319 0.096248 0.84761 1.0971e-38 262 267 0 0 0 -0.0077544 -0.92741 -0.37397 0.0014722
0.24506 0.096204 0.84722 1.0971e-38 264 267 0 0 0 -0.0077056 -0.92565 -0.37829 0.0015334
0.24757 0.096215 0.84732 9.9109e-39 266.5 267 0 0 0 -0.0076779 -0.92354 -0.38342 0.001613
0.24947 0.096182 0.84703 7.514e-39 268.5 267 0 0 0 -0.0055046 -0.92167 -0.38793 0.0016294
0.25136 0.096644 0.84674 7.0069e-39 393 267 0 0 0 0.003195 -0.91958 -0.39289 0.0016628
0.25343 0.096677 0.84703 8.2054e-39 395 267 0 0 0 0.0094688 -0.91813 -0.39618 0.0015942
0.25492 0.096512 0.84703 7.222e-39 240.67 267.33 0 0 0 0.014284 -0.91708 -0.39844 0.0015775
0.2569 0.096512 0.84703 6.7918e-39 242.67 267.33 0 0 0 0.021867 -0.91554 -0.40163 0.0014554
0.25888 0.096677 0.84703 6.6842e-39 228 267.5 0 0 0 0.030039 -0.91405 -0.4045 0.0014196
0.26092 0.096534 0.84722 6.9762e-39 246.67 267.33 0 0 0 0.036539 -0.91324 -0.40577 0.0013452
0.26235 0.096677 0.84703 6.3615e-39 234 267.5 0 0 0 0.04016 -0.91138 -0.40959 0.0012769
0.26451 0.096248 0.84761 6.8225e-39 288.5 267 0 0 0 0.044977 -0.90977 -0.41268 0.0012377
0.26681 0.096677 0.84703 6.8686e-39 238.5 267.5 0 0 0 0.052199 -0.90688 -0.41815 0.0012727
0.26861 0.097106 0.84645 7.0069e-39 188 268 0 0 0 0.062739 -0.90311 -0.4248 0.001299
0.27145 0.097239 0.84761 6.7303e-39 190.5 268 0 0 0 0.075278 -0.90142 -0.42635 0.0013278
0.27343 0.097239 0.84761 6.6842e-39 192.5 268 0 0 0 0.085594 -0.90032 -0.42673 0.0012623
0.27543 0.097239 0.84761 7.8366e-39 213.5 268 0 0 0 0.090589 -0.899 -0.42848 0.0012029
0.17713 0.09866 0.84703 8.7123e-39 360 268 0 0 0 -0.57126 -0.50002 -0.65088 0.11863
0.17849 0.098096 0.84645 1.0418e-38 260 268 0 0 0 -0.51045 -0.53255 -0.67515 0.11854
0.19348 0.098164 0.84703 7.0991e-39 275 268 0 0 0 -0.14964 -0.80486 -0.57429 0.038748
0.19482 0.098096 0.84645 6.7764e-39 276.5 268 0 0 0 -0.13181 -0.81604 -0.56277 0.033322
0.1973 0.098096 0.84645 7.2835e-39 279 268 0 0 0 -0.10761 -0.84568 -0.52272 0.0242
0.19893 0.098164 0.84703 7.2835e-39 280.5 268 0 0 0 -0.091026 -0.8639 -0.49536 0.018316
0.20098 0.098198 0.84732 6.4076e-39 283.5 268 0 0 0 -0.074482 -0.88443 -0.46069 0.010202
0.20226 0.098096 0.84645 6.6381e-39 286 268 0 0 0 -0.065084 -0.88933 -0.45262 0.0077589
0.22107 0.098096 0.84645 9.404e-39 336 268 0 0 0 0.0041608 -0.90448 -0.4265 0.0033599
0.27712 0.09813 0.84674 8.8047e-39 405.5 268 0 0 0 0.092048 -0.89832 -0.4296 0.0011397
0.27929 0.098198 0.84732 8.8508e-39 407.5 268 0 0 0 0.090111 -0.89908 -0.4284 0.001107
0.28118 0.098164 0.84703 9.1734e-39 410 268 0 0 0 0.085424 -0.90015 -0.42712 0.0011693
0.28316 0.098164 0.84703 9.5423e-39 412.5 268 0 0 0 0.080332 -0.90047 -0.42743 0.0013554
0.28534 0.098231 0.84761 8.8047e-39 415 268 0 0 0 0.068459 -0.90054 -0.42935 0.0017803
0.28693 0.099087 0.84645 6.7303e-39 286.5 269 0 0 0 0.059172 -0.90158 -0.42855 0.0026496
0.2891 0.099155 0.84703 6.9147e-39 288.5 269 0 0 0 0.054653 -0.89675 -0.43915 0.0032433
0.29128 0.099223 0.84761 6.2232e-39 290.5 269 0 0 0 0.049635 -0.89409 -0.44513 0.0035481
0.29327 0.099223 0.84761 7.053e-39 292.5 269 0 0 0 0.04969 -0.89324 -0.44682 0.0037179
0.29922 0.099223 0.84761 9.3117e-39 298.5 269 0 0 0 0.05739 -0.87616 -0.4786 0.013531
0.3011 0.099189 0.84732 9.1274e-39 300.5 269 0 0 0 0.059978 -0.8758 -0.47893 0.014795
0.30308 0.098693 0.84732 8.2976e-39 368 268.5 0 0 0 0.047921 -0.87777 -0.47668 0.013927
0.30486 0.09813 0.84674 7.0069e-39 435.5 268 0 0 0 0.040452 -0.8862 -0.46152 0.011126
0.30624 0.098096 0.84645 7.2835e-39 437 268 0 0 0 0.026912 -0.89202 -0.45119 0.0077003
0.17657 0.10061 0.84674 8.8508e-39 286.5 269.5 0 0 0 -0.62452 -0.38931 -0.67706 0.10902
0.28841 0.10008 0.84645 6.8225e-39 162 270 0 0 0 0.060078 -0.89815 -0.43557 0.0033467
0.29089 0.10008 0.84645 7.4679e-39 174.5 270 0 0 0 0.0602 -0.89157 -0.44887 0.0062352
0.29286 0.10008 0.84645 6.4537e-39 176.5 270 0 0 0 0.068799 -0.88422 -0.46197 0.011008
0.29496 0.10012 0.84674 6.1771e-39 178.5 270 0 0 0 0.070605 -0.87804 -0.47335 0.013965
0.29693 0.10012 0.84674 6.3154e-39 180.5 270 0 0 0 0.076502 -0.87165 -0.48413 0.018935
0.17576 0.10319 0.84761 1.0602e-38 266 271 0 0 0 -0.67876 -0.26751 -0.68391 0.096392
0.17651 0.10255 0.84645 9.5424e-39 336 270.5 0 0 0 -0.64384 -0.31068 -0.69925 0.098869
0.17576 0.10467 0.84761 6.5459e-39 367.5 271.5 0 0 0 -0.68526 -0.22038 -0.69415 0.087525
0.17651 0.10404 0.84645 7.1913e-39 445 271 0 0 0 -0.65418 -0.2417 -0.71668 0.089274
0.17576 0.10666 0.84761 8.3898e-39 382 272.5 0 0 0 -0.69141 -0.13893 -0.70898 0.072454
0.17651 0.10701 0.84645 7.6522e-39 301 273 0 0 0 -0.66672 -0.11204 -0.73684 0.067137
0.17576 0.10864 0.84761 8.3898e-39 381 273.5 0 0 0 -0.6957 -0.069818 -0.71493 0.056387
0.17651 0.10849 0.84645 8.4359e-39 382 273.5 0 0 0 -0.66127 -0.071647 -0.74672 0.057543
0.17576 0.11013 0.84761 9.404e-39 456 274 0 0 0 -0.69429 -0.026708 -0.7192 0.047446
0.17692 0.11069 0.84684 7.4986e-39 339.33 274.67 0 0 0 -0.66949 -0.021816 -0.7425 0.040582
0.17849 0.11097 0.84645 6.0849e-39 282 275 0 0 0 -0.64328 -0.023794 -0.76527 0.041179
0.17718 0.11257 0.84732 8.1363e-39 355 275.5 0 0 0 -0.67573 0.027104 -0.73665 0.031825
0.1789 0.113 0.84684 7.8981e-39 382.33 275.67 0 0 0 -0.64527 0.033348 -0.76323 0.029415
0.17741 0.11443 0.84761 7.8981e-39 373 276.33 0 0 0 -0.66885 0.081938 -0.73887 0.022729
0.17908 0.11499 0.84688 8.3437e-39 342 276.75 0 0 0 -0.64415 0.09223 -0.75932 0.019439
0.17913 0.11701 0.84717 7.7214e-39 323.25 277.75 0 0 0 -0.63649 0.15129 -0.7563 0.012847
0.18097 0.1179 0.84645 9.404e-39 402.5 278 0 0 0 -0.61813 0.17327 -0.76674 0.0096156
0.17917 0.11902 0.84732 8.8048e-39 299.5 278.75 0 0 0 -0.62703 0.18824 -0.75591 0.011035
0.18103 0.11943 0.84674 8.9659e-39 295 279 0 0 0 -0.61238 0.19878 -0.76516 0.0086667
0.17973 0.12104 0.84761 6.4537e-39 182 280 0 0 0 -0.61732 0.21024 -0.7581 0.0097643
0.18109 0.12145 0.84703 7.8827e-39 264 280 0 0 0 -0.60237 0.22075 -0.76708 0.0070796
0.18245 0.12186 0.84645 8.5742e-39 346 280 0 0 0 -0.59349 0.23072 -0.77107 0.0054623
0.17973 0.12252 0.84761 8.2054e-39 420.5 280 0 0 0 -0.60497 0.23109 -0.76198 0.0076737
0.18129 0.1233 0.84722 7.4371e-39 426.67 280.33 0 0 0 -0.59363 0.24212 -0.76745 0.0058572
0.18245 0.12335 0.84645 7.3757e-39 391.5 280.5 0 0 0 -0.58944 0.24497 -0.76977 0.0047665
0.18122 0.12501 0.84761 9.1504e-39 345.25 281.25 0 0 0 -0.58937 0.25537 -0.76644 0.005182
0.18245 0.12533 0.84645 8.8046e-39 335.5 281.5 0 0 0 -0.58572 0.2582 -0.76829 0.0041334
0.18171 0.12699 0.84761 9.3118e-39 391 282 0 0 0 -0.5872 0.27106 -0.76271 0.0042091
0.18301 0.12735 0.84674 7.8597e-39 294.5 282.5 0 0 0 -0.58537 0.27112 -0.76409 0.003762
0.18443 0.12781 0.84645 6.7303e-39 198 283 0 0 0 -0.58898 0.27046 -0.76154 0.0033476
0.1831 0.1294 0.84717 7.053e-39 254.5 283.5 0 0 0 -0.59105 0.28139 -0.75596 0.003486
0.18456 0.12938 0.84703 6.9147e-39 256 283.5 0 0 0 -0.59395 0.27667 -0.75544 0.0031113
0.18332 0.13126 0.84742 7.683e-39 336.33 284 0 0 0 -0.59754 0.29096 -0.74719 0.0029843
0.18502 0.13134 0.84688 7.6522e-39 363.5 284 0 0 0 -0.59839 0.28298 -0.74957 0.0027853
0.18369 0.13294 0.84761 7.0069e-39 237 285 0 0 0 -0.60212 0.296 -0.74151 0.0025954
0.18522 0.13318 0.84703 7.3142e-39 286.67 285 0 0 0 -0.60544 0.28997 -0.74118 0.0022407
0.18641 0.13375 0.84645 8.5742e-39 384 285 0 0 0 -0.60712 0.28561 -0.7415 0.0021917
0.18568 0.13542 0.84761 7.3296e-39 256 286 0 0 0 -0.61021 0.29284 -0.73613 0.001979
0.18694 0.13526 0.84659 7.3987e-39 257.5 286 0 0 0 -0.6128 0.28817 -0.73582 0.0018675
0.18839 0.13573 0.84645 7.8366e-39 336 286 0 0 0 -0.61496 0.28571 -0.73497 0.0017043
0.1871 0.13735 0.84732 7.2835e-39 361.5 286.5 0 0 0 -0.61671 0.2922 -0.73094 0.0015919
0.18876 0.13741 0.84664 7.1606e-39 325.33 286.67 0 0 0 -0.61648 0.28759 -0.73297 0.0015745
0.18766 0.13889 0.84761 8.5742e-39 387 287 0 0 0 -0.61861 0.29479 -0.7283 0.0014406
0.18927 0.13919 0.84742 7.8674e-39 316.67 287.33 0 0 0 -0.61843 0.29205 -0.72956 0.0014339
0.19037 0.13969 0.84645 5.9927e-39 174 288 0 0 0 -0.61557 0.2901 -0.73274 0.0014593
0.18964 0.14087 0.84761 8.1132e-39 301 288 0 0 0 -0.61972 0.29402 -0.72767 0.0013884
0.19037 0.14118 0.84645 7.8827e-39 382 288 0 0 0 -0.61609 0.2929 -0.73119 0.0013978
0.19093 0.14321 0.84674 6.8456e-39 324.5 289 0 0 0 -0.61656 0.29504 -0.72993 0.0012917
0.19235 0.14365 0.84645 6.9147e-39 399 289 0 0 0 -0.6146 0.29329 -0.73229 0.0012442
0.19125 0.14514 0.84742 7.1605e-39 246 290 0 0 0 -0.61806 0.29444 -0.72891 0.0012514
0.19277 0.14537 0.84684 8.021e-39 294 290 0 0 0 -0.61575 0.29332 -0.73131 0.0011969
0.19163 0.14682 0.84761 6.9147e-39 484 290 0 0 0 -0.61758 0.29429 -0.72938 0.0012271
0.19298 0.14721 0.84703 8.0671e-39 203 291 0 0 0 -0.61625 0.2934 -0.73086 0.0011723
0.19433 0.14761 0.84645 9.6805e-39 266 291 0 0 0 -0.6151 0.29258 -0.73216 0.0011555
0.19305 0.14925 0.84732 8.4128e-39 307 291.5 0 0 0 -0.61645 0.2932 -0.73077 0.0011717
0.19489 0.14915 0.84674 8.6433e-39 309 291.5 0 0 0 -0.61443 0.29282 -0.73262 0.0011693
0.19328 0.15112 0.84761 8.4513e-39 280 292.33 0 0 0 -0.61703 0.29396 -0.72997 0.001138
0.195 0.15121 0.84717 7.4448e-39 248 292.5 0 0 0 -0.61554 0.29328 -0.7315 0.0011789
0.19361 0.15277 0.84761 6.8225e-39 262 293 0 0 0 -0.6173 0.29323 -0.73004 0.0011221
0.19522 0.15307 0.84742 7.6522e-39 310.67 293 0 0 0 -0.61555 0.29235 -0.73187 0.0011939
0.19631 0.15305 0.84645 8.482e-39 335.5 293 0 0 0 -0.61416 0.29331 -0.73266 0.0011809
0.19559 0.15526 0.84761 7.56e-39 268.5 294 0 0 0 -0.61427 0.29242 -0.73291 0.0011463
0.19669 0.15524 0.84664 7.8366e-39 293.33 294 0 0 0 -0.61255 0.29334 -0.73399 0.0011319
0.1983 0.15504 0.84645 7.8366e-39 271.5 294 0 0 0 -0.61096 0.29503 -0.73463 0.0011242
0.19694 0.15712 0.84703 7.3987e-39 357.5 294.5 0 0 0 -0.61165 0.29536 -0.73393 0.0011476
0.19843 0.15712 0.84703 7.5601e-39 359 294.5 0 0 0 -0.6094 0.29778 -0.73482 0.0011601
0.19704 0.15919 0.84746 7.8136e-39 284 295.5 0 0 0 -0.60902 0.30009 -0.73419 0.0011946
0.1989 0.15908 0.84688 8.1132e-39 286 295.5 0 0 0 -0.60597 0.30233 -0.7358 0.0011969
0.19758 0.16071 0.84761 8.1132e-39 300 296 0 0 0 -0.60661 0.30246 -0.73521 0.0012642
0.19918 0.161 0.84742 7.3142e-39 349.67 296 0 0 0 -0.60291 0.3063 -0.73666 0.0013298
0.20028 0.16148 0.84645 7.7444e-39 447 296 0 0 0 -0.60111 0.30759 -0.7376 0.0013791
0.19956 0.16319 0.84761 8.4359e-39 316 297 0 0 0 -0.5998 0.30931 -0.73795 0.0014678
0.20081 0.16299 0.84659 8.4128e-39 317.5 297 0 0 0 -0.59828 0.3118 -0.73814 0.0014831
0.20087 0.16503 0.84688 7.5601e-39 245.5 298 0 0 0 -0.59555 0.31434 -0.73927 0.0016895
0.20226 0.16544 0.84645 8.943e-39 307 298 0 0 0 -0.59835 0.3134 -0.7374 0.0017867
0.20116 0.16695 0.84742 7.3449e-39 382 298.33 0 0 0 -0.59613 0.31259 -0.73954 0.0018906
0.20268 0.16716 0.84684 7.6215e-39 316 298.67 0 0 0 -0.59821 0.3121 -0.73806 0.0019362
0.20154 0.16864 0.84761 1.0049e-38 391 299 0 0 0 -0.59739 0.31078 -0.73929 0.0019647
0.20289 0.16902 0.84703 8.3898e-39 294.5 299.5 0 0 0 -0.59902 0.30964 -0.73844 0.0020362
0.20424 0.16891 0.84645 8.4359e-39 296 299.5 0 0 0 -0.60024 0.31004 -0.73728 0.0020498
0.20292 0.17103 0.84717 8.3206e-39 406.5 300 0 0 0 -0.59927 0.30771 -0.73905 0.0021019
0.20462 0.17109 0.84664 7.8059e-39 206 300.67 0 0 0 -0.60136 0.30731 -0.73751 0.0021465
0.20353 0.17311 0.84761 8.482e-39 333.5 301 0 0 0 -0.59984 0.30742 -0.7387 0.002071
0.20513 0.1729 0.84742 8.2361e-39 311 301 0 0 0 -0.60058 0.30695 -0.7383 0.0021822
0.20664 0.17311 0.84684 8.6049e-39 361 301 0 0 0 -0.6027 0.30734 -0.73641 0.0022132
0.20711 0.17488 0.84742 8.4513e-39 269.33 302 0 0 0 -0.60309 0.30724 -0.73613 0.0021701
0.20858 0.17505 0.84664 9.8341e-39 319.67 302 0 0 0 -0.60247 0.30934 -0.73576 0.0021644
0.20749 0.17657 0.84761 7.2835e-39 182 303 0 0 0 -0.60146 0.31042 -0.73613 0.0021268
0.20887 0.17697 0.84717 7.6522e-39 257.5 303 0 0 0 -0.60026 0.31323 -0.73592 0.0021474
0.21068 0.17732 0.84645 8.6203e-39 333.5 303 0 0 0 -0.60126 0.31349 -0.73499 0.0022165
0.20948 0.17906 0.84761 7.9288e-39 215 304 0 0 0 -0.59896 0.31533 -0.73608 0.0021379
0.21082 0.17893 0.84703 8.0902e-39 216.5 304 0 0 0 -0.59981 0.31657 -0.73485 0.0022087
0.21216 0.1793 0.84645 9.0352e-39 288 304 0 0 0 -0.60198 0.31683 -0.73296 0.0023925
0.21097 0.18103 0.84761 7.1912e-39 353 304.5 0 0 0 -0.59819 0.31705 -0.73597 0.0022138
0.21266 0.18079 0.84645 6.9147e-39 355 304.5 0 0 0 -0.60357 0.31767 -0.73129 0.0024872
0.21097 0.18302 0.84761 7.1221e-39 328 305.5 0 0 0 -0.59771 0.31593 -0.73684 0.0021762
0.21273 0.18283 0.84674 6.8917e-39 330 305.5 0 0 0 -0.60272 0.31707 -0.73226 0.0024479
0.21113 0.18484 0.84761 8.8508e-39 322 306.33 0 0 0 -0.59971 0.31504 -0.7356 0.0023191
0.2128 0.18487 0.84703 8.6203e-39 292.5 306.5 0 0 0 -0.60323 0.31475 -0.73284 0.0025042
0.21294 0.18698 0.84761 7.9289e-39 243.5 307.5 0 0 0 -0.60268 0.31381 -0.73369 0.0024713
0.21414 0.18673 0.84645 8.2055e-39 245 307.5 0 0 0 -0.60578 0.31446 -0.73085 0.0026482
0.21344 0.18896 0.84761 8.0671e-39 329.5 308 0 0 0 -0.60388 0.30978 -0.73441 0.0025647
0.21457 0.18896 0.84684 7.5908e-39 353 308 0 0 0 -0.60692 0.31074 -0.7315 0.0026773
0.21482 0.19086 0.84717 1.0119e-38 249.5 309 0 0 0 -0.6074 0.30724 -0.73258 0.0027161
0.21612 0.1907 0.84645 9.5883e-39 251 309 0 0 0 -0.60913 0.30834 -0.73068 0.0028674
0.21543 0.19244 0.84761 1.1524e-38 436 309 0 0 0 -0.60711 0.30359 -0.73434 0.0027107
0.21677 0.19281 0.84703 9.45e-39 335.5 309.5 0 0 0 -0.60912 0.30296 -0.73293 0.0028467
0.21734 0.19485 0.84732 7.3296e-39 257.5 310.5 0 0 0 -0.60949 0.30072 -0.73355 0.0026631
0.21848 0.19486 0.84664 7.1913e-39 224 310.67 0 0 0 -0.61106 0.30145 -0.73194 0.0027489
0.22008 0.19515 0.84645 7.56e-39 156 311 0 0 0 -0.61279 0.30258 -0.73002 0.0027146
0.21875 0.19677 0.84703 9.7959e-39 323 311 0 0 0 -0.6108 0.30197 -0.73194 0.0024961
0.22016 0.1967 0.84674 1.0003e-38 324.5 311 0 0 0 -0.61219 0.30311 -0.7303 0.0024635
0.21882 0.19881 0.84732 8.0441e-39 206 312 0 0 0 -0.60987 0.30276 -0.73238 0.0022014
0.22065 0.19868 0.84674 7.998e-39 208.5 312 0 0 0 -0.61084 0.30411 -0.73102 0.0022628
0.2189 0.20087 0.84761 1.058e-38 398 312 0 0 0 -0.60899 0.30614 -0.73172 0.0021443
0.22072 0.20074 0.84703 1.0764e-38 400 312 0 0 0 -0.60884 0.30551 -0.73211 0.0021779
0.22206 0.20109 0.84645 1.1248e-38 442 312 0 0 0 -0.60937 0.30655 -0.73123 0.0021602
0.2189 0.20236 0.84761 6.9608e-39 205.5 313 0 0 0 -0.60849 0.30646 -0.732 0.0021179
0.2208 0.20279 0.84732 7.0991e-39 248.5 313 0 0 0 -0.60794 0.30767 -0.73195 0.0021078
0.22206 0.20257 0.84645 7.3296e-39 250 313 0 0 0 -0.60811 0.3096 -0.731 0.0022076
0.2208 0.20477 0.84732 9.7496e-39 264 313.5 0 0 0 -0.60589 0.30723 -0.73382 0.0020997
0.22239 0.20472 0.84645 8.7586e-39 225.33 313.67 0 0 0 -0.60564 0.30932 -0.73316 0.0021203
0.27573 0.20519 0.84703 6.9147e-39 202 314 0 0 0 0.64038 0.46417 -0.61193 0.0051655
0.27672 0.2042 0.84703 1.1432e-38 441 313 0 0 0 0.6417 0.46493 -0.60997 0.00491
0.22088 0.20682 0.84761 1.1663e-38 265 314 0 0 0 -0.60279 0.30865 -0.73578 0.0022396
0.22263 0.20661 0.84674 1.0994e-38 267 314 0 0 0 -0.60315 0.31089 -0.73454 0.0022222
0.27356 0.20703 0.84645 1.2539e-38 372 314 0 0 0 0.7602 0.36158 -0.53977 0.01216
0.27474 0.20618 0.84703 7.0069e-39 279 314 0 0 0 0.64038 0.46417 -0.61193 0.0051654
0.22138 0.2088 0.84761 9.1275e-39 270.5 314.5 0 0 0 -0.6014 0.30817 -0.73713 0.0024205
0.22263 0.20859 0.84674 9.5191e-39 272 314.5 0 0 0 -0.60127 0.30928 -0.73676 0.0023362
0.27315 0.20854 0.84722 1.0049e-38 361.67 314.33 0 0 0 0.81105 0.29983 -0.5023 0.012736
0.22138 0.21029 0.84761 7.0991e-39 220 315 0 0 0 -0.60148 0.308 -0.73713 0.002532
0.22275 0.21068 0.84717 9.1967e-39 256.5 315 0 0 0 -0.60131 0.30728 -0.73756 0.0024963
0.2247 0.21165 0.84645 1.3553e-38 350.33 315 0 0 0 -0.60198 0.30914 -0.73624 0.0025946
0.27117 0.21057 0.84674 1.2032e-38 312 315 0 0 0 0.82108 0.28152 -0.49657 0.011472
0.22303 0.2126 0.84761 1.3153e-38 398.67 315 0 0 0 -0.60199 0.31022 -0.73578 0.0026915
0.22462 0.21305 0.84674 1.2032e-38 444.5 315 0 0 0 -0.60158 0.31059 -0.73596 0.0027963
0.22602 0.21396 0.84645 6.9147e-39 185 316 0 0 0 -0.60235 0.31316 -0.73424 0.0028138
0.2696 0.21297 0.84645 7.3757e-39 164 316 0 0 0 0.81931 0.27721 -0.50188 0.0081706
0.22469 0.21461 0.84703 7.9288e-39 216.5 316 0 0 0 -0.60069 0.31775 -0.73363 0.0028511
0.22659 0.21552 0.84674 1.157e-38 278.5 316 0 0 0 -0.60112 0.31957 -0.73248 0.0029887
0.22484 0.21624 0.84761 1.4705e-38 303.5 316 0 0 0 -0.60011 0.32616 -0.73041 0.0028781
0.22692 0.21683 0.84703 1.3184e-38 354.5 316 0 0 0 -0.6008 0.32903 -0.72855 0.0030342
0.22733 0.21822 0.84761 8.8508e-39 418 316 0 0 0 -0.59994 0.33439 -0.72681 0.00317
0.22886 0.21902 0.84688 7.3757e-39 221.5 316.75 0 0 0 -0.59914 0.3398 -0.72496 0.0031419
0.23098 0.2199 0.84645 6.6381e-39 187 317 0 0 0 -0.60057 0.3416 -0.72293 0.0032382
0.22923 0.22063 0.84732 8.3437e-39 211 317 0 0 0 -0.59765 0.35179 -0.72046 0.0032438
0.23113 0.22105 0.84703 9.1274e-39 239 317 0 0 0 -0.59948 0.35194 -0.71887 0.0031631
0.23296 0.22188 0.84645 1.4751e-38 284 317 0 0 0 -0.59836 0.35728 -0.71716 0.0031825
0.23129 0.22219 0.84761 1.4843e-38 282 317 0 0 0 -0.59767 0.36344 -0.71464 0.0032634
0.23287 0.22278 0.84703 1.5282e-38 325 317 0 0 0 -0.59722 0.36854 -0.7124 0.0031183
0.17326 0.091044 0.84995 9.6803e-39 354.5 262.5 0 0 0 -0.51518 -0.75095 -0.41312 0.13567
0.17314 0.092968 0.84936 7.4679e-39 342 264 0 0 0 -0.62868 -0.64787 -0.43015 0.13945
0.21247 0.093497 0.84966 7.3757e-39 221.5 265 0 0 0 -0.030088 -0.91164 -0.40989 0.0044543
0.21403 0.093529 0.84995 8.021e-39 223 265 0 0 0 -0.022738 -0.91286 -0.40764 0.0046664
0.21701 0.093529 0.84995 8.2054e-39 226 265 0 0 0 -0.007352 -0.91421 -0.40517 0.0046611
0.2185 0.093529 0.84995 7.5139e-39 227.5 265 0 0 0 -0.00070316 -0.91582 -0.40158 0.004553
0.1729 0.094825 0.84819 8.7585e-39 314.5 265.5 0 0 0 -0.65571 -0.55837 -0.5082 0.13325
0.17823 0.095518 0.84995 9.4961e-39 266 266 0 0 0 -0.46718 -0.70202 -0.53751 0.12532
0.18071 0.095518 0.84995 7.2835e-39 268.5 266 0 0 0 -0.35479 -0.75651 -0.54938 0.11163
0.18208 0.095453 0.84936 6.8225e-39 270 266 0 0 0 -0.25207 -0.76875 -0.58777 0.095857
0.20295 0.095453 0.84936 9.742e-39 297 266 0 0 0 -0.041541 -0.91379 -0.40405 0.0035627
0.20513 0.095055 0.84878 8.8201e-39 339.33 265.67 0 0 0 -0.040126 -0.91298 -0.40602 0.0039337
0.20657 0.094524 0.84995 8.9891e-39 420.5 265 0 0 0 -0.039885 -0.91456 -0.40247 0.0043461
0.20886 0.094437 0.84917 9.0659e-39 423 265 0 0 0 -0.037967 -0.91073 -0.41126 0.0042899
0.21125 0.094394 0.84878 8.8508e-39 426.5 265 0 0 0 -0.03408 -0.91042 -0.41228 0.0042139
0.21309 0.094329 0.84819 8.8047e-39 428.5 265 0 0 0 -0.027809 -0.9088 -0.41631 0.0041472
0.2153 0.094426 0.84907 7.9749e-39 430.5 265 0 0 0 -0.017955 -0.91242 -0.40885 0.0044424
0.21721 0.094394 0.84878 7.1913e-39 432.5 265 0 0 0 -0.0082496 -0.91236 -0.40932 0.0043918
0.21936 0.094725 0.84878 7.5601e-39 405.67 265.33 0 0 0 0.0013857 -0.91431 -0.40501 0.0042065
0.22126 0.094923 0.84907 7.998e-39 393 265.5 0 0 0 0.010931 -0.91509 -0.40311 0.003885
0.22313 0.094874 0.84863 8.2976e-39 395 265.5 0 0 0 0.013805 -0.9148 -0.40367 0.0037431
0.22504 0.095077 0.84897 8.3284e-39 382.33 265.67 0 0 0 0.016424 -0.91729 -0.39788 0.003632
0.2273 0.094956 0.84936 8.0211e-39 399 265.5 0 0 0 0.015726 -0.92126 -0.38864 0.0034334
0.2292 0.095419 0.84907 9.7266e-39 357.5 266 0 0 0 0.011399 -0.92274 -0.38524 0.0031463
0.23475 0.095453 0.84936 6.8225e-39 363 266 0 0 0 0.0043362 -0.92952 -0.36875 0.0020927
0.23773 0.095453 0.84936 7.0069e-39 366 266 0 0 0 -0.0056871 -0.93 -0.36751 0.0017423
0.2393 0.095486 0.84966 7.053e-39 367.5 266 0 0 0 -0.0079538 -0.93037 -0.36654 0.0015684
0.24088 0.095518 0.84995 6.9147e-39 369 266 0 0 0 -0.010304 -0.92961 -0.36841 0.0014821
0.24519 0.095453 0.84936 6.8686e-39 382 266 0 0 0 -0.01264 -0.92711 -0.37457 0.0014915
0.24668 0.095453 0.84936 6.6381e-39 392 266 0 0 0 -0.012884 -0.92534 -0.37891 0.0015255
0.24925 0.095486 0.84966 7.4218e-39 394.5 266 0 0 0 -0.011716 -0.9233 -0.3839 0.0014906
0.25065 0.095453 0.84936 8.021e-39 396 266 0 0 0 -0.0059591 -0.92153 -0.38827 0.0015679
0.25314 0.095453 0.84936 8.8508e-39 398.5 266 0 0 0 0.0029212 -0.91977 -0.39246 0.0015651
0.25516 0.094972 0.84951 8.2285e-39 294.5 266 0 0 0 0.012471 -0.91896 -0.39416 0.0015722
0.25702 0.094923 0.84907 8.2976e-39 296.5 266 0 0 0 0.019499 -0.91762 -0.39698 0.0014929
0.2591 0.094956 0.84936 8.2285e-39 298.5 266 0 0 0 0.027077 -0.91596 -0.40036 0.0014568
0.26125 0.095121 0.84936 8.3591e-39 342.33 266 0 0 0 0.032992 -0.91437 -0.40354 0.0014582
0.26316 0.095486 0.84966 8.7586e-39 408.5 266 0 0 0 0.037596 -0.91361 -0.40485 0.0013907
0.26506 0.095453 0.84936 8.8969e-39 410.5 266 0 0 0 0.042413 -0.91133 -0.40948 0.0013494
0.26673 0.095518 0.84995 9.2196e-39 412 266 0 0 0 0.044587 -0.91059 -0.41089 0.0014124
0.17115 0.09744 0.84936 6.7303e-39 365 267 0 0 0 -0.78018 -0.42018 -0.46343 0.11265
0.17472 0.096993 0.8498 7.1682e-39 441.5 266.5 0 0 0 -0.67031 -0.53664 -0.51254 0.12489
0.17737 0.096733 0.84897 7.2527e-39 240 267 0 0 0 -0.54212 -0.61611 -0.57141 0.12717
0.17947 0.09638 0.84878 6.592e-39 176.5 267 0 0 0 -0.4278 -0.68244 -0.59267 0.12011
0.18084 0.096314 0.84819 6.3615e-39 178 267 0 0 0 -0.34702 -0.70511 -0.61838 0.11061
0.18394 0.09638 0.84878 6.2693e-39 181 267 0 0 0 -0.22308 -0.75446 -0.61727 0.088412
0.18507 0.096446 0.84936 5.9927e-39 182 267 0 0 0 -0.19486 -0.77353 -0.60305 0.081645
0.18755 0.096446 0.84936 7.2835e-39 184.5 267 0 0 0 -0.16258 -0.7983 -0.57991 0.057296
0.18934 0.096347 0.84848 7.6522e-39 186.5 267 0 0 0 -0.13378 -0.81013 -0.57079 0.046064
0.19103 0.096446 0.84936 7.1913e-39 188 267 0 0 0 -0.11556 -0.83076 -0.54451 0.034827
0.19252 0.096943 0.84936 8.1593e-39 295.5 267 0 0 0 -0.10694 -0.83653 -0.53739 0.031005
0.19491 0.097395 0.84897 9.3118e-39 404 267 0 0 0 -0.094914 -0.84909 -0.51965 0.02419
0.19719 0.097042 0.84878 8.482e-39 342 267 0 0 0 -0.07255 -0.8784 -0.47239 0.01412
0.19909 0.096803 0.84901 7.8551e-39 292.4 267 0 0 0 -0.054842 -0.89708 -0.43845 0.0075454
0.20132 0.096876 0.84878 7.8597e-39 314 267 0 0 0 -0.051117 -0.90376 -0.42497 0.004876
0.20267 0.096314 0.84819 7.0991e-39 219 267 0 0 0 -0.045177 -0.90736 -0.41792 0.0037961
0.22153 0.096314 0.84819 9.7727e-39 240 267 0 0 0 0.0082375 -0.91053 -0.41337 0.0036289
0.23046 0.096314 0.84819 1.1524e-38 249 267 0 0 0 0.0068114 -0.92115 -0.38915 0.0031298
0.23542 0.096314 0.84819 1.051e-38 254 267 0 0 0 -0.00038348 -0.92747 -0.37389 0.0021223
0.23641 0.096314 0.84819 1.0418e-38 255 267 0 0 0 -0.0030173 -0.92844 -0.37147 0.0019327
0.24137 0.096314 0.84819 1.0602e-38 260 267 0 0 0 -0.009076 -0.92815 -0.37209 0.0014693
0.24237 0.096314 0.84819 1.0695e-38 261 267 0 0 0 -0.0091853 -0.92844 -0.37137 0.0013928
0.25147 0.09638 0.84878 6.9147e-39 270 267 0 0 0 -0.0015724 -0.92054 -0.39065 0.0016271
0.26321 0.096314 0.84819 7.0069e-39 287 267 0 0 0 0.039935 -0.91156 -0.40922 0.001319
0.26718 0.096314 0.84819 6.1771e-39 291 267 0 0 0 0.051831 -0.90773 -0.41633 0.0012996
0.26885 0.09638 0.84878 7.5601e-39 292.5 267 0 0 0 0.059014 -0.90588 -0.4194 0.0013346
0.27086 0.096777 0.84936 8.6971e-39 259.33 267.33 0 0 0 0.06867 -0.90407 -0.42182 0.0014106
0.27369 0.096513 0.84995 1.0049e-38 297 267 0 0 0 0.080831 -0.90118 -0.42583 0.0013026
0.27518 0.096513 0.84995 8.943e-39 298.5 267 0 0 0 0.085719 -0.89964 -0.42813 0.0012757
0.27715 0.096777 0.84936 8.6049e-39 272 267.33 0 0 0 0.090868 -0.89777 -0.43098 0.0012368
0.27878 0.097373 0.84878 6.6842e-39 216.5 268 0 0 0 0.090834 -0.89765 -0.43125 0.0011327
0.28096 0.096943 0.84936 8.0672e-39 277.5 267.5 0 0 0 0.086915 -0.897 -0.4334 0.0011381
0.28289 0.096926 0.84922 8.0211e-39 279.5 267.5 0 0 0 0.080076 -0.89618 -0.4364 0.0011995
0.28493 0.096943 0.84936 8.3207e-39 281.5 267.5 0 0 0 0.070171 -0.89632 -0.43783 0.0015038
0.28692 0.09744 0.84936 8.1132e-39 224.5 268 0 0 0 0.055793 -0.89655 -0.43941 0.0021127
0.2891 0.097507 0.84995 7.6522e-39 226.5 268 0 0 0 0.047407 -0.89553 -0.44246 0.0026117
0.30551 0.097507 0.84995 1.0695e-38 247 268 0 0 0 0.029357 -0.88318 -0.46812 0.008689
0.3069 0.097474 0.84966 1.0833e-38 248.5 268 0 0 0 0.026054 -0.88705 -0.46093 0.0090941
0.30829 0.09744 0.84936 1.0971e-38 250 268 0 0 0 0.022733 -0.89238 -0.45071 0.0094702
0.17191 0.098299 0.84819 1.0695e-38 253 268 0 0 0 -0.7481 -0.40538 -0.52537 0.11061
0.17277 0.099073 0.84917 7.9287e-39 381 268 0 0 0 -0.73969 -0.40084 -0.54055 0.11002
0.17466 0.098947 0.84951 8.8277e-39 353.5 268 0 0 0 -0.68502 -0.4777 -0.55005 0.11757
0.17641 0.098742 0.84917 9.5268e-39 325 268 0 0 0 -0.62815 -0.50908 -0.58844 0.12154
0.28702 0.098299 0.84819 8.6664e-39 417 268 0 0 0 0.058391 -0.90011 -0.43172 0.00236
0.28861 0.098332 0.84848 8.8969e-39 418.5 268 0 0 0 0.049385 -0.89846 -0.43626 0.0025778
0.2907 0.098366 0.84878 9.3118e-39 420.5 268 0 0 0 0.044975 -0.89574 -0.4423 0.0029522
0.29289 0.098434 0.84936 8.6664e-39 422.5 268 0 0 0 0.04432 -0.89194 -0.44998 0.0036744
0.29521 0.098879 0.84892 8.6664e-39 359.5 268.5 0 0 0 0.04037 -0.88984 -0.45448 0.004147
0.29725 0.098896 0.84907 8.7126e-39 361.5 268.5 0 0 0 0.038882 -0.88798 -0.45823 0.0048297
0.29895 0.098467 0.84966 6.9608e-39 428.5 268 0 0 0 0.035994 -0.88474 -0.46469 0.0055608
0.30084 0.098434 0.84936 7.3296e-39 430.5 268 0 0 0 0.035658 -0.88464 -0.46492 0.0061674
0.30272 0.0984 0.84907 6.9608e-39 432.5 268 0 0 0 0.035917 -0.88563 -0.46299 0.0069935
0.17326 0.10049 0.84995 8.8508e-39 345 269 0 0 0 -0.74571 -0.39011 -0.54012 0.10667
0.17505 0.10087 0.84897 8.0825e-39 284.5 269.5 0 0 0 -0.69167 -0.38992 -0.60791 0.10841
0.17481 0.10274 0.84878 9.6622e-39 347.6 270.4 0 0 0 -0.71296 -0.31738 -0.62526 0.10075
0.17457 0.10486 0.84907 6.6612e-39 366 271.5 0 0 0 -0.73268 -0.20967 -0.64747 0.085309
0.17457 0.10684 0.84907 8.1363e-39 380.5 272.5 0 0 0 -0.73686 -0.14369 -0.6606 0.073989
0.17457 0.10883 0.84907 8.9891e-39 379.5 273.5 0 0 0 -0.74302 -0.07666 -0.66486 0.056469
0.17483 0.11089 0.84889 7.7445e-39 348.6 274.6 0 0 0 -0.72581 -0.01867 -0.68764 0.042497
0.17314 0.11285 0.84936 8.7123e-39 350.5 275.5 0 0 0 -0.74748 0.048049 -0.66255 0.032022
0.17501 0.11276 0.84878 8.5436e-39 352.5 275.5 0 0 0 -0.71874 0.035786 -0.69436 0.033162
0.17022 0.11487 0.84966 7.099e-39 336 276.5 0 0 0 -0.77811 0.080799 -0.62291 0.03256
0.17314 0.11483 0.84936 7.7905e-39 339 276.5 0 0 0 -0.73138 0.096625 -0.67509 0.026902
0.17505 0.11478 0.84897 8.2361e-39 341 276.5 0 0 0 -0.70878 0.095089 -0.69899 0.024687
0.17687 0.11517 0.84819 1.0049e-38 255 277 0 0 0 -0.6763 0.10435 -0.7292 0.021069
0.16928 0.1164 0.84995 8.6664e-39 409 277 0 0 0 -0.78002 0.094106 -0.61864 0.034209
0.17072 0.11686 0.84966 7.5139e-39 319 277.5 0 0 0 -0.74346 0.11504 -0.65881 0.030014
0.17314 0.11682 0.84936 7.3296e-39 321.5 277.5 0 0 0 -0.72439 0.12369 -0.6782 0.026412
0.17509 0.11679 0.84917 7.2374e-39 323.5 277.5 0 0 0 -0.69418 0.13419 -0.70719 0.0213
0.17737 0.11665 0.84819 6.9378e-39 326 277.5 0 0 0 -0.66207 0.13838 -0.73656 0.016407
0.17028 0.11888 0.84995 7.3757e-39 295.5 278.5 0 0 0 -0.72431 0.1358 -0.67597 0.028646
0.1732 0.11885 0.84966 6.7764e-39 299.5 278.5 0 0 0 -0.69938 0.15279 -0.69823 0.02332
0.17466 0.11883 0.84951 7.7905e-39 301 278.5 0 0 0 -0.68177 0.16294 -0.71319 0.020173
0.17697 0.11871 0.84868 8.6203e-39 303.5 278.5 0 0 0 -0.6583 0.17076 -0.73313 0.016416
0.17326 0.12038 0.84995 6.5459e-39 368 279 0 0 0 -0.67886 0.17492 -0.71313 0.020787
0.17525 0.12088 0.84995 6.8225e-39 273.5 279.5 0 0 0 -0.66411 0.19023 -0.72302 0.018153
0.17709 0.12078 0.84927 6.8532e-39 275.5 279.5 0 0 0 -0.63827 0.20306 -0.74255 0.013791
0.17886 0.12063 0.84819 7.7444e-39 277.5 279.5 0 0 0 -0.62235 0.20748 -0.75474 0.01063
0.17745 0.12261 0.84936 8.2669e-39 392 280 0 0 0 -0.62749 0.22236 -0.7462 0.011292
0.17861 0.12283 0.84858 7.8674e-39 445 280 0 0 0 -0.61603 0.23024 -0.75332 0.00944
0.17724 0.12436 0.84995 8.1132e-39 276 281 0 0 0 -0.62322 0.23812 -0.74491 0.010343
0.17898 0.12468 0.84878 8.7279e-39 354 281 0 0 0 -0.60272 0.25317 -0.75673 0.007086
0.17902 0.1267 0.84897 7.6676e-39 310.5 282 0 0 0 -0.59832 0.27061 -0.75418 0.0059055
0.18084 0.12658 0.84819 8.482e-39 312.5 282 0 0 0 -0.58828 0.27033 -0.76213 0.0045984
0.17927 0.12863 0.84925 7.9472e-39 253.8 283 0 0 0 -0.59456 0.28922 -0.75023 0.0046117
0.18137 0.12859 0.84834 8.0902e-39 272.5 283 0 0 0 -0.58872 0.28443 -0.75664 0.0041091
0.17917 0.13078 0.84966 7.6983e-39 212 284 0 0 0 -0.59571 0.30871 -0.7415 0.0036937
0.18101 0.13067 0.84897 7.2527e-39 218 284 0 0 0 -0.59401 0.30074 -0.74612 0.0035319
0.18115 0.13251 0.84966 9.2887e-39 384.75 284.25 0 0 0 -0.60302 0.30852 -0.73565 0.0030556
0.18258 0.13276 0.84858 8.2669e-39 302.67 284.67 0 0 0 -0.60236 0.30175 -0.739 0.0028096
0.18299 0.13464 0.84897 7.3449e-39 278 285.5 0 0 0 -0.61129 0.30364 -0.73084 0.0022787
0.18481 0.13452 0.84819 7.6522e-39 280 285.5 0 0 0 -0.60848 0.29531 -0.73658 0.0021409
0.18348 0.13662 0.84892 7.2835e-39 400.5 286 0 0 0 -0.61802 0.30342 -0.72525 0.0019897
0.18534 0.13702 0.84834 7.2374e-39 381 286.25 0 0 0 -0.61532 0.29747 -0.73 0.0016964
0.18357 0.13818 0.84936 7.2374e-39 243.5 287 0 0 0 -0.62163 0.30573 -0.72118 0.0017772
0.18504 0.13891 0.84921 8.2746e-39 349.25 287 0 0 0 -0.62357 0.30258 -0.72084 0.0015891
0.1873 0.13948 0.84819 7.7905e-39 278.5 287.5 0 0 0 -0.61961 0.29557 -0.72713 0.001409
0.18878 0.13998 0.84819 6.1771e-39 172 288 0 0 0 -0.62036 0.29371 -0.72724 0.0014006
0.18449 0.14057 0.84975 6.5459e-39 210 288 0 0 0 -0.62914 0.30482 -0.71503 0.001587
0.18675 0.14069 0.84889 7.4679e-39 246.6 288 0 0 0 -0.62523 0.29977 -0.72057 0.0014405
0.18911 0.14163 0.84819 8.82e-39 399.67 288 0 0 0 -0.62181 0.29501 -0.72548 0.0013626
0.18725 0.14255 0.84936 8.482e-39 360.6 288.4 0 0 0 -0.62778 0.29991 -0.71829 0.0014491
0.18948 0.14332 0.84839 6.8225e-39 297.33 289 0 0 0 -0.62167 0.29672 -0.7249 0.0013134
0.18718 0.14424 0.84995 6.9147e-39 393 289 0 0 0 -0.63308 0.3005 -0.71338 0.0015152
0.18876 0.14468 0.84901 6.7487e-39 276 289.6 0 0 0 -0.62628 0.29828 -0.72028 0.0013496
0.19076 0.14593 0.84819 7.7444e-39 338 290 0 0 0 -0.62043 0.29447 -0.72688 0.0012557
0.18904 0.14638 0.84936 7.6061e-39 371.25 290 0 0 0 -0.62855 0.29643 -0.71907 0.0013461
0.19083 0.14747 0.84848 7.6522e-39 370.75 290.5 0 0 0 -0.62092 0.2954 -0.72608 0.0012419
0.18917 0.14872 0.84995 8.5281e-39 330 291 0 0 0 -0.63355 0.2971 -0.71439 0.0014053
0.1909 0.14901 0.84878 8.9246e-39 335 291.2 0 0 0 -0.62286 0.29603 -0.72416 0.0012736
0.18917 0.1507 0.84995 7.9749e-39 274 292 0 0 0 -0.63525 0.29747 -0.71272 0.0014492
0.19092 0.15085 0.84887 7.852e-39 265.17 292.17 0 0 0 -0.62464 0.29545 -0.72286 0.001211
0.19275 0.15189 0.84819 6.9147e-39 144 293 0 0 0 -0.61898 0.29366 -0.72844 0.0011211
0.18917 0.1522 0.84995 6.9147e-39 477 292 0 0 0 -0.63588 0.29685 -0.71242 0.0014427
0.19085 0.15271 0.84948 7.0253e-39 212 293 0 0 0 -0.62743 0.29504 -0.72061 0.0011873
0.19308 0.15354 0.84819 8.9737e-39 355.33 293 0 0 0 -0.61836 0.29305 -0.72921 0.0011367
0.19473 0.15387 0.84819 9.4961e-39 404 293 0 0 0 -0.61718 0.29151 -0.73082 0.0011341
0.19063 0.15466 0.8498 8.2054e-39 296 293.5 0 0 0 -0.62965 0.29543 -0.71852 0.0012349
0.1929 0.15515 0.84888 7.7751e-39 276.5 293.83 0 0 0 -0.62126 0.29388 -0.7264 0.0011125
0.1948 0.15541 0.84848 7.3296e-39 267.5 294 0 0 0 -0.61769 0.29236 -0.73006 0.001112
0.19301 0.15673 0.84936 8.021e-39 415.33 294 0 0 0 -0.62383 0.2942 -0.72408 0.0011277
0.19544 0.15721 0.84839 7.2527e-39 392.33 294.33 0 0 0 -0.61486 0.29523 -0.7313 0.001148
0.19308 0.15861 0.84966 7.514e-39 313.5 295 0 0 0 -0.62435 0.29675 -0.72259 0.0011855
0.19494 0.15883 0.84907 7.7137e-39 304.17 295.17 0 0 0 -0.61812 0.29687 -0.72787 0.0011435
0.19315 0.16015 0.84995 6.3615e-39 175 296 0 0 0 -0.62413 0.29863 -0.722 0.0011902
0.195 0.16087 0.84936 7.6215e-39 281 296 0 0 0 -0.61751 0.30069 -0.72682 0.0012001
0.19705 0.16148 0.84819 7.5908e-39 395.33 296 0 0 0 -0.60756 0.30324 -0.73411 0.001271
0.1987 0.16181 0.84819 7.0069e-39 445 296 0 0 0 -0.60357 0.3045 -0.73688 0.0013868
0.19543 0.16277 0.84975 7.0069e-39 306.67 296.67 0 0 0 -0.61599 0.30426 -0.72663 0.0013414
0.19728 0.16335 0.84848 8.9659e-39 313.5 297 0 0 0 -0.60479 0.30719 -0.73475 0.001421
0.1987 0.1633 0.84819 8.6201e-39 315 297 0 0 0 -0.60209 0.30856 -0.73639 0.0014332
0.196 0.16402 0.84936 1.0418e-38 384 297 0 0 0 -0.61167 0.30651 -0.72932 0.0014479
0.19699 0.16501 0.84936 6.4537e-39 181 298 0 0 0 -0.60823 0.31013 -0.73066 0.0015208
0.19927 0.16534 0.84848 7.099e-39 243.5 298 0 0 0 -0.59764 0.31278 -0.73824 0.0016132
0.19737 0.16638 0.84956 7.4986e-39 349.33 298 0 0 0 -0.60669 0.31194 -0.73117 0.0016535
0.19923 0.16725 0.84936 7.4448e-39 396.5 298.25 0 0 0 -0.5988 0.31488 -0.7364 0.001851
0.20069 0.16776 0.84819 7.0991e-39 246 299 0 0 0 -0.59602 0.31337 -0.7393 0.0019176
0.19926 0.16886 0.84971 8.0763e-39 291.4 299.2 0 0 0 -0.60053 0.31405 -0.73535 0.0019688
0.20107 0.16946 0.84839 7.7752e-39 259.67 299.67 0 0 0 -0.59794 0.30961 -0.73934 0.0020313
0.19911 0.1701 0.84995 6.5459e-39 192 300 0 0 0 -0.60209 0.31255 -0.73471 0.0020407
0.20105 0.17128 0.84889 8.5558e-39 390.8 300 0 0 0 -0.5994 0.31014 -0.73793 0.0021273
0.20125 0.17299 0.84951 7.998e-39 347.75 300.75 0 0 0 -0.60186 0.30961 -0.73615 0.00221
0.20274 0.17328 0.84848 8.3437e-39 332.5 301 0 0 0 -0.59987 0.30761 -0.7386 0.0020988
0.20466 0.17372 0.84819 9.5883e-39 407 301 0 0 0 -0.60025 0.30708 -0.73851 0.0021256
0.20153 0.17501 0.84966 8.3207e-39 298 301.75 0 0 0 -0.60358 0.31142 -0.73397 0.0022917
0.20324 0.17526 0.84848 8.2745e-39 289.5 302 0 0 0 -0.60009 0.30858 -0.73802 0.0021336
0.20519 0.17524 0.84834 8.6896e-39 291.5 302 0 0 0 -0.60096 0.30792 -0.73759 0.0020751
0.20664 0.1757 0.84819 1.1617e-38 366 302 0 0 0 -0.60078 0.30849 -0.73749 0.0021465
0.20312 0.17731 0.84925 7.3941e-39 228.4 303 0 0 0 -0.60348 0.31476 -0.73263 0.002328
0.20533 0.17734 0.84892 8.1824e-39 243.5 303 0 0 0 -0.60143 0.31136 -0.73576 0.0021372
0.20702 0.1774 0.84839 8.2362e-39 273.33 303 0 0 0 -0.60028 0.31136 -0.73669 0.0020779
0.28603 0.17769 0.84819 9.404e-39 403 303 0 0 0 0.78269 0.21716 -0.5833 0.001838
0.28861 0.17606 0.84995 7.0991e-39 440 302 0 0 0 0.78552 0.22653 -0.57589 0.0023186
0.20327 0.17899 0.84966 7.537e-39 215 303.75 0 0 0 -0.60454 0.31595 -0.73123 0.0023905
0.2056 0.17925 0.84936 7.4986e-39 187.33 304 0 0 0 -0.60158 0.31468 -0.73422 0.0021968
0.20728 0.1793 0.84878 7.8827e-39 212.5 304 0 0 0 -0.59957 0.31429 -0.73603 0.0020754
0.20863 0.17918 0.84819 7.7905e-39 214 304 0 0 0 -0.59958 0.31584 -0.73536 0.0021153
0.28712 0.17855 0.84995 8.1594e-39 317.5 303.5 0 0 0 0.78304 0.22426 -0.58014 0.0021237
0.20338 0.18066 0.84975 7.4986e-39 379 304 0 0 0 -0.60584 0.31788 -0.72932 0.0025184
0.20508 0.18054 0.84995 7.4679e-39 355.5 304 0 0 0 -0.60373 0.31746 -0.73125 0.0023451
0.2071 0.18129 0.84925 6.8594e-39 365.6 304.4 0 0 0 -0.60041 0.31742 -0.734 0.002244
0.20912 0.18116 0.84819 7.1913e-39 351 304.5 0 0 0 -0.59843 0.31616 -0.73615 0.0021826
0.20459 0.18253 0.84995 7.4679e-39 335.5 305 0 0 0 -0.60567 0.31921 -0.72888 0.0026075
0.20695 0.18292 0.84948 7.4125e-39 347 305.2 0 0 0 -0.60189 0.31798 -0.73255 0.0024184
0.20916 0.18318 0.84834 7.2604e-39 326 305.5 0 0 0 -0.59861 0.31586 -0.73614 0.0022216
0.2075 0.18495 0.84966 8.5511e-39 297.25 306.25 0 0 0 -0.60364 0.31675 -0.73163 0.0025848
0.2092 0.18519 0.84848 8.4129e-39 288.5 306.5 0 0 0 -0.59773 0.31516 -0.73715 0.0022771
0.21061 0.18563 0.84819 6.4537e-39 196 307 0 0 0 -0.59823 0.31459 -0.73699 0.0022939
0.20735 0.18663 0.84975 9.189e-39 287 307 0 0 0 -0.60548 0.31782 -0.72965 0.0027145
0.20908 0.18745 0.84925 8.2976e-39 219.8 307.6 0 0 0 -0.60158 0.31574 -0.73376 0.0025839
0.21111 0.18712 0.84819 7.6292e-39 241.5 307.5 0 0 0 -0.60011 0.31345 -0.73594 0.0023417
0.2092 0.18934 0.84971 8.3529e-39 311.4 308 0 0 0 -0.60385 0.31309 -0.73304 0.0027217
0.21122 0.18919 0.84863 8.7816e-39 327 308 0 0 0 -0.60074 0.31133 -0.73633 0.0025198
0.2126 0.1891 0.84819 8.3898e-39 328.5 308 0 0 0 -0.60168 0.31005 -0.73611 0.0024928
0.21092 0.19137 0.84946 8.8047e-39 245 309 0 0 0 -0.60467 0.30943 -0.73391 0.0027758
0.21313 0.19112 0.84834 1.0049e-38 247.5 309 0 0 0 -0.60449 0.30535 -0.73577 0.0025813
0.21147 0.1929 0.84966 1.0833e-38 431.5 309 0 0 0 -0.60697 0.30619 -0.73337 0.0028555
0.21303 0.19338 0.84913 9.2196e-39 310.8 309.6 0 0 0 -0.60654 0.30296 -0.73507 0.002759
0.21496 0.19328 0.84839 8.4819e-39 299.33 309.67 0 0 0 -0.60691 0.30274 -0.73486 0.0026326
0.21346 0.19539 0.84966 7.2143e-39 253 310.5 0 0 0 -0.60771 0.30325 -0.73398 0.0027133
0.21519 0.19515 0.84863 7.4218e-39 255 310.5 0 0 0 -0.60613 0.30096 -0.73623 0.0025587
0.21657 0.19506 0.84819 7.2835e-39 256.5 310.5 0 0 0 -0.6084 0.30049 -0.73454 0.0025642
0.21488 0.19731 0.84936 9.6498e-39 318.5 311 0 0 0 -0.60957 0.30361 -0.73229 0.0024986
0.21713 0.1971 0.84848 9.45e-39 321 311 0 0 0 -0.60796 0.30224 -0.73419 0.0024637
0.21488 0.1993 0.84936 7.4064e-39 201.5 312 0 0 0 -0.60909 0.30687 -0.73133 0.0024037
0.21713 0.19909 0.84848 7.6753e-39 204 312 0 0 0 -0.6077 0.3028 -0.73418 0.0022265
0.21545 0.20135 0.84966 1.0764e-38 394 312 0 0 0 -0.60987 0.30868 -0.72991 0.0022701
0.21725 0.20118 0.84892 1.0625e-38 396 312 0 0 0 -0.60998 0.30554 -0.73114 0.0020832
0.27809 0.2015 0.84819 6.2693e-39 171 313 0 0 0 0.7451 0.39123 -0.54015 0.008738
0.21689 0.20329 0.84946 6.9915e-39 244 313 0 0 0 -0.61135 0.30563 -0.72996 0.0020727
0.21904 0.20349 0.84819 6.7303e-39 287.5 313 0 0 0 -0.60857 0.30486 -0.7326 0.0020747
0.27828 0.20263 0.84878 8.2054e-39 261 313 0 0 0 0.76636 0.37077 -0.52461 0.009998
0.21715 0.20524 0.84971 1.0584e-38 284 313.4 0 0 0 -0.612 0.30358 -0.73027 0.0020695
0.21904 0.20498 0.84819 1.0372e-38 262 313.5 0 0 0 -0.60733 0.3046 -0.73373 0.0020657
0.2771 0.20547 0.84819 6.4537e-39 203 314 0 0 0 0.71003 0.41285 -0.57045 0.0089852
0.21758 0.20713 0.84956 1.0295e-38 248.33 314 0 0 0 -0.60986 0.30313 -0.73225 0.002128
0.21912 0.20703 0.84848 1.1456e-38 263 314 0 0 0 -0.60622 0.30495 -0.73451 0.0021807
0.27511 0.20746 0.84819 1.2354e-38 373 314 0 0 0 0.6395 0.45679 -0.61838 0.0058723
0.27669 0.20698 0.84897 8.8815e-39 311.67 314 0 0 0 0.70949 0.4112 -0.57231 0.0094778
0.2188 0.20918 0.84917 9.5269e-39 267.5 314.5 0 0 0 -0.60596 0.30532 -0.73457 0.0023323
0.22054 0.20895 0.84819 9.3579e-39 269.5 314.5 0 0 0 -0.60327 0.30615 -0.73643 0.0024216
0.27481 0.20909 0.84878 8.9889e-39 321 314.5 0 0 0 0.7571 0.34046 -0.55758 0.014898
0.27668 0.20888 0.84995 1.134e-38 448 314 0 0 0 0.70955 0.39836 -0.58125 0.010553
0.21942 0.21129 0.84966 9.4272e-39 252.5 315 0 0 0 -0.60413 0.308 -0.73496 0.0026652
0.22092 0.21114 0.84839 9.6805e-39 266 315 0 0 0 -0.60251 0.30811 -0.73624 0.0026667
0.27282 0.21108 0.84878 1.217e-38 313 315 0 0 0 0.81295 0.282 -0.5095 0.013831
0.2745 0.21072 0.84936 9.9571e-39 271 315 0 0 0 0.79642 0.29576 -0.52749 0.015307
0.22126 0.21314 0.84907 1.2423e-38 407.5 315 0 0 0 -0.60194 0.313 -0.73464 0.0028338
0.22252 0.21341 0.84819 1.2078e-38 442 315 0 0 0 -0.6018 0.31221 -0.7351 0.0028084
0.27115 0.21242 0.84819 9.3118e-39 423 315 0 0 0 0.81909 0.27618 -0.50281 0.012673
0.22191 0.21527 0.84966 7.6061e-39 213 316 0 0 0 -0.6016 0.32525 -0.72958 0.0029737
0.22309 0.21497 0.84848 8.3206e-39 214.5 316 0 0 0 -0.6017 0.32112 -0.73133 0.0029091
0.27034 0.21455 0.84878 7.4678e-39 234 316 0 0 0 0.82114 0.27058 -0.50251 0.011022
0.22349 0.21702 0.84936 1.4905e-38 323.33 316 0 0 0 -0.60134 0.33543 -0.72517 0.0028603
0.225 0.21738 0.84819 1.3414e-38 368.5 316 0 0 0 -0.601 0.33407 -0.72608 0.0029473
0.22516 0.21902 0.84878 1.0303e-38 438.5 316 0 0 0 -0.60077 0.34572 -0.7208 0.0030022
0.22682 0.21904 0.84819 7.9288e-39 231.33 316.67 0 0 0 -0.59926 0.34316 -0.72328 0.0030395
0.22581 0.22066 0.84936 7.6522e-39 181 317 0 0 0 -0.59965 0.35923 -0.7151 0.003033
0.22726 0.22112 0.84922 7.9288e-39 208.5 317 0 0 0 -0.59752 0.36527 -0.71382 0.0031301
0.22855 0.22093 0.84848 8.4359e-39 210 317 0 0 0 -0.59639 0.36004 -0.71742 0.0031158
0.22795 0.2228 0.84995 1.429e-38 278 317 0 0 0 -0.59343 0.38824 -0.70506 0.003173
0.22919 0.22272 0.84839 1.5089e-38 298 317 0 0 0 -0.59324 0.37966 -0.70987 0.0031752
0.23079 0.223 0.84819 1.598e-38 318 317 0 0 0 -0.59281 0.37705 -0.71162 0.0032672
0.17528 0.093391 0.8517 8.236e-39 379 264 0 0 0 -0.58624 -0.71893 -0.37344 0.12658
0.1776 0.093723 0.8517 6.9147e-39 510 264 0 0 0 -0.46786 -0.77179 -0.43063 0.121
0.18159 0.093723 0.8517 7.9288e-39 514 264 0 0 0 -0.23825 -0.82852 -0.50675 0.089797
0.20493 0.09369 0.85141 7.6522e-39 213.5 265 0 0 0 -0.045702 -0.92021 -0.38874 0.0042863
0.20693 0.09369 0.85141 6.9147e-39 215.5 265 0 0 0 -0.043622 -0.91849 -0.39304 0.0045079
0.20906 0.093348 0.85131 6.6688e-39 235.67 264.67 0 0 0 -0.039824 -0.91669 -0.3976 0.0046928
0.21096 0.093305 0.85092 7.1298e-39 237.67 264.67 0 0 0 -0.035352 -0.91661 -0.39821 0.0047609
0.21283 0.092663 0.85112 6.9608e-39 275.5 264 0 0 0 -0.029051 -0.91716 -0.39746 0.0049334
0.21504 0.093016 0.85131 7.2527e-39 263 264.33 0 0 0 -0.01637 -0.91828 -0.3956 0.0050118
0.2166 0.092973 0.85092 7.222e-39 268 264.33 0 0 0 -0.010295 -0.91782 -0.39686 0.0049257
0.21881 0.092663 0.85112 7.1913e-39 291.5 264 0 0 0 0.00438 -0.9217 -0.38787 0.0048751
0.22072 0.093129 0.85083 8.7817e-39 261.5 264.5 0 0 0 0.0095904 -0.92052 -0.39058 0.0044736
0.22279 0.09316 0.85111 9.0352e-39 263.5 264.5 0 0 0 0.019045 -0.92334 -0.38351 0.0040394
0.22444 0.093723 0.8517 7.4678e-39 233 265 0 0 0 0.021452 -0.92557 -0.37796 0.0036817
0.25515 0.093658 0.85112 1.0142e-38 264 265 0 0 0 0.010843 -0.92129 -0.38872 0.0016013
0.25656 0.093626 0.85083 9.0351e-39 265.5 265 0 0 0 0.016855 -0.92042 -0.39057 0.0015487
0.25855 0.093626 0.85083 7.3757e-39 267.5 265 0 0 0 0.023474 -0.9194 -0.39262 0.0014769
0.26072 0.09369 0.85141 6.8225e-39 269.5 265 0 0 0 0.027503 -0.91748 -0.39684 0.0015666
0.2623 0.093723 0.8517 6.7303e-39 271 265 0 0 0 0.030015 -0.91639 -0.39917 0.0015939
0.17493 0.095119 0.85083 8.4819e-39 316 265.5 0 0 0 -0.63082 -0.64315 -0.43408 0.12901
0.17715 0.095318 0.85112 9.2809e-39 300.33 265.67 0 0 0 -0.54548 -0.70237 -0.4573 0.12623
0.17914 0.094986 0.85112 7.2835e-39 343.67 265.33 0 0 0 -0.43419 -0.75824 -0.48637 0.11778
0.18102 0.094687 0.85141 6.8686e-39 393.5 265 0 0 0 -0.32651 -0.79629 -0.50924 0.10563
0.1829 0.095119 0.85083 6.8686e-39 333.5 265.5 0 0 0 -0.22545 -0.80017 -0.55579 0.089077
0.18458 0.095716 0.8517 6.5459e-39 272 266 0 0 0 -0.20096 -0.81392 -0.54511 0.079779
0.189 0.095683 0.85141 6.8686e-39 276.5 266 0 0 0 -0.13059 -0.84005 -0.52656 0.041274
0.19093 0.09565 0.85112 7.2835e-39 278.5 266 0 0 0 -0.090386 -0.8541 -0.51219 0.027322
0.19255 0.095716 0.8517 6.9147e-39 286 266 0 0 0 -0.053588 -0.8746 -0.48188 0.017869
0.19697 0.095683 0.85141 6.4998e-39 290.5 266 0 0 0 -0.029569 -0.90842 -0.41701 0.0052832
0.19872 0.095318 0.85112 8.1747e-39 332.33 265.67 0 0 0 -0.033533 -0.91249 -0.40772 0.0044766
