# .PCD v.7 - Point Cloud Data file format
VERSION .7
FIELDS x y z rgb u v vx vy vz normal_x normal_y normal_z curvature
SIZE 4 4 4 4 4 4 4 4 4 4 4 4 4
TYPE F F F F F F F F F F F F F
COUNT 1 1 1 1 1 1 1 1 1 1 1 1 1
WIDTH 555
HEIGHT 1
VIEWPOINT 0 0 0 1 0 0 0
POINTS 555
DATA ascii
0.018964 0.035107 0.99836 9.3118e-39 396 264 0 0 0 0.13257 0.80049 -0.5845 0.0063464
0.020132 0.035107 0.99836 9.0352e-39 397 264 0 0 0 0.14856 0.80151 -0.57923 0.0074851
0.0295 0.035135 0.99917 8.943e-39 405 264 0 0 0 0.27845 0.80309 -0.5268 0.013427
-0.0090687 0.036275 0.99836 7.0991e-39 439 264 0 0 0 -0.22603 0.81935 -0.52685 0.0087289
-0.0073194 0.036874 0.99876 7.053e-39 292.5 264.5 0 0 0 -0.19383 0.82541 -0.53022 0.0087104
-0.0055646 0.037443 0.99836 7.0991e-39 146 265 0 0 0 -0.16206 0.83028 -0.53326 0.0093329
-0.0032286 0.037443 0.99836 6.3615e-39 151 265 0 0 0 -0.12779 0.83133 -0.54089 0.0093341
0.00027554 0.037443 0.99836 6.9147e-39 154 265 0 0 0 -0.058205 0.82314 -0.56485 0.0092398
0.0049537 0.036904 0.99958 7.6061e-39 305.5 264.5 0 0 0 0.0028348 0.80645 -0.5913 0.0065327
0.0067054 0.036889 0.99917 7.7214e-39 307 264.5 0 0 0 0.015402 0.80096 -0.59852 0.0057335
0.0090504 0.036334 0.99998 8.7586e-39 452.5 264 0 0 0 0.038555 0.79647 -0.60345 0.0046286
0.013145 0.036919 0.99998 7.8366e-39 312.5 264.5 0 0 0 0.076359 0.79798 -0.59782 0.0042208
0.014897 0.036912 0.99978 8.0441e-39 314 264.5 0 0 0 0.094439 0.80011 -0.59237 0.004535
0.017233 0.036904 0.99958 8.2055e-39 316.5 264.5 0 0 0 0.11568 0.80216 -0.58579 0.0053057
0.018987 0.036904 0.99958 7.9749e-39 318 264.5 0 0 0 0.13425 0.80368 -0.57972 0.0061095
0.020737 0.036897 0.99937 7.7675e-39 319.5 264.5 0 0 0 0.1656 0.80528 -0.5693 0.0075445
0.022883 0.037094 0.99944 7.3449e-39 273.33 264.67 0 0 0 0.18949 0.80732 -0.55886 0.0093733
0.025388 0.036275 0.99836 9.5423e-39 467.5 264 0 0 0 0.22345 0.8074 -0.54605 0.012082
0.026588 0.036904 0.99958 8.1132e-39 333 264.5 0 0 0 0.23585 0.80755 -0.54059 0.011415
0.028354 0.036334 0.99998 9.2196e-39 478 264 0 0 0 0.25552 0.805 -0.53543 0.012613
-0.0020639 0.038674 0.99998 7.7444e-39 223 265 0 0 0 -0.10336 0.82843 -0.55048 0.0082937
-0.00089394 0.038674 0.99998 8.2054e-39 224 265 0 0 0 -0.087672 0.82702 -0.5553 0.0084099
0.0014459 0.038674 0.99998 7.9288e-39 226 265 0 0 0 -0.047182 0.82039 -0.56985 0.0082831
0.0032008 0.038674 0.99998 7.8366e-39 227.5 265 0 0 0 -0.023663 0.81418 -0.58013 0.0076953
-0.030191 0.027018 1.0016 7.2835e-39 195 263 0 0 0 -0.32527 0.63556 -0.70019 0.029241
-0.029019 0.027018 1.0016 7.2835e-39 196 263 0 0 0 -0.33074 0.6558 -0.67863 0.026627
-0.027059 0.028573 1.0013 1.0326e-38 276.33 263 0 0 0 -0.3278 0.69587 -0.639 0.023915
-0.025107 0.028963 1.0013 1.0295e-38 310.67 263 0 0 0 -0.33539 0.73769 -0.58594 0.020084
-0.026676 0.031119 1.0016 8.021e-39 443.5 263 0 0 0 -0.32489 0.72585 -0.60629 0.022128
-0.024312 0.031094 1.0008 7.8827e-39 445.5 263 0 0 0 -0.33815 0.75271 -0.56488 0.017437
-0.02197 0.03168 1.0008 7.0069e-39 499 263 0 0 0 -0.32983 0.7714 -0.5442 0.015259
0.037744 0.03168 1.0008 6.7303e-39 166 264 0 0 0 0.40605 0.76542 -0.49926 0.013674
-0.026676 0.032877 1.0016 7.6522e-39 196 264 0 0 0 -0.31737 0.73371 -0.60079 0.021158
-0.024332 0.032877 1.0016 7.2835e-39 198 264 0 0 0 -0.3266 0.76232 -0.55874 0.018149
-0.023141 0.032851 1.0008 7.3757e-39 199 264 0 0 0 -0.32966 0.77022 -0.54597 0.015871
-0.021988 0.032877 1.0016 7.2835e-39 200 264 0 0 0 -0.32517 0.77632 -0.53999 0.014991
0.036573 0.032851 1.0008 8.482e-39 235 264 0 0 0 0.38083 0.77565 -0.50332 0.013836
-0.027261 0.034049 1.0016 7.56e-39 252.5 264 0 0 0 -0.31067 0.73073 -0.60788 0.021369
-0.024332 0.034049 1.0016 7.3757e-39 255 264 0 0 0 -0.3204 0.76608 -0.5572 0.017681
-0.023141 0.034021 1.0008 7.7444e-39 256 264 0 0 0 -0.32902 0.77247 -0.54317 0.015702
-0.021201 0.03443 1.0013 7.7444e-39 294.33 264 0 0 0 -0.31568 0.78632 -0.53107 0.013582
-0.019645 0.035221 1.0016 6.5459e-39 369 264 0 0 0 -0.30599 0.79578 -0.52258 0.011714
-0.016129 0.035221 1.0016 6.2693e-39 370 264 0 0 0 -0.28427 0.80283 -0.52408 0.0092141
0.031305 0.034607 1.0008 9.1735e-39 374 264 0 0 0 0.30511 0.79742 -0.5206 0.014349
0.033061 0.034021 1.0008 9.7727e-39 343 264 0 0 0 0.33756 0.7899 -0.51197 0.013304
0.034831 0.034621 1.0012 9.1274e-39 377 264 0 0 0 0.36782 0.77989 -0.50644 0.011529
-0.027261 0.036393 1.0016 6.9147e-39 424.5 264 0 0 0 -0.29904 0.73237 -0.61173 0.021973
-0.018473 0.036393 1.0016 6.6381e-39 435 264 0 0 0 -0.29855 0.79961 -0.52105 0.010784
-0.012614 0.036393 1.0016 6.6381e-39 437 264 0 0 0 -0.2623 0.80874 -0.52644 0.0086666
-0.010847 0.036948 1.0008 6.6842e-39 290 264.5 0 0 0 -0.237 0.81361 -0.53092 0.0083425
-0.0090908 0.037534 1.0008 6.7303e-39 143 265 0 0 0 -0.21634 0.81858 -0.5321 0.0074156
-0.0079199 0.037534 1.0008 6.7303e-39 144 265 0 0 0 -0.19391 0.82295 -0.534 0.0078314
0.0090577 0.037534 1.0008 6.592e-39 165.5 265 0 0 0 0.038678 0.79807 -0.60132 0.0046707
0.0114 0.036948 1.0008 7.7905e-39 311 264.5 0 0 0 0.059511 0.79644 -0.60178 0.0041431
0.024865 0.037534 1.0008 6.9147e-39 179 265 0 0 0 0.22429 0.80828 -0.54441 0.010672
0.027206 0.037534 1.0008 7.0069e-39 190 265 0 0 0 0.25112 0.80675 -0.53488 0.01121
0.029572 0.036393 1.0016 8.7586e-39 479 264 0 0 0 0.29487 0.80002 -0.52251 0.012628
-0.0067545 0.038736 1.0016 7.0991e-39 219 265 0 0 0 -0.17212 0.8234 -0.54073 0.007246
-0.004995 0.03872 1.0012 7.1452e-39 220.5 265 0 0 0 -0.14798 0.82431 -0.54645 0.0080369
-0.003239 0.038736 1.0016 7.1913e-39 222 265 0 0 0 -0.12299 0.82447 -0.55237 0.0083042
0.00027621 0.038705 1.0008 8.1132e-39 225 265 0 0 0 -0.070326 0.82318 -0.56341 0.0083498
0.0037919 0.039908 1.0016 9.4961e-39 289 265 0 0 0 -0.017076 0.80703 -0.59026 0.0076099
0.0049637 0.038736 1.0016 8.2976e-39 229 265 0 0 0 -0.0044454 0.80459 -0.59381 0.0069857
0.0067215 0.038736 1.0016 9.2195e-39 230.5 265 0 0 0 0.0088428 0.79998 -0.59996 0.0064855
0.0084792 0.038736 1.0016 9.404e-39 232 265 0 0 0 0.033695 0.79707 -0.60294 0.0052482
0.014924 0.038736 1.0016 9.8187e-39 237.5 265 0 0 0 0.096498 0.79936 -0.59305 0.0047631
0.017268 0.038736 1.0016 1.0188e-38 239.5 265 0 0 0 0.11997 0.80527 -0.58064 0.0051126
0.019026 0.038736 1.0016 1.0326e-38 241 265 0 0 0 0.14402 0.80908 -0.56978 0.0060449
0.020197 0.038736 1.0016 1.0602e-38 242 265 0 0 0 0.15636 0.80968 -0.56566 0.0063844
0.023127 0.038736 1.0016 1.1294e-38 244.5 265 0 0 0 0.20235 0.80869 -0.55233 0.0085758
-0.03024 0.028823 1.0032 9.1274e-39 290 263 0 0 0 -0.29365 0.65923 -0.69223 0.030223
-0.029078 0.028834 1.0036 9.4038e-39 291 263 0 0 0 -0.29761 0.67959 -0.67051 0.027586
-0.02787 0.029386 1.0024 9.0352e-39 341 263 0 0 0 -0.30995 0.69946 -0.64396 0.024995
-0.02909 0.031195 1.004 8.5281e-39 441.5 263 0 0 0 -0.28454 0.70536 -0.64924 0.026631
-0.02787 0.031144 1.0024 8.2054e-39 442.5 263 0 0 0 -0.31065 0.71755 -0.62339 0.02379
-0.025524 0.031144 1.0024 8.021e-39 444.5 263 0 0 0 -0.32354 0.74042 -0.58915 0.020207
0.03901 0.03117 1.0032 7.2374e-39 309.5 263.5 0 0 0 0.45136 0.76045 -0.46689 0.010305
-0.02909 0.032957 1.004 7.4678e-39 194 264 0 0 0 -0.27991 0.70806 -0.64831 0.025545
-0.02787 0.032904 1.0024 7.3757e-39 195 264 0 0 0 -0.30857 0.71839 -0.62346 0.023349
-0.025524 0.032904 1.0024 7.4678e-39 197 264 0 0 0 -0.3182 0.74751 -0.58308 0.019721
0.037836 0.032931 1.0032 8.7586e-39 236 264 0 0 0 0.42555 0.77061 -0.47441 0.011197
-0.029066 0.034691 1.0032 7.0991e-39 305.5 264 0 0 0 -0.28741 0.7103 -0.64255 0.025335
-0.027284 0.035249 1.0024 6.4076e-39 361.5 264 0 0 0 -0.29904 0.73237 -0.61173 0.021973
-0.02514 0.034868 1.0027 6.8225e-39 327.33 264 0 0 0 -0.31149 0.76075 -0.56941 0.018844
-0.022602 0.035264 1.0028 7.2374e-39 366.5 264 0 0 0 -0.31332 0.78089 -0.54041 0.015035
0.031942 0.035249 1.0024 8.7586e-39 407 264 0 0 0 0.32814 0.79343 -0.51264 0.012392
0.033114 0.035249 1.0024 8.943e-39 408 264 0 0 0 0.34842 0.78757 -0.50826 0.011703
0.036663 0.034692 1.0032 8.8047e-39 378.5 264 0 0 0 0.40569 0.77651 -0.48214 0.011184
-0.029043 0.036422 1.0024 6.9147e-39 423 264 0 0 0 -0.28741 0.7103 -0.64255 0.025335
-0.024969 0.036467 1.0036 7.1452e-39 426.5 264 0 0 0 -0.30228 0.76753 -0.56527 0.017961
-0.023217 0.036481 1.004 7.6522e-39 428 264 0 0 0 -0.30598 0.779 -0.54729 0.015518
-0.02085 0.036452 1.0032 7.4678e-39 430 264 0 0 0 -0.30834 0.79153 -0.52765 0.012579
-0.01909 0.037039 1.0032 8.3437e-39 472 264 0 0 0 -0.29545 0.79873 -0.52416 0.010697
-0.016155 0.036452 1.0032 6.5459e-39 436 264 0 0 0 -0.28465 0.80458 -0.52117 0.0089033
-0.012644 0.037656 1.004 6.7303e-39 140 265 0 0 0 -0.25255 0.80903 -0.53074 0.0080405
-0.01146 0.037626 1.0032 6.6381e-39 141 265 0 0 0 -0.24349 0.81277 -0.52926 0.0071261
0.028423 0.037595 1.0024 7.56e-39 191 265 0 0 0 0.2674 0.8052 -0.5293 0.011789
0.031394 0.036467 1.0036 8.1132e-39 480.5 264 0 0 0 0.32965 0.7936 -0.51139 0.01164
0.033168 0.036481 1.004 7.2835e-39 482 264 0 0 0 0.36294 0.78531 -0.50156 0.011758
0.034931 0.036481 1.004 6.9608e-39 483.5 264 0 0 0 0.3908 0.77997 -0.4888 0.011071
-0.010287 0.038799 1.0032 7.2835e-39 216 265 0 0 0 -0.21631 0.8164 -0.53545 0.0069704
-0.0091129 0.038799 1.0032 7.1913e-39 217 265 0 0 0 -0.20319 0.81681 -0.53994 0.0067837
-0.0079392 0.038799 1.0032 7.0991e-39 218 265 0 0 0 -0.18836 0.81718 -0.54474 0.007393
-0.0020689 0.039941 1.0024 9.8649e-39 284 265 0 0 0 -0.10403 0.81741 -0.56659 0.008214
-0.00089612 0.039941 1.0024 9.8649e-39 285 265 0 0 0 -0.089045 0.81497 -0.57262 0.0086233
0.00086303 0.039941 1.0024 9.4962e-39 286.5 265 0 0 0 -0.066142 0.81327 -0.57812 0.0088661
0.0026222 0.039941 1.0024 9.404e-39 288 265 0 0 0 -0.041929 0.80817 -0.58746 0.0086168
0.0049718 0.039973 1.0032 9.2196e-39 290 265 0 0 0 -0.010626 0.79979 -0.60019 0.0075678
0.0067294 0.039957 1.0028 9.4962e-39 291.5 265 0 0 0 0.0050265 0.79684 -0.60416 0.0072073
0.0092729 0.039571 1.0029 9.4961e-39 273.33 265 0 0 0 0.038541 0.79497 -0.60543 0.0053246
0.010836 0.03937 1.0028 9.2196e-39 264.5 265 0 0 0 0.057455 0.79489 -0.60403 0.0048558
0.012596 0.03937 1.0028 9.0813e-39 287 265 0 0 0 0.076786 0.79545 -0.60114 0.0048135
0.014942 0.039957 1.0028 8.7586e-39 340.5 265 0 0 0 0.1032 0.79851 -0.59307 0.0050106
0.017282 0.039941 1.0024 9.45e-39 342.5 265 0 0 0 0.12124 0.80287 -0.5837 0.0051225
0.019057 0.039973 1.0032 9.7727e-39 344 265 0 0 0 0.14506 0.8058 -0.57414 0.0055152
0.020808 0.03937 1.0028 1.0141e-38 294 265 0 0 0 0.17242 0.80921 -0.56165 0.0066375
0.024905 0.038768 1.0024 1.0971e-38 246 265 0 0 0 0.22966 0.80879 -0.54141 0.0095313
0.026664 0.038768 1.0024 1.0787e-38 247.5 265 0 0 0 0.25268 0.80693 -0.53386 0.010445
-0.006771 0.040006 1.004 7.0069e-39 280 265 0 0 0 -0.16914 0.81398 -0.55572 0.0070642
-0.0050089 0.040006 1.004 9.0812e-39 281.5 265 0 0 0 -0.14243 0.81293 -0.56468 0.0082282
-0.0032469 0.040006 1.004 9.6805e-39 283 265 0 0 0 -0.11597 0.81125 -0.57308 0.0085897
0.0014518 0.04118 1.004 8.943e-39 390 265 0 0 0 -0.063158 0.80574 -0.58889 0.0089637
0.0032123 0.041164 1.0036 9.2196e-39 391.5 265 0 0 0 -0.039161 0.80276 -0.59501 0.0089235
0.0049758 0.04118 1.004 8.943e-39 393 265 0 0 0 -0.010423 0.79731 -0.60348 0.0079043
0.0067378 0.04118 1.004 9.5884e-39 394.5 265 0 0 0 0.0052677 0.79412 -0.60774 0.0072373
0.0090872 0.04118 1.004 9.2196e-39 396.5 265 0 0 0 0.03326 0.79301 -0.6083 0.0057381
0.010849 0.04118 1.004 9.1274e-39 398 265 0 0 0 0.055638 0.79124 -0.60897 0.0050727
0.01496 0.04118 1.004 9.7266e-39 401.5 265 0 0 0 0.10485 0.79503 -0.59744 0.0051035
0.01731 0.04118 1.004 9.3579e-39 403.5 265 0 0 0 0.12748 0.79986 -0.58649 0.0053631
0.021421 0.040006 1.004 8.943e-39 346 265 0 0 0 0.18677 0.80826 -0.55842 0.0064773
0.023183 0.040006 1.004 9.1735e-39 347.5 265 0 0 0 0.21118 0.80787 -0.55023 0.0075927
0.0038012 0.042355 1.004 7.1913e-39 442 265 0 0 0 -0.03074 0.8 -0.59921 0.0085834
0.040282 0.029481 1.0057 8.7586e-39 387 263 0 0 0 0.49998 0.74672 -0.43866 0.0080579
0.040282 0.030658 1.0057 7.9288e-39 453 263 0 0 0 0.49241 0.75332 -0.43594 0.0082544
0.039105 0.033011 1.0057 9.0352e-39 237 264 0 0 0 0.46341 0.76403 -0.4489 0.0087846
0.037898 0.03416 1.0049 9.1274e-39 347 264 0 0 0 0.43308 0.77446 -0.46114 0.0099647
-0.02206 0.036511 1.0049 7.56e-39 429 264 0 0 0 -0.30014 0.78449 -0.54267 0.013924
-0.020884 0.037687 1.0049 9.7727e-39 508 264 0 0 0 -0.30253 0.79235 -0.52977 0.01213
-0.019709 0.037687 1.0049 1.0418e-38 509 264 0 0 0 -0.29677 0.79439 -0.52997 0.010943
-0.016769 0.037687 1.0049 7.4218e-39 514.5 264 0 0 0 -0.28326 0.80149 -0.52666 0.0092137
0.029668 0.037687 1.0049 7.9288e-39 192 265 0 0 0 0.30243 0.79759 -0.52191 0.011151
0.030869 0.037717 1.0057 7.56e-39 193 265 0 0 0 0.33466 0.79142 -0.51153 0.010902
-0.018548 0.038894 1.0057 7.4678e-39 210 265 0 0 0 -0.28602 0.796 -0.53345 0.0098245
-0.012665 0.038894 1.0057 7.8366e-39 214 265 0 0 0 -0.24073 0.80665 -0.53978 0.0071893
-0.011479 0.038862 1.0049 7.3757e-39 215 265 0 0 0 -0.23049 0.81163 -0.53677 0.0063994
0.028493 0.038862 1.0049 1.0787e-38 249 265 0 0 0 0.2883 0.80009 -0.52605 0.010598
-0.0091352 0.040071 1.0057 7.0069e-39 278 265 0 0 0 -0.19541 0.80644 -0.55809 0.0066371
-0.0079586 0.040071 1.0057 6.9147e-39 279 265 0 0 0 -0.1849 0.8076 -0.56 0.0064377
-0.0026631 0.04123 1.0053 8.7125e-39 386.5 265 0 0 0 -0.10922 0.80658 -0.58095 0.0083824
-0.0008983 0.041214 1.0049 8.5742e-39 388 265 0 0 0 -0.092468 0.80729 -0.58286 0.0085618
0.00027733 0.041214 1.0049 8.5742e-39 389 265 0 0 0 -0.077851 0.80684 -0.58562 0.0086258
0.012621 0.041214 1.0049 9.6344e-39 399.5 265 0 0 0 0.078484 0.79415 -0.60264 0.0051249
0.019088 0.041214 1.0049 9.0352e-39 405 265 0 0 0 0.1546 0.80226 -0.57661 0.0057383
0.020859 0.04123 1.0053 8.8047e-39 406.5 265 0 0 0 0.18062 0.80463 -0.56563 0.0061665
0.022633 0.041247 1.0057 8.5742e-39 408 265 0 0 0 0.20739 0.80446 -0.55663 0.0067833
0.024966 0.040038 1.0049 9.0352e-39 349 265 0 0 0 0.24037 0.80335 -0.54484 0.008326
0.026729 0.040038 1.0049 7.8827e-39 350.5 265 0 0 0 0.26136 0.79983 -0.54033 0.009294
0.0014542 0.042424 1.0057 7.4678e-39 440 265 0 0 0 -0.062648 0.80136 -0.59489 0.0089801
0.003219 0.043012 1.0057 7.1913e-39 473 265 0 0 0 -0.041033 0.79525 -0.6049 0.0088156
0.0049799 0.042389 1.0049 7.0069e-39 443 265 0 0 0 -0.013823 0.79427 -0.60741 0.0079581
0.0067461 0.042994 1.0053 7.7905e-39 476 265 0 0 0 0.0018319 0.79202 -0.6105 0.0076217
0.0090981 0.042406 1.0053 7.514e-39 446.5 265 0 0 0 0.034182 0.791 -0.61086 0.0063321
0.010858 0.042389 1.0049 8.2054e-39 448 265 0 0 0 0.05787 0.79259 -0.607 0.0053722
0.012632 0.042424 1.0057 9.0352e-39 449.5 265 0 0 0 0.084345 0.79335 -0.60289 0.0056303
0.014781 0.042793 1.0052 9.2503e-39 472.33 265 0 0 0 0.10623 0.79533 -0.59679 0.0055608
0.017324 0.042389 1.0049 8.943e-39 453.5 265 0 0 0 0.1322 0.79734 -0.58888 0.0055048
0.041526 0.029529 1.0073 8.7586e-39 388 263 0 0 0 0.53909 0.73194 -0.41671 0.0096538
0.041122 0.031485 1.007 7.0376e-39 263.67 263.67 0 0 0 0.52754 0.7384 -0.42008 0.0091645
0.03796 0.035393 1.0065 8.2976e-39 412 264 0 0 0 0.44671 0.77459 -0.44772 0.0094402
0.039137 0.034216 1.0065 9.4961e-39 348 264 0 0 0 0.46908 0.76633 -0.43898 0.0085061
0.03266 0.037748 1.0065 7.4218e-39 194.5 265 0 0 0 0.3779 0.77912 -0.50015 0.012465
0.035016 0.037748 1.0065 7.7444e-39 196.5 265 0 0 0 0.40418 0.77668 -0.48313 0.010722
0.036782 0.036571 1.0065 6.8225e-39 485 264 0 0 0 0.43109 0.77634 -0.45984 0.0091795
-0.019741 0.038926 1.0065 7.3757e-39 209 265 0 0 0 -0.28526 0.79031 -0.54226 0.010471
-0.01681 0.038958 1.0073 7.9288e-39 211.5 265 0 0 0 -0.27331 0.79565 -0.54059 0.0083373
-0.01503 0.038926 1.0065 8.2976e-39 213 265 0 0 0 -0.26445 0.79938 -0.5395 0.0076182
0.029741 0.038958 1.0073 1.0142e-38 250 265 0 0 0 0.32477 0.78656 -0.52521 0.012064
-0.010914 0.040119 1.0069 6.8686e-39 276.5 265 0 0 0 -0.21284 0.80159 -0.55871 0.0058685
-0.0050212 0.041281 1.0065 9.3578e-39 384.5 265 0 0 0 -0.13706 0.80102 -0.58274 0.0076651
0.023829 0.041281 1.0065 8.5742e-39 409 265 0 0 0 0.2231 0.79524 -0.56375 0.0081215
0.025027 0.041315 1.0073 8.2054e-39 410 265 0 0 0 0.24419 0.78911 -0.56362 0.0094813
0.026795 0.041315 1.0073 7.6061e-39 411.5 265 0 0 0 0.27007 0.78469 -0.55796 0.010949
0.028539 0.040103 1.0065 6.7303e-39 352 265 0 0 0 0.29391 0.79122 -0.53627 0.011301
-0.0020773 0.042458 1.0065 6.9147e-39 437 265 0 0 0 -0.098498 0.79932 -0.59277 0.0083136
-0.00089977 0.042458 1.0065 7.1913e-39 438 265 0 0 0 -0.08998 0.79789 -0.59605 0.0087833
0.00067077 0.043267 1.007 7.1913e-39 481.33 265 0 0 0 -0.074697 0.79331 -0.60422 0.0086942
0.002635 0.043672 1.0073 6.9147e-39 504 265 0 0 0 -0.052533 0.79192 -0.60836 0.0086743
0.004988 0.043636 1.0065 7.0991e-39 506 265 0 0 0 -0.022197 0.79031 -0.61231 0.0082576
0.0091095 0.043636 1.0065 1.0188e-38 509.5 265 0 0 0 0.033188 0.78856 -0.61406 0.0063001
0.010876 0.043636 1.0065 1.0326e-38 511 265 0 0 0 0.060849 0.78799 -0.61268 0.0056824
0.012652 0.043672 1.0073 9.957e-39 512.5 265 0 0 0 0.087161 0.78965 -0.60734 0.0055559
0.015586 0.043636 1.0065 6.6381e-39 140 266 0 0 0 0.1156 0.79539 -0.59497 0.0056423
0.017352 0.043636 1.0065 6.4998e-39 141.5 266 0 0 0 0.13533 0.79581 -0.59024 0.0057536
0.019127 0.043065 1.0069 7.8366e-39 299 265.5 0 0 0 0.16087 0.7963 -0.58312 0.0057829
0.020893 0.042475 1.0069 9.5883e-39 456.5 265 0 0 0 0.18848 0.7979 -0.57256 0.0062893
0.0038136 0.04485 1.0073 6.9147e-39 179 266 0 0 0 -0.042454 0.79056 -0.61092 0.0085549
0.0049921 0.04485 1.0073 6.9147e-39 188 266 0 0 0 -0.023717 0.7882 -0.61497 0.0082474
0.0067599 0.04485 1.0073 6.9608e-39 189.5 266 0 0 0 0.0059806 0.78922 -0.61409 0.0077236
0.0091169 0.04485 1.0073 7.6522e-39 191.5 266 0 0 0 0.035528 0.78718 -0.6157 0.0064311
0.010885 0.04485 1.0073 7.56e-39 193 266 0 0 0 0.062303 0.78849 -0.61188 0.0057742
0.01442 0.04485 1.0073 7.9288e-39 196 266 0 0 0 0.10628 0.79026 -0.60349 0.0057641
0.043365 0.030758 1.0089 9.1273e-39 455.5 263 0 0 0 0.61685 0.68404 -0.38934 0.0094228
0.040987 0.033106 1.0085 9.8649e-39 238.5 264 0 0 0 0.5217 0.74509 -0.41554 0.008594
0.039201 0.035451 1.0081 8.021e-39 413 264 0 0 0 0.49262 0.75936 -0.42508 0.0090508
0.040413 0.034299 1.009 9.3118e-39 349 264 0 0 0 0.52024 0.74836 -0.41147 0.0086833
0.036902 0.037872 1.0098 7.3757e-39 198 265 0 0 0 0.47605 0.75222 -0.45557 0.01161
0.038053 0.03666 1.009 6.9147e-39 486 264 0 0 0 0.48434 0.75536 -0.44141 0.010181
0.03097 0.039021 1.009 9.1274e-39 251 265 0 0 0 0.37047 0.771 -0.51798 0.013709
0.032728 0.039005 1.0085 8.2054e-39 252.5 265 0 0 0 0.39388 0.76982 -0.50223 0.012251
0.035101 0.039021 1.009 7.6061e-39 254.5 265 0 0 0 0.43024 0.75889 -0.48886 0.012043
-0.019183 0.040169 1.0081 7.1913e-39 264.5 265 0 0 0 -0.27315 0.78996 -0.54895 0.0091336
-0.016845 0.040219 1.0094 7.1452e-39 266.5 265 0 0 0 -0.24987 0.78957 -0.56049 0.0071271
-0.015067 0.040202 1.009 6.6381e-39 268 265 0 0 0 -0.24244 0.79071 -0.56214 0.0063479
-0.012706 0.040793 1.0089 6.7764e-39 327 265 0 0 0 -0.21734 0.79101 -0.5719 0.0055535
-0.01094 0.041399 1.0094 8.021e-39 380.5 265 0 0 0 -0.19888 0.78928 -0.58093 0.0050259
-0.0091651 0.041382 1.009 9.404e-39 382 265 0 0 0 -0.18729 0.79105 -0.58238 0.0054771
-0.0079781 0.041348 1.0081 9.6805e-39 383 265 0 0 0 -0.17149 0.79633 -0.58004 0.0059878
0.029211 0.040808 1.0094 7.0991e-39 383 265 0 0 0 0.33733 0.77071 -0.54057 0.012581
-0.0050335 0.042563 1.009 7.0068e-39 432.5 265 0 0 0 -0.13399 0.78798 -0.60094 0.0067527
-0.0028688 0.043338 1.0087 6.6996e-39 470.33 265 0 0 0 -0.11045 0.7862 -0.60802 0.0073549
-0.00090124 0.043707 1.0081 6.5459e-39 489 265 0 0 0 -0.091721 0.79022 -0.60592 0.0079603
0.020937 0.043743 1.0089 6.7303e-39 144.5 266 0 0 0 0.18509 0.78736 -0.58805 0.007108
0.023278 0.042528 1.0081 9.404e-39 458.5 265 0 0 0 0.21613 0.78748 -0.5772 0.0079496
0.025088 0.042597 1.0098 9.2196e-39 460 265 0 0 0 0.25379 0.78187 -0.56945 0.0097011
0.02685 0.04258 1.0094 9.2196e-39 461.5 265 0 0 0 0.28819 0.77761 -0.55881 0.01109
-0.0020841 0.04496 1.0098 7.0991e-39 174 266 0 0 0 -0.10508 0.78606 -0.60915 0.007211
0.00086869 0.044923 1.009 6.4998e-39 176.5 266 0 0 0 -0.071499 0.78597 -0.61412 0.0081761
0.0026393 0.044923 1.009 6.4537e-39 178 266 0 0 0 -0.051058 0.78613 -0.61595 0.0083084
0.012673 0.044923 1.009 7.4218e-39 194.5 266 0 0 0 0.09154 0.78954 -0.60683 0.0060098
0.015611 0.044887 1.0081 7.8366e-39 197 266 0 0 0 0.12025 0.79231 -0.59814 0.005718
0.017388 0.044905 1.0085 7.3296e-39 198.5 266 0 0 0 0.14012 0.79055 -0.59616 0.0061061
0.019181 0.04496 1.0098 7.2835e-39 200 266 0 0 0 0.16677 0.78453 -0.59724 0.00676
0.0014601 0.046142 1.0098 8.8508e-39 227 266 0 0 0 -0.064998 0.78542 -0.61554 0.0077671
0.0032306 0.046123 1.0094 9.404e-39 228.5 266 0 0 0 -0.048897 0.78517 -0.61734 0.0077527
0.0050002 0.046104 1.009 1.0049e-38 230 266 0 0 0 -0.022547 0.78934 -0.61354 0.0080292
0.0065758 0.04651 1.0093 9.1274e-39 247 266 0 0 0 0.0032162 0.78979 -0.61337 0.0075439
0.0091357 0.046123 1.0094 9.7266e-39 233.5 266 0 0 0 0.034156 0.78843 -0.61418 0.006603
0.010902 0.046104 1.009 9.6805e-39 235 266 0 0 0 0.063084 0.78991 -0.60997 0.0059029
0.014456 0.046142 1.0098 9.9571e-39 238 266 0 0 0 0.11061 0.78944 -0.60378 0.0058472
0.045246 0.02965 1.0114 8.7586e-39 389 263 0 0 0 0.66812 0.64436 -0.37205 0.0096466
0.042844 0.031991 1.0106 6.4537e-39 170 264 0 0 0 0.63077 0.6763 -0.38046 0.01087
0.045209 0.030808 1.0106 9.5883e-39 457 263 0 0 0 0.65372 0.65718 -0.37518 0.010064
0.041088 0.034961 1.011 8.2976e-39 382 264 0 0 0 0.57654 0.71459 -0.39619 0.010126
0.039297 0.03672 1.0106 6.6381e-39 487 264 0 0 0 0.5235 0.73757 -0.42654 0.011613
-0.016288 0.041484 1.0114 7.0069e-39 368 265 0 0 0 -0.22212 0.77992 -0.58514 0.0058373
-0.015104 0.041484 1.0114 6.5459e-39 377 265 0 0 0 -0.21641 0.78046 -0.58656 0.0053635
-0.013921 0.041484 1.0114 6.5459e-39 378 265 0 0 0 -0.21231 0.78417 -0.5831 0.0048399
0.031046 0.0403 1.0114 6.3615e-39 354 265 0 0 0 0.38716 0.76351 -0.51688 0.013165
0.032808 0.040284 1.011 6.6381e-39 355.5 265 0 0 0 0.41157 0.75844 -0.50535 0.012897
-0.010371 0.042667 1.0114 7.3757e-39 427 265 0 0 0 -0.19273 0.78228 -0.59236 0.0047474
-0.0091801 0.042632 1.0106 7.56e-39 428 265 0 0 0 -0.18101 0.78462 -0.59296 0.0050328
-0.0074093 0.043241 1.011 7.6522e-39 456.5 265 0 0 0 -0.15927 0.78433 -0.59955 0.0054717
-0.0050418 0.043815 1.0106 7.1913e-39 485.5 265 0 0 0 -0.13376 0.78212 -0.60861 0.0061428
0.023335 0.043815 1.0106 6.8225e-39 148 266 0 0 0 0.22976 0.78147 -0.5801 0.0086336
0.026313 0.04385 1.0114 6.5459e-39 152 266 0 0 0 0.28154 0.77989 -0.55903 0.010026
-0.0032709 0.045034 1.0114 7.1913e-39 173 266 0 0 0 -0.11833 0.78008 -0.61439 0.0064851
-0.00090345 0.044997 1.0106 6.7303e-39 175 266 0 0 0 -0.092922 0.78454 -0.61307 0.0070903
0.020379 0.044997 1.0106 7.56e-39 201 266 0 0 0 0.18323 0.7828 -0.59468 0.0073707
-0.0020875 0.046217 1.0114 8.7586e-39 224 266 0 0 0 -0.10426 0.78341 -0.6127 0.0067621
-0.00090419 0.046217 1.0114 8.943e-39 225 266 0 0 0 -0.094617 0.78523 -0.61193 0.0068608
0.00067352 0.046993 1.0111 7.4679e-39 253.67 266 0 0 0 -0.074262 0.78493 -0.61512 0.0073462
0.0032359 0.047381 1.011 6.8225e-39 275.5 266 0 0 0 -0.045256 0.78662 -0.61577 0.0078692
0.0050084 0.047362 1.0106 6.7303e-39 277 266 0 0 0 -0.020939 0.78879 -0.61431 0.0078489
0.0073732 0.047362 1.0106 7.1913e-39 279 266 0 0 0 0.012231 0.78935 -0.61383 0.0075089
0.0091507 0.047381 1.011 7.2374e-39 280.5 266 0 0 0 0.036718 0.79024 -0.6117 0.006809
0.010929 0.0474 1.0114 9.1274e-39 282 266 0 0 0 0.066307 0.79296 -0.60566 0.0061167
0.012699 0.046198 1.011 9.6805e-39 236.5 266 0 0 0 0.094591 0.79037 -0.60528 0.0059562
0.01565 0.046179 1.0106 1.0234e-38 239 266 0 0 0 0.12363 0.78819 -0.60288 0.0058568
0.016846 0.046217 1.0114 1.051e-38 240 266 0 0 0 0.13536 0.78552 -0.60385 0.0063408
0.018029 0.046217 1.0114 1.051e-38 241 266 0 0 0 0.14925 0.78451 -0.60188 0.0065608
0.044727 0.032069 1.0131 7.1913e-39 171.5 264 0 0 0 0.65776 0.65689 -0.36859 0.010056
0.038177 0.037965 1.0123 7.2835e-39 199 265 0 0 0 0.52128 0.73273 -0.43747 0.013335
0.040579 0.036811 1.0131 7.2835e-39 500 264 0 0 0 0.58689 0.69884 -0.40888 0.011701
0.036993 0.039149 1.0123 8.021e-39 256 265 0 0 0 0.499 0.73846 -0.45353 0.014115
0.038833 0.03862 1.0139 7.6061e-39 228.5 265 0 0 0 0.5575 0.71582 -0.42046 0.014248
0.029887 0.041518 1.0123 7.56e-39 414 265 0 0 0 0.36977 0.76464 -0.52783 0.013318
0.031097 0.041552 1.0131 7.1913e-39 415 265 0 0 0 0.40078 0.75784 -0.51484 0.013852
0.032889 0.041569 1.0135 6.7303e-39 416.5 265 0 0 0 0.43501 0.75203 -0.4952 0.013836
0.035216 0.040333 1.0123 6.8686e-39 357.5 265 0 0 0 0.46455 0.74778 -0.47436 0.013543
0.037054 0.0404 1.0139 6.3615e-39 359 265 0 0 0 0.51095 0.73162 -0.45129 0.014269
-0.013157 0.043144 1.0134 7.4986e-39 442.67 265 0 0 0 -0.19199 0.77556 -0.60137 0.0046684
-0.011175 0.043515 1.0128 8.144e-39 462.33 265 0 0 0 -0.18805 0.77532 -0.60293 0.0044475
-0.0086029 0.043886 1.0123 8.021e-39 482.5 265 0 0 0 -0.16806 0.77704 -0.6066 0.0048406
0.02515 0.043886 1.0123 6.2693e-39 151 266 0 0 0 0.27068 0.77986 -0.5644 0.009495
0.027519 0.043886 1.0123 6.8225e-39 153 266 0 0 0 0.31188 0.77337 -0.55193 0.011063
0.028726 0.04333 1.0131 8.1593e-39 308.5 265.5 0 0 0 0.35815 0.76391 -0.53681 0.012959
-0.010396 0.045145 1.0139 6.6381e-39 167 266 0 0 0 -0.18105 0.77355 -0.60733 0.0046588
-0.0086171 0.045145 1.0139 6.2693e-39 168.5 266 0 0 0 -0.16851 0.77403 -0.61031 0.0049798
-0.0068321 0.045108 1.0131 6.1771e-39 170 266 0 0 0 -0.15036 0.77515 -0.61362 0.005271
-0.0050501 0.045071 1.0123 6.8686e-39 171.5 266 0 0 0 -0.13447 0.77961 -0.61166 0.0059663
0.021615 0.045108 1.0131 7.6522e-39 202 266 0 0 0 0.2159 0.78413 -0.58183 0.0080897
0.023393 0.045108 1.0131 6.9608e-39 203.5 266 0 0 0 0.2449 0.7834 -0.57123 0.0082783
0.025191 0.045145 1.0139 6.6381e-39 205 266 0 0 0 0.28149 0.78023 -0.55857 0.009418
0.026377 0.045145 1.0139 7.0069e-39 206 266 0 0 0 0.29334 0.77835 -0.55509 0.0097051
-0.0068377 0.046331 1.0139 7.1913e-39 220 266 0 0 0 -0.1501 0.77757 -0.61062 0.0055444
-0.005056 0.046312 1.0135 7.0991e-39 221.5 266 0 0 0 -0.1338 0.77899 -0.61259 0.0057346
-0.0028806 0.04707 1.0128 7.4986e-39 250.67 266 0 0 0 -0.11044 0.78086 -0.61486 0.0063042
-0.00090567 0.047478 1.0131 7.0991e-39 266 266 0 0 0 -0.092094 0.78476 -0.61291 0.0069014
0.012725 0.047478 1.0131 9.5883e-39 283.5 266 0 0 0 0.088627 0.79159 -0.60459 0.00605
0.015096 0.047478 1.0131 9.7727e-39 285.5 266 0 0 0 0.12371 0.78667 -0.60485 0.0059034
0.016887 0.047517 1.0139 9.404e-39 287 266 0 0 0 0.14435 0.78699 -0.59984 0.0063172
0.018651 0.046886 1.0131 1.0003e-38 265 266 0 0 0 0.16716 0.78471 -0.5969 0.0070472
0.020446 0.046331 1.0139 1.0418e-38 243 266 0 0 0 0.20508 0.78492 -0.58467 0.007558
-0.0020927 0.048703 1.0139 6.7303e-39 352 266 0 0 0 -0.10188 0.78611 -0.60964 0.0068467
-0.00090642 0.048703 1.0139 6.4537e-39 353 266 0 0 0 -0.09018 0.78689 -0.61046 0.0071142
0.00087261 0.049277 1.0135 8.0441e-39 379 266 0 0 0 -0.071227 0.79037 -0.60848 0.0071398
0.0034404 0.049059 1.0131 7.6523e-39 373 266 0 0 0 -0.035683 0.79462 -0.60605 0.0077114
0.0050207 0.049257 1.0131 7.6983e-39 382.5 266 0 0 0 -0.018006 0.79705 -0.60364 0.0077129
0.0066011 0.049059 1.0131 7.0069e-39 375.67 266 0 0 0 0.0032475 0.79675 -0.60429 0.0075429
0.0091732 0.048684 1.0135 6.7303e-39 361.5 266 0 0 0 0.03919 0.7991 -0.59993 0.0063844
0.010956 0.048703 1.0139 7.0069e-39 366 266 0 0 0 0.065179 0.80043 -0.59587 0.0057216
0.04302 0.033309 1.0148 1.0049e-38 240 264 0 0 0 0.65151 0.66335 -0.36809 0.010803
0.041833 0.035684 1.0148 7.0991e-39 415 264 0 0 0 0.62995 0.67439 -0.38518 0.011421
0.039491 0.039278 1.0156 7.8366e-39 258 265 0 0 0 0.58426 0.70033 -0.41008 0.013935
0.035304 0.04162 1.0148 6.9147e-39 418.5 265 0 0 0 0.48885 0.73612 -0.46814 0.015588
0.037115 0.041654 1.0156 7.4678e-39 420 265 0 0 0 0.52457 0.72337 -0.44896 0.016008
0.038303 0.040466 1.0156 6.3615e-39 360 265 0 0 0 0.56065 0.71079 -0.42479 0.0153
0.029961 0.042807 1.0148 9.1274e-39 464 265 0 0 0 0.38775 0.7594 -0.52246 0.013848
0.031174 0.042843 1.0156 9.2196e-39 465 265 0 0 0 0.42064 0.75223 -0.50716 0.014683
0.032362 0.042843 1.0156 9.2196e-39 466 265 0 0 0 0.43762 0.74478 -0.50377 0.014219
-0.01279 0.045219 1.0156 6.4537e-39 165 266 0 0 0 -0.19057 0.76528 -0.61485 0.0048876
-0.011602 0.045219 1.0156 6.4537e-39 166 266 0 0 0 -0.18695 0.76803 -0.61252 0.0047564
0.027586 0.045182 1.0148 7.0991e-39 207 266 0 0 0 0.32628 0.77265 -0.54456 0.01174
-0.010414 0.046407 1.0156 7.2835e-39 217 266 0 0 0 -0.18176 0.76751 -0.61473 0.004835
-0.0086241 0.046369 1.0148 7.1452e-39 218.5 266 0 0 0 -0.16706 0.77405 -0.61069 0.0051385
-0.0068489 0.047595 1.0156 7.0069e-39 261 266 0 0 0 -0.15303 0.77485 -0.61334 0.0058798
-0.0050625 0.047556 1.0148 6.9608e-39 262.5 266 0 0 0 -0.13767 0.77763 -0.61347 0.0060838
0.019276 0.047556 1.0148 9.6805e-39 289 266 0 0 0 0.1925 0.78935 -0.58299 0.0072687
0.021074 0.047001 1.0156 1.0234e-38 267 266 0 0 0 0.22228 0.78681 -0.57578 0.0076392
0.022837 0.046369 1.0148 1.1248e-38 245 266 0 0 0 0.24072 0.78375 -0.57252 0.0079924
0.024639 0.046407 1.0156 1.1294e-38 246.5 266 0 0 0 0.27725 0.77839 -0.56324 0.0094903
-0.002688 0.049337 1.0148 8.5742e-39 376 266 0 0 0 -0.10859 0.78291 -0.61258 0.007027
-0.00090791 0.049972 1.0156 9.8649e-39 402 266 0 0 0 -0.083662 0.79305 -0.60338 0.0076809
0.0026545 0.049931 1.0148 9.2196e-39 405 266 0 0 0 -0.045494 0.79818 -0.6007 0.0080357
0.0074034 0.049931 1.0148 7.9288e-39 409 266 0 0 0 0.013923 0.80489 -0.59327 0.0072074
0.0091884 0.049952 1.0152 7.4218e-39 410.5 266 0 0 0 0.045508 0.80745 -0.58818 0.0060785
0.010965 0.049931 1.0148 7.2835e-39 412 266 0 0 0 0.058486 0.80303 -0.59307 0.0055837
0.012752 0.048763 1.0152 7.053e-39 367.5 266 0 0 0 0.08948 0.79915 -0.59444 0.0061818
0.014931 0.049166 1.0153 6.6996e-39 388.33 266 0 0 0 0.125 0.79583 -0.59248 0.0058431
0.0008744 0.05116 1.0156 8.8047e-39 447.5 266 0 0 0 -0.067892 0.80208 -0.59335 0.0080962
0.0038449 0.05116 1.0156 9.3118e-39 450 266 0 0 0 -0.025125 0.80694 -0.59009 0.0084399
0.0050331 0.05116 1.0156 9.2196e-39 451 266 0 0 0 -0.015961 0.80831 -0.58854 0.0080407
0.0068154 0.05116 1.0156 8.8047e-39 452.5 266 0 0 0 0.0065764 0.80925 -0.58743 0.0077327
0.0085977 0.05116 1.0156 8.943e-39 454 266 0 0 0 0.038013 0.81013 -0.58502 0.0062981
0.046697 0.031011 1.0173 9.404e-39 458 263 0 0 0 0.67969 0.65056 -0.33881 0.011391
0.04547 0.033364 1.0164 1.0695e-38 242 264 0 0 0 0.65704 0.66374 -0.35743 0.010669
0.043127 0.034582 1.0173 7.7444e-39 351 264 0 0 0 0.66145 0.65514 -0.36506 0.01113
0.040713 0.038121 1.0164 7.56e-39 201 265 0 0 0 0.61346 0.68243 -0.39743 0.013641
0.038945 0.041111 1.0168 7.0068e-39 391 265 0 0 0 0.57958 0.70054 -0.41633 0.015841
0.033578 0.042878 1.0164 9.2196e-39 467 265 0 0 0 0.46108 0.74122 -0.48785 0.015324
0.035986 0.042913 1.0173 9.404e-39 476 265 0 0 0 0.50762 0.72493 -0.46562 0.017129
0.028821 0.045256 1.0164 7.0991e-39 208 266 0 0 0 0.36373 0.76558 -0.53065 0.013723
0.030617 0.044085 1.0168 7.2835e-39 155.5 266 0 0 0 0.40434 0.75528 -0.51581 0.014715
-0.011022 0.047059 1.0168 7.4218e-39 237 266 0 0 0 -0.1899 0.76483 -0.61561 0.0050942
-0.0086384 0.047635 1.0164 7.3296e-39 259.5 266 0 0 0 -0.16814 0.77092 -0.61434 0.0054633
0.021704 0.047674 1.0173 8.6664e-39 291 266 0 0 0 0.22892 0.78639 -0.57375 0.0077105
0.022894 0.047674 1.0173 9.404e-39 292 266 0 0 0 0.24569 0.78445 -0.56945 0.0083315
0.024679 0.047674 1.0173 9.5883e-39 293.5 266 0 0 0 0.27402 0.77943 -0.56338 0.0089927
0.027049 0.046465 1.0168 1.1156e-38 248.5 266 0 0 0 0.32272 0.76933 -0.55135 0.011808
-0.0068602 0.048864 1.0173 9.2196e-39 348 266 0 0 0 -0.15154 0.77737 -0.61052 0.0066971
-0.0050708 0.048824 1.0164 8.4359e-39 349.5 266 0 0 0 -0.13834 0.78105 -0.60896 0.0066703
0.016929 0.048824 1.0164 6.8225e-39 377 266 0 0 0 0.15172 0.79566 -0.58644 0.0068246
0.018713 0.048824 1.0164 7.2835e-39 378.5 266 0 0 0 0.1855 0.79526 -0.57719 0.0076475
-0.005075 0.050054 1.0173 9.1735e-39 398.5 266 0 0 0 -0.13804 0.78639 -0.60211 0.0077695
-0.0028915 0.05082 1.0167 8.2669e-39 429.67 266 0 0 0 -0.1056 0.79511 -0.59719 0.0083436
-0.00090865 0.051202 1.0164 8.1132e-39 446 266 0 0 0 -0.084624 0.79968 -0.59443 0.0086297
0.0026589 0.051202 1.0164 9.2196e-39 449 266 0 0 0 -0.043065 0.80644 -0.58975 0.0085884
0.009794 0.051202 1.0164 9.2196e-39 455 266 0 0 0 0.051248 0.81019 -0.58393 0.0058779
0.010983 0.051202 1.0164 9.6805e-39 456 266 0 0 0 0.060484 0.80978 -0.58361 0.0053706
0.012572 0.050423 1.0167 8.2054e-39 428 266 0 0 0 0.086114 0.80709 -0.58412 0.0057285
0.015158 0.050649 1.0173 8.0211e-39 437.5 266 0 0 0 0.12515 0.80506 -0.57984 0.0058864
-0.0024957 0.052817 1.017 6.9454e-39 393.67 266.33 0 0 0 -0.097526 0.80311 -0.58779 0.009553
-0.0009094 0.052434 1.0173 6.8225e-39 506 266 0 0 0 -0.078485 0.80683 -0.58554 0.0091077
0.0010737 0.052802 1.0167 7.3757e-39 396.67 266.33 0 0 0 -0.06192 0.808 -0.58591 0.0084969
0.0032562 0.052434 1.0173 9.7269e-39 510 266 0 0 0 -0.033013 0.81613 -0.57692 0.0085276
0.0050414 0.052434 1.0173 1.0142e-38 512 266 0 0 0 -0.013109 0.81778 -0.57538 0.0083246
0.0068241 0.052413 1.0168 1.005e-38 513.5 266 0 0 0 0.010201 0.81781 -0.5754 0.0074061
0.0086119 0.052434 1.0173 6.5459e-39 140 267 0 0 0 0.037142 0.8169 -0.57558 0.0061225
0.044353 0.033419 1.0181 1.0234e-38 241 264 0 0 0 0.66583 0.65703 -0.35352 0.010814
0.046736 0.032228 1.0181 7.0991e-39 173 264 0 0 0 0.67922 0.65213 -0.33675 0.011723
0.043233 0.035861 1.0198 6.8225e-39 416 264 0 0 0 0.66464 0.65402 -0.36127 0.012098
0.045024 0.034668 1.0198 6.8225e-39 352.5 264 0 0 0 0.67171 0.65514 -0.34583 0.012313
0.041971 0.036993 1.0181 7.3757e-39 501 264 0 0 0 0.64468 0.66665 -0.37412 0.01307
0.040814 0.039408 1.019 7.4678e-39 259 265 0 0 0 0.62392 0.67751 -0.38949 0.014353
0.039621 0.041792 1.019 7.1913e-39 422 265 0 0 0 0.60045 0.6918 -0.4011 0.015917
0.034824 0.042948 1.0181 9.3118e-39 468 265 0 0 0 0.49597 0.72735 -0.47431 0.016765
0.037206 0.042948 1.0181 9.404e-39 477 265 0 0 0 0.5389 0.71454 -0.44612 0.017269
0.038429 0.042984 1.019 9.2196e-39 478 265 0 0 0 0.57804 0.70023 -0.41899 0.015687
0.030693 0.045387 1.0194 7.2835e-39 209.5 266 0 0 0 0.41378 0.75163 -0.51366 0.01607
0.033051 0.044158 1.0186 7.5601e-39 159 266 0 0 0 0.45399 0.74042 -0.49566 0.015837
0.036075 0.044213 1.0198 7.2835e-39 163 266 0 0 0 0.52474 0.71867 -0.45625 0.018191
-0.01164 0.047752 1.019 8.021e-39 257 266 0 0 0 -0.19374 0.76112 -0.61901 0.0059526
0.027093 0.047733 1.0186 9.9112e-39 295.5 266 0 0 0 0.31766 0.77091 -0.55208 0.011839
0.028892 0.047157 1.0189 9.7728e-39 294 266 0 0 0 0.36805 0.76123 -0.53392 0.014605
-0.010439 0.048904 1.0181 9.2196e-39 345 266 0 0 0 -0.18891 0.76497 -0.61573 0.006199
-0.0086526 0.048904 1.0181 8.8508e-39 346.5 266 0 0 0 -0.17085 0.77208 -0.61213 0.0066541
0.021135 0.048924 1.0186 8.8969e-39 380.5 266 0 0 0 0.22201 0.79381 -0.56619 0.0079382
0.022932 0.048945 1.019 9.7727e-39 382 266 0 0 0 0.24627 0.78478 -0.56875 0.008522
0.02471 0.048924 1.0186 9.4501e-39 383.5 266 0 0 0 0.26876 0.78012 -0.56496 0.0091314
0.027126 0.048985 1.0198 9.1735e-39 385.5 266 0 0 0 0.30902 0.76803 -0.56092 0.011654
-0.010452 0.050754 1.0194 8.3438e-39 416 266 0 0 0 -0.18836 0.77269 -0.60619 0.0087484
-0.0086636 0.050157 1.0194 9.3579e-39 395.5 266 0 0 0 -0.1695 0.77763 -0.60544 0.0084926
-0.0068687 0.050712 1.0186 8.021e-39 419 266 0 0 0 -0.15244 0.78739 -0.59731 0.0089073
-0.0050792 0.051287 1.0181 6.9608e-39 442.5 266 0 0 0 -0.13401 0.79483 -0.59185 0.0092043
0.013384 0.051287 1.0181 9.5883e-39 458 266 0 0 0 0.097475 0.81154 -0.57611 0.0056067
0.015766 0.051287 1.0181 9.2196e-39 460 266 0 0 0 0.13115 0.80633 -0.57675 0.0061519
0.016964 0.050712 1.0186 7.8366e-39 439 266 0 0 0 0.1533 0.80569 -0.57215 0.0071394
0.018751 0.050712 1.0186 7.9519e-39 440.5 266 0 0 0 0.18789 0.79885 -0.57143 0.0077864
0.02116 0.050178 1.0198 7.4679e-39 420.5 266 0 0 0 0.21392 0.79664 -0.56534 0.0085466
0.02473 0.050157 1.0194 6.9608e-39 423.5 266 0 0 0 0.26293 0.78238 -0.56458 0.0093511
-0.0068772 0.05316 1.0198 6.2693e-39 328 266.5 0 0 0 -0.1448 0.79845 -0.58439 0.011911
-0.0050845 0.053128 1.0192 6.4537e-39 332.75 266.5 0 0 0 -0.1234 0.80343 -0.58247 0.011381
-0.0032924 0.053669 1.0181 6.7303e-39 171 267 0 0 0 -0.10617 0.80685 -0.58113 0.010083
-0.00091015 0.053669 1.0181 7.3757e-39 173 267 0 0 0 -0.075838 0.81381 -0.57617 0.0098407
0.00028099 0.053669 1.0181 7.1913e-39 174 267 0 0 0 -0.063543 0.8169 -0.57327 0.0094162
0.0032626 0.053735 1.0194 6.4998e-39 176.5 267 0 0 0 -0.023941 0.82537 -0.56408 0.0087943
0.0050497 0.053713 1.019 6.3615e-39 178 267 0 0 0 -0.0033198 0.82627 -0.56326 0.008085
0.006838 0.053713 1.019 6.8686e-39 179.5 267 0 0 0 0.0096031 0.82525 -0.56469 0.0072019
0.0094209 0.053316 1.019 7.0991e-39 172 267 0 0 0 0.04212 0.82255 -0.56713 0.0057993
0.01101 0.053117 1.0189 6.6842e-39 165.5 267 0 0 0 0.060791 0.82137 -0.56714 0.0055835
0.012604 0.052933 1.0193 6.7918e-39 159 267 0 0 0 0.083487 0.81874 -0.56806 0.0057525
0.014993 0.052947 1.0195 7.3142e-39 161 267 0 0 0 0.11791 0.81506 -0.56725 0.0059392
0.018774 0.052564 1.0198 6.5459e-39 149.5 267 0 0 0 0.18468 0.80605 -0.56229 0.0083127
0.032495 0.052564 1.0198 7.4678e-39 163 267 0 0 0 0.38969 0.74407 -0.54268 0.01657
-0.0027004 0.054928 1.0194 8.0671e-39 212.5 267 0 0 0 -0.092732 0.82355 -0.55962 0.011352
-0.00091166 0.054951 1.0198 8.1132e-39 214 267 0 0 0 -0.072181 0.82746 -0.55686 0.010834
0.00087803 0.054951 1.0198 7.3757e-39 215.5 267 0 0 0 -0.055882 0.83201 -0.55194 0.009802
0.045098 0.03592 1.0215 6.8225e-39 417.5 264 0 0 0 0.67311 0.657 -0.33952 0.012348
0.042075 0.038279 1.0206 7.6522e-39 202 265 0 0 0 0.65545 0.66072 -0.36584 0.013581
0.040915 0.0407 1.0215 6.6381e-39 362 265 0 0 0 0.63542 0.67481 -0.37533 0.014561
0.033133 0.045462 1.021 7.7444e-39 211.5 266 0 0 0 0.46014 0.73567 -0.49706 0.01729
0.034911 0.044249 1.0206 7.2835e-39 162 266 0 0 0 0.50424 0.72391 -0.47085 0.018124
0.03733 0.044286 1.0215 6.9147e-39 164 266 0 0 0 0.56842 0.7093 -0.41688 0.016718
0.030549 0.047061 1.0212 9.4962e-39 280.67 266 0 0 0 0.40958 0.74668 -0.52414 0.016917
0.02894 0.049025 1.0206 8.943e-39 387 266 0 0 0 0.35936 0.76045 -0.54091 0.014787
0.032549 0.049066 1.0215 9.2196e-39 390 266 0 0 0 0.4273 0.74303 -0.51509 0.01749
-0.011669 0.050261 1.0215 9.0352e-39 393 266 0 0 0 -0.20207 0.77254 -0.60195 0.010888
-0.008674 0.051414 1.0206 7.3296e-39 439.5 266 0 0 0 -0.16981 0.78682 -0.59336 0.01084
0.021187 0.051435 1.021 9.3118e-39 464.5 266 0 0 0 0.21309 0.79749 -0.56445 0.0089837
0.022979 0.050838 1.021 8.3438e-39 444.5 266 0 0 0 0.23268 0.79158 -0.56503 0.0089866
0.024771 0.051435 1.021 9.45e-39 476.5 266 0 0 0 0.25663 0.78595 -0.56251 0.0099954
0.026957 0.050632 1.0209 7.6523e-39 443 266 0 0 0 0.29542 0.77311 -0.56128 0.011753
0.028964 0.050858 1.0215 7.8827e-39 453.5 266 0 0 0 0.33304 0.7616 -0.55592 0.014508
0.032929 0.050632 1.0209 7.5293e-39 449.33 266 0 0 0 0.42036 0.74163 -0.52276 0.017891
-0.010469 0.053227 1.021 6.9146e-39 325 266.5 0 0 0 -0.18523 0.78469 -0.59157 0.013276
-0.0080804 0.053227 1.021 6.4998e-39 327 266.5 0 0 0 -0.15656 0.80445 -0.57302 0.013148
0.013417 0.053802 1.0206 7.2835e-39 191 267 0 0 0 0.090701 0.82585 -0.55655 0.0057871
0.015805 0.053802 1.0206 7.4678e-39 193 267 0 0 0 0.12477 0.81756 -0.56216 0.0066426
0.016999 0.052608 1.0206 7.4678e-39 147 267 0 0 0 0.15556 0.81267 -0.56158 0.0079248
0.018798 0.053824 1.021 7.514e-39 195.5 267 0 0 0 0.18107 0.80958 -0.55838 0.0088992
0.025379 0.052651 1.0215 7.1913e-39 155 267 0 0 0 0.25543 0.7851 -0.56425 0.010821
0.028964 0.053249 1.0215 7.0069e-39 182 267 0 0 0 0.3064 0.76662 -0.56428 0.012991
0.030557 0.053448 1.0215 6.8225e-39 190.67 267 0 0 0 0.33757 0.75688 -0.55962 0.015116
-0.0068886 0.055041 1.0215 7.1913e-39 209 267 0 0 0 -0.13943 0.81927 -0.5562 0.014387
-0.0050918 0.054996 1.0206 7.2835e-39 210.5 267 0 0 0 -0.12 0.82104 -0.55812 0.012766
0.0038672 0.055041 1.0215 7.0069e-39 218 267 0 0 0 -0.016749 0.83818 -0.54514 0.0084416
0.0050623 0.055041 1.0215 7.0069e-39 219 267 0 0 0 -0.0046142 0.83805 -0.54558 0.0079543
0.0068549 0.055041 1.0215 7.1452e-39 220.5 267 0 0 0 0.01479 0.83672 -0.54742 0.0068417
0.0086475 0.055041 1.0215 7.0991e-39 222 267 0 0 0 0.034955 0.83702 -0.54606 0.0061865
0.011038 0.055041 1.0215 8.7586e-39 224 267 0 0 0 0.063413 0.83299 -0.54965 0.005462
0.02894 0.054996 1.0206 1.0234e-38 239 267 0 0 0 0.29175 0.76553 -0.57345 0.013052
-0.0044984 0.056237 1.0215 9.8649e-39 243 267 0 0 0 -0.10269 0.83442 -0.54147 0.013418
-0.0027044 0.056213 1.021 1.0556e-38 244.5 267 0 0 0 -0.082672 0.83395 -0.54561 0.011907
0.043377 0.037177 1.0232 7.1913e-39 502 264 0 0 0 0.67717 0.65049 -0.34396 0.013258
0.042145 0.039538 1.0223 7.1913e-39 260 265 0 0 0 0.65834 0.66174 -0.35873 0.013798
0.036194 0.045556 1.0232 8.021e-39 214 266 0 0 0 0.5543 0.7109 -0.43287 0.017901
0.03138 0.047911 1.0223 8.5742e-39 340 266 0 0 0 0.41379 0.74514 -0.52301 0.017263
0.033188 0.047332 1.0228 8.7816e-39 297.5 266 0 0 0 0.44912 0.73424 -0.5091 0.017942
0.030795 0.049127 1.0228 8.8508e-39 388.5 266 0 0 0 0.40322 0.74837 -0.52664 0.017355
0.033772 0.049107 1.0223 9.404e-39 391 266 0 0 0 0.45299 0.73083 -0.51057 0.018385
-0.011679 0.051499 1.0223 7.0991e-39 437 266 0 0 0 -0.20054 0.77993 -0.59287 0.013447
0.027792 0.051499 1.0223 9.0352e-39 479 266 0 0 0 0.30478 0.76977 -0.56086 0.013181
0.030782 0.050901 1.0223 7.9749e-39 455 266 0 0 0 0.38247 0.74876 -0.54136 0.017184
-0.0092903 0.053315 1.0228 6.6842e-39 326 266.5 0 0 0 -0.17523 0.80744 -0.56332 0.015523
0.017027 0.053891 1.0223 7.3757e-39 194 267 0 0 0 0.14701 0.82043 -0.55253 0.0082148
0.021223 0.053316 1.0228 6.9838e-39 174.5 267 0 0 0 0.20351 0.8035 -0.55943 0.010168
0.023017 0.053315 1.0228 7.053e-39 176 267 0 0 0 0.22069 0.79763 -0.56132 0.010154
0.024802 0.053293 1.0223 7.4218e-39 177.5 267 0 0 0 0.24523 0.78689 -0.56627 0.010892
0.027416 0.053138 1.0232 7.5293e-39 172 267 0 0 0 0.2798 0.77465 -0.56713 0.01265
0.03138 0.052695 1.0223 7.3757e-39 162 267 0 0 0 0.37511 0.74806 -0.54744 0.017282
-0.0080971 0.055133 1.0232 7.0069e-39 208 267 0 0 0 -0.15292 0.8246 -0.54465 0.015627
0.0026743 0.055087 1.0223 7.0991e-39 217 267 0 0 0 -0.032045 0.84179 -0.53885 0.0089492
0.0098508 0.055087 1.0223 7.9288e-39 223 267 0 0 0 0.04419 0.83863 -0.54291 0.006099
0.012846 0.05511 1.0228 9.6344e-39 225.5 267 0 0 0 0.090398 0.83425 -0.54392 0.00584
0.01524 0.05511 1.0228 9.8188e-39 227.5 267 0 0 0 0.10889 0.83321 -0.54214 0.0069688
0.018829 0.05511 1.0228 1.0326e-38 230.5 267 0 0 0 0.16843 0.81731 -0.55103 0.009771
0.027815 0.055133 1.0232 9.9571e-39 238 267 0 0 0 0.26286 0.77662 -0.5725 0.012697
-0.0069 0.05633 1.0232 1.0049e-38 241 267 0 0 0 -0.12713 0.84406 -0.52096 0.014743
-0.0051021 0.056905 1.0228 8.3898e-39 261 267 0 0 0 -0.11079 0.84384 -0.52503 0.013821
-0.0033088 0.057527 1.0232 7.1913e-39 281 267 0 0 0 -0.088724 0.85205 -0.51589 0.011945
-0.00091468 0.05633 1.0232 1.1248e-38 246 267 0 0 0 -0.066012 0.85019 -0.52233 0.010328
0.0014795 0.05633 1.0232 1.134e-38 248 267 0 0 0 -0.049032 0.84966 -0.52504 0.0091593
0.027815 0.05633 1.0232 6.7303e-39 277 267 0 0 0 0.25568 0.77741 -0.57469 0.013599
0.061486 0.021669 1.0257 7.3757e-39 163 262 0 0 0 -0.70944 -0.61861 -0.33768 0.031443
0.061486 0.022869 1.0257 6.7303e-39 262 262 0 0 0 -0.72555 -0.61175 -0.31518 0.032803
-0.033318 0.025269 1.0257 9.4961e-39 400 262 0 0 0 0.91079 -0.39975 -0.10325 0.18169
0.060886 0.024669 1.0257 8.943e-39 427 262 0 0 0 -0.73497 -0.62831 -0.25504 0.036911
0.053085 0.027669 1.0257 7.1913e-39 227 263 0 0 0 0.76351 0.63994 -0.086797 0.040398
0.060286 0.026469 1.0257 7.0991e-39 173 263 0 0 0 -0.75486 -0.62872 -0.18682 0.040919
0.051885 0.028869 1.0257 9.5883e-39 281 263 0 0 0 0.75496 0.64422 -0.12254 0.037555
0.052997 0.028821 1.024 1.0234e-38 282 263 0 0 0 0.75383 0.64296 -0.13547 0.036255
0.048225 0.03063 1.0245 8.8047e-39 426.5 263 0 0 0 0.72721 0.64656 -0.23051 0.024937
0.051885 0.030069 1.0257 9.0352e-39 393 263 0 0 0 0.75156 0.64694 -0.12896 0.036589
0.053019 0.030631 1.0245 9.404e-39 430.5 263 0 0 0 0.74428 0.65011 -0.15297 0.034607
0.048245 0.032442 1.0249 6.8225e-39 174 264 0 0 0 0.72161 0.64458 -0.25259 0.021044
0.053085 0.032469 1.0257 6.3615e-39 178 264 0 0 0 0.74181 0.65609 -0.13883 0.036013
0.047007 0.034811 1.024 6.5459e-39 354 264 0 0 0 0.70294 0.64885 -0.29133 0.016006
0.044648 0.037238 1.0249 7.0069e-39 503 264 0 0 0 0.68945 0.65428 -0.31076 0.015942
0.043449 0.039037 1.0249 7.0069e-39 232 265 0 0 0 0.67726 0.65551 -0.33409 0.013932
0.041017 0.042 1.024 7.0069e-39 423 265 0 0 0 0.65321 0.6646 -0.3628 0.014464
0.04225 0.040836 1.0249 7.0069e-39 366 265 0 0 0 0.6712 0.65274 -0.35133 0.013527
0.035026 0.045594 1.024 8.3898e-39 213 266 0 0 0 0.52892 0.71642 -0.45495 0.019733
0.037454 0.045632 1.0249 7.4678e-39 215 266 0 0 0 0.58649 0.69836 -0.41027 0.016881
0.035085 0.04687 1.0257 7.6522e-39 255 266 0 0 0 0.53211 0.71766 -0.44924 0.020023
0.036254 0.046831 1.0249 7.8366e-39 256 266 0 0 0 0.554 0.7077 -0.43846 0.018244
0.035085 0.04927 1.0257 9.1274e-39 392 266 0 0 0 0.48342 0.72027 -0.4975 0.01976
0.036285 0.04807 1.0257 9.8649e-39 344 266 0 0 0 0.55141 0.70972 -0.43846 0.018887
0.035055 0.050428 1.0249 6.7303e-39 436 266 0 0 0 0.47358 0.72387 -0.50173 0.019161
-0.011698 0.052782 1.024 8.3898e-39 484 266 0 0 0 -0.2037 0.79766 -0.56767 0.016809
0.024244 0.05398 1.024 7.1913e-39 200 267 0 0 0 0.2205 0.79382 -0.56676 0.011168
0.02664 0.05398 1.024 7.6522e-39 202 267 0 0 0 0.25492 0.77968 -0.57194 0.012208
-0.011717 0.05407 1.0257 7.0069e-39 164 267 0 0 0 -0.20719 0.81467 -0.54165 0.020212
-0.0093096 0.055224 1.0249 6.9147e-39 207 267 0 0 0 -0.16038 0.83955 -0.51908 0.017715
0.01707 0.055224 1.0249 1.0142e-38 229 267 0 0 0 0.12915 0.83244 -0.53885 0.0087889
0.021275 0.055247 1.0253 1.0095e-38 232.5 267 0 0 0 0.18907 0.81165 -0.5527 0.011728
0.023065 0.055224 1.0249 9.5883e-39 234 267 0 0 0 0.20595 0.80271 -0.55968 0.01183
0.024863 0.055224 1.0249 9.5883e-39 235.5 267 0 0 0 0.223 0.79573 -0.5631 0.01195
0.02664 0.055178 1.024 9.6805e-39 237 267 0 0 0 0.2468 0.78342 -0.57039 0.012434
-0.0081105 0.056423 1.0249 1.0142e-38 240 267 0 0 0 -0.14097 0.8468 -0.51288 0.016333
-0.0069115 0.057622 1.0249 7.0069e-39 278 267 0 0 0 -0.12803 0.85554 -0.50165 0.014966
-0.0057124 0.057622 1.0249 6.9147e-39 279 267 0 0 0 -0.1141 0.85785 -0.50107 0.013178
0.00028262 0.056376 1.024 1.1617e-38 247 267 0 0 0 -0.058663 0.85414 -0.51672 0.0093505
0.0032832 0.05647 1.0257 1.1018e-38 249.5 267 0 0 0 -0.02976 0.8587 -0.51162 0.0075268
0.0050791 0.056423 1.0249 1.051e-38 251 267 0 0 0 -0.01099 0.85557 -0.51757 0.0070387
0.0068802 0.056447 1.0253 1.0142e-38 252.5 267 0 0 0 0.011644 0.85555 -0.51759 0.006552
0.0092758 0.056423 1.0249 8.2515e-39 254.5 267 0 0 0 0.041378 0.85151 -0.52271 0.0058579
0.011084 0.05647 1.0257 7.9288e-39 256 267 0 0 0 0.059236 0.85325 -0.51813 0.0057702
0.012884 0.05647 1.0257 7.6061e-39 257.5 267 0 0 0 0.078164 0.84909 -0.52244 0.0061032
0.015271 0.056423 1.0249 7.2374e-39 259.5 267 0 0 0 0.097374 0.84129 -0.53174 0.0070866
0.018884 0.05647 1.0257 7.4678e-39 262.5 267 0 0 0 0.14653 0.82934 -0.53918 0.010571
0.025463 0.056423 1.0249 6.7303e-39 268 267 0 0 0 0.22338 0.79666 -0.56164 0.012677
0.026662 0.056423 1.0249 6.8225e-39 276 267 0 0 0 0.23429 0.78804 -0.56929 0.012932
-0.0045134 0.058821 1.0249 9.0352e-39 347 267 0 0 0 -0.10716 0.86439 -0.49127 0.012163
0.065194 0.014492 1.0274 8.5742e-39 391 259 0 0 0 -0.69803 -0.59358 -0.40052 0.02194
0.0688 0.014492 1.0274 9.3118e-39 394 259 0 0 0 -0.70794 -0.57316 -0.41268 0.023997
0.061588 0.0187 1.0274 7.514e-39 362.5 260.5 0 0 0 -0.70935 -0.60492 -0.36179 0.023802
0.063391 0.0187 1.0274 7.3987e-39 364 260.5 0 0 0 -0.70195 -0.60784 -0.3712 0.023911
0.065194 0.0187 1.0274 7.3296e-39 366 260.5 0 0 0 -0.68728 -0.6059 -0.40066 0.024456
0.059184 0.021705 1.0274 7.3757e-39 161 262 0 0 0 -0.73994 -0.60333 -0.29747 0.030401
0.06077 0.020898 1.0271 8.3283e-39 323.67 261.33 0 0 0 -0.71995 -0.60967 -0.33164 0.027667
0.063378 0.0211 1.0272 7.4218e-39 285.5 261.5 0 0 0 -0.70877 -0.60369 -0.36497 0.024909
0.06514 0.021086 1.0266 7.514e-39 287 261.5 0 0 0 -0.69041 -0.605 -0.39661 0.027295
0.059135 0.022888 1.0266 7.1913e-39 260 262 0 0 0 -0.73481 -0.61811 -0.27928 0.032325
0.060336 0.022888 1.0266 6.8225e-39 261 262 0 0 0 -0.73724 -0.60538 -0.3 0.031909
0.063365 0.022898 1.027 6.9147e-39 263.5 262 0 0 0 -0.71265 -0.59804 -0.36671 0.027535
