# .PCD v.7 - Point Cloud Data file format
VERSION .7
FIELDS x y z rgb u v vx vy vz normal_x normal_y normal_z curvature
SIZE 4 4 4 4 4 4 4 4 4 4 4 4 4
TYPE F F F F F F F F F F F F F
COUNT 1 1 1 1 1 1 1 1 1 1 1 1 1
WIDTH 556
HEIGHT 1
VIEWPOINT 0 0 0 1 0 0 0
POINTS 556
DATA ascii
-0.17691 -0.0049418 1.2267 7.3065e-39 369.5 272.5 0 0 0 0.60884 0.24652 -0.75402 0.0070439
-0.17488 -0.0056639 1.2276 7.56e-39 471 272 0 0 0 0.62374 0.23457 -0.7456 0.0065031
-0.2151 -0.0027914 1.2276 8.021e-39 397 273 0 0 0 -0.67894 0.32285 -0.6594 0.0044515
-0.17901 -0.0027886 1.2264 8.7586e-39 422 273 0 0 0 0.57876 0.25861 -0.77341 0.0080365
-0.17704 -0.0027914 1.2276 8.943e-39 423.5 273 0 0 0 0.59909 0.24137 -0.76344 0.0065649
-0.21273 -0.0013538 1.2264 5.9927e-39 175.5 274 0 0 0 -0.63522 0.33115 -0.69773 0.0078174
-0.18045 -0.0013538 1.2264 6.9147e-39 206 274 0 0 0 0.55649 0.2647 -0.78756 0.010177
-0.17901 -0.0013538 1.2264 7.2835e-39 207 274 0 0 0 0.57173 0.25638 -0.77935 0.0081963
-0.17704 -0.0013551 1.2276 6.6842e-39 209.5 274 0 0 0 0.58758 0.23768 -0.77347 0.0066181
-0.21283 0.00079921 1.227 6.6381e-39 423 274 0 0 0 -0.63838 0.32237 -0.69896 0.0079859
-0.21058 0.0015158 1.2264 6.6381e-39 484 274 0 0 0 -0.60033 0.32867 -0.7291 0.011138
-0.18045 0.00079841 1.2264 6.6381e-39 271.5 274.5 0 0 0 0.54247 0.25477 -0.80051 0.010197
-0.17901 0.00079841 1.2264 6.7764e-39 275.5 274.5 0 0 0 0.5638 0.24364 -0.78916 0.0078116
-0.17704 0.00079925 1.2276 6.6842e-39 277 274.5 0 0 0 0.57935 0.23513 -0.78043 0.0062358
-0.21222 0.0029536 1.2276 6.8225e-39 289 275 0 0 0 -0.6343 0.31686 -0.70517 0.0095084
-0.21079 0.0029536 1.2276 6.5459e-39 290 275 0 0 0 -0.6179 0.31618 -0.71988 0.010472
-0.20914 0.0029507 1.2264 6.1771e-39 291 275 0 0 0 -0.56905 0.32342 -0.75603 0.014258
-0.18063 0.0029536 1.2276 6.2693e-39 354 275 0 0 0 0.53458 0.24493 -0.80885 0.009045
-0.17901 0.0029507 1.2264 6.3615e-39 355 275 0 0 0 0.55082 0.23932 -0.79958 0.0076303
-0.17776 0.0029536 1.2276 6.5459e-39 356 275 0 0 0 0.57233 0.23271 -0.78631 0.0061473
-0.20935 0.0051079 1.2276 7.0069e-39 345 275.5 0 0 0 -0.58217 0.30498 -0.7537 0.014444
-0.18125 0.0051054 1.227 6.3845e-39 371.5 275.5 0 0 0 0.51642 0.24392 -0.82086 0.0099079
-0.17901 0.0051029 1.2264 6.8686e-39 373 275.5 0 0 0 0.54555 0.23662 -0.80398 0.0074929
-0.20699 0.0072551 1.2264 9.7266e-39 410.5 276 0 0 0 -0.49495 0.29356 -0.81783 0.022448
-0.18206 0.0072623 1.2276 9.0352e-39 428 276 0 0 0 0.49026 0.24198 -0.83731 0.013186
-0.17919 0.0072623 1.2276 8.2054e-39 430 276 0 0 0 0.5427 0.23171 -0.80733 0.0074707
-0.2072 0.0086986 1.2276 6.0388e-39 171.5 277 0 0 0 -0.53455 0.27865 -0.79787 0.020112
-0.20484 0.0086899 1.2264 5.6239e-39 173 277 0 0 0 -0.42057 0.28776 -0.86041 0.025557
-0.18206 0.0086986 1.2276 7.0991e-39 192 277 0 0 0 0.48918 0.23733 -0.83927 0.013569
-0.17919 0.0086986 1.2276 6.5459e-39 205 277 0 0 0 0.54164 0.22765 -0.8092 0.0078999
-0.20648 0.010853 1.2276 6.7303e-39 420 277 0 0 0 -0.49136 0.27525 -0.82632 0.022966
-0.20484 0.010843 1.2264 6.7764e-39 421 277 0 0 0 -0.41871 0.27708 -0.86481 0.025196
-0.18269 0.010848 1.227 5.9005e-39 467 277 0 0 0 0.47206 0.23379 -0.85 0.015127
-0.20648 0.013007 1.2276 6.7303e-39 278 278 0 0 0 -0.48786 0.26726 -0.831 0.021076
-0.20484 0.012994 1.2264 6.3615e-39 279 278 0 0 0 -0.41918 0.26818 -0.86739 0.024344
-0.18269 0.013 1.227 6.2232e-39 294.5 278 0 0 0 0.46737 0.23568 -0.85207 0.016066
-0.20648 0.014444 1.2276 6.8225e-39 434 278 0 0 0 -0.48408 0.25892 -0.83584 0.02091
-0.20504 0.015162 1.2276 6.7764e-39 322 278.5 0 0 0 -0.45198 0.25668 -0.8543 0.023481
-0.20341 0.015864 1.2264 7.2835e-39 210 279 0 0 0 -0.38096 0.25513 -0.8887 0.024504
-0.20197 0.015864 1.2264 7.2835e-39 211 279 0 0 0 -0.31796 0.25021 -0.91449 0.027397
-0.18269 0.015154 1.227 6.6842e-39 344.5 278.5 0 0 0 0.47624 0.23499 -0.84733 0.016008
-0.20504 0.017316 1.2276 9.1274e-39 391 279 0 0 0 -0.45502 0.25263 -0.85389 0.022066
-0.20361 0.017316 1.2276 9.1274e-39 392 279 0 0 0 -0.39977 0.25259 -0.88113 0.024117
-0.20125 0.017299 1.2264 8.943e-39 393.5 279 0 0 0 -0.286 0.24958 -0.92516 0.026394
-0.18475 0.017299 1.2264 8.8508e-39 405 279 0 0 0 0.41576 0.23904 -0.8775 0.021973
-0.18269 0.017308 1.227 8.8508e-39 406.5 279 0 0 0 0.47888 0.23987 -0.84447 0.017363
-0.20504 0.018752 1.2276 6.4537e-39 152 280 0 0 0 -0.45808 0.24941 -0.8532 0.021542
-0.20361 0.018752 1.2276 6.3615e-39 153 280 0 0 0 -0.40227 0.24536 -0.88203 0.023574
-0.20125 0.018734 1.2264 6.3615e-39 154.5 280 0 0 0 -0.29441 0.24904 -0.92266 0.026665
-0.18475 0.018734 1.2264 6.0849e-39 166 280 0 0 0 0.41832 0.24447 -0.87478 0.023409
-0.1835 0.018752 1.2276 5.9005e-39 167 280 0 0 0 0.46783 0.24712 -0.84857 0.019741
-0.20504 0.020188 1.2276 5.8083e-39 287 280 0 0 0 -0.46422 0.24431 -0.85136 0.020575
-0.20313 0.021146 1.2276 6.6688e-39 397.33 280 0 0 0 -0.37943 0.24874 -0.89116 0.024979
-0.20102 0.020646 1.2264 5.9927e-39 344.33 280 0 0 0 -0.28814 0.24902 -0.92464 0.027376
-0.1991 0.020886 1.2264 6.0388e-39 373.5 280 0 0 0 -0.21321 0.24897 -0.94475 0.031208
-0.19193 0.021603 1.2264 7.2835e-39 462 280 0 0 0 0.12177 0.2557 -0.95906 0.035597
-0.1869 0.020886 1.2264 6.0849e-39 382.5 280 0 0 0 0.34741 0.25039 -0.90367 0.029812
-0.18485 0.020896 1.227 6.0849e-39 384 280 0 0 0 0.42641 0.24744 -0.87003 0.025059
-0.1835 0.020188 1.2276 5.4395e-39 302 280 0 0 0 0.47263 0.2483 -0.84556 0.019962
-0.20217 0.023061 1.2276 6.1771e-39 227 281 0 0 0 -0.33451 0.25571 -0.90703 0.027584
-0.20054 0.023038 1.2264 6.4537e-39 228 281 0 0 0 -0.27242 0.25616 -0.92745 0.028489
-0.1991 0.023038 1.2264 6.6381e-39 229 281 0 0 0 -0.21627 0.25866 -0.94145 0.031583
-0.1948 0.023038 1.2264 5.6239e-39 232 281 0 0 0 -0.00046327 0.25926 -0.96581 0.036049
-0.19193 0.023038 1.2264 5.6239e-39 234 281 0 0 0 0.117 0.2579 -0.95906 0.036534
-0.18906 0.023038 1.2264 6.8225e-39 236 281 0 0 0 0.24926 0.24933 -0.93579 0.032879
-0.1869 0.023038 1.2264 6.6842e-39 237.5 281 0 0 0 0.34705 0.25007 -0.90389 0.030041
-0.18494 0.023061 1.2276 6.4537e-39 239 281 0 0 0 0.42836 0.25176 -0.86783 0.025514
-0.20217 0.025215 1.2276 7.3757e-39 275 281.5 0 0 0 -0.33476 0.26774 -0.90347 0.02784
-0.20074 0.025215 1.2276 7.4679e-39 276 281.5 0 0 0 -0.28315 0.2713 -0.9199 0.03021
-0.1991 0.025191 1.2264 7.6061e-39 277 281.5 0 0 0 -0.20699 0.27259 -0.9396 0.030414
-0.19671 0.02543 1.2264 7.1913e-39 240.67 281.67 0 0 0 -0.090886 0.2817 -0.95519 0.032781
-0.1948 0.025191 1.2264 6.7764e-39 280 281.5 0 0 0 -0.006471 0.27095 -0.96257 0.036362
-0.19336 0.025908 1.2264 5.8083e-39 167 282 0 0 0 0.052674 0.28242 -0.95784 0.036221
-0.19145 0.02543 1.2264 6.4844e-39 244.33 281.67 0 0 0 0.1278 0.27002 -0.95433 0.036396
-0.18906 0.025191 1.2264 7.8827e-39 284 281.5 0 0 0 0.25835 0.26296 -0.92957 0.033295
-0.18699 0.025203 1.227 7.6292e-39 285.5 281.5 0 0 0 0.34943 0.26222 -0.89952 0.030616
-0.18494 0.025215 1.2276 7.2374e-39 287 281.5 0 0 0 0.43034 0.26153 -0.86395 0.025228
-0.20217 0.02737 1.2276 6.2693e-39 281 282 0 0 0 -0.34438 0.2812 -0.89573 0.02626
-0.20074 0.02737 1.2276 6.2693e-39 282 282 0 0 0 -0.28589 0.2841 -0.91518 0.029741
-0.1991 0.027343 1.2264 5.9927e-39 283 282 0 0 0 -0.20385 0.29072 -0.93484 0.029823
-0.19695 0.027343 1.2264 5.7622e-39 284.5 282 0 0 0 -0.10911 0.28951 -0.95094 0.032644
-0.1948 0.027343 1.2264 5.5317e-39 286 282 0 0 0 -0.025221 0.29493 -0.95519 0.037036
-0.19336 0.027343 1.2264 5.4395e-39 287 282 0 0 0 0.04838 0.28827 -0.95633 0.036699
-0.19121 0.027343 1.2264 5.3473e-39 288.5 282 0 0 0 0.14998 0.2812 -0.94786 0.03713
-0.18906 0.027343 1.2264 5.2552e-39 290 282 0 0 0 0.25019 0.28136 -0.92641 0.034487
-0.18709 0.02737 1.2276 5.4395e-39 291.5 282 0 0 0 0.34495 0.28345 -0.8948 0.031714
-0.18494 0.02737 1.2276 5.8083e-39 293 282 0 0 0 0.42783 0.27956 -0.85954 0.025304
-0.20074 0.028806 1.2276 6.9147e-39 432 282 0 0 0 -0.28239 0.29317 -0.9134 0.029608
-0.1993 0.028806 1.2276 7.1913e-39 433 282 0 0 0 -0.22592 0.3026 -0.92596 0.031987
-0.19695 0.028777 1.2264 7.2835e-39 434.5 282 0 0 0 -0.12208 0.3017 -0.94555 0.033311
-0.1948 0.028777 1.2264 7.0991e-39 436 282 0 0 0 -0.017094 0.29985 -0.95383 0.036435
-0.19274 0.028791 1.227 6.7764e-39 437.5 282 0 0 0 0.077055 0.29793 -0.95147 0.038632
-0.19068 0.028806 1.2276 6.5459e-39 439 282 0 0 0 0.18007 0.29737 -0.93763 0.039212
-0.18925 0.028806 1.2276 6.7303e-39 440 282 0 0 0 0.25563 0.29687 -0.92007 0.036706
-0.18781 0.028806 1.2276 7.1913e-39 451 282 0 0 0 0.31082 0.2928 -0.90424 0.035258
-0.20074 0.030242 1.2276 7.1913e-39 200 283 0 0 0 -0.2864 0.30877 -0.90699 0.027816
-0.1993 0.03096 1.2276 6.4076e-39 273.5 283 0 0 0 -0.20253 0.32369 -0.92423 0.029654
-0.19695 0.030929 1.2264 6.2693e-39 275.25 283 0 0 0 -0.11702 0.31929 -0.9404 0.033482
-0.19499 0.03096 1.2276 6.4537e-39 277 283 0 0 0 -0.019319 0.33172 -0.94318 0.039703
-0.19284 0.03096 1.2276 6.4076e-39 280 283 0 0 0 0.069122 0.32896 -0.94181 0.041901
-0.19068 0.03096 1.2276 6.1771e-39 283 283 0 0 0 0.16664 0.32317 -0.93155 0.041798
-0.19715 0.033115 1.2276 6.3615e-39 460.5 283 0 0 0 -0.13279 0.34665 -0.92855 0.034506
-0.19499 0.033115 1.2276 6.8225e-39 462 283 0 0 0 -0.037621 0.35314 -0.93481 0.039336
-0.19284 0.033115 1.2276 7.053e-39 463.5 283 0 0 0 0.062844 0.3537 -0.93324 0.042116
-0.19714 0.035269 1.2276 6.4537e-39 289.5 284 0 0 0 -0.12293 0.37192 -0.92009 0.034522
-0.19499 0.034551 1.2276 6.5459e-39 217 284 0 0 0 -0.041937 0.3665 -0.92947 0.038727
-0.20093 -0.058863 1.2288 9.0352e-39 449 254 0 0 0 -0.038836 -0.93293 -0.35797 0.00977
-0.19518 -0.058863 1.2288 8.7586e-39 477 254 0 0 0 0.06249 -0.92827 -0.36661 0.0061948
-0.20812 -0.057426 1.2288 6.6381e-39 242 255 0 0 0 -0.20038 -0.88714 -0.41572 0.012332
-0.19087 -0.055988 1.2288 1.1893e-38 199 256 0 0 0 0.12336 -0.91579 -0.38226 0.0039388
-0.18656 -0.055988 1.2288 7.0069e-39 202 256 0 0 0 0.17509 -0.89122 -0.41842 0.0074821
-0.18512 -0.055988 1.2288 5.8083e-39 203 256 0 0 0 0.18714 -0.88117 -0.43418 0.011257
-0.18296 -0.055988 1.2288 5.8083e-39 204.5 256 0 0 0 0.18977 -0.86216 -0.46975 0.017143
-0.16931 -0.05455 1.2288 7.0069e-39 480 256 0 0 0 0.25967 -0.6735 -0.69208 0.055484
-0.16715 -0.05455 1.2288 6.5459e-39 481.5 256 0 0 0 0.29656 -0.61167 -0.73343 0.055212
-0.16499 -0.05455 1.2288 6.3615e-39 483 256 0 0 0 0.3579 -0.55904 -0.74792 0.057513
-0.2225 -0.053113 1.2288 7.6522e-39 211 257 0 0 0 -0.51423 -0.62124 -0.59129 0.04129
-0.21531 -0.053113 1.2288 8.1132e-39 216 257 0 0 0 -0.42594 -0.72498 -0.54128 0.033061
-0.16356 -0.053113 1.2288 6.8225e-39 267 257 0 0 0 0.39367 -0.49837 -0.77243 0.058118
-0.15924 -0.053113 1.2288 7.4678e-39 270 257 0 0 0 0.46197 -0.4075 -0.78774 0.051851
-0.1578 -0.053113 1.2288 7.2835e-39 282 257 0 0 0 0.47895 -0.38763 -0.78763 0.049832
-0.1578 -0.050956 1.2288 6.3615e-39 281 258 0 0 0 0.5391 -0.2629 -0.80016 0.049528
-0.22681 -0.0488 1.2288 4.4254e-39 546 258 0 0 0 -0.71299 -0.34457 -0.61067 0.052407
-0.1578 -0.0488 1.2288 6.3615e-39 193 259 0 0 0 0.57387 -0.16363 -0.80243 0.045417
-0.22681 -0.047362 1.2288 7.1913e-39 267 259 0 0 0 -0.73965 -0.28477 -0.60977 0.05243
-0.1578 -0.047362 1.2288 7.6522e-39 422 259 0 0 0 0.59318 -0.10548 -0.79813 0.041457
-0.22681 -0.045205 1.2288 5.7162e-39 260.5 260 0 0 0 -0.76538 -0.18672 -0.6159 0.043749
-0.1578 -0.045205 1.2288 8.6203e-39 322 260 0 0 0 0.60963 -0.020131 -0.79243 0.034344
-0.1578 -0.043049 1.2288 7.1913e-39 219 261 0 0 0 0.61725 0.037945 -0.78585 0.029092
-0.15924 -0.040174 1.2288 7.2835e-39 222 262 0 0 0 0.61429 0.10215 -0.78245 0.020094
-0.15924 -0.038736 1.2288 9.404e-39 441 262 0 0 0 0.62119 0.14096 -0.77088 0.016025
-0.15924 -0.037298 1.2288 7.4678e-39 214 263 0 0 0 0.6224 0.18029 -0.76165 0.012286
-0.22538 -0.035142 1.2288 5.7162e-39 462 263 0 0 0 -0.80463 0.11491 -0.58255 0.0053344
-0.16068 -0.035142 1.2288 8.4359e-39 315.5 263.5 0 0 0 0.6197 0.20593 -0.75734 0.0095777
-0.22538 -0.032985 1.2288 6.6381e-39 292 264 0 0 0 -0.80486 0.15131 -0.57386 0.002293
-0.16284 -0.032985 1.2288 7.3296e-39 405.5 264 0 0 0 0.61477 0.22404 -0.75622 0.007967
-0.22538 -0.031548 1.2288 6.4537e-39 479 264 0 0 0 -0.80393 0.15825 -0.57328 0.0021674
-0.16499 -0.030829 1.2288 6.8225e-39 282 265 0 0 0 0.61592 0.22349 -0.75544 0.0073101
-0.16284 -0.030829 1.2288 7.2374e-39 283.5 265 0 0 0 0.62232 0.23524 -0.74657 0.0075138
-0.22394 -0.028672 1.2288 8.7586e-39 446 265 0 0 0 -0.79991 0.18481 -0.57096 0.0018948
-0.16499 -0.028672 1.2288 5.4395e-39 545 265 0 0 0 0.62187 0.22731 -0.74941 0.0072558
-0.16212 -0.028672 1.2288 3.4112e-39 547 265 0 0 0 0.63167 0.23868 -0.73758 0.0073969
-0.16499 -0.027235 1.2288 7.6522e-39 282 266 0 0 0 0.6276 0.22917 -0.74404 0.0072145
-0.16643 -0.022922 1.2288 9.2196e-39 411 267 0 0 0 0.64202 0.22648 -0.73247 0.0066919
-0.2225 -0.021484 1.2288 6.6381e-39 488 267 0 0 0 -0.77899 0.23558 -0.5811 0.0021537
-0.16931 -0.020046 1.2288 7.3757e-39 371 268 0 0 0 0.64922 0.21683 -0.72903 0.0063368
-0.16691 -0.020525 1.2288 7.222e-39 312.33 268 0 0 0 0.65035 0.22136 -0.72667 0.0065713
-0.22106 -0.018609 1.2288 6.6381e-39 450 268 0 0 0 -0.76687 0.25129 -0.59056 0.0023026
-0.16931 -0.018609 1.2288 7.0069e-39 542 268 0 0 0 0.65273 0.21351 -0.72688 0.0062878
-0.16715 -0.018609 1.2288 7.2374e-39 543.5 268 0 0 0 0.65489 0.21881 -0.72336 0.0063748
-0.22106 -0.017171 1.2288 6.0849e-39 242 269 0 0 0 -0.76297 0.25692 -0.59319 0.00245
-0.16931 -0.017171 1.2288 7.0069e-39 289 269 0 0 0 0.65373 0.21588 -0.72528 0.0064541
-0.16787 -0.017171 1.2288 6.7303e-39 290 269 0 0 0 0.65679 0.21661 -0.72229 0.0061399
-0.17074 -0.014296 1.2288 6.9147e-39 268 270 0 0 0 0.65358 0.21486 -0.72572 0.0062649
-0.16931 -0.015014 1.2288 6.4076e-39 364.5 269.5 0 0 0 0.65644 0.21665 -0.7226 0.0061727
-0.16787 -0.015014 1.2288 6.4998e-39 365.5 269.5 0 0 0 0.65984 0.21491 -0.72002 0.0059223
-0.21962 -0.012858 1.2288 7.3757e-39 391 270 0 0 0 -0.73915 0.27804 -0.61348 0.0030916
-0.17074 -0.012858 1.2288 8.2054e-39 425 270 0 0 0 0.65312 0.21699 -0.7255 0.0063512
-0.16931 -0.012858 1.2288 8.2976e-39 426 270 0 0 0 0.65572 0.21388 -0.72408 0.0061094
-0.21819 -0.01142 1.2288 6.0849e-39 180 271 0 0 0 -0.73364 0.28345 -0.6176 0.0032896
-0.17074 -0.01142 1.2288 6.4537e-39 227 271 0 0 0 0.65129 0.21546 -0.7276 0.0061236
-0.16931 -0.01142 1.2288 6.3615e-39 228 271 0 0 0 0.65497 0.21365 -0.72482 0.0059721
-0.21675 -0.0085448 1.2288 6.1771e-39 483 271 0 0 0 -0.7145 0.2999 -0.6321 0.0032006
-0.17218 -0.0085448 1.2288 6.1771e-39 178 272 0 0 0 0.6411 0.21992 -0.73528 0.0059101
-0.17074 -0.0092636 1.2288 6.7303e-39 288.5 271.5 0 0 0 0.64578 0.21705 -0.73202 0.0057938
-0.17218 -0.0071072 1.2288 6.2693e-39 355 272 0 0 0 0.63642 0.22287 -0.73844 0.0058481
-0.17074 -0.0071072 1.2288 6.6381e-39 356 272 0 0 0 0.64097 0.218 -0.73596 0.0057307
-0.17506 -0.0042318 1.2288 7.3757e-39 271 273 0 0 0 0.62122 0.22864 -0.74954 0.0060181
-0.17362 -0.0049507 1.2288 7.0991e-39 372 272.5 0 0 0 0.62401 0.22623 -0.74795 0.0057785
-0.17506 -0.0027942 1.2288 8.8508e-39 425 273 0 0 0 0.61524 0.22737 -0.75484 0.0057076
-0.17362 -0.0027942 1.2288 8.2054e-39 434 273 0 0 0 0.61923 0.2247 -0.75237 0.0057309
-0.21531 -0.0013565 1.2288 5.8083e-39 174 274 0 0 0 -0.68147 0.32246 -0.65698 0.0046332
-0.17506 -0.0013565 1.2288 6.5459e-39 211 274 0 0 0 0.61078 0.22656 -0.7587 0.005542
-0.17362 -0.0013565 1.2288 6.5459e-39 212 274 0 0 0 0.61663 0.22329 -0.75492 0.0056187
-0.21531 8.1189e-05 1.2288 6.5459e-39 362 274 0 0 0 -0.68053 0.31757 -0.66033 0.0048949
-0.17506 0.00080004 1.2288 6.6381e-39 278.5 274.5 0 0 0 0.60722 0.22595 -0.76173 0.0052973
-0.17362 0.00080004 1.2288 7.1452e-39 280.5 274.5 0 0 0 0.61383 0.22282 -0.75734 0.0054542
-0.21387 0.0029565 1.2288 7.0069e-39 288 275 0 0 0 -0.66683 0.3103 -0.67754 0.0070454
-0.17649 0.0029565 1.2288 6.6381e-39 357 275 0 0 0 0.59076 0.22746 -0.77412 0.0052294
-0.21316 0.0043942 1.2288 6.6381e-39 444.5 275 0 0 0 -0.65786 0.29857 -0.69143 0.0084915
-0.211 0.0051131 1.2288 7.0069e-39 344 275.5 0 0 0 -0.6288 0.2966 -0.71878 0.011239
-0.17721 0.0051131 1.2288 7.1452e-39 374.5 275.5 0 0 0 0.58089 0.22766 -0.7815 0.0055723
-0.20956 0.0072695 1.2288 9.9571e-39 409 276 0 0 0 -0.60036 0.28566 -0.74697 0.014208
-0.18081 0.0072695 1.2288 8.943e-39 429 276 0 0 0 0.52916 0.23489 -0.81536 0.0090579
-0.18081 0.0087072 1.2288 7.0069e-39 193 277 0 0 0 0.52834 0.23252 -0.81657 0.0094184
-0.20812 0.010864 1.2288 6.6842e-39 419 277 0 0 0 -0.56888 0.2655 -0.77839 0.018341
-0.18081 0.010864 1.2288 4.7942e-39 468.5 277 0 0 0 0.52586 0.23036 -0.81878 0.010133
-0.17937 0.010864 1.2288 4.8864e-39 469.5 277 0 0 0 0.54968 0.23122 -0.80274 0.0081535
-0.18081 0.01302 1.2288 5.9005e-39 296 278 0 0 0 0.53044 0.23387 -0.81482 0.010691
-0.17937 0.01302 1.2288 5.8083e-39 297 278 0 0 0 0.55115 0.23654 -0.80018 0.0087351
-0.20669 0.015896 1.2288 6.8225e-39 208 279 0 0 0 -0.51478 0.2508 -0.81982 0.020388
-0.18081 0.015177 1.2288 6.7303e-39 346 278.5 0 0 0 0.53607 0.23569 -0.8106 0.011316
-0.17937 0.014458 1.2288 7.1913e-39 453 278 0 0 0 0.55356 0.23796 -0.79809 0.0093498
-0.20669 0.017333 1.2288 9.404e-39 390 279 0 0 0 -0.50986 0.25063 -0.82294 0.018864
-0.18081 0.017333 1.2288 8.8508e-39 408 279 0 0 0 0.5398 0.24256 -0.80609 0.012543
-0.20669 0.018771 1.2288 6.4537e-39 151 280 0 0 0 -0.51301 0.24819 -0.82172 0.018277
-0.18225 0.018771 1.2288 5.9005e-39 168 280 0 0 0 0.51274 0.2482 -0.82189 0.016734
-0.18081 0.018771 1.2288 6.2693e-39 169 280 0 0 0 0.54279 0.245 -0.80334 0.013019
-0.20669 0.020927 1.2288 6.3615e-39 367.5 280 0 0 0 -0.51047 0.24453 -0.82439 0.01859
-0.20525 0.021646 1.2288 6.8225e-39 450 280 0 0 0 -0.49024 0.24584 -0.8362 0.020937
-0.18273 0.021167 1.2288 6.2693e-39 413.33 280 0 0 0 0.50195 0.24912 -0.82824 0.018913
-0.20525 0.023084 1.2288 6.3615e-39 225 281 0 0 0 -0.48077 0.24591 -0.84166 0.021046
-0.20381 0.023084 1.2288 6.1771e-39 226 281 0 0 0 -0.43029 0.25116 -0.86705 0.024417
-0.18368 0.023084 1.2288 6.2693e-39 240 281 0 0 0 0.47256 0.2532 -0.84414 0.021581
-0.20525 0.02524 1.2288 7.3757e-39 273 281.5 0 0 0 -0.48381 0.25328 -0.83772 0.021086
-0.20381 0.02524 1.2288 7.3757e-39 274 281.5 0 0 0 -0.42559 0.25611 -0.86792 0.024972
-0.1832 0.02548 1.2288 6.7917e-39 250.33 281.67 0 0 0 0.48407 0.2608 -0.83526 0.020643
-0.20381 0.027397 1.2288 6.4537e-39 280 282 0 0 0 -0.41408 0.27775 -0.86683 0.022995
-0.18368 0.027397 1.2288 5.9005e-39 294 282 0 0 0 0.47723 0.27288 -0.83533 0.021241
-0.20237 0.028835 1.2288 6.9147e-39 431 282 0 0 0 -0.35455 0.29821 -0.88621 0.025148
-0.18656 0.028835 1.2288 7.0991e-39 452 282 0 0 0 0.37813 0.2971 -0.87679 0.030984
-0.18512 0.028835 1.2288 6.9147e-39 453 282 0 0 0 0.42973 0.28736 -0.85601 0.026593
-0.20093 0.03171 1.2288 5.3473e-39 340 283 0 0 0 -0.30834 0.32554 -0.89384 0.026851
-0.18943 0.030991 1.2288 6.0388e-39 284 283 0 0 0 0.24455 0.3253 -0.91344 0.039408
-0.18752 0.030751 1.2288 6.4844e-39 260.33 283 0 0 0 0.34205 0.31792 -0.88427 0.033178
-0.18512 0.030272 1.2288 7.4678e-39 212 283 0 0 0 0.42378 0.30671 -0.85226 0.025748
-0.20093 0.033148 1.2288 6.6381e-39 458 283 0 0 0 -0.3019 0.33926 -0.89093 0.026202
-0.1995 0.033148 1.2288 6.3615e-39 459 283 0 0 0 -0.23002 0.34656 -0.90939 0.029043
-0.19087 0.033148 1.2288 6.1771e-39 465 283 0 0 0 0.16528 0.36323 -0.91692 0.042353
-0.18943 0.033148 1.2288 5.8083e-39 466 283 0 0 0 0.24082 0.353 -0.9041 0.038967
-0.188 0.033148 1.2288 5.9927e-39 467 283 0 0 0 0.31315 0.34368 -0.88534 0.035618
-0.1995 0.034585 1.2288 7.0069e-39 214 284 0 0 0 -0.22766 0.36295 -0.90357 0.028367
-0.19303 0.034585 1.2288 6.7303e-39 218.5 284 0 0 0 0.054034 0.37983 -0.92348 0.043682
-0.19087 0.034585 1.2288 6.1771e-39 220 284 0 0 0 0.15805 0.37935 -0.91166 0.043044
-0.19806 0.037461 1.2288 6.6381e-39 458 284 0 0 0 -0.17128 0.40218 -0.8994 0.032889
-0.19662 0.037461 1.2288 6.3615e-39 459 284 0 0 0 -0.098709 0.40882 -0.90726 0.034445
-0.19518 0.036742 1.2288 6.3154e-39 412.5 284 0 0 0 -0.035869 0.39968 -0.91595 0.040671
-0.19303 0.036742 1.2288 6.4767e-39 414 284 0 0 0 0.062388 0.4036 -0.91281 0.042533
-0.19087 0.036742 1.2288 6.8225e-39 415.5 284 0 0 0 0.15956 0.39945 -0.90276 0.041338
-0.19806 0.038898 1.2288 6.2693e-39 207 285 0 0 0 -0.1502 0.41377 -0.8979 0.031594
-0.19662 0.038898 1.2288 6.0849e-39 208 285 0 0 0 -0.11359 0.41644 -0.90204 0.033896
-0.19518 0.038898 1.2288 6.1771e-39 209 285 0 0 0 -0.061443 0.41609 -0.90725 0.037358
-0.19303 0.038898 1.2288 6.592e-39 210.5 285 0 0 0 0.049415 0.42547 -0.90362 0.041574
-0.19087 0.038898 1.2288 7.4678e-39 212 285 0 0 0 0.16413 0.42468 -0.89034 0.039858
-0.19662 0.040336 1.2288 5.9927e-39 294 285 0 0 0 -0.11801 0.42382 -0.89803 0.03289
-0.20494 -0.060421 1.2313 4.4715e-39 154.5 254 0 0 0 -0.096027 -0.91869 -0.38314 0.011181
-0.19845 -0.060421 1.2313 4.241e-39 159 254 0 0 0 0.010396 -0.93121 -0.36432 0.0081182
-0.19682 -0.060361 1.2301 3.5956e-39 160 254 0 0 0 0.037151 -0.93171 -0.3613 0.0071363
-0.20689 -0.058922 1.2301 8.2054e-39 445 254 0 0 0 -0.1445 -0.90693 -0.39573 0.0107
-0.19413 -0.058981 1.2313 8.3898e-39 478 254 0 0 0 0.076305 -0.92571 -0.37047 0.0048683
-0.21286 -0.0561 1.2313 4.5176e-39 158 256 0 0 0 -0.29614 -0.81315 -0.50109 0.016381
-0.21142 -0.0561 1.2313 4.5176e-39 159 256 0 0 0 -0.26652 -0.83417 -0.48283 0.014762
-0.20998 -0.05754 1.2313 6.9147e-39 241 255 0 0 0 -0.21154 -0.8688 -0.4477 0.011299
-0.1925 -0.057483 1.2301 7.4678e-39 270 255 0 0 0 0.10487 -0.92182 -0.37315 0.0043949
-0.18962 -0.056044 1.2301 1.0787e-38 200 256 0 0 0 0.12842 -0.91516 -0.3821 0.0034486
-0.18117 -0.0561 1.2313 5.9927e-39 206 256 0 0 0 0.16838 -0.86669 -0.46957 0.015453
-0.17973 -0.0561 1.2313 5.9005e-39 207 256 0 0 0 0.1669 -0.85761 -0.48646 0.018772
-0.17685 -0.0561 1.2313 7.0069e-39 209 256 0 0 0 0.16325 -0.83413 -0.52686 0.027623
-0.17541 -0.0561 1.2313 6.9147e-39 210 256 0 0 0 0.15498 -0.82313 -0.54629 0.029365
-0.17252 -0.0561 1.2313 6.7303e-39 212 256 0 0 0 0.16666 -0.79048 -0.58938 0.036113
-0.17091 -0.056044 1.2301 7.0069e-39 213 256 0 0 0 0.2008 -0.75059 -0.62952 0.044212
-0.16892 -0.0561 1.2313 7.3757e-39 214.5 256 0 0 0 0.20339 -0.73056 -0.65185 0.044815
-0.16676 -0.0561 1.2313 7.8366e-39 216 256 0 0 0 0.23859 -0.6913 -0.68204 0.049865
-0.16532 -0.0561 1.2313 7.56e-39 217 256 0 0 0 0.27806 -0.65505 -0.70256 0.051528
-0.2143 -0.054659 1.2313 8.1132e-39 413 256 0 0 0 -0.34876 -0.77224 -0.53105 0.021677
-0.163 -0.054605 1.2301 6.3154e-39 484.5 256 0 0 0 0.37102 -0.54652 -0.75077 0.058703
-0.16084 -0.054605 1.2301 6.4537e-39 486 256 0 0 0 0.4173 -0.48786 -0.76672 0.055486
-0.15876 -0.054632 1.2307 6.9608e-39 539.5 256 0 0 0 0.45279 -0.44868 -0.7705 0.053649
-0.22727 -0.053219 1.2313 8.1132e-39 208 257 0 0 0 -0.56504 -0.55176 -0.61343 0.047776
-0.2251 -0.053219 1.2313 8.0671e-39 209.5 257 0 0 0 -0.52469 -0.5923 -0.61147 0.044695
-0.22128 -0.053166 1.2301 7.56e-39 212 257 0 0 0 -0.49125 -0.64176 -0.58891 0.039842
-0.15652 -0.053166 1.2301 7.3757e-39 283 257 0 0 0 0.52865 -0.33484 -0.78 0.051073
-0.15508 -0.053166 1.2301 6.7303e-39 343 257 0 0 0 0.54869 -0.31501 -0.77441 0.049434
-0.1538 -0.053219 1.2313 6.7303e-39 344 257 0 0 0 0.55682 -0.2876 -0.77926 0.048469
-0.22704 -0.051006 1.2301 8.0671e-39 343.5 257.5 0 0 0 -0.65424 -0.44857 -0.6089 0.052684
-0.15652 -0.051006 1.2301 6.4076e-39 282 258 0 0 0 0.56732 -0.24853 -0.7851 0.050194
-0.15508 -0.051006 1.2301 5.5778e-39 284 258 0 0 0 0.58213 -0.22646 -0.78092 0.048418
-0.1538 -0.051058 1.2313 5.3473e-39 285 258 0 0 0 0.58619 -0.2081 -0.78299 0.048565
-0.15652 -0.048848 1.2301 5.6239e-39 194 259 0 0 0 0.5935 -0.15487 -0.7898 0.044834
-0.15508 -0.048848 1.2301 5.4395e-39 195 259 0 0 0 0.61445 -0.12409 -0.77914 0.039372
-0.22871 -0.046736 1.2313 6.2693e-39 211 259.5 0 0 0 -0.75593 -0.24513 -0.60703 0.046236
-0.15652 -0.047409 1.2301 7.7444e-39 423 259 0 0 0 0.60629 -0.091442 -0.78997 0.038931
-0.15524 -0.046736 1.2313 8.1132e-39 317 259.5 0 0 0 0.63164 -0.048279 -0.77376 0.035
-0.22871 -0.044575 1.2313 6.2693e-39 363 260 0 0 0 -0.78866 -0.14694 -0.59701 0.039709
-0.1566 -0.045272 1.2307 8.6664e-39 323 260 0 0 0 0.62789 -0.029131 -0.77775 0.034175
-0.15524 -0.044575 1.2313 8.482e-39 438 260 0 0 0 0.64684 0.0062459 -0.7626 0.029213
-0.22871 -0.043135 1.2313 4.241e-39 170 261 0 0 0 -0.7948 -0.091228 -0.59997 0.032284
-0.22704 -0.043092 1.2301 3.78e-39 171 261 0 0 0 -0.79033 -0.11685 -0.60143 0.036033
-0.15668 -0.043135 1.2313 7.6522e-39 220 261 0 0 0 0.63884 0.040877 -0.76825 0.026158
-0.22704 -0.040933 1.2301 4.7942e-39 274.5 261.5 0 0 0 -0.80176 -0.038728 -0.59639 0.026496
-0.15812 -0.040254 1.2313 7.6522e-39 223 262 0 0 0 0.63479 0.12502 -0.7625 0.017283
-0.15732 -0.041674 1.2307 9.3578e-39 440.5 261 0 0 0 0.63512 0.07402 -0.76885 0.022919
-0.22704 -0.038775 1.2301 7.6522e-39 382 262 0 0 0 -0.80774 0.0059399 -0.5895 0.019251
-0.15812 -0.038813 1.2313 9.4961e-39 442 262 0 0 0 0.64012 0.15051 -0.75339 0.014738
-0.22727 -0.037373 1.2313 5.6239e-39 167 263 0 0 0 -0.81012 0.060715 -0.58311 0.011993
-0.15812 -0.037373 1.2313 7.0991e-39 215 263 0 0 0 0.64178 0.19163 -0.74256 0.010501
-0.1594 -0.035177 1.2301 8.2976e-39 316.5 263.5 0 0 0 0.63399 0.21724 -0.7422 0.0086526
-0.16084 -0.033018 1.2301 7.4678e-39 407 264 0 0 0 0.63122 0.23585 -0.73888 0.0072838
-0.15956 -0.033051 1.2313 7.56e-39 408 264 0 0 0 0.64004 0.24415 -0.72852 0.0065339
-0.2256 -0.03014 1.2301 7.6522e-39 266 265 0 0 0 -0.80625 0.17223 -0.56594 0.0017273
-0.161 -0.03089 1.2313 7.6522e-39 285 265 0 0 0 0.63934 0.24845 -0.72768 0.0065748
-0.15956 -0.03161 1.2313 7.0991e-39 189 265 0 0 0 0.64235 0.24952 -0.72466 0.0061745
-0.22582 -0.028729 1.2313 8.5742e-39 445 265 0 0 0 -0.80768 0.18567 -0.55962 0.0015432
-0.16372 -0.028701 1.2301 3.8722e-39 546 265 0 0 0 0.63093 0.23731 -0.73865 0.0072912
-0.22416 -0.027262 1.2301 6.9147e-39 227 266 0 0 0 -0.80154 0.19235 -0.56615 0.0018454
-0.163 -0.027262 1.2301 7.2374e-39 283.5 266 0 0 0 0.63889 0.24076 -0.73065 0.0070082
-0.22416 -0.025103 1.2301 7.6522e-39 299.5 266.5 0 0 0 -0.79547 0.2081 -0.56915 0.0020789
-0.16516 -0.025103 1.2301 6.8685e-39 345 266.5 0 0 0 0.63977 0.23394 -0.7321 0.0066948
-0.16308 -0.025115 1.2307 6.9378e-39 346.5 266.5 0 0 0 0.64711 0.24006 -0.72362 0.0064124
-0.22438 -0.022967 1.2313 7.1913e-39 370 267 0 0 0 -0.79488 0.22185 -0.56476 0.0020054
-0.16532 -0.022967 1.2313 9.8649e-39 412 267 0 0 0 0.64869 0.23429 -0.72409 0.0060914
-0.16388 -0.022967 1.2313 9.8649e-39 413 267 0 0 0 0.65222 0.23746 -0.71987 0.0059947
-0.22272 -0.020066 1.2301 7.56e-39 280 268 0 0 0 -0.77939 0.242 -0.57792 0.0021753
-0.16532 -0.020806 1.2313 7.0529e-39 283.5 268 0 0 0 0.65457 0.23003 -0.72015 0.0059224
-0.22294 -0.018646 1.2313 7.3757e-39 449 268 0 0 0 -0.78068 0.24296 -0.57577 0.0021435
-0.22294 -0.017205 1.2313 6.1771e-39 241 269 0 0 0 -0.77863 0.24663 -0.57698 0.002134
-0.1666 -0.017188 1.2301 6.4537e-39 291 269 0 0 0 0.65827 0.22024 -0.71984 0.0057802
-0.22128 -0.01503 1.2301 8.2976e-39 310 269.5 0 0 0 -0.76312 0.26022 -0.59155 0.0025314
-0.1666 -0.01503 1.2301 6.592e-39 366.5 269.5 0 0 0 0.66119 0.21584 -0.7185 0.0055551
-0.2215 -0.012883 1.2313 7.1913e-39 390 270 0 0 0 -0.76157 0.26327 -0.5922 0.0025137
-0.16804 -0.012871 1.2301 8.7586e-39 427 270 0 0 0 0.6602 0.21252 -0.7204 0.0055985
-0.1666 -0.012871 1.2301 8.8508e-39 428 270 0 0 0 0.66388 0.20967 -0.71784 0.0054663
-0.21984 -0.011432 1.2301 5.9005e-39 178 271 0 0 0 -0.73777 0.2801 -0.6142 0.0031722
-0.16804 -0.011432 1.2301 6.6381e-39 229 271 0 0 0 0.65883 0.20865 -0.72278 0.0056285
-0.16676 -0.011443 1.2313 6.7303e-39 230 271 0 0 0 0.66196 0.20803 -0.7201 0.0052202
-0.22006 -0.0085619 1.2313 5.8083e-39 481 271 0 0 0 -0.737 0.28543 -0.61267 0.0030297
-0.21895 -0.0095156 1.2305 6.2693e-39 401.67 271 0 0 0 -0.73386 0.28519 -0.61653 0.0031553
-0.1688 -0.009275 1.2304 6.8224e-39 290 271.5 0 0 0 0.65385 0.21106 -0.72659 0.0055075
-0.21697 -0.0071142 1.2301 6.3615e-39 279 272 0 0 0 -0.71701 0.30111 -0.62868 0.0031919
-0.16947 -0.0071142 1.2301 6.8225e-39 357 272 0 0 0 0.64803 0.21182 -0.73157 0.0056864
-0.21718 -0.0056808 1.2313 6.8225e-39 442 272 0 0 0 -0.71957 0.3016 -0.6255 0.0032385
-0.17235 -0.0049555 1.2301 6.9608e-39 373 272.5 0 0 0 0.63199 0.22114 -0.74276 0.0055505
-0.17091 -0.0049555 1.2301 6.8225e-39 374.5 272.5 0 0 0 0.63773 0.21603 -0.73934 0.0055387
-0.16964 -0.0049605 1.2313 6.7303e-39 375.5 272.5 0 0 0 0.64567 0.21078 -0.73395 0.005387
-0.17235 -0.0027969 1.2301 7.9288e-39 435 273 0 0 0 0.62779 0.21917 -0.74689 0.0056686
-0.17108 -0.0027997 1.2313 8.021e-39 436 273 0 0 0 0.6343 0.21576 -0.74237 0.0052772
-0.16964 -0.0027997 1.2313 7.7444e-39 437 273 0 0 0 0.63985 0.21219 -0.73862 0.0053298
-0.17235 -0.0013578 1.2301 6.7303e-39 213 274 0 0 0 0.62673 0.22051 -0.74738 0.0054624
-0.17108 -0.0013592 1.2313 6.6381e-39 223 274 0 0 0 0.63032 0.21706 -0.74537 0.0053265
-0.16964 -0.0013592 1.2313 7.0069e-39 224 274 0 0 0 0.63617 0.21389 -0.74131 0.0052746
-0.21574 0.0015219 1.2313 6.2693e-39 481 274 0 0 0 -0.69764 0.30926 -0.64626 0.0044297
-0.17235 0.00080084 1.2301 7.2374e-39 281.5 274.5 0 0 0 0.62403 0.21854 -0.75022 0.0053947
-0.17108 0.00080163 1.2313 7.6061e-39 282.5 274.5 0 0 0 0.62804 0.2206 -0.74626 0.0053829
-0.16964 0.00080163 1.2313 7.8366e-39 283.5 274.5 0 0 0 0.63336 0.21729 -0.74272 0.0053221
-0.21574 0.0029624 1.2313 6.7303e-39 287 275 0 0 0 -0.69674 0.30532 -0.6491 0.0046483
-0.17523 0.0029595 1.2301 6.5459e-39 358 275 0 0 0 0.60825 0.22496 -0.7612 0.0052921
-0.17315 0.002961 1.2307 6.2693e-39 359.5 275 0 0 0 0.6197 0.22148 -0.75294 0.0054129
-0.17108 0.0029624 1.2313 6.0849e-39 361 275 0 0 0 0.62719 0.21929 -0.74736 0.0056242
-0.16964 0.0029624 1.2313 6.5459e-39 362 275 0 0 0 0.63277 0.21696 -0.74332 0.0054192
-0.21409 0.0058377 1.2301 6.8225e-39 240 276 0 0 0 -0.67787 0.28756 -0.67661 0.00768
-0.21265 0.0058377 1.2301 6.9147e-39 241 276 0 0 0 -0.6613 0.29068 -0.69151 0.0087779
-0.17523 0.0051182 1.2301 6.9607e-39 376 275.5 0 0 0 0.60463 0.22464 -0.76417 0.0051908
-0.17343 0.0048817 1.2309 6.6996e-39 409.33 275.33 0 0 0 0.61834 0.22288 -0.75365 0.0053246
-0.21286 0.007284 1.2313 9.7727e-39 407 276 0 0 0 -0.67594 0.27788 -0.68256 0.0084272
-0.21121 0.0072768 1.2301 1.0049e-38 408 276 0 0 0 -0.6479 0.2806 -0.70816 0.010817
-0.17811 0.0072768 1.2301 7.56e-39 431 276 0 0 0 0.57419 0.2289 -0.78607 0.0060757
-0.17667 0.0072768 1.2301 7.0991e-39 432 276 0 0 0 0.59534 0.22426 -0.77155 0.0054219
-0.17541 0.007284 1.2313 6.7303e-39 433 276 0 0 0 0.60894 0.22559 -0.76046 0.0053078
-0.17397 0.007284 1.2313 6.6381e-39 434 276 0 0 0 0.61757 0.22359 -0.75407 0.0051326
-0.21142 0.0087246 1.2313 6.3615e-39 169 277 0 0 0 -0.65849 0.27306 -0.70131 0.010184
-0.20977 0.0087159 1.2301 6.4537e-39 170 277 0 0 0 -0.62379 0.27558 -0.7314 0.013402
-0.17829 0.0087246 1.2313 6.3615e-39 206 277 0 0 0 0.58132 0.23036 -0.78038 0.0061769
-0.17685 0.0087246 1.2313 6.7303e-39 207 277 0 0 0 0.59974 0.22872 -0.76681 0.0053662
-0.17541 0.0087246 1.2313 7.0069e-39 208 277 0 0 0 0.60939 0.22749 -0.75954 0.00528
-0.20998 0.010886 1.2313 6.7303e-39 418 277 0 0 0 -0.6455 0.26022 -0.71806 0.011825
-0.17829 0.010886 1.2313 5.1629e-39 470.5 277 0 0 0 0.57945 0.23538 -0.78027 0.0066048
-0.17685 0.010886 1.2313 5.3934e-39 471.5 277 0 0 0 0.6003 0.23522 -0.7644 0.0056695
-0.17541 0.010886 1.2313 5.4856e-39 472.5 277 0 0 0 0.60878 0.23464 -0.75785 0.0053849
-0.20833 0.013033 1.2301 6.6381e-39 277 278 0 0 0 -0.59758 0.2562 -0.75977 0.016707
-0.17829 0.013046 1.2313 5.8083e-39 298 278 0 0 0 0.58333 0.24412 -0.77468 0.0069098
-0.17685 0.013046 1.2313 5.9927e-39 299 278 0 0 0 0.60296 0.24238 -0.76006 0.0057739
-0.17541 0.013046 1.2313 6.1771e-39 300 278 0 0 0 0.60834 0.24048 -0.75637 0.0054955
-0.20843 0.0152 1.2307 6.7303e-39 320 278.5 0 0 0 -0.60087 0.24994 -0.75927 0.016117
-0.17871 0.015442 1.2309 6.5459e-39 312.33 278.67 0 0 0 0.57894 0.24785 -0.77679 0.0079779
-0.17685 0.015207 1.2313 6.4998e-39 349 278.5 0 0 0 0.59944 0.24809 -0.76101 0.0063019
-0.20854 0.017368 1.2313 9.5883e-39 389 279 0 0 0 -0.61112 0.24073 -0.75404 0.015116
-0.17955 0.017351 1.2301 8.8508e-39 409 279 0 0 0 0.56742 0.24912 -0.78484 0.010142
-0.20854 0.018808 1.2313 2.2127e-39 556 279 0 0 0 -0.60946 0.2393 -0.75584 0.015202
-0.17955 0.01879 1.2301 6.3615e-39 170 280 0 0 0 0.57215 0.25184 -0.78052 0.010223
-0.20902 0.021209 1.2313 6.3615e-39 393.33 280 0 0 0 -0.61886 0.23555 -0.74936 0.014473
-0.18099 0.020948 1.2301 6.3154e-39 387 280 0 0 0 0.55828 0.24885 -0.79146 0.013119
-0.17973 0.020969 1.2313 6.7303e-39 405 280 0 0 0 0.58341 0.25426 -0.77135 0.0097355
-0.20854 0.02313 1.2313 6.8225e-39 223 281 0 0 0 -0.60139 0.23974 -0.76214 0.014732
-0.20689 0.023107 1.2301 6.8225e-39 224 281 0 0 0 -0.54486 0.2426 -0.80267 0.017052
-0.18243 0.023107 1.2301 6.1771e-39 241 281 0 0 0 0.52009 0.25265 -0.81589 0.018016
-0.18099 0.023107 1.2301 6.2693e-39 242 281 0 0 0 0.56122 0.24914 -0.78927 0.013909
-0.17973 0.02313 1.2313 6.3615e-39 243 281 0 0 0 0.58808 0.24967 -0.76931 0.0099188
-0.20854 0.02457 1.2313 9.404e-39 385 281 0 0 0 -0.59853 0.24256 -0.7635 0.01455
-0.20689 0.025265 1.2301 7.7444e-39 272 281.5 0 0 0 -0.5468 0.24702 -0.79999 0.01752
-0.18243 0.024546 1.2301 9.0352e-39 403 281 0 0 0 0.51649 0.25746 -0.81667 0.018391
-0.18117 0.02457 1.2313 8.8508e-39 404 281 0 0 0 0.56757 0.2508 -0.7842 0.013244
-0.20854 0.026011 1.2313 6.7303e-39 157 282 0 0 0 -0.59575 0.2453 -0.76479 0.01533
-0.2071 0.027452 1.2313 5.9005e-39 278 282 0 0 0 -0.55591 0.25255 -0.79195 0.017276
-0.20545 0.027424 1.2301 6.1771e-39 279 282 0 0 0 -0.49812 0.26395 -0.82596 0.021064
-0.18243 0.027424 1.2301 5.9005e-39 295 282 0 0 0 0.51522 0.27439 -0.81195 0.017697
-0.18117 0.026731 1.2313 5.8083e-39 237 282 0 0 0 0.56138 0.26269 -0.78476 0.013585
-0.2071 0.028892 1.2313 7.2835e-39 428 282 0 0 0 -0.54607 0.26319 -0.79533 0.018515
-0.20473 0.028863 1.2301 6.9608e-39 429.5 282 0 0 0 -0.46052 0.28149 -0.84184 0.023668
-0.18324 0.028878 1.2307 6.6842e-39 454.5 282 0 0 0 0.49727 0.29125 -0.81725 0.019451
-0.20494 0.030333 1.2313 6.4998e-39 197.5 283 0 0 0 -0.47434 0.29557 -0.82924 0.022277
-0.20257 0.031022 1.2301 6.1771e-39 269 283 0 0 0 -0.3626 0.31869 -0.87576 0.024341
-0.18674 0.031742 1.2301 6.5459e-39 361 283 0 0 0 0.3728 0.32731 -0.86827 0.031693
-0.1853 0.031742 1.2301 6.6381e-39 364 283 0 0 0 0.42553 0.32142 -0.84594 0.026442
-0.18387 0.031022 1.2301 6.9146e-39 289 283 0 0 0 0.47683 0.3096 -0.82266 0.021162
-0.20278 0.033214 1.2313 6.8225e-39 457 283 0 0 0 -0.38091 0.33104 -0.86332 0.022387
-0.18674 0.033181 1.2301 6.2693e-39 468 283 0 0 0 0.36843 0.34462 -0.86342 0.03187
-0.1853 0.033181 1.2301 6.4537e-39 469 283 0 0 0 0.42617 0.33495 -0.84035 0.025323
-0.18387 0.033181 1.2301 6.9147e-39 470 283 0 0 0 0.46354 0.32971 -0.82245 0.021015
-0.20278 0.034654 1.2313 7.4678e-39 212 284 0 0 0 -0.37176 0.34499 -0.86185 0.021974
-0.20113 0.03462 1.2301 7.56e-39 213 284 0 0 0 -0.30104 0.36003 -0.88304 0.02701
-0.1889 0.03462 1.2301 6.2232e-39 221.5 284 0 0 0 0.28027 0.37313 -0.88443 0.038095
-0.18674 0.03462 1.2301 6.7303e-39 223 284 0 0 0 0.37018 0.35795 -0.85723 0.030568
-0.18467 0.034637 1.2307 6.6381e-39 224.5 284 0 0 0 0.44667 0.35016 -0.82333 0.021393
-0.20123 0.036797 1.2307 6.9147e-39 408.5 284 0 0 0 -0.30125 0.37581 -0.87637 0.026106
-0.1997 0.036779 1.2301 7.053e-39 409.5 284 0 0 0 -0.23013 0.38944 -0.89184 0.027406
-0.1889 0.036778 1.2301 6.8455e-39 417 284 0 0 0 0.2713 0.40209 -0.87448 0.036247
-0.18674 0.036779 1.2301 6.9146e-39 418.5 284 0 0 0 0.35284 0.38218 -0.85408 0.030156
-0.18472 0.036806 1.231 7.2835e-39 420 284 0 0 0 0.43607 0.36973 -0.82045 0.021747
-0.20134 0.038976 1.2313 6.1771e-39 205 285 0 0 0 -0.29274 0.39331 -0.87156 0.024866
-0.19989 0.038976 1.2313 6.1771e-39 206 285 0 0 0 -0.22812 0.40273 -0.88644 0.026326
-0.189 0.038957 1.2307 7.3296e-39 213.5 285 0 0 0 0.26447 0.42463 -0.86588 0.036966
-0.18693 0.038976 1.2313 6.4537e-39 215 285 0 0 0 0.35001 0.406 -0.84419 0.028832
-0.18549 0.038976 1.2313 6.1771e-39 216 285 0 0 0 0.40214 0.39381 -0.82656 0.022136
-0.19835 0.041116 1.2307 7.7444e-39 345 285 0 0 0 -0.16742 0.42802 -0.88813 0.032527
-0.19682 0.041815 1.2301 9.2196e-39 400 285 0 0 0 -0.11081 0.44363 -0.88933 0.033577
-0.19548 0.041116 1.2307 7.6522e-39 348 285 0 0 0 -0.043269 0.44648 -0.89374 0.039683
-0.19327 0.041106 1.2304 7.7445e-39 349.75 285 0 0 0 0.05883 0.45286 -0.88964 0.041757
-0.19116 0.041116 1.2307 7.6983e-39 351.5 285 0 0 0 0.15152 0.45006 -0.88005 0.040082
-0.18909 0.040416 1.2313 5.9927e-39 300.5 285 0 0 0 0.26054 0.43594 -0.86144 0.036821
-0.18693 0.040416 1.2313 5.7161e-39 302 285 0 0 0 0.34464 0.42084 -0.83912 0.029569
-0.18549 0.040416 1.2313 5.9927e-39 303 285 0 0 0 0.39843 0.40689 -0.82201 0.021804
-0.19701 0.043297 1.2313 5.8083e-39 468 285 0 0 0 -0.099163 0.46031 -0.8822 0.035139
-0.19485 0.043297 1.2313 6.3615e-39 469.5 285 0 0 0 -0.0097804 0.47628 -0.87924 0.041218
-0.20298 -0.060482 1.2325 4.241e-39 156 254 0 0 0 -0.062101 -0.92528 -0.37417 0.010703
-0.20092 -0.060512 1.2331 4.241e-39 157.5 254 0 0 0 -0.031068 -0.92787 -0.3716 0.0098214
-0.20875 -0.05904 1.2325 7.8366e-39 444 254 0 0 0 -0.157 -0.89057 -0.42689 0.01047
-0.19308 -0.059099 1.2337 8.2054e-39 479 254 0 0 0 0.081552 -0.92348 -0.37487 0.0042952
-0.19082 -0.057627 1.2331 6.4076e-39 346.5 255 0 0 0 0.11034 -0.91727 -0.38267 0.0032388
-0.18856 -0.057598 1.2325 6.4537e-39 349 255 0 0 0 0.12392 -0.91307 -0.38853 0.0028097
-0.1873 -0.057655 1.2337 6.9147e-39 350 255 0 0 0 0.12927 -0.91041 -0.39299 0.0026109
-0.18505 -0.057627 1.2331 6.6381e-39 356.5 255 0 0 0 0.12648 -0.90868 -0.39787 0.0030785
-0.18279 -0.057598 1.2325 6.4537e-39 363 255 0 0 0 0.13811 -0.89684 -0.42024 0.0054964
-0.17846 -0.056156 1.2325 6.5459e-39 208 256 0 0 0 0.14808 -0.85772 -0.49232 0.018671
-0.17414 -0.056156 1.2325 6.8225e-39 211 256 0 0 0 0.14354 -0.81893 -0.55565 0.028979
-0.16484 -0.056906 1.2331 7.3757e-39 309 255.5 0 0 0 0.25084 -0.70002 -0.66862 0.048214
-0.16269 -0.056906 1.2331 7.4679e-39 311.5 255.5 0 0 0 0.30026 -0.66306 -0.68571 0.053298
-0.16124 -0.056906 1.2331 7.6983e-39 316 255.5 0 0 0 0.33348 -0.62232 -0.70817 0.055144
-0.15908 -0.056184 1.2331 7.2835e-39 221.5 256 0 0 0 0.38868 -0.55868 -0.73267 0.056396
-0.22772 -0.054768 1.2337 7.4678e-39 395 256 0 0 0 -0.53376 -0.57409 -0.6209 0.044248
-0.22317 -0.054714 1.2325 7.0991e-39 398 256 0 0 0 -0.47397 -0.63324 -0.61186 0.039797
-0.2205 -0.054768 1.2337 7.4678e-39 400 256 0 0 0 -0.42043 -0.68023 -0.60044 0.033091
-0.21617 -0.054768 1.2337 7.9288e-39 412 256 0 0 0 -0.3557 -0.74917 -0.55877 0.025673
-0.15684 -0.054714 1.2325 6.6381e-39 541 256 0 0 0 0.48202 -0.43287 -0.76176 0.058837
-0.15474 -0.054741 1.2331 5.5318e-39 542.5 256 0 0 0 0.51914 -0.36721 -0.77179 0.056483
-0.15251 -0.053272 1.2325 6.4537e-39 346 257 0 0 0 0.564 -0.26644 -0.78161 0.049796
-0.15122 -0.053325 1.2337 6.3615e-39 347 257 0 0 0 0.55635 -0.24263 -0.79474 0.051834
-0.23061 -0.051881 1.2337 9.0352e-39 446 257 0 0 0 -0.6557 -0.43031 -0.62039 0.051092
-0.22893 -0.051109 1.2325 7.8366e-39 342.5 257.5 0 0 0 -0.67092 -0.41659 -0.61345 0.051478
-0.15251 -0.051109 1.2325 5.4396e-39 286 258 0 0 0 0.59059 -0.20356 -0.78088 0.047693
-0.15114 -0.051134 1.2331 5.4856e-39 287 258 0 0 0 0.59976 -0.1587 -0.78429 0.044713
-0.23061 -0.048995 1.2337 4.8864e-39 544 258 0 0 0 -0.72877 -0.31288 -0.60909 0.049863
-0.22893 -0.048946 1.2325 4.6098e-39 545 258 0 0 0 -0.71849 -0.33809 -0.60785 0.053152
-0.1533 -0.04897 1.2331 5.5778e-39 196.5 259 0 0 0 0.6132 -0.10971 -0.78227 0.04247
-0.15122 -0.048995 1.2337 5.8083e-39 198 259 0 0 0 0.61646 -0.070531 -0.78422 0.039332
-0.23061 -0.046829 1.2337 6.2232e-39 210 259.5 0 0 0 -0.76876 -0.22303 -0.59939 0.044642
-0.1533 -0.046806 1.2331 7.9519e-39 318.5 259.5 0 0 0 0.63982 -0.035227 -0.76772 0.035162
-0.1533 -0.044642 1.2331 8.9891e-39 439.5 260 0 0 0 0.65059 0.025057 -0.75902 0.027311
-0.15474 -0.0432 1.2331 7.1913e-39 221.5 261 0 0 0 0.65479 0.057374 -0.75363 0.024107
-0.15266 -0.043221 1.2337 7.3757e-39 223 261 0 0 0 0.65546 0.072567 -0.75174 0.021275
-0.22905 -0.041035 1.2331 4.9325e-39 273.5 261.5 0 0 0 -0.80371 -0.044723 -0.59334 0.026264
-0.15684 -0.040294 1.2325 7.8366e-39 224 262 0 0 0 0.64824 0.13003 -0.75025 0.016665
-0.15501 -0.041283 1.2333 8.9122e-39 370 261.33 0 0 0 0.66177 0.10771 -0.74193 0.01802
-0.15699 -0.038891 1.2337 9.0352e-39 443 262 0 0 0 0.65339 0.15937 -0.74005 0.013428
-0.15555 -0.038891 1.2337 8.6664e-39 444 262 0 0 0 0.66449 0.16924 -0.72788 0.011247
-0.15699 -0.037447 1.2337 7.0991e-39 216 263 0 0 0 0.65421 0.20164 -0.72894 0.0086308
-0.22749 -0.035247 1.2325 5.7622e-39 461 263 0 0 0 -0.81493 0.1139 -0.56826 0.004939
-0.15836 -0.035264 1.2331 8.4359e-39 317.5 263.5 0 0 0 0.64866 0.22913 -0.72577 0.0070235
-0.22749 -0.033084 1.2325 6.7303e-39 291 264 0 0 0 -0.81283 0.15543 -0.56138 0.0017135
-0.22772 -0.031674 1.2337 7.1913e-39 478 264 0 0 0 -0.81323 0.16667 -0.55756 0.0013767
-0.15972 -0.0302 1.2325 8.021e-39 383 265 0 0 0 0.64903 0.25352 -0.71728 0.0057284
-0.16116 -0.028758 1.2325 3.78e-39 548 265 0 0 0 0.64807 0.25004 -0.71937 0.006124
-0.15972 -0.028758 1.2325 3.8722e-39 549 265 0 0 0 0.6519 0.2535 -0.71468 0.0056273
-0.22605 -0.027316 1.2325 7.2835e-39 226 266 0 0 0 -0.80871 0.19129 -0.55624 0.0013946
-0.16116 -0.027316 1.2325 7.0069e-39 285 266 0 0 0 0.65052 0.24904 -0.7175 0.0060183
-0.15988 -0.027343 1.2337 7.0069e-39 286 266 0 0 0 0.65606 0.25291 -0.71107 0.0051653
-0.22616 -0.025166 1.2331 7.56e-39 298.5 266.5 0 0 0 -0.8074 0.20129 -0.5546 0.001377
-0.16132 -0.025178 1.2337 7.0991e-39 348 266.5 0 0 0 0.65645 0.25102 -0.71138 0.0052699
-0.1626 -0.02299 1.2325 9.7727e-39 414 267 0 0 0 0.65832 0.24391 -0.71212 0.005538
-0.22472 -0.020837 1.2331 7.0068e-39 383 267.5 0 0 0 -0.79507 0.22842 -0.56186 0.0019098
-0.16412 -0.020837 1.2331 7.0529e-39 284.5 268 0 0 0 0.66109 0.23754 -0.71172 0.0051825
-0.16277 -0.02157 1.2337 7.9288e-39 195 268 0 0 0 0.6618 0.24119 -0.70982 0.0050224
-0.16485 -0.018674 1.2331 5.9928e-39 545.5 268 0 0 0 0.66327 0.23157 -0.71165 0.005216
-0.16485 -0.01723 1.2331 6.131e-39 292.5 269 0 0 0 0.66642 0.22458 -0.71094 0.0050587
-0.22317 -0.015059 1.2325 8.8046e-39 309 269.5 0 0 0 -0.7777 0.25012 -0.57673 0.0021721
-0.16557 -0.015066 1.2331 6.9147e-39 367.5 269.5 0 0 0 0.66536 0.21488 -0.71493 0.005222
-0.22339 -0.012909 1.2337 7.0991e-39 389 270 0 0 0 -0.7773 0.25281 -0.57609 0.0021592
-0.16565 -0.012909 1.2337 9.3118e-39 437 270 0 0 0 0.66478 0.20529 -0.71828 0.0052108
-0.22172 -0.010733 1.2325 5.9927e-39 268.5 271 0 0 0 -0.76109 0.26649 -0.59138 0.0024958
-0.16693 -0.010012 1.2325 7.7444e-39 400 271 0 0 0 0.66004 0.20443 -0.72288 0.0050261
-0.16565 -0.011466 1.2337 6.9147e-39 231 271 0 0 0 0.66425 0.2022 -0.71964 0.0050715
-0.22195 -0.008579 1.2337 6.3615e-39 480 271 0 0 0 -0.76152 0.27214 -0.58824 0.0022819
-0.1671 -0.008579 1.2337 6.7303e-39 183 272 0 0 0 0.65828 0.19911 -0.72596 0.0051191
-0.2205 -0.0071356 1.2337 6.2693e-39 277 272 0 0 0 -0.74545 0.28394 -0.60306 0.0029057
-0.21884 -0.0071284 1.2325 6.2693e-39 278 272 0 0 0 -0.73337 0.29049 -0.61464 0.0029383
-0.16837 -0.0071284 1.2325 6.6381e-39 358 272 0 0 0 0.65223 0.20438 -0.72995 0.0053082
-0.21906 -0.0056921 1.2337 7.3757e-39 441 272 0 0 0 -0.73507 0.29241 -0.6117 0.0028719
-0.2174 -0.0042445 1.2325 6.2693e-39 230 273 0 0 0 -0.72117 0.304 -0.6225 0.0031072
-0.16854 -0.0049704 1.2337 6.6842e-39 376.5 272.5 0 0 0 0.6471 0.20595 -0.73406 0.0053692
-0.2174 -0.0028025 1.2325 7.2835e-39 396 273 0 0 0 -0.71916 0.30509 -0.62429 0.0029759
-0.16854 -0.0028053 1.2337 7.7444e-39 438 273 0 0 0 0.64447 0.20668 -0.73617 0.0053026
-0.2174 -0.0013605 1.2325 5.9005e-39 173 274 0 0 0 -0.71511 0.30864 -0.62718 0.0031888
-0.16854 -0.0013619 1.2337 6.5459e-39 227 274 0 0 0 0.64057 0.20868 -0.739 0.005353
-0.21762 8.1514e-05 1.2337 6.1771e-39 361 274 0 0 0 -0.71913 0.3033 -0.62519 0.0029253
-0.21617 0.0058552 1.2337 6.8225e-39 239 276 0 0 0 -0.71317 0.28234 -0.64162 0.0047152
-0.21596 0.0044074 1.2325 6.1771e-39 443 275 0 0 0 -0.70505 0.29228 -0.64613 0.0046136
-0.1727 0.0058493 1.2325 6.4537e-39 282 276 0 0 0 0.62537 0.2253 -0.74709 0.005239
-0.17125 0.0051284 1.2325 6.7303e-39 379 275.5 0 0 0 0.62843 0.22368 -0.74502 0.005216
-0.16989 0.0051313 1.2331 6.6381e-39 380 275.5 0 0 0 0.63335 0.22348 -0.74089 0.0051735
-0.21451 0.0072913 1.2325 9.404e-39 406 276 0 0 0 -0.70036 0.27395 -0.65912 0.0064787
-0.17287 0.0072986 1.2337 6.4537e-39 435 276 0 0 0 0.62682 0.22582 -0.74572 0.0052877
-0.17143 0.0072986 1.2337 6.3615e-39 436 276 0 0 0 0.63174 0.22671 -0.74129 0.0051412
-0.21473 0.008742 1.2337 6.4537e-39 167 277 0 0 0 -0.71078 0.26463 -0.65174 0.0060246
-0.21307 0.0087333 1.2325 6.0849e-39 168 277 0 0 0 -0.68701 0.26811 -0.67538 0.0080282
-0.17414 0.0087333 1.2325 7.1913e-39 209 277 0 0 0 0.62114 0.22727 -0.75002 0.0051566
-0.17287 0.008742 1.2337 7.1913e-39 210 277 0 0 0 0.62751 0.22886 -0.74422 0.004994
-0.21317 0.010902 1.2331 6.8224e-39 416 277 0 0 0 -0.69601 0.25211 -0.67232 0.0076312
-0.21163 0.010896 1.2325 6.8686e-39 417 277 0 0 0 -0.67715 0.25612 -0.68983 0.0093338
-0.17414 0.010896 1.2325 5.4856e-39 473.5 277 0 0 0 0.61983 0.23485 -0.74877 0.0049882
-0.21102 0.013066 1.2331 5.9005e-39 275.5 278 0 0 0 -0.67265 0.24584 -0.69793 0.0095911
-0.17431 0.013072 1.2337 6.0849e-39 301 278 0 0 0 0.62459 0.24416 -0.7418 0.0044744
-0.21102 0.01523 1.2331 6.4768e-39 318.5 278.5 0 0 0 -0.66834 0.24079 -0.7038 0.009573
-0.17516 0.014987 1.2329 6.6381e-39 385.67 278.33 0 0 0 0.61744 0.25134 -0.74539 0.0048397
-0.21102 0.017394 1.2331 9.1735e-39 387.5 279 0 0 0 -0.66926 0.23572 -0.70464 0.0093328
-0.17846 0.017385 1.2325 9.6805e-39 411 279 0 0 0 0.59585 0.253 -0.76221 0.0068917
-0.17702 0.017385 1.2325 9.9571e-39 412 279 0 0 0 0.60806 0.25562 -0.75161 0.005947
-0.17576 0.017403 1.2337 1.0142e-38 413 279 0 0 0 0.61661 0.25885 -0.7435 0.0049648
-0.21102 0.018837 1.2331 2.2588e-39 554.5 279 0 0 0 -0.67035 0.2306 -0.70531 0.0092027
-0.17846 0.018827 1.2325 5.9927e-39 171 280 0 0 0 0.59827 0.25653 -0.75912 0.0071647
-0.17702 0.018827 1.2325 5.6239e-39 172 280 0 0 0 0.60714 0.25895 -0.75121 0.0060704
-0.17576 0.018846 1.2337 6.0849e-39 173 280 0 0 0 0.61695 0.25917 -0.7431 0.0050068
-0.21129 0.020764 1.2333 6.4844e-39 336.33 280 0 0 0 -0.6728 0.22979 -0.70323 0.0087968
-0.17846 0.02099 1.2325 6.9146e-39 409 280 0 0 0 0.59834 0.25446 -0.75976 0.0077536
-0.17711 0.021001 1.2331 6.8224e-39 410 280 0 0 0 0.61003 0.25618 -0.74982 0.0061133
-0.21019 0.023153 1.2325 6.8225e-39 222 281 0 0 0 -0.64498 0.2323 -0.72804 0.011677
-0.17864 0.023176 1.2337 6.5459e-39 244 281 0 0 0 0.60891 0.24857 -0.75328 0.0069729
-0.1772 0.023176 1.2337 6.6381e-39 245 281 0 0 0 0.61347 0.24924 -0.74936 0.0061671
-0.21019 0.024595 1.2325 9.7727e-39 384 281 0 0 0 -0.64413 0.23535 -0.72781 0.011281
-0.17928 0.024608 1.2331 8.8047e-39 405.5 281 0 0 0 0.59733 0.24857 -0.76251 0.0082532
-0.1772 0.02462 1.2337 9.5883e-39 411 281 0 0 0 0.61409 0.24876 -0.74901 0.0062315
-0.21029 0.026772 1.2331 6.0849e-39 216 282 0 0 0 -0.65034 0.23514 -0.72234 0.010002
-0.20875 0.027479 1.2325 5.8083e-39 277 282 0 0 0 -0.61157 0.24648 -0.75182 0.013524
-0.18009 0.027506 1.2337 6.0849e-39 299 282 0 0 0 0.59212 0.26368 -0.76149 0.0089602
-0.17928 0.02605 1.2331 6.0388e-39 178.5 282 0 0 0 0.59706 0.25452 -0.76075 0.008237
-0.1772 0.026063 1.2337 6.3615e-39 180 282 0 0 0 0.61673 0.25142 -0.74595 0.006114
-0.20895 0.02895 1.2337 7.56e-39 427 282 0 0 0 -0.61981 0.24297 -0.74619 0.012279
-0.18135 0.028921 1.2325 6.6381e-39 456 282 0 0 0 0.56007 0.28187 -0.77902 0.012732
-0.20895 0.030393 1.2337 7.0991e-39 192 283 0 0 0 -0.61585 0.25359 -0.74593 0.012065
-0.20741 0.0311 1.2331 6.0388e-39 248.5 283 0 0 0 -0.57111 0.27112 -0.77481 0.01557
-0.20514 0.031805 1.2325 5.67e-39 302.5 283 0 0 0 -0.49339 0.29998 -0.81644 0.020998
-0.18279 0.031084 1.2325 6.6842e-39 290 283 0 0 0 0.52106 0.30624 -0.79669 0.016189
-0.18153 0.031115 1.2337 6.4537e-39 291 283 0 0 0 0.5599 0.29754 -0.77329 0.011541
-0.20607 0.03328 1.2337 6.7303e-39 455 283 0 0 0 -0.52305 0.30136 -0.79725 0.018727
-0.20462 0.03328 1.2337 6.9147e-39 456 283 0 0 0 -0.48725 0.31233 -0.8155 0.022118
-0.18279 0.033247 1.2325 7.1913e-39 471 283 0 0 0 0.51486 0.3246 -0.79344 0.0157
-0.18153 0.03328 1.2337 7.2835e-39 472 283 0 0 0 0.54886 0.31201 -0.7755 0.012235
-0.18279 0.034689 1.2325 6.2693e-39 226 284 0 0 0 0.50822 0.33107 -0.79505 0.015186
