# .PCD v.7 - Point Cloud Data file format
VERSION .7
FIELDS x y z rgb u v vx vy vz normal_x normal_y normal_z curvature
SIZE 4 4 4 4 4 4 4 4 4 4 4 4 4
TYPE F F F F F F F F F F F F F
COUNT 1 1 1 1 1 1 1 1 1 1 1 1 1
WIDTH 548
HEIGHT 1
VIEWPOINT 0 0 0 1 0 0 0
POINTS 548
DATA ascii
0.02158 0.022608 1.0702 7.6522e-39 249 263 0 0 0 0.1423 -0.38031 -0.91385 0.041664
0.029092 0.023234 1.0702 9.0812e-39 314.5 263 0 0 0 -0.10121 -0.42361 -0.90017 0.035751
0.031188 0.023032 1.0705 9.3121e-39 296.33 263 0 0 0 -0.16126 -0.42773 -0.88941 0.036688
0.032849 0.023234 1.0702 8.8045e-39 317.5 263 0 0 0 -0.2146 -0.415 -0.88415 0.03555
0.034742 0.023244 1.0706 8.5742e-39 319 263 0 0 0 -0.28208 -0.39057 -0.87629 0.031647
0.036605 0.022608 1.0702 9.2196e-39 261 263 0 0 0 -0.34145 -0.37967 -0.85981 0.029264
-0.019737 0.025112 1.0702 7.4678e-39 403 263 0 0 0 0.57146 0.00031872 -0.82063 0.095546
-0.0022106 0.025133 1.0711 8.2976e-39 417 263 0 0 0 -0.26852 -0.10267 -0.95779 0.065751
-0.00095752 0.025133 1.0711 8.2976e-39 418 263 0 0 0 -0.24476 -0.13049 -0.96076 0.060948
0.029092 0.025112 1.0702 7.0991e-39 453 263 0 0 0 -0.078574 -0.41567 -0.90612 0.037722
0.031596 0.025112 1.0702 7.0069e-39 455 263 0 0 0 -0.15724 -0.43846 -0.88489 0.038143
0.032849 0.025112 1.0702 7.56e-39 456 263 0 0 0 -0.2111 -0.42051 -0.88239 0.036001
0.034101 0.025112 1.0702 7.56e-39 457 263 0 0 0 -0.23643 -0.42762 -0.87249 0.036449
-0.0022106 0.027013 1.0711 8.1594e-39 220 264 0 0 0 -0.29878 -0.016514 -0.95418 0.059927
-0.00095669 0.02699 1.0702 8.2977e-39 222.5 264 0 0 0 -0.27345 -0.035093 -0.96125 0.054071
0.031596 0.026364 1.0702 7.4678e-39 225 264 0 0 0 -0.15117 -0.43811 -0.88612 0.038314
0.032849 0.026364 1.0702 7.0991e-39 228 264 0 0 0 -0.1963 -0.4236 -0.88432 0.036506
0.014694 0.083958 1.0702 7.0991e-39 232.5 270 0 0 0 0.51273 0.55512 -0.65494 0.039095
0.012827 0.085284 1.0711 7.0069e-39 240 270 0 0 0 0.55703 0.51025 -0.65526 0.037833
0.014706 0.085284 1.0711 6.7303e-39 241.5 270 0 0 0 0.5593 0.50919 -0.65415 0.040085
0.0073925 0.086905 1.0705 6.6381e-39 247.67 270 0 0 0 0.59425 0.47389 -0.64984 0.033675
0.01115 0.087322 1.0705 6.9761e-39 253.67 270 0 0 0 0.56989 0.47448 -0.67089 0.040709
0.0090597 0.088966 1.0702 9.7727e-39 265 270 0 0 0 0.58612 0.42778 -0.68809 0.041409
0.010943 0.089005 1.0706 9.6805e-39 266.5 270 0 0 0 0.58071 0.42204 -0.69617 0.045395
0.0090675 0.090923 1.0711 7.9288e-39 281.5 270 0 0 0 0.5498 0.39967 -0.73347 0.049603
0.010321 0.090923 1.0711 7.9749e-39 282.5 270 0 0 0 0.55101 0.39799 -0.73348 0.048908
-0.018533 -0.013737 1.073 9.404e-39 361 247 0 0 0 0.20098 -0.057536 -0.9779 0.098723
-0.0059804 -0.012482 1.073 4.0566e-39 454 247 0 0 0 -0.25561 0.5537 -0.79252 0.10189
0.029168 -0.012482 1.073 9.6805e-39 374 248 0 0 0 -0.12386 0.15841 -0.97957 0.042937
0.037955 -0.012482 1.073 7.0991e-39 420 248 0 0 0 -0.25841 0.05202 -0.96463 0.031551
-0.0053533 -0.011227 1.073 7.0991e-39 433.5 248 0 0 0 -0.25951 0.48901 -0.83278 0.11087
-0.0022145 -0.011227 1.073 6.7303e-39 436 248 0 0 0 -0.35021 0.51952 -0.77939 0.11342
0.020363 -0.011217 1.072 6.9147e-39 451 248 0 0 0 0.12421 0.44147 -0.88864 0.071609
0.022872 -0.011217 1.072 6.7303e-39 453 248 0 0 0 -0.018652 0.2981 -0.95435 0.069248
0.024753 -0.011217 1.072 5.7162e-39 454.5 248 0 0 0 -0.06893 0.2369 -0.96909 0.058125
0.027274 -0.011222 1.0725 3.9183e-39 456.5 248 0 0 0 -0.11865 0.18428 -0.97569 0.048316
0.029194 -0.011237 1.0739 3.2268e-39 458 248 0 0 0 -0.14005 0.14992 -0.97873 0.04072
0.037988 -0.011237 1.0739 6.4537e-39 275 249 0 0 0 -0.26322 0.027795 -0.96434 0.030278
-0.036139 -0.0087238 1.0739 7.8366e-39 407 249 0 0 0 0.17763 -0.76283 -0.62172 0.035621
-0.03106 -0.0087087 1.072 7.8366e-39 409 249 0 0 0 0.28805 -0.66979 -0.6844 0.040147
-0.02481 -0.0087163 1.073 7.4678e-39 410 249 0 0 0 0.28591 -0.53054 -0.79798 0.046489
-0.0047272 -0.0093477 1.0734 8.6666e-39 396 249 0 0 0 -0.28984 0.38567 -0.87593 0.12272
-0.003052 -0.0095556 1.0733 8.9431e-39 388 249 0 0 0 -0.33717 0.4164 -0.84435 0.12016
-0.00095918 -0.0087163 1.073 6.9147e-39 427 249 0 0 0 -0.39641 0.41884 -0.81697 0.13134
0.010339 -0.0087163 1.073 8.5742e-39 440 249 0 0 0 0.04397 0.6072 -0.79333 0.10304
0.01286 -0.0099802 1.0739 7.6522e-39 382 249 0 0 0 0.058445 0.61324 -0.78774 0.08065
0.021646 -0.0093477 1.0734 8.2054e-39 414 249 0 0 0 0.0090848 0.24681 -0.96902 0.065705
0.022902 -0.0093477 1.0734 8.2515e-39 416 249 0 0 0 -0.060201 0.1874 -0.98044 0.054707
0.025005 -0.0095614 1.0739 7.8059e-39 409.33 249 0 0 0 -0.10892 0.16126 -0.98088 0.046107
0.027297 -0.009348 1.0734 7.8366e-39 420.5 249 0 0 0 -0.13876 0.1372 -0.98078 0.042704
0.041703 -0.0093396 1.0725 5.9466e-39 430.5 249 0 0 0 -0.33202 -0.046342 -0.94213 0.033553
0.042939 -0.0087087 1.072 8.2976e-39 265 250 0 0 0 -0.37925 -0.065897 -0.92294 0.034536
-0.039246 -0.0062056 1.073 7.1913e-39 421.5 250 0 0 0 0.16916 -0.80662 -0.56634 0.027289
-0.037331 -0.0062003 1.072 7.4678e-39 423 250 0 0 0 0.21315 -0.75625 -0.61859 0.030449
-0.034852 -0.007461 1.073 6.1771e-39 275 250 0 0 0 0.22413 -0.7229 -0.65359 0.036701
-0.032941 -0.0068274 1.072 7.0991e-39 390.5 250 0 0 0 0.27181 -0.68805 -0.67284 0.037025
-0.02481 -0.0068333 1.073 9.035e-39 397.5 250 0 0 0 0.30978 -0.50117 -0.808 0.043923
-0.023575 -0.006211 1.0739 8.1132e-39 438 250 0 0 0 0.30873 -0.4812 -0.82044 0.045107
-0.00096001 -0.0074674 1.0739 9.7727e-39 376 250 0 0 0 -0.37096 0.37497 -0.84958 0.1295
0.00092364 -0.006203 1.0725 6.9147e-39 456.5 250 0 0 0 -0.46172 0.34194 -0.81847 0.15981
0.027297 -0.0068362 1.0734 8.482e-39 327.5 250.5 0 0 0 -0.15502 0.069395 -0.98547 0.037282
0.029194 -0.0068392 1.0739 8.4359e-39 329 250.5 0 0 0 -0.1837 0.037844 -0.98225 0.03078
0.031071 -0.0068378 1.0737 8.0441e-39 330.5 250.5 0 0 0 -0.23018 0.0026217 -0.97315 0.025196
0.032963 -0.0068392 1.0739 7.2374e-39 332 250.5 0 0 0 -0.2614 -0.016595 -0.96509 0.023694
0.034638 -0.0066298 1.0739 7.0684e-39 312 250.67 0 0 0 -0.28185 -0.022182 -0.9592 0.02477
0.037988 -0.0068392 1.0739 6.8225e-39 336 250.5 0 0 0 -0.30063 -0.036138 -0.95305 0.026594
0.039245 -0.006211 1.0739 6.3615e-39 273 251 0 0 0 -0.3145 -0.063761 -0.94711 0.026237
0.041314 -0.0066259 1.0733 6.7303e-39 317.33 250.67 0 0 0 -0.33926 -0.075245 -0.93768 0.030341
0.042958 -0.0068301 1.0725 7.0069e-39 340 250.5 0 0 0 -0.38971 -0.097971 -0.91571 0.032641
0.04484 -0.0068304 1.0725 6.9608e-39 342 250.5 0 0 0 -0.43965 -0.10221 -0.89233 0.034461
0.047956 -0.0062003 1.072 8.5742e-39 355 251 0 0 0 -0.51838 -0.12518 -0.84594 0.027977
-0.042993 -0.0049481 1.0725 9.404e-39 368.5 251 0 0 0 0.080752 -0.82824 -0.55453 0.027784
-0.041129 -0.0049503 1.073 9.3118e-39 370 251 0 0 0 0.13651 -0.81691 -0.56037 0.028842
-0.02481 -0.0049503 1.073 7.0069e-39 383 251 0 0 0 0.34652 -0.5031 -0.79172 0.038398
-0.022947 -0.0049546 1.0739 6.9608e-39 384.5 251 0 0 0 0.3238 -0.43623 -0.83956 0.043025
0.00092377 -0.0049503 1.073 7.6522e-39 403.5 251 0 0 0 -0.44742 0.31166 -0.83826 0.15898
0.027937 -0.0049546 1.0739 7.3757e-39 422 251 0 0 0 -0.17039 0.0044924 -0.98537 0.032051
0.029194 -0.0049546 1.0739 7.6522e-39 423 251 0 0 0 -0.20535 -0.021595 -0.97845 0.025129
0.031064 -0.0049524 1.0734 7.4679e-39 424.5 251 0 0 0 -0.24522 -0.038941 -0.96869 0.021899
0.032934 -0.0049503 1.073 7.0069e-39 426 251 0 0 0 -0.27506 -0.052148 -0.96001 0.022005
0.034832 -0.0049524 1.0734 7.1913e-39 427.5 251 0 0 0 -0.29413 -0.048532 -0.95453 0.023375
0.037344 -0.0049524 1.0734 7.5139e-39 429.5 251 0 0 0 -0.30969 -0.063956 -0.94868 0.025575
0.039245 -0.0049546 1.0739 7.0991e-39 431 251 0 0 0 -0.31871 -0.076969 -0.94472 0.025609
0.041111 -0.0049524 1.0734 7.1452e-39 432.5 251 0 0 0 -0.35434 -0.097395 -0.93003 0.027388
0.042977 -0.0049503 1.073 8.482e-39 436 251 0 0 0 -0.3877 -0.11218 -0.91493 0.029881
0.04484 -0.0049481 1.0725 8.7125e-39 437.5 251 0 0 0 -0.44764 -0.12611 -0.88527 0.032177
0.047956 -0.004946 1.072 9.2196e-39 440 251 0 0 0 -0.51977 -0.14773 -0.84144 0.026442
-0.024788 -0.0030647 1.072 7.56e-39 335 252 0 0 0 0.37665 -0.49009 -0.78609 0.033274
-0.022927 -0.0030676 1.073 7.7675e-39 336.5 252 0 0 0 0.35257 -0.44043 -0.82566 0.038015
-0.021062 -0.0024418 1.0739 7.3757e-39 425 252 0 0 0 0.35342 -0.36893 -0.85964 0.037181
0.00092357 -0.0030682 1.0732 7.4909e-39 361.25 252 0 0 0 -0.43447 0.21106 -0.87561 0.16423
0.027937 -0.00307 1.0739 8.8506e-39 411 252 0 0 0 -0.17761 -0.046604 -0.983 0.028318
0.029194 -0.0036982 1.0739 9.6805e-39 363 252 0 0 0 -0.20224 -0.05134 -0.97799 0.024128
0.031064 -0.0030687 1.0734 8.2284e-39 413.5 252 0 0 0 -0.24684 -0.073482 -0.96627 0.020006
0.032949 -0.0030684 1.0734 7.9288e-39 415 252 0 0 0 -0.27782 -0.078476 -0.95742 0.020936
0.034832 -0.0030687 1.0734 7.4909e-39 416.5 252 0 0 0 -0.30572 -0.078707 -0.94886 0.022683
0.037344 -0.0030687 1.0734 6.7303e-39 418.5 252 0 0 0 -0.32202 -0.082918 -0.9431 0.02473
0.039228 -0.003069 1.0734 6.1771e-39 420 252 0 0 0 -0.33642 -0.10212 -0.93616 0.024237
0.041102 -0.0030682 1.0732 6.9147e-39 364 252.25 0 0 0 -0.36839 -0.1236 -0.92142 0.025111
0.042977 -0.0030674 1.073 7.9288e-39 308 252.5 0 0 0 -0.40608 -0.13782 -0.90338 0.027591
0.044637 -0.0032755 1.0727 8.6971e-39 331.33 252.33 0 0 0 -0.44328 -0.15089 -0.88359 0.028082
0.047956 -0.0036918 1.072 9.404e-39 378 252 0 0 0 -0.52576 -0.16468 -0.83454 0.024632
-0.022916 -0.0011839 1.0725 1.0234e-38 359.5 253 0 0 0 0.37775 -0.44301 -0.81305 0.032395
-0.021062 -0.0011854 1.0739 1.0326e-38 361 253 0 0 0 0.36905 -0.38512 -0.84586 0.031936
-0.01855 -0.0011854 1.0739 9.7727e-39 363 253 0 0 0 0.3369 -0.30995 -0.88906 0.039291
0.0015514 -0.0011844 1.073 8.7586e-39 379 253 0 0 0 -0.34571 0.10971 -0.9319 0.17115
0.031078 -0.0011854 1.0739 7.1913e-39 395.5 253 0 0 0 -0.24743 -0.10533 -0.96316 0.019483
0.032963 -0.0011854 1.0739 7.0069e-39 397 253 0 0 0 -0.28224 -0.10202 -0.9539 0.020209
0.034847 -0.0011854 1.0739 7.0069e-39 398.5 253 0 0 0 -0.30409 -0.10506 -0.94683 0.021334
0.037344 -0.0011849 1.0734 7.0069e-39 400.5 253 0 0 0 -0.33466 -0.10928 -0.93598 0.022621
0.039211 -0.0011844 1.073 7.1913e-39 402 253 0 0 0 -0.35915 -0.13263 -0.92381 0.022238
0.041075 -0.0011839 1.0725 7.0991e-39 403.5 253 0 0 0 -0.38689 -0.14535 -0.9106 0.023184
0.042939 -0.0011834 1.072 7.0069e-39 405 253 0 0 0 -0.42964 -0.16894 -0.88705 0.023276
0.044193 -0.0011834 1.072 7.2835e-39 406 253 0 0 0 -0.45809 -0.17316 -0.87188 0.023899
-0.02228 0.00069791 1.072 7.5601e-39 421.5 253.5 0 0 0 0.41381 -0.41222 -0.81168 0.025515
-0.021044 0.00069855 1.073 7.0991e-39 422.5 253.5 0 0 0 0.40366 -0.37716 -0.83355 0.025198
-0.019178 0.00069918 1.0739 7.053e-39 424 253.5 0 0 0 0.36529 -0.32627 -0.87184 0.030311
0.0015528 7.0952e-05 1.0739 6.6381e-39 239 254 0 0 0 -0.19685 -0.042588 -0.97951 0.16245
0.029194 0.0013274 1.0739 7.6522e-39 425 254 0 0 0 -0.20228 -0.1387 -0.96946 0.020814
0.031065 0.00069858 1.0734 9.1041e-39 344.5 254 0 0 0 -0.24647 -0.12548 -0.96099 0.019028
0.032963 0.00069918 1.0739 9.1734e-39 346 254 0 0 0 -0.27708 -0.12034 -0.95328 0.019257
0.034832 0.00069858 1.0734 9.3117e-39 347.5 254 0 0 0 -0.30993 -0.12507 -0.9425 0.020966
0.037327 0.00069826 1.073 9.1274e-39 349.5 254 0 0 0 -0.34965 -0.13013 -0.9278 0.021224
0.039194 0.00069795 1.0725 9.3578e-39 351 254 0 0 0 -0.37557 -0.14936 -0.91468 0.02083
0.041067 0.00069793 1.0723 8.5512e-39 352.5 254 0 0 0 -0.40561 -0.16861 -0.89836 0.02004
0.042939 7.0829e-05 1.072 5.9927e-39 272 254 0 0 0 -0.43723 -0.17739 -0.88168 0.021101
0.044193 7.0829e-05 1.072 5.9927e-39 273 254 0 0 0 -0.45386 -0.18511 -0.87163 0.021586
-0.021026 0.0025793 1.072 7.0069e-39 205 255 0 0 0 0.43176 -0.38121 -0.81747 0.019875
-0.019157 0.0032083 1.0727 6.8917e-39 301 255 0 0 0 0.41385 -0.35009 -0.84034 0.021062
-0.016658 0.0032103 1.0734 6.592e-39 318 255 0 0 0 0.32793 -0.32072 -0.88859 0.034555
-0.01478 0.0038401 1.0739 7.1913e-39 399 255 0 0 0 0.26765 -0.30964 -0.9124 0.046397
0.0015528 0.0038401 1.0739 7.8366e-39 423 255 0 0 0 -0.1287 -0.2694 -0.95439 0.13374
0.011604 0.0032119 1.0739 9.9111e-39 346.5 255 0 0 0 0.076494 -0.34939 -0.93385 0.10357
0.029194 0.0032119 1.0739 7.9288e-39 360.5 255 0 0 0 -0.19689 -0.16194 -0.96696 0.021852
0.031052 0.0032092 1.073 7.5831e-39 362 255 0 0 0 -0.24308 -0.15717 -0.95719 0.019677
0.032934 0.0032091 1.073 7.2835e-39 363.5 255 0 0 0 -0.28299 -0.15745 -0.94611 0.018169
0.034817 0.0032092 1.073 7.2604e-39 365 255 0 0 0 -0.3197 -0.15821 -0.93422 0.017605
0.037311 0.0032078 1.0725 7.3757e-39 367 255 0 0 0 -0.3626 -0.16672 -0.91691 0.016994
0.039177 0.0032064 1.072 7.3757e-39 368.5 255 0 0 0 -0.39465 -0.18008 -0.90101 0.016882
0.040431 0.0032064 1.072 7.514e-39 369.5 255 0 0 0 -0.41575 -0.18769 -0.8899 0.016826
-0.019145 0.0050877 1.072 1.028e-38 253.5 256 0 0 0 0.44206 -0.34989 -0.82593 0.017862
-0.016651 0.0050921 1.073 1.0418e-38 255.5 256 0 0 0 0.35571 -0.32197 -0.87739 0.028321
-0.01478 0.0050965 1.0739 1.0695e-38 257 256 0 0 0 0.28766 -0.31653 -0.90391 0.040373
-0.013524 0.0050965 1.0739 1.051e-38 258 256 0 0 0 0.24248 -0.294 -0.92453 0.047299
0.0015514 0.0050921 1.073 1.0049e-38 270 256 0 0 0 -0.15891 -0.2732 -0.94874 0.12891
0.010976 0.0050965 1.0739 6.3154e-39 277.5 256 0 0 0 0.08257 -0.41066 -0.90804 0.1052
0.029194 0.0050965 1.0739 9.9571e-39 354 256 0 0 0 -0.18395 -0.18216 -0.96591 0.022129
0.031052 0.0050921 1.073 1.0096e-38 355.5 256 0 0 0 -0.23453 -0.17775 -0.95572 0.020024
0.032934 0.0050921 1.073 9.6805e-39 357 256 0 0 0 -0.28598 -0.17955 -0.94126 0.016146
0.034817 0.0050921 1.073 9.3579e-39 358.5 256 0 0 0 -0.32387 -0.1868 -0.92748 0.014543
0.037311 0.0050899 1.0725 9.7725e-39 360.5 256 0 0 0 -0.37198 -0.19508 -0.90751 0.014888
0.039177 0.0050877 1.072 9.7727e-39 362 256 0 0 0 -0.40314 -0.20435 -0.89203 0.014909
0.040431 0.0050877 1.072 9.404e-39 363 256 0 0 0 -0.42234 -0.20369 -0.88326 0.015891
-0.018517 0.0063419 1.072 8.943e-39 427 256 0 0 0 0.43937 -0.33618 -0.83303 0.020975
-0.016643 0.0069717 1.0725 8.0671e-39 352.5 256.5 0 0 0 0.3726 -0.31116 -0.87427 0.033024
-0.014768 0.0069751 1.073 8.1593e-39 354 256.5 0 0 0 0.30657 -0.29924 -0.90359 0.041781
-0.012893 0.0069795 1.0737 7.8827e-39 355.5 256.5 0 0 0 0.25175 -0.27934 -0.9266 0.04643
-0.011011 0.0069811 1.0739 7.8827e-39 357 256.5 0 0 0 0.19539 -0.27367 -0.94177 0.051128
0.00092325 0.0069756 1.073 8.3898e-39 402.5 256.5 0 0 0 -0.15447 -0.30432 -0.93996 0.10858
0.011599 0.0069778 1.0734 8.1593e-39 410.5 256.5 0 0 0 0.085946 -0.43801 -0.89485 0.093479
0.027309 0.0069811 1.0739 7.6061e-39 423 256.5 0 0 0 -0.14128 -0.20982 -0.96748 0.025892
0.029194 0.0069811 1.0739 7.3757e-39 424.5 256.5 0 0 0 -0.18164 -0.20836 -0.96104 0.021532
0.031031 0.0069704 1.0723 7.2604e-39 426 256.5 0 0 0 -0.23803 -0.21226 -0.94778 0.018623
0.032906 0.006969 1.072 8.2976e-39 283 257 0 0 0 -0.29316 -0.21205 -0.93225 0.015379
0.034795 0.0069704 1.0723 7.4218e-39 284.5 257 0 0 0 -0.32947 -0.21146 -0.92018 0.013629
0.037086 0.00676 1.072 7.0684e-39 255.67 257 0 0 0 -0.37345 -0.21566 -0.90224 0.014121
-0.016009 0.0088504 1.072 6.5459e-39 464 257 0 0 0 0.37395 -0.3024 -0.87677 0.042168
-0.014755 0.0088504 1.072 6.6381e-39 465 257 0 0 0 0.33852 -0.29741 -0.89272 0.04531
-0.012885 0.008858 1.073 7.0991e-39 466.5 257 0 0 0 0.26623 -0.27745 -0.92312 0.049354
-0.011002 0.008858 1.073 7.4678e-39 468 257 0 0 0 0.20214 -0.28509 -0.93694 0.057752
-0.0091266 0.0088657 1.0739 7.053e-39 469.5 257 0 0 0 0.099648 -0.28117 -0.95447 0.063979
0.00029613 0.008858 1.073 6.4537e-39 477 257 0 0 0 -0.14123 -0.33384 -0.93199 0.097448
0.011594 0.008858 1.073 6.7303e-39 197 258 0 0 0 0.094464 -0.46016 -0.8828 0.089519
0.01286 0.0088657 1.0739 6.8225e-39 198 258 0 0 0 0.10126 -0.43829 -0.89311 0.074532
0.027309 0.0088657 1.0739 7.0529e-39 220 258 0 0 0 -0.14093 -0.25011 -0.95791 0.025769
0.029194 0.0088657 1.0739 6.9147e-39 232 258 0 0 0 -0.17608 -0.24478 -0.95346 0.02231
0.031024 0.0088504 1.072 6.7764e-39 233.5 258 0 0 0 -0.23676 -0.25136 -0.93849 0.019637
0.032906 0.0088504 1.072 6.4537e-39 235 258 0 0 0 -0.29599 -0.24132 -0.9242 0.015944
0.034787 0.0088504 1.072 6.4537e-39 236.5 258 0 0 0 -0.33104 -0.2343 -0.91407 0.014085
0.036668 0.0088504 1.072 6.9147e-39 238 258 0 0 0 -0.36096 -0.23443 -0.90264 0.014279
-0.016009 0.010105 1.072 9.8649e-39 357 258 0 0 0 0.38823 -0.29484 -0.87312 0.047322
-0.014755 0.010732 1.072 8.2515e-39 273.5 258.5 0 0 0 0.35375 -0.28748 -0.89007 0.052968
-0.012672 0.010529 1.0727 9.0659e-39 303.33 258.33 0 0 0 0.26885 -0.28735 -0.91932 0.060223
-0.011002 0.010741 1.073 8.8046e-39 276.5 258.5 0 0 0 0.21379 -0.28548 -0.93423 0.060694
-0.0091205 0.010743 1.0732 8.1824e-39 279 258.5 0 0 0 0.094407 -0.29841 -0.94976 0.073023
-0.007242 0.011379 1.0739 6.9147e-39 199 259 0 0 0 0.0039146 -0.29829 -0.95447 0.07019
-0.0053551 0.010746 1.0734 8.1823e-39 283.5 258.5 0 0 0 -0.072685 -0.3133 -0.94687 0.072192
-0.0028434 0.010746 1.0734 8.4131e-39 285.5 258.5 0 0 0 -0.12272 -0.34142 -0.93187 0.073993
-0.00095959 0.010746 1.0734 8.4359e-39 287 258.5 0 0 0 -0.15131 -0.3444 -0.92655 0.082074
0.00029587 0.010105 1.072 9.3118e-39 370 258 0 0 0 -0.15558 -0.34238 -0.92659 0.096322
0.011584 0.010105 1.072 7.1913e-39 379 258 0 0 0 0.099104 -0.47358 -0.87516 0.086577
0.012849 0.010113 1.073 7.3757e-39 380 258 0 0 0 0.11022 -0.46506 -0.87839 0.076943
0.014739 0.011374 1.0734 6.9608e-39 237.5 259 0 0 0 0.12082 -0.44931 -0.88517 0.058243
0.019142 0.011379 1.0739 6.4537e-39 241 259 0 0 0 0.15914 -0.38341 -0.90976 0.046954
0.025424 0.011379 1.0739 6.3615e-39 246 259 0 0 0 -0.084092 -0.31252 -0.94618 0.030972
0.027303 0.010748 1.0737 7.4218e-39 319.5 258.5 0 0 0 -0.12856 -0.28877 -0.94873 0.028367
0.029181 0.010746 1.0734 8.8048e-39 321 258.5 0 0 0 -0.17189 -0.28192 -0.94392 0.024891
0.031031 0.010734 1.0723 8.943e-39 322.5 258.5 0 0 0 -0.22692 -0.27954 -0.93293 0.022279
0.032906 0.010732 1.072 8.482e-39 324 258.5 0 0 0 -0.28523 -0.26228 -0.92188 0.017431
0.034787 0.010732 1.072 8.3206e-39 325.5 258.5 0 0 0 -0.32506 -0.25227 -0.91143 0.015109
0.036668 0.010105 1.072 7.4678e-39 399 258 0 0 0 -0.36207 -0.24778 -0.89862 0.014895
-0.012246 0.01324 1.072 8.943e-39 290.5 259.5 0 0 0 0.25562 -0.27845 -0.92581 0.077987
-0.010992 0.01324 1.072 8.482e-39 291.5 259.5 0 0 0 0.18628 -0.29714 -0.93649 0.085422
-0.0091126 0.013243 1.0723 7.1221e-39 298.25 259.5 0 0 0 0.1046 -0.30152 -0.94771 0.090178
-0.0072357 0.013252 1.073 6.8686e-39 305 259.5 0 0 0 -0.01253 -0.33262 -0.94298 0.079712
-0.0053504 0.013246 1.0725 7.4448e-39 306.5 259.5 0 0 0 -0.1008 -0.34509 -0.93314 0.079093
-0.0028409 0.013246 1.0725 7.2604e-39 308.5 259.5 0 0 0 -0.14629 -0.35206 -0.92447 0.076183
-0.00095835 0.01324 1.072 7.0068e-39 310 259.5 0 0 0 -0.16395 -0.3678 -0.91534 0.087499
0.015353 0.013246 1.0725 8.1133e-39 323 259.5 0 0 0 0.13999 -0.41862 -0.89731 0.058041
0.01725 0.013257 1.0734 8.6203e-39 324.5 259.5 0 0 0 0.16217 -0.40807 -0.89843 0.049563
0.019118 0.013246 1.0725 8.8507e-39 326 259.5 0 0 0 0.16816 -0.3894 -0.90559 0.044149
0.021022 0.01326 1.0737 8.5742e-39 327.5 259.5 0 0 0 0.13264 -0.38781 -0.91215 0.044862
0.022902 0.013257 1.0734 8.6203e-39 329 259.5 0 0 0 0.034247 -0.3777 -0.92529 0.040874
0.024785 0.013257 1.0734 8.8277e-39 330.5 259.5 0 0 0 -0.058284 -0.35174 -0.93428 0.032529
0.027274 0.013246 1.0725 8.6203e-39 337 259.5 0 0 0 -0.11787 -0.33892 -0.9334 0.031827
0.029156 0.013246 1.0725 8.1593e-39 338.5 259.5 0 0 0 -0.16267 -0.3215 -0.93283 0.028029
0.030397 0.01324 1.072 8.1132e-39 339.5 259.5 0 0 0 -0.20106 -0.31428 -0.9278 0.025933
0.034996 0.013031 1.072 8.8201e-39 369.33 259.33 0 0 0 -0.32706 -0.27579 -0.90387 0.017196
-0.010992 0.015121 1.072 7.7444e-39 383 260 0 0 0 0.15754 -0.28337 -0.94598 0.10262
-0.0084837 0.015121 1.072 7.1913e-39 385 260 0 0 0 0.023385 -0.30442 -0.95225 0.099807
-0.0072357 0.015135 1.073 7.3757e-39 386 260 0 0 0 -0.042247 -0.3096 -0.94993 0.094762
-0.0053481 0.015121 1.072 7.4679e-39 387.5 260 0 0 0 -0.11276 -0.34244 -0.93275 0.085174
-0.0028397 0.015121 1.072 6.8686e-39 389.5 260 0 0 0 -0.16448 -0.34441 -0.9243 0.079176
0.017235 0.015128 1.0725 6.9608e-39 405.5 260 0 0 0 0.16749 -0.39079 -0.90511 0.051176
0.021008 0.015135 1.073 6.6381e-39 409.5 260 0 0 0 0.14271 -0.39665 -0.90681 0.042998
0.022872 0.015121 1.072 7.2835e-39 414 260 0 0 0 0.075349 -0.40737 -0.91015 0.04424
0.024753 0.015121 1.072 6.9608e-39 415.5 260 0 0 0 -0.014864 -0.39683 -0.91777 0.037845
0.026634 0.015121 1.072 7.0991e-39 417 260 0 0 0 -0.08173 -0.37988 -0.92142 0.03325
0.029143 0.015121 1.072 8.2976e-39 419 260 0 0 0 -0.15334 -0.35667 -0.92156 0.029671
0.030397 0.015121 1.072 9.2196e-39 420 260 0 0 0 -0.1844 -0.34539 -0.92017 0.028467
0.035414 0.015121 1.072 8.5742e-39 424 260 0 0 0 -0.3335 -0.28576 -0.8984 0.018306
-0.010992 0.016376 1.072 7.3757e-39 202 261 0 0 0 0.15322 -0.2701 -0.95056 0.11367
-0.0084837 0.017003 1.072 8.9429e-39 288 261 0 0 0 0.029409 -0.29922 -0.95373 0.11229
-0.0072294 0.017003 1.072 9.1274e-39 289 261 0 0 0 -0.084195 -0.31159 -0.94648 0.10284
-0.0059752 0.016376 1.072 8.8508e-39 206 261 0 0 0 -0.1073 -0.33653 -0.93554 0.090575
-0.0034668 0.016376 1.072 8.482e-39 208 261 0 0 0 -0.14921 -0.34372 -0.92714 0.081057
0.017228 0.016376 1.072 6.592e-39 244.5 261 0 0 0 0.1663 -0.37667 -0.9113 0.053672
0.021004 0.017014 1.0727 7.56e-39 321.5 261 0 0 0 0.13908 -0.4038 -0.90421 0.042463
0.022872 0.017003 1.072 7.6061e-39 323 261 0 0 0 0.076756 -0.42097 -0.90382 0.042035
0.024753 0.017003 1.072 8.4129e-39 324.5 261 0 0 0 -0.0049389 -0.41313 -0.91066 0.036283
0.030397 0.016376 1.072 9.5883e-39 255 261 0 0 0 -0.17849 -0.35692 -0.91692 0.028764
-0.0072294 0.018884 1.072 6.6381e-39 481 261 0 0 0 -0.10441 -0.27053 -0.95703 0.11172
0.021618 0.018884 1.072 7.1913e-39 193 262 0 0 0 0.12001 -0.40726 -0.90539 0.040718
-0.010992 0.023901 1.072 6.9147e-39 342 263 0 0 0 0.090395 -0.14421 -0.98541 0.13744
-0.0084837 0.023901 1.072 7.4678e-39 344 263 0 0 0 -0.079483 -0.16497 -0.98309 0.1207
-0.0072294 0.023901 1.072 7.2835e-39 345 263 0 0 0 -0.13894 -0.14948 -0.97895 0.11568
-0.0053481 0.023901 1.072 7.2374e-39 346.5 263 0 0 0 -0.22174 -0.13846 -0.96523 0.094761
-0.0034668 0.023274 1.072 7.6983e-39 288.5 263 0 0 0 -0.24305 -0.13845 -0.96008 0.08112
0.030397 0.023901 1.072 7.4678e-39 375 263 0 0 0 -0.12874 -0.41751 -0.89951 0.035624
-0.018533 0.025177 1.073 7.2835e-39 404 263 0 0 0 0.50741 0.014039 -0.86159 0.11477
-0.01665 0.025177 1.073 7.0991e-39 405.5 263 0 0 0 0.38384 0.035275 -0.92273 0.12669
-0.014768 0.025177 1.073 7.0991e-39 407 263 0 0 0 0.23761 0.040366 -0.97052 0.13636
-0.012873 0.025155 1.072 6.9147e-39 408.5 263 0 0 0 0.17182 0.036169 -0.98446 0.1361
-0.011002 0.025177 1.073 6.8225e-39 410 263 0 0 0 0.04926 -0.0059967 -0.99877 0.13823
-0.0091144 0.025166 1.0725 7.4218e-39 411.5 263 0 0 0 -0.058939 -0.075939 -0.99537 0.12965
-0.0072357 0.025177 1.073 8.3898e-39 413 263 0 0 0 -0.17078 -0.081334 -0.98195 0.11248
-0.0053507 0.025166 1.0725 8.5281e-39 414.5 263 0 0 0 -0.22485 -0.10405 -0.96882 0.097765
-0.0034668 0.025155 1.072 8.482e-39 416 263 0 0 0 -0.26927 -0.07037 -0.96049 0.078509
0.030397 0.025155 1.072 6.9147e-39 454 263 0 0 0 -0.12124 -0.4239 -0.89756 0.037629
-0.01478 0.026455 1.0739 6.8225e-39 489 263 0 0 0 0.2316 0.12476 -0.96478 0.14147
-0.012885 0.026432 1.073 7.053e-39 490.5 263 0 0 0 0.15592 0.068962 -0.98536 0.14037
-0.011011 0.026455 1.0739 6.8225e-39 492 263 0 0 0 0.028078 0.063729 -0.99757 0.13576
-0.0091224 0.026444 1.0734 6.2232e-39 493.5 263 0 0 0 -0.096774 -0.033424 -0.99474 0.12918
-0.0072357 0.026432 1.073 5.6239e-39 495 263 0 0 0 -0.18907 -0.039001 -0.98119 0.11191
-0.0053527 0.026432 1.073 6.3615e-39 180.5 264 0 0 0 -0.26317 -0.02231 -0.96449 0.088514
-0.0034698 0.026432 1.073 6.0849e-39 182 264 0 0 0 -0.30318 -0.01981 -0.95273 0.068559
0.030397 0.027036 1.072 8.7585e-39 251 264 0 0 0 -0.10797 -0.43625 -0.89332 0.038698
0.016601 0.081595 1.072 9.3118e-39 196 270 0 0 0 0.53103 0.55359 -0.64152 0.040147
0.0053127 0.087866 1.072 6.4537e-39 252 270 0 0 0 0.58741 0.4427 -0.67747 0.038715
0.006567 0.087866 1.072 6.3615e-39 253 270 0 0 0 0.58401 0.44821 -0.67679 0.03848
0.012838 0.087239 1.072 7.4218e-39 253.5 270 0 0 0 0.5781 0.44599 -0.68329 0.044552
0.014726 0.087277 1.0725 8.1132e-39 255 270 0 0 0 0.56386 0.42589 -0.70758 0.05207
0.0053127 0.08912 1.072 9.4961e-39 262 270 0 0 0 0.59207 0.42994 -0.68162 0.038022
0.007197 0.089159 1.0725 9.3579e-39 263.5 270 0 0 0 0.57007 0.42012 -0.70606 0.044932
0.012838 0.08912 1.072 9.6805e-39 268 270 0 0 0 0.56061 0.42038 -0.71344 0.047728
0.014732 0.089198 1.073 9.5883e-39 269.5 270 0 0 0 0.51484 0.3978 -0.7594 0.056148
0.0053197 0.09112 1.0734 9.2657e-39 278.5 270 0 0 0 0.49511 0.39034 -0.77621 0.046469
0.0074092 0.090872 1.073 8.6664e-39 278.33 270 0 0 0 0.53145 0.39786 -0.74785 0.046112
0.011584 0.091002 1.072 7.9749e-39 283.5 270 0 0 0 0.53078 0.39473 -0.74997 0.049673
0.012849 0.091081 1.073 8.1593e-39 284.5 270 0 0 0 0.48332 0.39061 -0.78347 0.050022
0.014739 0.09112 1.0734 7.9288e-39 286 270 0 0 0 0.47413 0.39009 -0.78932 0.051797
0.005322 0.093044 1.0739 6.9147e-39 295 270 0 0 0 0.45725 0.38274 -0.80277 0.04765
0.007828 0.092964 1.073 6.6381e-39 297 270 0 0 0 0.4572 0.37607 -0.80594 0.049213
0.0090754 0.092883 1.072 6.2693e-39 298 270 0 0 0 0.46716 0.38017 -0.79827 0.049342
0.010962 0.092923 1.0725 6.3154e-39 300.5 270 0 0 0 0.44707 0.37737 -0.811 0.051556
0.012849 0.092964 1.073 6.3615e-39 303 270 0 0 0 0.42662 0.36884 -0.8258 0.052667
0.014745 0.093044 1.0739 6.5459e-39 304.5 270 0 0 0 0.39158 0.36585 -0.84428 0.052233
0.0078348 0.094929 1.0739 7.514e-39 340 270 0 0 0 0.33376 0.36371 -0.86967 0.049852
0.0090794 0.094805 1.0725 7.7905e-39 341 270 0 0 0 0.39649 0.36755 -0.84125 0.050926
0.010967 0.094847 1.073 8.0671e-39 342.5 270 0 0 0 0.32426 0.36085 -0.87444 0.052192
0.01286 0.094301 1.0739 7.3757e-39 340 270 0 0 0 0.32955 0.35375 -0.87536 0.052141
0.014117 0.094301 1.0739 7.4678e-39 341 270 0 0 0 0.30414 0.35253 -0.885 0.054437
0.0078348 0.096814 1.0739 9.8649e-39 352 270 0 0 0 0.18891 0.3408 -0.92096 0.050757
0.0090912 0.096814 1.0739 9.404e-39 353 270 0 0 0 0.17915 0.34456 -0.92151 0.05081
0.010339 0.09673 1.073 8.8508e-39 354 270 0 0 0 0.2241 0.35081 -0.90924 0.051471
0.0090912 0.09807 1.0739 9.2196e-39 361 270 0 0 0 0.12966 0.32865 -0.93551 0.048385
0.010348 0.098698 1.0739 9.2196e-39 366 270 0 0 0 0.12966 0.32865 -0.93551 0.048385
-0.018566 -0.012504 1.0748 6.4537e-39 450 247 0 0 0 0.19523 -0.15498 -0.96843 0.088768
-0.0097633 -0.012504 1.0748 5.163e-39 452 247 0 0 0 -0.14948 0.40329 -0.90278 0.12315
0.031119 -0.01251 1.0753 1.0049e-38 375.5 248 0 0 0 -0.18734 0.079555 -0.97907 0.031345
0.03302 -0.012515 1.0758 9.7727e-39 377 248 0 0 0 -0.21026 0.07119 -0.97505 0.031776
0.036764 -0.012504 1.0748 9.404e-39 378 248 0 0 0 -0.24213 0.063457 -0.96817 0.030252
-0.018582 -0.011256 1.0758 6.9147e-39 427 248 0 0 0 0.20816 -0.18485 -0.96047 0.078517
-0.0072546 -0.011256 1.0758 6.8225e-39 432 248 0 0 0 -0.198 0.36247 -0.91072 0.10961
0.031119 -0.011251 1.0753 6.8686e-39 271.5 249 0 0 0 -0.20326 0.07431 -0.9763 0.029155
0.03302 -0.011256 1.0758 6.7303e-39 273 249 0 0 0 -0.21917 0.058705 -0.97392 0.029558
0.036796 -0.011256 1.0758 6.3615e-39 274 249 0 0 0 -0.2424 0.030636 -0.96969 0.028632
-0.032398 -0.0087314 1.0748 8.021e-39 408 249 0 0 0 0.24807 -0.69894 -0.67078 0.041188
-0.023596 -0.0087314 1.0748 7.3757e-39 411 249 0 0 0 0.2641 -0.49337 -0.82875 0.051157
-0.018582 -0.0093683 1.0758 8.7127e-39 387.5 249 0 0 0 0.22981 -0.21323 -0.94959 0.072584
-0.0059934 -0.009364 1.0753 8.7584e-39 395 249 0 0 0 -0.19843 0.28636 -0.93735 0.11385
-0.0022203 -0.008739 1.0758 6.5459e-39 426 249 0 0 0 -0.31575 0.34511 -0.88385 0.11718
0.011614 -0.0087314 1.0748 9.0352e-39 441 249 0 0 0 0.039898 0.5384 -0.84174 0.082576
0.020417 -0.0099889 1.0748 7.1913e-39 383 249 0 0 0 0.041068 0.28012 -0.95909 0.059337
0.024189 -0.0087314 1.0748 8.6664e-39 446 249 0 0 0 -0.10318 0.13049 -0.98607 0.044296
0.029219 -0.0093601 1.0748 7.7444e-39 422 249 0 0 0 -0.17129 0.089901 -0.98111 0.035945
0.031119 -0.0093645 1.0753 7.6753e-39 423.5 249 0 0 0 -0.20836 0.042325 -0.97714 0.028092
0.033005 -0.0093645 1.0753 7.4679e-39 425 249 0 0 0 -0.24006 0.018869 -0.97057 0.026706
0.034688 -0.009156 1.0755 7.0376e-39 435.67 249 0 0 0 -0.25923 0.013886 -0.96572 0.027067
0.036796 -0.0093683 1.0758 6.7303e-39 428 249 0 0 0 -0.26762 0.0035948 -0.96352 0.027382
0.038021 -0.0093601 1.0748 6.5919e-39 429 249 0 0 0 -0.27291 -0.0036008 -0.96203 0.027709
0.040536 -0.0087314 1.0748 4.8864e-39 458 249 0 0 0 -0.29327 -0.036902 -0.95532 0.029101
-0.042458 -0.0062164 1.0748 7.9288e-39 418 250 0 0 0 0.071648 -0.85652 -0.51112 0.022739
-0.039943 -0.0074739 1.0748 6.6381e-39 271 250 0 0 0 0.12954 -0.83992 -0.52702 0.025258
-0.037461 -0.0074805 1.0758 6.5459e-39 273 250 0 0 0 0.16447 -0.78658 -0.59519 0.033584
-0.033656 -0.0074739 1.0748 7.2835e-39 354 250 0 0 0 0.23719 -0.70693 -0.66633 0.038934
-0.022764 -0.0070569 1.0751 9.8649e-39 386 250 0 0 0 0.28846 -0.42629 -0.85736 0.047584
-0.018582 -0.0068512 1.0758 9.5423e-39 402.5 250 0 0 0 0.25415 -0.24319 -0.93609 0.061845
-0.0047374 -0.0074805 1.0758 9.2196e-39 373 250 0 0 0 -0.2205 0.17821 -0.95897 0.11427
-0.0034758 -0.0074739 1.0748 9.5883e-39 374 250 0 0 0 -0.30125 0.26474 -0.91606 0.11971
-0.00096085 -0.0062164 1.0748 7.2835e-39 455 250 0 0 0 -0.30766 0.32608 -0.89388 0.1261
0.021683 -0.0068479 1.0753 6.9608e-39 316.5 250.5 0 0 0 -0.072011 0.089511 -0.99338 0.04903
0.022941 -0.0068479 1.0753 7.2374e-39 317.5 250.5 0 0 0 -0.091105 0.081578 -0.99249 0.0463
0.024823 -0.0068465 1.075 7.1221e-39 319 250.5 0 0 0 -0.11951 0.075038 -0.98999 0.041763
0.035506 -0.0074739 1.0748 7.0069e-39 398 250 0 0 0 -0.27753 -0.01479 -0.9606 0.025715
0.036764 -0.0068452 1.0748 6.8686e-39 335 250.5 0 0 0 -0.29399 -0.021568 -0.95556 0.025706
0.039279 -0.0074739 1.0748 7.2835e-39 401 250 0 0 0 -0.29712 -0.034125 -0.95423 0.027807
0.040536 -0.0074739 1.0748 7.7444e-39 402 250 0 0 0 -0.30755 -0.052174 -0.9501 0.028174
-0.021099 -0.0049633 1.0758 7.2835e-39 386 251 0 0 0 0.31086 -0.37899 -0.87163 0.043183
-0.018582 -0.0049633 1.0758 7.3757e-39 388 251 0 0 0 0.28275 -0.28173 -0.91689 0.052201
-0.00096169 -0.0049633 1.0758 7.4678e-39 402 251 0 0 0 -0.26192 0.22396 -0.93874 0.12191
0.025469 -0.0049633 1.0758 7.6522e-39 419 251 0 0 0 -0.12791 0.023033 -0.99152 0.038629
0.026704 -0.004959 1.0748 7.1913e-39 421 251 0 0 0 -0.15299 0.0079709 -0.9882 0.034423
-0.021081 -0.0037015 1.0748 7.8366e-39 251 252 0 0 0 0.32751 -0.38802 -0.8615 0.042006
-0.019199 -0.0030736 1.075 7.6292e-39 339.5 252 0 0 0 0.32066 -0.31656 -0.89273 0.044102
-0.016904 -0.0028656 1.0758 7.7444e-39 370.33 252 0 0 0 0.27235 -0.25813 -0.92693 0.053866
0.025469 -0.0030754 1.0758 9.4038e-39 409 252 0 0 0 -0.1326 -0.041728 -0.99029 0.035905
0.026704 -0.0030727 1.0748 9.2195e-39 410 252 0 0 0 -0.15339 -0.039773 -0.98737 0.032829
0.029219 -0.002444 1.0748 7.0991e-39 461 252 0 0 0 -0.20307 -0.076131 -0.9762 0.022178
-0.019823 -0.0011865 1.0748 1.0049e-38 362 253 0 0 0 0.35015 -0.33417 -0.87506 0.035472
-0.016694 -0.0011875 1.0758 9.8649e-39 364.5 253 0 0 0 0.28469 -0.28136 -0.9164 0.046952
-0.014806 -0.0011875 1.0758 1.0049e-38 366 253 0 0 0 0.21477 -0.25176 -0.94366 0.0631
0.00029664 -0.0011865 1.0748 9.3118e-39 378 253 0 0 0 -0.29389 0.0036021 -0.95583 0.15227
0.027332 -0.0011865 1.0748 7.2835e-39 392.5 253 0 0 0 -0.16524 -0.087548 -0.98236 0.027893
0.029219 -0.0011865 1.0748 7.6522e-39 394 253 0 0 0 -0.20751 -0.09909 -0.9732 0.020635
-0.016683 0.00069977 1.075 7.1221e-39 426 253.5 0 0 0 0.30204 -0.2944 -0.9067 0.041539
-0.014806 0.00070039 1.0758 7.0069e-39 427.5 253.5 0 0 0 0.24093 -0.27968 -0.92937 0.051976
0.0015541 0.0013285 1.0748 7.0991e-39 402 254 0 0 0 -0.1228 -0.14312 -0.98206 0.14592
0.011614 0.0013285 1.0748 7.1913e-39 414 254 0 0 0 0.067512 -0.25398 -0.96485 0.10954
0.025469 0.00070039 1.0758 8.989e-39 337 254 0 0 0 -0.12757 -0.12527 -0.98389 0.031835
0.027332 0.00069976 1.0748 9.1275e-39 338.5 254 0 0 0 -0.16553 -0.12557 -0.97818 0.025511
0.029219 7.1014e-05 1.0748 9.9571e-39 255 254 0 0 0 -0.20352 -0.11711 -0.97204 0.020633
-0.014793 0.002586 1.0748 6.6381e-39 240 255 0 0 0 0.26286 -0.30272 -0.91612 0.048461
-0.012913 0.0032159 1.0753 6.7534e-39 321 255 0 0 0 0.19728 -0.28648 -0.93755 0.055978
-0.01103 0.0038468 1.0758 6.9147e-39 402 255 0 0 0 0.15651 -0.27764 -0.94785 0.054079
0.0015541 0.002586 1.0748 1.0602e-38 253 255 0 0 0 -0.12095 -0.21518 -0.96905 0.1338
0.010357 0.0038435 1.0748 9.1274e-39 429 255 0 0 0 0.069104 -0.37013 -0.92641 0.10324
0.025469 0.0032175 1.0758 9.2657e-39 357.5 255 0 0 0 -0.12889 -0.16001 -0.97866 0.029103
0.027332 0.0032147 1.0748 8.8047e-39 359 255 0 0 0 -0.1541 -0.16667 -0.9739 0.025472
-0.012278 0.005101 1.0748 1.0142e-38 259 256 0 0 0 0.21205 -0.29453 -0.93182 0.047968
-0.011021 0.005101 1.0748 1.0049e-38 260 256 0 0 0 0.17584 -0.27648 -0.9448 0.051945
-0.0091425 0.0051054 1.0758 9.911e-39 261.5 256 0 0 0 0.10399 -0.26667 -0.95816 0.051953
0.0002969 0.0051054 1.0758 9.6805e-39 269 256 0 0 0 -0.078067 -0.28578 -0.95511 0.088331
0.025469 0.0051054 1.0758 8.2976e-39 351 256 0 0 0 -0.12493 -0.18284 -0.97517 0.029257
0.027332 0.005101 1.0748 9.2657e-39 352.5 256 0 0 0 -0.14799 -0.18386 -0.97175 0.026008
-0.0091364 0.0069886 1.075 8.0671e-39 358.5 256.5 0 0 0 0.10639 -0.26432 -0.95855 0.053849
-0.0072546 0.0076226 1.0758 7.1913e-39 284 257 0 0 0 0.027665 -0.27705 -0.96046 0.055513
-0.0055765 0.0072031 1.0758 7.3449e-39 336 256.67 0 0 0 -0.023993 -0.27377 -0.9615 0.058121
-0.0034789 0.0076226 1.0758 7.0069e-39 347 257 0 0 0 -0.056225 -0.28472 -0.95696 0.061987
-0.00096169 0.0076226 1.0758 7.7444e-39 349 257 0 0 0 -0.10312 -0.31163 -0.94459 0.076027
0.00029664 0.0063585 1.0748 8.5742e-39 454 256 0 0 0 -0.11224 -0.29204 -0.9498 0.094546
0.012872 0.007616 1.0748 9.9571e-39 360 257 0 0 0 0.086458 -0.42494 -0.90109 0.078123
0.025049 0.0072031 1.0758 8.5435e-39 404 256.67 0 0 0 -0.11287 -0.22722 -0.96728 0.028542
-0.0072483 0.0088735 1.0748 7.0069e-39 471 257 0 0 0 0.013207 -0.27988 -0.95994 0.061263
-0.005362 0.0088735 1.0748 7.0991e-39 472.5 257 0 0 0 -0.045594 -0.28711 -0.95681 0.063447
-0.0028481 0.0088774 1.0753 6.7764e-39 474.5 257 0 0 0 -0.097639 -0.30579 -0.94708 0.068683
-0.00096085 0.0088735 1.0748 6.6381e-39 476 257 0 0 0 -0.12532 -0.3349 -0.93388 0.07549
0.0154 0.0088812 1.0758 7.0991e-39 200 258 0 0 0 0.084779 -0.41005 -0.90811 0.059182
0.024828 0.0088774 1.0753 7.2835e-39 207.5 258 0 0 0 -0.086449 -0.25964 -0.96183 0.029439
-0.0072483 0.010131 1.0748 9.3118e-39 364 258 0 0 0 0.0087211 -0.28537 -0.95838 0.063332
0.014758 0.010131 1.0748 7.8366e-39 381.5 258 0 0 0 0.10762 -0.44519 -0.88895 0.060291
0.017273 0.011388 1.0748 6.9147e-39 239.5 259 0 0 0 0.13941 -0.42029 -0.89662 0.046615
0.019176 0.01014 1.0758 7.9288e-39 385 258 0 0 0 0.089392 -0.3571 -0.92978 0.042019
0.021059 0.010766 1.0755 7.099e-39 314.5 258.5 0 0 0 0.033631 -0.33614 -0.94121 0.03982
0.022941 0.010764 1.0753 6.9607e-39 316 258.5 0 0 0 -0.041421 -0.30742 -0.95067 0.03313
0.024615 0.010553 1.0751 6.7303e-39 341.33 258.33 0 0 0 -0.07298 -0.29067 -0.95404 0.030883
-0.016686 0.026489 1.0753 6.8225e-39 487.5 263 0 0 0 0.34422 0.15059 -0.92674 0.13703
-0.014806 0.02776 1.0758 1.0049e-38 255 264 0 0 0 0.15587 0.25808 -0.95347 0.14287
-0.013536 0.027736 1.0748 1.0418e-38 256 264 0 0 0 0.079626 0.22281 -0.9716 0.14156
0.016659 0.083138 1.0758 8.6664e-39 223 270 0 0 0 0.5564 0.47373 -0.68264 0.052243
0.0065841 0.091868 1.0748 8.1132e-39 285 270 0 0 0 0.46824 0.38434 -0.79563 0.047368
0.0065841 0.093125 1.0748 7.0069e-39 296 270 0 0 0 0.38828 0.36969 -0.84414 0.048789
0.0053266 0.094383 1.0748 7.0069e-39 334 270 0 0 0 0.38571 0.36896 -0.84563 0.047111
0.0065898 0.095095 1.0758 7.3296e-39 339 270 0 0 0 0.31415 0.35165 -0.88185 0.048954
0.012872 0.09564 1.0748 9.8649e-39 348 270 0 0 0 0.1792 0.34286 -0.92214 0.051973
0.014758 0.095012 1.0748 8.9431e-39 345.5 270 0 0 0 0.19936 0.34033 -0.91893 0.052485
0.0053313 0.096982 1.0758 1.051e-38 350 270 0 0 0 0.085097 0.34736 -0.93386 0.043771
0.0065898 0.096982 1.0758 1.0326e-38 351 270 0 0 0 0.19237 0.33553 -0.92218 0.0495
0.011614 0.096898 1.0748 8.5742e-39 355 270 0 0 0 0.12898 0.32913 -0.93544 0.049195
0.012872 0.096898 1.0748 8.2976e-39 356 270 0 0 0 0.15441 0.32002 -0.93474 0.049064
0.014141 0.096982 1.0758 7.9288e-39 357 270 0 0 0 0.10366 0.31256 -0.94423 0.049097
0.0053313 0.098241 1.0758 7.8366e-39 358 270 0 0 0 -0.047968 0.33512 -0.94095 0.036414
0.0078416 0.098784 1.0748 8.8969e-39 364 270 0 0 0 0.037935 0.32859 -0.94371 0.043306
0.0090991 0.099413 1.0748 9.6805e-39 369 270 0 0 0 -0.017791 0.31089 -0.95028 0.042013
0.011624 0.098871 1.0758 8.7585e-39 367 270 0 0 0 0.051462 0.29552 -0.95395 0.048076
0.012883 0.098871 1.0758 8.3438e-39 368 270 0 0 0 0.046739 0.29936 -0.953 0.047589
0.014141 0.098871 1.0758 8.1132e-39 369 270 0 0 0 0.04046 0.29939 -0.95327 0.047589
0.0078484 0.10076 1.0758 7.3757e-39 376 270 0 0 0 -0.11174 0.30295 -0.94643 0.035702
0.0090991 0.1013 1.0748 7.4679e-39 382 270 0 0 0 -0.10776 0.30884 -0.94499 0.036181
0.010357 0.1013 1.0748 7.2374e-39 383 270 0 0 0 -0.12986 0.29683 -0.94606 0.035398
0.012883 0.10076 1.0758 7.0991e-39 380 270 0 0 0 -0.07484 0.28252 -0.95634 0.040641
0.014553 0.10112 1.0751 7.2527e-39 384.67 270 0 0 0 -0.07484 0.28252 -0.95634 0.040641
0.0078484 0.10265 1.0758 7.2835e-39 390 270 0 0 0 -0.16292 0.29274 -0.94221 0.035306
0.009107 0.10328 1.0758 7.0069e-39 396 270 0 0 0 -0.16407 0.2826 -0.9451 0.03511
0.010366 0.10328 1.0758 7.1913e-39 397 270 0 0 0 -0.16407 0.2826 -0.9451 0.03511
0.012883 0.10265 1.0758 7.514e-39 394.5 270 0 0 0 -0.13455 0.28595 -0.94875 0.036165
0.014764 0.10261 1.0753 8.021e-39 396 270 0 0 0 -0.14743 0.27596 -0.9498 0.035978
0.009107 0.10453 1.0758 9.3118e-39 404 270 0 0 0 -0.20268 0.28414 -0.93711 0.034458
0.014761 0.10509 1.075 8.6433e-39 413 270 0 0 0 -0.20649 0.27259 -0.93971 0.035253
0.016644 0.1057 1.0748 8.5742e-39 419 270 0 0 0 -0.2224 0.26577 -0.93803 0.036914
0.014764 0.10701 1.0753 6.7764e-39 434.5 270 0 0 0 -0.22217 0.26402 -0.93858 0.038452
0.016644 0.10696 1.0748 6.1771e-39 436 270 0 0 0 -0.22747 0.25748 -0.93913 0.039258
0.014761 0.10887 1.075 6.4767e-39 449.5 270 0 0 0 -0.26861 0.26409 -0.92634 0.037621
0.016644 0.10885 1.0748 6.9147e-39 451 270 0 0 0 -0.27115 0.26218 -0.92614 0.038245
0.014758 0.11136 1.0748 6.7072e-39 479 270 0 0 0 -0.34705 0.28103 -0.89475 0.035187
0.016644 0.11136 1.0748 6.7764e-39 480.5 270 0 0 0 -0.35488 0.27116 -0.89472 0.037681
0.014758 0.11325 1.0748 6.4076e-39 502.5 270 0 0 0 -0.39434 0.28982 -0.87207 0.03479
0.016644 0.11325 1.0748 5.9927e-39 181 271 0 0 0 -0.39556 0.28354 -0.87358 0.03669
0.014771 0.1146 1.0758 5.9927e-39 187.5 271 0 0 0 -0.40492 0.29166 -0.86659 0.038918
-0.017354 -0.012537 1.0776 5.8083e-39 451 247 0 0 0 0.20365 -0.060199 -0.97719 0.084982
-0.0097846 -0.010641 1.0771 8.6665e-39 398 248.5 0 0 0 -0.11829 0.2321 -0.96547 0.12145
-0.007261 -0.010006 1.0767 1.051e-38 366 249 0 0 0 -0.18122 0.2521 -0.95058 0.11234
0.035568 -0.010006 1.0767 6.9147e-39 399 249 0 0 0 -0.24632 0.019104 -0.969 0.027452
-0.040048 -0.0087543 1.0776 7.9288e-39 404 249 0 0 0 0.065695 -0.87385 -0.48175 0.02152
-0.022377 -0.0087467 1.0767 7.2835e-39 412 249 0 0 0 0.249 -0.43242 -0.86661 0.055062
-0.0072673 -0.0087543 1.0776 7.1913e-39 422 249 0 0 0 -0.1571 0.16904 -0.97301 0.11442
0.012905 -0.0087543 1.0776 9.2196e-39 442 249 0 0 0 0.035912 0.39671 -0.91724 0.065593
0.020452 -0.0087467 1.0767 9.404e-39 443 249 0 0 0 -0.040327 0.16918 -0.98476 0.052157
-0.041272 -0.0062273 1.0767 7.4678e-39 419 250 0 0 0 0.093933 -0.8585 -0.50413 0.026476
-0.038753 -0.007487 1.0767 6.9147e-39 272 250 0 0 0 0.13375 -0.82574 -0.54796 0.027371
-0.021127 -0.0068604 1.0771 9.5883e-39 400.5 250 0 0 0 0.28093 -0.36256 -0.88861 0.04833
-0.019875 -0.0062327 1.0776 9.2196e-39 441 250 0 0 0 0.27014 -0.30755 -0.91238 0.050108
-0.016928 -0.0066512 1.0773 9.3732e-39 417 250 0 0 0 0.23676 -0.19282 -0.95224 0.064037
-0.0060039 -0.0068599 1.0771 8.9891e-39 411.5 250 0 0 0 -0.14633 0.097891 -0.98438 0.10612
-0.0047416 -0.0062273 1.0767 8.6664e-39 452 250 0 0 0 -0.18688 0.1043 -0.97683 0.107
-0.0028521 -0.0068572 1.0767 9.2195e-39 414 250 0 0 0 -0.23807 0.17612 -0.95515 0.10621
0.02047 -0.0074935 1.0776 7.2835e-39 386 250 0 0 0 -0.037537 0.12915 -0.99091 0.053545
-0.019858 -0.0049676 1.0767 7.3757e-39 387 251 0 0 0 0.29071 -0.32631 -0.89945 0.048142
-0.016716 -0.0049698 1.0771 7.0991e-39 389.5 251 0 0 0 0.24274 -0.21269 -0.94649 0.061114
-0.014832 -0.0049719 1.0776 6.9147e-39 391 251 0 0 0 0.20316 -0.17567 -0.96326 0.067934
-0.0047457 -0.0049719 1.0776 7.0991e-39 399 251 0 0 0 -0.1522 0.021173 -0.98812 0.10293
-0.0034849 -0.0049719 1.0776 7.0069e-39 400 251 0 0 0 -0.18619 0.075251 -0.97963 0.10205
0.021712 -0.0049676 1.0767 7.2835e-39 415 251 0 0 0 -0.070212 0.028982 -0.99711 0.049839
0.022971 -0.0049676 1.0767 7.3757e-39 416 251 0 0 0 -0.086045 0.03548 -0.99566 0.047249
0.024231 -0.0049676 1.0767 7.7444e-39 417 251 0 0 0 -0.11078 0.031046 -0.99336 0.042047
-0.016079 -0.0037079 1.0767 1.0787e-38 263 252 0 0 0 0.2443 -0.23007 -0.94201 0.058106
-0.014819 -0.003078 1.0767 9.0351e-39 347 252 0 0 0 0.21978 -0.21117 -0.95242 0.063885
-0.01231 -0.0024504 1.0776 7.56e-39 432 252 0 0 0 0.11656 -0.19882 -0.97308 0.081724
-0.0047457 -0.0037112 1.0776 6.4537e-39 272 252 0 0 0 -0.12142 -0.044024 -0.99162 0.09168
-0.00096294 -0.0030791 1.0771 7.514e-39 359.5 252 0 0 0 -0.17723 0.046353 -0.98308 0.10166
0.021731 -0.0030808 1.0776 9.5424e-39 406 252 0 0 0 -0.066677 -0.014506 -0.99767 0.050453
0.022992 -0.0030808 1.0776 9.5423e-39 407 252 0 0 0 -0.08754 -0.018785 -0.99598 0.046997
0.024252 -0.0030808 1.0776 9.404e-39 408 252 0 0 0 -0.11339 -0.034265 -0.99296 0.040801
-0.01294 -0.0011896 1.0776 9.7266e-39 367.5 253 0 0 0 0.15117 -0.23095 -0.96115 0.070232
-0.01105 -0.0011896 1.0776 9.404e-39 369 253 0 0 0 0.087585 -0.21323 -0.97307 0.077374
0.022992 -0.0011896 1.0776 6.9147e-39 389 253 0 0 0 -0.092117 -0.078986 -0.99261 0.043092
0.025491 -0.0011885 1.0767 6.8225e-39 391 253 0 0 0 -0.1405 -0.086441 -0.9863 0.031808
-0.012935 0.000701 1.0771 6.2232e-39 429 253.5 0 0 0 0.16861 -0.26302 -0.94994 0.061747
-0.01105 0.0007016 1.0776 5.6701e-39 430.5 253.5 0 0 0 0.10887 -0.2373 -0.96532 0.068032
0.00029729 0.00070157 1.0771 6.6842e-39 304 254 0 0 0 -0.075191 -0.15646 -0.98482 0.097627
0.011634 7.1138e-05 1.0767 1.0234e-38 246 254 0 0 0 0.023103 -0.11787 -0.99276 0.076423
0.021731 0.0007016 1.0776 9.3119e-39 334.5 254 0 0 0 -0.069287 -0.11161 -0.99133 0.047717
0.022992 0.0007016 1.0776 9.2655e-39 335.5 254 0 0 0 -0.10347 -0.12265 -0.98704 0.038969
0.024252 7.12e-05 1.0776 1.0879e-38 251 254 0 0 0 -0.1198 -0.11352 -0.98629 0.03495
-0.01104 0.0025905 1.0767 6.7303e-39 243 255 0 0 0 0.13713 -0.26773 -0.95369 0.056917
-0.0093633 0.0034311 1.077 7.2527e-39 350.33 255 0 0 0 0.093595 -0.2685 -0.95872 0.055792
-0.006425 0.0034322 1.0773 8.2975e-39 352.67 255 0 0 0 0.018134 -0.24382 -0.96965 0.056253
-0.0047457 0.0038536 1.0776 7.6522e-39 407 255 0 0 0 -0.005831 -0.24798 -0.96875 0.059056
0.00029729 0.0032215 1.0771 9.0814e-39 337 255 0 0 0 -0.061762 -0.25107 -0.966 0.086022
0.012905 0.0038536 1.0776 9.3118e-39 431 255 0 0 0 0.027014 -0.26079 -0.96502 0.069115
0.021731 0.0032232 1.0776 9.404e-39 351.5 255 0 0 0 -0.07447 -0.15967 -0.98436 0.044192
0.022992 0.0032232 1.0776 9.3118e-39 352.5 255 0 0 0 -0.10545 -0.1656 -0.98054 0.037159
0.024231 0.0038502 1.0767 9.0352e-39 438 255 0 0 0 -0.11267 -0.17217 -0.9786 0.03345
-0.0066311 0.0051099 1.0767 9.911e-39 263.5 256 0 0 0 0.019021 -0.25125 -0.96774 0.05523
-0.0047416 0.0051099 1.0767 9.6805e-39 265 256 0 0 0 -0.028214 -0.26606 -0.96354 0.063068
-0.0034849 0.0051143 1.0776 9.6805e-39 266 256 0 0 0 -0.038286 -0.26056 -0.9647 0.061245
0.012905 0.0051143 1.0776 6.3615e-39 279 256 0 0 0 0.033117 -0.32598 -0.9448 0.065145
0.015413 0.0051099 1.0767 6.7303e-39 281 256 0 0 0 0.051008 -0.28629 -0.95679 0.064783
0.021731 0.0051143 1.0776 7.2835e-39 348 256 0 0 0 -0.075618 -0.19581 -0.97772 0.042698
0.022992 0.0051143 1.0776 7.6522e-39 349 256 0 0 0 -0.096456 -0.18289 -0.97839 0.037161
0.024231 0.0051099 1.0767 8.1132e-39 350 256 0 0 0 -0.10865 -0.18986 -0.97578 0.03233
-0.007261 0.0063696 1.0767 8.8508e-39 436 256 0 0 0 0.032784 -0.27084 -0.96207 0.051034
-0.0047416 0.0063696 1.0767 9.2196e-39 438 256 0 0 0 -0.02402 -0.27774 -0.96036 0.05763
-0.0026437 0.0067931 1.0773 8.2669e-39 417 256.33 0 0 0 -0.061494 -0.29146 -0.9546 0.059395
-0.00096336 0.0063751 1.0776 8.5742e-39 453 256 0 0 0 -0.05852 -0.28839 -0.95572 0.063664
0.012894 0.0063696 1.0767 6.6381e-39 463 256 0 0 0 0.05544 -0.40651 -0.91196 0.071785
0.015413 0.0069994 1.0767 8.3437e-39 413.5 256.5 0 0 0 0.072096 -0.37289 -0.92507 0.064133
0.019209 0.0076359 1.0776 9.5883e-39 365 257 0 0 0 0.021781 -0.28315 -0.95883 0.039693
0.021086 0.0070008 1.0769 8.505e-39 418 256.5 0 0 0 -0.060737 -0.24584 -0.96741 0.039689
0.022971 0.0069994 1.0767 8.5281e-39 419.5 256.5 0 0 0 -0.083222 -0.23862 -0.96754 0.034205
0.024231 0.0063696 1.0767 6.9147e-39 472 256 0 0 0 -0.10815 -0.21372 -0.97089 0.031525
0.014154 0.0088889 1.0767 7.0991e-39 199 258 0 0 0 0.071487 -0.43543 -0.89738 0.06009
0.017318 0.0088967 1.0776 6.7303e-39 201.5 258 0 0 0 0.048648 -0.34271 -0.93818 0.041782
0.019192 0.0088889 1.0767 6.6381e-39 203 258 0 0 0 0.034166 -0.31068 -0.9499 0.036874
0.021082 0.0088889 1.0767 6.8686e-39 204.5 258 0 0 0 -0.047281 -0.29372 -0.95472 0.03576
0.022971 0.0088889 1.0767 7.1913e-39 206 258 0 0 0 -0.070532 -0.27775 -0.95806 0.03252
0.017303 0.010149 1.0767 7.6983e-39 383.5 258 0 0 0 0.1091 -0.39868 -0.91058 0.045653
-0.018598 0.026525 1.0767 7.0991e-39 486 263 0 0 0 0.40697 0.23311 -0.8832 0.13257
0.016681 0.085138 1.0771 6.4537e-39 238.5 270 0 0 0 0.54246 0.44146 -0.71474 0.054248
0.016688 0.089587 1.0776 9.404e-39 271 270 0 0 0 0.39845 0.36548 -0.84123 0.058055
0.017311 0.090808 1.0771 9.0813e-39 282.5 270 0 0 0 0.37768 0.35714 -0.85429 0.055231
0.017311 0.092698 1.0771 7.053e-39 300 270 0 0 0 0.28917 0.33341 -0.89734 0.05549
0.0053359 0.099586 1.0767 9.1274e-39 366 270 0 0 0 -0.10776 0.30884 -0.94499 0.036181
0.0065956 0.098957 1.0767 8.4359e-39 363 270 0 0 0 -0.040651 0.30567 -0.95127 0.042797
0.0053359 0.10085 1.0767 6.7303e-39 374 270 0 0 0 -0.13794 0.30524 -0.94223 0.035715
0.0066013 0.10093 1.0776 6.9147e-39 375 270 0 0 0 -0.16292 0.29274 -0.94221 0.035306
0.011634 0.10085 1.0767 7.2835e-39 379 270 0 0 0 -0.079699 0.28285 -0.95585 0.042008
0.0053406 0.10283 1.0776 7.1452e-39 388 270 0 0 0 -0.20268 0.28414 -0.93711 0.034458
0.0066013 0.10283 1.0776 7.0991e-39 389 270 0 0 0 -0.20168 0.28349 -0.93753 0.033706
0.011639 0.10278 1.0771 7.2374e-39 393.5 270 0 0 0 -0.17197 0.27739 -0.94524 0.035125
0.0053406 0.10472 1.0776 8.943e-39 401 270 0 0 0 -0.20804 0.27774 -0.93786 0.035313
0.0078553 0.10526 1.0767 9.5422e-39 407.5 270 0 0 0 -0.20143 0.28074 -0.93841 0.03483
0.009115 0.10588 1.0767 9.1274e-39 413 270 0 0 0 -0.20649 0.27259 -0.93971 0.035252
0.010375 0.10526 1.0767 8.8508e-39 409.5 270 0 0 0 -0.20143 0.28074 -0.93841 0.03483
0.012894 0.10526 1.0767 8.5281e-39 411.5 270 0 0 0 -0.20649 0.27259 -0.93971 0.035253
0.0078621 0.10724 1.0776 8.6664e-39 422 270 0 0 0 -0.25497 0.27819 -0.92607 0.034247
0.009115 0.10714 1.0767 8.482e-39 430 270 0 0 0 -0.21961 0.26933 -0.93767 0.038702
0.010384 0.10724 1.0776 8.482e-39 431 270 0 0 0 -0.21961 0.26933 -0.93768 0.038702
0.012894 0.10714 1.0767 7.56e-39 433 270 0 0 0 -0.22687 0.26616 -0.93685 0.039245
0.0078621 0.1085 1.0776 7.0069e-39 439 270 0 0 0 -0.32863 0.28769 -0.89958 0.030106
0.0091229 0.10913 1.0776 6.8686e-39 445 270 0 0 0 -0.32863 0.28769 -0.89958 0.030106
0.012905 0.10913 1.0776 6.3154e-39 448 270 0 0 0 -0.26966 0.26895 -0.92464 0.037665
0.012905 0.11102 1.0776 7.0991e-39 462 270 0 0 0 -0.34215 0.28392 -0.89572 0.034605
0.012905 0.11291 1.0776 6.3154e-39 497 270 0 0 0 -0.39434 0.28982 -0.87207 0.03479
0.014783 0.11596 1.0767 6.5459e-39 192.5 271 0 0 0 -0.43324 0.2881 -0.85399 0.043579
0.016673 0.1147 1.0767 5.9005e-39 189 271 0 0 0 -0.41925 0.2795 -0.86378 0.041477
-0.019901 -0.013184 1.0791 8.482e-39 404.5 247 0 0 0 0.20037 -0.27179 -0.94127 0.072708
-0.022416 -0.010024 1.0786 9.4961e-39 357 249 0 0 0 0.24016 -0.43078 -0.86991 0.054135
