# .PCD v.7 - Point Cloud Data file format
VERSION .7
FIELDS x y z rgb u v vx vy vz normal_x normal_y normal_z curvature
SIZE 4 4 4 4 4 4 4 4 4 4 4 4 4
TYPE F F F F F F F F F F F F F
COUNT 1 1 1 1 1 1 1 1 1 1 1 1 1
WIDTH 554
HEIGHT 1
VIEWPOINT 0 0 0 1 0 0 0
POINTS 554
DATA ascii
0.30395 0.014763 1.0466 8.482e-39 447 255 0 0 0 -0.087525 -0.91382 -0.39658 0.0018323
0.3064 0.014763 1.0466 8.7586e-39 449 255 0 0 0 -0.08714 -0.91316 -0.39819 0.0017854
0.27101 0.016606 1.047 7.6061e-39 303.5 256 0 0 0 -0.63071 -0.69775 -0.33962 0.050162
0.29196 0.016001 1.0475 1.0602e-38 252 256 0 0 0 -0.011377 -0.91028 -0.41384 0.0045129
0.29293 0.017212 1.0466 7.0069e-39 390 256 0 0 0 -0.020059 -0.91224 -0.40916 0.004625
0.29502 0.016001 1.0475 1.0326e-38 254.5 256 0 0 0 -0.034251 -0.91278 -0.40701 0.0045253
0.27089 0.018436 1.0466 6.9147e-39 472 256 0 0 0 -0.66468 -0.66653 -0.33754 0.04896
0.2699 0.022128 1.0475 1.0971e-38 249 258 0 0 0 -0.72156 -0.61299 -0.32185 0.040371
0.26906 0.025171 1.0466 7.053e-39 237 259 0 0 0 -0.78041 -0.54665 -0.30353 0.036915
0.26745 0.02703 1.0475 9.4961e-39 432 259 0 0 0 -0.83507 -0.45492 -0.30937 0.032543
0.265 0.029481 1.0475 7.3757e-39 388 260 0 0 0 -0.91296 -0.29944 -0.27721 0.0257
0.266 0.028232 1.0466 9.7727e-39 252 260 0 0 0 -0.88236 -0.37559 -0.28349 0.030495
0.26489 0.031306 1.047 6.9607e-39 266.5 261 0 0 0 -0.93495 -0.23271 -0.26778 0.022993
0.265 0.033158 1.0475 9.3118e-39 428 261 0 0 0 -0.95152 -0.16214 -0.26136 0.021495
0.265 0.034996 1.0475 6.6842e-39 286 262 0 0 0 -0.96489 -0.10573 -0.24044 0.020862
0.265 0.036834 1.0475 7.9288e-39 384 262 0 0 0 -0.96922 -0.070549 -0.23586 0.0188
0.266 0.045374 1.0466 8.7586e-39 429 263 0 0 0 -0.9761 -0.037734 -0.21402 0.012007
0.26611 0.047231 1.047 8.9429e-39 237.5 264 0 0 0 -0.97903 -0.040979 -0.19957 0.011456
0.26622 0.053991 1.0475 9.404e-39 261 266 0 0 0 -0.98579 -0.10498 -0.13113 0.011775
0.26316 0.057054 1.0475 9.1274e-39 280.5 267 0 0 0 -0.98564 -0.1205 -0.1183 0.011507
0.265 0.056442 1.0475 7.6522e-39 222 267 0 0 0 -0.98601 -0.1147 -0.12095 0.011409
0.26232 0.058843 1.0466 7.6522e-39 466 267 0 0 0 -0.98811 -0.10427 -0.11297 0.012035
0.26232 0.06068 1.0466 7.5601e-39 355 268 0 0 0 -0.98993 -0.086002 -0.11243 0.011826
0.26132 0.063182 1.0475 6.7764e-39 319.5 269 0 0 0 -0.99297 -0.053895 -0.10536 0.012261
0.26132 0.06502 1.0475 8.3898e-39 221 270 0 0 0 -0.99549 -0.025064 -0.091546 0.013194
0.26132 0.066859 1.0475 8.3437e-39 406 270 0 0 0 -0.99616 0.0033782 -0.087487 0.012737
0.26232 0.069863 1.0466 9.0352e-39 401 271 0 0 0 -0.99525 0.047288 -0.085146 0.010845
0.26255 0.071148 1.0475 8.482e-39 228 272 0 0 0 -0.99492 0.06228 -0.079073 0.0099697
0.26355 0.072312 1.0466 7.3757e-39 356 272 0 0 0 -0.99415 0.07263 -0.079949 0.0086852
0.26477 0.080883 1.0466 6.5459e-39 339 275 0 0 0 -0.99285 0.1117 -0.042181 0.0042893
0.265 0.082177 1.0475 5.9927e-39 454 275 0 0 0 -0.9925 0.11768 -0.033023 0.0035633
0.266 0.083332 1.0466 8.943e-39 284 276 0 0 0 -0.99409 0.10423 -0.030266 0.004064
0.26611 0.085204 1.047 9.2657e-39 328 276.5 0 0 0 -0.99511 0.095935 -0.023709 0.0046182
0.266 0.087006 1.0466 9.1274e-39 363 277 0 0 0 -0.99704 0.071787 -0.027627 0.0052498
0.266 0.088842 1.0466 8.7123e-39 206 278 0 0 0 -0.9987 0.044788 -0.024532 0.005298
0.26611 0.09133 1.047 7.9288e-39 284 278.5 0 0 0 -0.99955 0.014507 -0.026399 0.0050486
0.265 0.099334 1.0475 6.4537e-39 200 281 0 0 0 -0.99731 -0.065214 -0.03354 0.0039326
0.26477 0.10108 1.0466 7.7444e-39 358 281 0 0 0 -0.9967 -0.069841 -0.041422 0.0035914
0.26477 0.12741 1.0466 5.9927e-39 471 288 0 0 0 -0.88066 0.18532 -0.436 0.01234
0.26477 0.13721 1.0466 6.3615e-39 222 291 0 0 0 -0.77692 0.26721 -0.57009 0.034434
0.26477 0.13905 1.0466 7.6522e-39 381 291 0 0 0 -0.75957 0.26049 -0.59598 0.035034
0.26477 0.14088 1.0466 7.4678e-39 175 292 0 0 0 -0.74143 0.26684 -0.61569 0.035767
0.26477 0.14272 1.0466 9.7727e-39 326 292 0 0 0 -0.70629 0.29239 -0.64472 0.033471
0.26477 0.14517 1.0466 6.7764e-39 353 292.5 0 0 0 -0.67653 0.30721 -0.66928 0.035514
0.31087 0.011118 1.0493 6.8225e-39 397 254 0 0 0 -0.069607 -0.91912 -0.38778 0.0019514
0.31209 0.011118 1.0493 6.9147e-39 398 254 0 0 0 -0.066343 -0.92049 -0.3851 0.0019255
0.27258 0.013561 1.0484 9.5883e-39 268 255 0 0 0 -0.52818 -0.76789 -0.36245 0.052912
0.27503 0.013561 1.0484 9.8649e-39 270 255 0 0 0 -0.42419 -0.82316 -0.37746 0.0561
0.27933 0.013561 1.0484 6.4998e-39 273.5 255 0 0 0 -0.24109 -0.87462 -0.42062 0.04911
0.2814 0.013573 1.0493 6.2693e-39 275 255 0 0 0 -0.16908 -0.88817 -0.42728 0.038733
0.29834 0.013561 1.0484 8.943e-39 353 255 0 0 0 -0.055529 -0.91187 -0.40672 0.0034269
0.30079 0.013561 1.0484 1.0234e-38 355 255 0 0 0 -0.074267 -0.913 -0.40115 0.0026115
0.30288 0.012345 1.0493 7.2835e-39 467.5 254 0 0 0 -0.084478 -0.91289 -0.39937 0.0020065
0.30509 0.013561 1.0484 9.4501e-39 358.5 255 0 0 0 -0.087799 -0.9133 -0.39772 0.0017737
0.30692 0.013561 1.0484 9.7727e-39 360 255 0 0 0 -0.08646 -0.91383 -0.39679 0.0017759
0.3106 0.012335 1.0484 6.9147e-39 198 255 0 0 0 -0.072602 -0.91722 -0.3917 0.0019324
0.31578 0.012345 1.0493 6.4537e-39 202 255 0 0 0 -0.04248 -0.923 -0.38244 0.0015319
0.31674 0.012335 1.0484 6.5459e-39 203 255 0 0 0 -0.036276 -0.92226 -0.38487 0.0012768
0.31871 0.01234 1.0489 6.9147e-39 204.5 255 0 0 0 -0.029051 -0.92394 -0.38143 0.0012772
0.32314 0.012345 1.0493 6.1771e-39 238 255 0 0 0 -0.018104 -0.92872 -0.37034 0.001713
0.32805 0.012345 1.0493 6.3615e-39 242 255 0 0 0 -0.016167 -0.93206 -0.36194 0.0023715
0.33023 0.012335 1.0484 8.021e-39 244 255 0 0 0 -0.018831 -0.93391 -0.35702 0.0026578
0.33268 0.012335 1.0484 1.0602e-38 246 255 0 0 0 -0.028535 -0.9354 -0.35244 0.0025998
0.33787 0.012345 1.0493 1.1063e-38 250 255 0 0 0 -0.017574 -0.93933 -0.34257 0.0030667
0.34033 0.013573 1.0493 7.0069e-39 389 255 0 0 0 -0.011528 -0.94142 -0.33704 0.0035925
0.27158 0.0148 1.0493 6.9147e-39 402 255 0 0 0 -0.58812 -0.72748 -0.3534 0.049998
0.28509 0.0148 1.0493 7.9288e-39 424 255 0 0 0 -0.10029 -0.89386 -0.43698 0.023493
0.28607 0.014788 1.0484 7.9288e-39 425 255 0 0 0 -0.072739 -0.89738 -0.43523 0.017402
0.28938 0.0148 1.0493 8.3898e-39 427.5 255 0 0 0 -0.016038 -0.90284 -0.42967 0.0058831
0.29123 0.0148 1.0493 9.1274e-39 429 255 0 0 0 -0.0036375 -0.90364 -0.42829 0.0041346
0.29711 0.014788 1.0484 8.943e-39 434 255 0 0 0 -0.047429 -0.91194 -0.40758 0.0039051
0.29343 0.016014 1.0484 1.0326e-38 253 256 0 0 0 -0.022809 -0.90918 -0.41578 0.0046927
0.27036 0.019711 1.0493 7.1913e-39 284 257 0 0 0 -0.70118 -0.62785 -0.33787 0.041043
0.27013 0.02092 1.0484 9.4961e-39 431 257 0 0 0 -0.71387 -0.617 -0.3312 0.041597
0.26913 0.022166 1.0493 1.0049e-38 248 258 0 0 0 -0.74064 -0.58814 -0.32487 0.034408
0.27013 0.023373 1.0484 7.6522e-39 384 258 0 0 0 -0.72798 -0.6069 -0.31893 0.038591
0.26767 0.025827 1.0484 6.8225e-39 286 259 0 0 0 -0.81759 -0.48388 -0.31211 0.030582
0.2689 0.0246 1.0484 7.0991e-39 186 259 0 0 0 -0.77983 -0.53995 -0.31673 0.034359
0.26645 0.027053 1.0484 9.4961e-39 431 259 0 0 0 -0.86143 -0.41007 -0.29963 0.027213
0.26522 0.02828 1.0484 9.8649e-39 251 260 0 0 0 -0.89103 -0.34397 -0.29622 0.023695
0.26667 0.051628 1.0493 7.0991e-39 342 265 0 0 0 -0.98695 -0.079618 -0.13997 0.012824
0.26667 0.052855 1.0493 7.2835e-39 444 265 0 0 0 -0.98656 -0.09857 -0.13029 0.011877
0.26277 0.05649 1.0484 8.943e-39 201 267 0 0 0 -0.98679 -0.11359 -0.11555 0.011962
0.26176 0.058993 1.0493 7.6522e-39 465 267 0 0 0 -0.98942 -0.10145 -0.10373 0.012594
0.26154 0.060783 1.0484 7.5601e-39 354 268 0 0 0 -0.99226 -0.079207 -0.095653 0.012295
0.26154 0.068755 1.0484 8.7586e-39 275 271 0 0 0 -0.99643 0.032356 -0.077962 0.012188
0.26176 0.070041 1.0493 8.7586e-39 400 271 0 0 0 -0.99655 0.047 -0.068383 0.011226
0.26349 0.073078 1.0489 7.0529e-39 407 272 0 0 0 -0.99405 0.081793 -0.071884 0.0076506
0.26545 0.083545 1.0493 9.0352e-39 283 276 0 0 0 -0.99273 0.11612 -0.031578 0.0032964
0.26545 0.097048 1.0493 8.1132e-39 289 280 0 0 0 -0.99914 -0.041198 -0.0054862 0.0022033
0.26522 0.098192 1.0484 8.6664e-39 414 280 0 0 0 -0.99854 -0.05158 -0.016237 0.0026786
0.26399 0.1215 1.0484 6.9147e-39 268 287 0 0 0 -0.95828 0.12329 -0.25787 0.0077646
0.26422 0.12037 1.0493 5.5317e-39 505 286 0 0 0 -0.96892 0.11253 -0.2203 0.0077001
0.26399 0.12272 1.0484 6.8225e-39 386 287 0 0 0 -0.94611 0.13658 -0.29365 0.0082466
0.26399 0.14112 1.0484 7.0069e-39 174 292 0 0 0 -0.762 0.23476 -0.60353 0.031001
0.26399 0.14296 1.0484 9.6805e-39 325 292 0 0 0 -0.71411 0.26895 -0.6463 0.03201
0.26399 0.1448 1.0484 6.5459e-39 501 292 0 0 0 -0.69498 0.2771 -0.66349 0.03355
0.31166 0.0099152 1.0519 1.0418e-38 264 254 0 0 0 -0.058588 -0.92425 -0.37727 0.0019097
0.2772 0.011146 1.0519 9.8649e-39 368 254 0 0 0 -0.32415 -0.85895 -0.39638 0.049091
0.27843 0.011146 1.0519 9.6805e-39 369 254 0 0 0 -0.26598 -0.87552 -0.40339 0.046877
0.30305 0.011146 1.0519 7.0069e-39 389 254 0 0 0 -0.078738 -0.91195 -0.40268 0.0022144
0.30428 0.011146 1.0519 6.9147e-39 390 254 0 0 0 -0.080009 -0.9129 -0.40026 0.0020816
0.30674 0.011146 1.0519 7.0991e-39 392 254 0 0 0 -0.080762 -0.91647 -0.39186 0.0020113
0.3092 0.011146 1.0519 7.2835e-39 395 254 0 0 0 -0.069412 -0.91941 -0.38712 0.0021008
0.31043 0.011146 1.0519 6.8225e-39 396 254 0 0 0 -0.066873 -0.92167 -0.38216 0.0020287
0.31535 0.011146 1.0519 6.9147e-39 400 254 0 0 0 -0.042808 -0.92735 -0.37175 0.0015751
0.31719 0.011146 1.0519 7.053e-39 401.5 254 0 0 0 -0.029808 -0.92908 -0.36868 0.0013522
0.31953 0.011141 1.0515 6.9608e-39 403.5 254 0 0 0 -0.020837 -0.92974 -0.36763 0.0012908
0.32096 0.011127 1.0501 7.0991e-39 405 254 0 0 0 -0.016265 -0.928 -0.37222 0.0014742
0.32369 0.011136 1.051 7.4678e-39 407 254 0 0 0 -0.013068 -0.93015 -0.36695 0.0015288
0.32526 0.011127 1.0501 7.1452e-39 412 254 0 0 0 -0.016398 -0.93106 -0.3645 0.0019165
0.32923 0.011137 1.051 7.7444e-39 420.5 254 0 0 0 -0.0077307 -0.93344 -0.35864 0.0020568
0.33135 0.011146 1.0519 7.56e-39 422 254 0 0 0 -0.00912 -0.93592 -0.35209 0.0021628
0.33292 0.011137 1.051 8.021e-39 423.5 254 0 0 0 -0.016319 -0.93579 -0.35219 0.0022436
0.27182 0.013584 1.0501 9.8649e-39 267 255 0 0 0 -0.56085 -0.74699 -0.357 0.047931
0.27328 0.012366 1.051 9.3118e-39 443 254 0 0 0 -0.49146 -0.78972 -0.36717 0.051678
0.27512 0.012366 1.051 9.1274e-39 444.5 254 0 0 0 -0.42457 -0.82171 -0.38018 0.05366
0.27735 0.012356 1.0501 8.6664e-39 446.5 254 0 0 0 -0.32865 -0.85581 -0.39947 0.052801
0.27942 0.012366 1.051 8.482e-39 448 254 0 0 0 -0.23409 -0.87714 -0.41932 0.044256
0.28065 0.012366 1.051 8.482e-39 449 254 0 0 0 -0.19469 -0.88392 -0.42518 0.040267
0.28262 0.012986 1.0515 7.4679e-39 363 254.5 0 0 0 -0.14696 -0.89088 -0.42981 0.032276
0.2841 0.013584 1.0501 6.1771e-39 277 255 0 0 0 -0.11641 -0.89417 -0.43233 0.026773
0.28705 0.013607 1.0519 6.2693e-39 279 255 0 0 0 -0.053861 -0.89838 -0.4359 0.011842
0.28951 0.013607 1.0519 6.3615e-39 281 255 0 0 0 -0.010598 -0.90145 -0.43274 0.0050767
0.29136 0.013607 1.0519 6.9608e-39 314.5 255 0 0 0 -0.0021597 -0.90226 -0.4312 0.004009
0.29762 0.013584 1.0501 8.021e-39 352 255 0 0 0 -0.046966 -0.90992 -0.41211 0.0038596
0.2991 0.012366 1.051 7.0069e-39 464 254 0 0 0 -0.055122 -0.91048 -0.40986 0.0032802
0.30068 0.01297 1.0501 8.4359e-39 410 254.5 0 0 0 -0.071289 -0.91082 -0.4066 0.002821
0.30499 0.012356 1.0501 6.6381e-39 469 254 0 0 0 -0.085354 -0.91383 -0.39702 0.0018819
0.30696 0.012361 1.0505 6.0849e-39 470.5 254 0 0 0 -0.082337 -0.91559 -0.39359 0.0019107
0.30928 0.012356 1.0501 4.6559e-39 472.5 254 0 0 0 -0.076181 -0.91709 -0.39133 0.0019698
0.31359 0.012356 1.0501 7.1913e-39 200 255 0 0 0 -0.057055 -0.92299 -0.38058 0.0017953
0.31482 0.012356 1.0501 6.8225e-39 201 255 0 0 0 -0.048104 -0.92365 -0.38021 0.0016165
0.32219 0.012356 1.0501 6.5459e-39 207 255 0 0 0 -0.015079 -0.9281 -0.37202 0.001489
0.3271 0.012356 1.0501 6.4537e-39 241 255 0 0 0 -0.014889 -0.93188 -0.36247 0.0021913
0.33509 0.012356 1.0501 1.0741e-38 247.5 255 0 0 0 -0.019909 -0.93885 -0.34376 0.0025535
0.33722 0.012366 1.051 1.0971e-38 249 255 0 0 0 -0.0084387 -0.93819 -0.34602 0.0028374
0.33997 0.012377 1.0519 1.1063e-38 251 255 0 0 0 0.0042158 -0.93995 -0.3413 0.0032951
0.28779 0.014813 1.0501 8.021e-39 426 255 0 0 0 -0.044357 -0.89914 -0.43541 0.010965
0.29295 0.014825 1.051 9.4961e-39 430 255 0 0 0 -0.010998 -0.90485 -0.42559 0.004475
0.29467 0.014819 1.0505 9.2196e-39 431.5 255 0 0 0 -0.024646 -0.90769 -0.41891 0.0045547
0.29664 0.014825 1.051 8.943e-39 433 255 0 0 0 -0.036721 -0.90836 -0.41658 0.0042844
0.27105 0.0173 1.0519 9.2196e-39 371 256 0 0 0 -0.65609 -0.67239 -0.3427 0.040975
0.2697 0.019137 1.0515 7.2374e-39 376.5 256.5 0 0 0 -0.70726 -0.61775 -0.34375 0.03687
0.27059 0.018499 1.0501 7.1913e-39 471 256 0 0 0 -0.67683 -0.64976 -0.34599 0.044087
0.26909 0.020983 1.0515 9.5883e-39 429.5 257 0 0 0 -0.73577 -0.59111 -0.33051 0.03296
0.26885 0.023029 1.0513 8.2054e-39 337.33 258 0 0 0 -0.75127 -0.57238 -0.3286 0.030495
0.26679 0.02549 1.0513 6.4844e-39 251 259 0 0 0 -0.8255 -0.46359 -0.32192 0.022506
0.26813 0.024642 1.0501 6.6381e-39 185 259 0 0 0 -0.79284 -0.51984 -0.31808 0.029598
0.26528 0.027122 1.051 9.1735e-39 429.5 259 0 0 0 -0.87963 -0.36091 -0.30982 0.022599
0.26366 0.029607 1.0519 7.3757e-39 386 260 0 0 0 -0.92736 -0.24331 -0.28426 0.022125
0.26456 0.028954 1.0505 8.7585e-39 318.5 260 0 0 0 -0.907 -0.2953 -0.30027 0.022051
0.26366 0.030837 1.0519 6.3615e-39 186 261 0 0 0 -0.94033 -0.2005 -0.2749 0.021752
0.26444 0.030785 1.0501 6.3615e-39 187 261 0 0 0 -0.93552 -0.22044 -0.27605 0.021579
0.26325 0.032478 1.0519 7.7752e-39 352.67 261 0 0 0 -0.95033 -0.15404 -0.27047 0.023193
0.26444 0.032628 1.0501 8.482e-39 385.5 261 0 0 0 -0.94919 -0.16282 -0.2693 0.022281
0.26366 0.035145 1.0519 6.6842e-39 259 262 0 0 0 -0.96198 -0.078042 -0.26173 0.021944
0.26444 0.035085 1.0501 6.5459e-39 260 262 0 0 0 -0.96364 -0.091094 -0.25118 0.021692
0.26366 0.036991 1.0519 8.1132e-39 383 262 0 0 0 -0.9638 -0.061548 -0.25944 0.018512
0.26517 0.04309 1.0505 6.9147e-39 284.5 263 0 0 0 -0.96625 -0.027848 -0.25611 0.013156
0.26539 0.044356 1.0515 9.7266e-39 372.5 263 0 0 0 -0.96755 -0.025945 -0.25135 0.013034
0.26612 0.045606 1.0519 8.8508e-39 428 263 0 0 0 -0.97164 -0.019054 -0.23571 0.012717
0.26612 0.049298 1.0519 7.0991e-39 393 264 0 0 0 -0.98307 -0.03217 -0.18039 0.015424
0.26321 0.055357 1.0501 7.1913e-39 396 266 0 0 0 -0.98669 -0.10786 -0.12169 0.012245
0.26506 0.055357 1.0501 7.0069e-39 397.5 266 0 0 0 -0.98669 -0.10786 -0.12169 0.012245
0.26199 0.057815 1.0501 9.404e-39 358 267 0 0 0 -0.98937 -0.10346 -0.10218 0.01275
0.26243 0.056682 1.0519 8.7586e-39 200 267 0 0 0 -0.9892 -0.10267 -0.10456 0.012788
0.2612 0.067143 1.0519 8.5743e-39 405 270 0 0 0 -0.99831 0.0065036 -0.057818 0.012819
0.26243 0.071451 1.0519 8.482e-39 227 272 0 0 0 -0.99557 0.066878 -0.066139 0.0096734
0.26344 0.073849 1.051 6.8225e-39 458 272 0 0 0 -0.99351 0.093505 -0.064698 0.0067903
0.26444 0.075015 1.0501 7.8366e-39 284 273 0 0 0 -0.992 0.10923 -0.063286 0.0048679
0.26444 0.076858 1.0501 7.9288e-39 326 273.5 0 0 0 -0.99123 0.11819 -0.05912 0.0041497
0.26467 0.078768 1.051 6.5459e-39 372 274 0 0 0 -0.99085 0.12256 -0.056519 0.0039412
0.26489 0.080682 1.0519 6.2693e-39 264.5 275 0 0 0 -0.98923 0.13582 -0.054513 0.0028863
0.26567 0.084844 1.0501 9.0352e-39 417 276 0 0 0 -0.99353 0.10902 -0.031912 0.0037443
0.2659 0.086146 1.051 9.9571e-39 237 277 0 0 0 -0.99477 0.095741 -0.035663 0.0045184
0.26612 0.08745 1.0519 9.3118e-39 362 277 0 0 0 -0.99574 0.083987 -0.038186 0.0047142
0.26567 0.095902 1.0501 6.0849e-39 192 280 0 0 0 -0.99964 -0.026391 -0.0040775 0.0026434
0.26612 0.094835 1.0519 9.4961e-39 402 279 0 0 0 -0.99986 -0.0085074 -0.014381 0.0037642
0.26444 0.11925 1.0501 8.943e-39 379 286 0 0 0 -0.97719 0.10238 -0.18607 0.0068956
0.26344 0.14148 1.051 6.7303e-39 173 292 0 0 0 -0.77376 0.19998 -0.60108 0.024908
0.26321 0.14321 1.0501 9.5422e-39 324 292 0 0 0 -0.73434 0.23314 -0.63748 0.028315
0.27767 0.0099321 1.0537 3.8722e-39 471 253 0 0 0 -0.292 -0.8768 -0.38206 0.045379
0.27867 0.0099237 1.0528 7.1913e-39 199 254 0 0 0 -0.24114 -0.88278 -0.40318 0.042284
0.31316 0.0099237 1.0528 1.0049e-38 265 254 0 0 0 -0.050953 -0.92681 -0.37205 0.0017283
0.32082 0.0099321 1.0537 7.0991e-39 271 254 0 0 0 -0.012246 -0.93316 -0.35926 0.0013764
0.32206 0.0099321 1.0537 5.9927e-39 272 254 0 0 0 -0.0084671 -0.93391 -0.35741 0.0014426
0.32945 0.0099321 1.0537 6.1771e-39 278 254 0 0 0 -0.0020426 -0.93553 -0.35324 0.001796
0.3304 0.0099237 1.0528 5.9927e-39 279 254 0 0 0 -0.0023792 -0.93525 -0.35399 0.0018813
0.33315 0.0099321 1.0537 6.2693e-39 281 254 0 0 0 -0.0079218 -0.93609 -0.35167 0.0017008
0.33438 0.0099321 1.0537 6.5459e-39 347 254 0 0 0 -0.0044739 -0.93682 -0.34978 0.0017385
0.27374 0.011155 1.0528 9.9571e-39 365 254 0 0 0 -0.46782 -0.80905 -0.35578 0.046982
0.27497 0.011155 1.0528 1.0142e-38 366 254 0 0 0 -0.41326 -0.8342 -0.36512 0.048086
0.27621 0.011155 1.0528 1.0142e-38 367 254 0 0 0 -0.37507 -0.84702 -0.37667 0.049377
0.2799 0.011155 1.0528 9.6805e-39 370 254 0 0 0 -0.2223 -0.88592 -0.40709 0.041106
0.28113 0.011155 1.0528 9.5883e-39 371 254 0 0 0 -0.16896 -0.89463 -0.41362 0.034701
0.28236 0.011155 1.0528 9.2196e-39 372 254 0 0 0 -0.14513 -0.89602 -0.41962 0.029515
0.29986 0.011165 1.0537 7.6522e-39 386 254 0 0 0 -0.053296 -0.90873 -0.41396 0.0032518
0.30207 0.011155 1.0528 7.3757e-39 388 254 0 0 0 -0.070054 -0.91092 -0.4066 0.002652
0.30577 0.011155 1.0528 6.9147e-39 391 254 0 0 0 -0.07951 -0.9154 -0.39461 0.0019724
0.30849 0.011165 1.0537 7.6522e-39 394 254 0 0 0 -0.071296 -0.91993 -0.38555 0.0020636
0.31439 0.011155 1.0528 6.9147e-39 399 254 0 0 0 -0.047013 -0.92782 -0.37006 0.0016392
0.32301 0.011155 1.0528 7.2835e-39 406 254 0 0 0 -0.010705 -0.93329 -0.35897 0.0014964
0.32794 0.011155 1.0528 7.8366e-39 417 254 0 0 0 -0.006187 -0.93424 -0.35659 0.0017076
0.33533 0.011155 1.0528 7.6522e-39 425 254 0 0 0 -0.0070316 -0.93765 -0.34751 0.0020959
0.33685 0.011165 1.0537 7.6522e-39 426 254 0 0 0 0.00049922 -0.93606 -0.35184 0.0019042
0.33903 0.011155 1.0528 7.9288e-39 428 254 0 0 0 0.0086214 -0.93486 -0.3549 0.002089
0.34055 0.011165 1.0537 8.482e-39 429 254 0 0 0 0.014559 -0.93396 -0.35708 0.0022911
0.27251 0.012387 1.0528 9.3118e-39 442 254 0 0 0 -0.53623 -0.76637 -0.35374 0.045777
0.28384 0.012398 1.0537 8.5742e-39 451 254 0 0 0 -0.12032 -0.90041 -0.41808 0.024246
0.28483 0.012387 1.0528 8.3898e-39 452 254 0 0 0 -0.096502 -0.89942 -0.4263 0.021011
0.28606 0.013619 1.0528 6.1771e-39 278 255 0 0 0 -0.072888 -0.89854 -0.4328 0.015831
0.28926 0.013008 1.0533 7.3757e-39 368 254.5 0 0 0 -0.013892 -0.90387 -0.42757 0.0052888
0.29124 0.012398 1.0537 8.6664e-39 457 254 0 0 0 0.0026872 -0.90342 -0.42874 0.0036266
0.29296 0.013008 1.0533 8.021e-39 403 254.5 0 0 0 -0.0064628 -0.90411 -0.42726 0.0041254
0.29542 0.013625 1.0533 7.5601e-39 349.5 255 0 0 0 -0.02219 -0.90635 -0.42195 0.0043423
0.29715 0.013619 1.0528 7.9288e-39 351 255 0 0 0 -0.038071 -0.90864 -0.41585 0.0041088
0.29838 0.012387 1.0528 7.1913e-39 463 254 0 0 0 -0.046441 -0.90879 -0.41467 0.0037006
0.30084 0.012387 1.0528 6.9147e-39 465 254 0 0 0 -0.062501 -0.91016 -0.40952 0.0031035
0.27151 0.014863 1.0537 7.0069e-39 401 255 0 0 0 -0.61494 -0.71133 -0.34039 0.041429
0.27046 0.016493 1.0528 7.7752e-39 278.33 256 0 0 0 -0.65574 -0.67476 -0.33868 0.038674
0.26893 0.01917 1.0533 7.1913e-39 375.5 256.5 0 0 0 -0.72345 -0.60368 -0.33496 0.033096
0.26781 0.023493 1.0537 7.6522e-39 381 258 0 0 0 -0.77927 -0.54135 -0.31572 0.02207
0.26512 0.025937 1.0528 6.9147e-39 283 259 0 0 0 -0.86299 -0.40027 -0.30828 0.019935
0.26658 0.024726 1.0537 6.8225e-39 480 258 0 0 0 -0.82212 -0.47645 -0.31164 0.019648
0.26327 0.029016 1.0528 8.2516e-39 317 260 0 0 0 -0.92398 -0.25885 -0.28153 0.021209
0.26266 0.030864 1.0528 6.4537e-39 185 261 0 0 0 -0.94238 -0.19195 -0.274 0.022854
0.26266 0.033327 1.0528 8.8508e-39 425 261 0 0 0 -0.95449 -0.12891 -0.26894 0.023385
0.26277 0.03519 1.0533 6.9608e-39 256 262 0 0 0 -0.96005 -0.071919 -0.27042 0.022052
0.26288 0.037054 1.0537 8.1132e-39 382 262 0 0 0 -0.96147 -0.05693 -0.26896 0.018926
0.26389 0.043181 1.0528 6.6381e-39 283 263 0 0 0 -0.96448 -0.024571 -0.26301 0.013339
0.26461 0.045048 1.0533 9.2196e-39 399 263 0 0 0 -0.96915 -0.014874 -0.24601 0.013366
0.26535 0.046917 1.0537 7.0991e-39 192 264 0 0 0 -0.97647 -0.010948 -0.21538 0.01429
0.26635 0.046877 1.0528 7.1913e-39 193 264 0 0 0 -0.97521 -0.015429 -0.22075 0.014031
0.26535 0.048766 1.0537 8.482e-39 334.5 264 0 0 0 -0.98188 -0.021507 -0.18826 0.015993
0.26635 0.048108 1.0528 9.9571e-39 278 264 0 0 0 -0.9798 -0.019363 -0.19904 0.014421
0.26535 0.050615 1.0537 5.9927e-39 183 265 0 0 0 -0.98597 -0.041633 -0.16167 0.017598
0.26647 0.05121 1.0533 6.592e-39 264 265 0 0 0 -0.98647 -0.053526 -0.15498 0.017009
0.26658 0.053081 1.0537 8.3898e-39 442 265 0 0 0 -0.98774 -0.093372 -0.12509 0.014792
0.26389 0.054267 1.0528 9.6805e-39 258 266 0 0 0 -0.98857 -0.086043 -0.1238 0.013656
0.26512 0.054267 1.0528 9.5883e-39 259 266 0 0 0 -0.98806 -0.087055 -0.12708 0.013462
0.26635 0.054267 1.0528 9.404e-39 260 266 0 0 0 -0.98768 -0.095716 -0.12377 0.013073
0.26165 0.06171 1.0537 8.5742e-39 422 268 0 0 0 -0.99639 -0.061209 -0.058747 0.012697
0.26165 0.062943 1.0537 6.8225e-39 249 269 0 0 0 -0.99776 -0.049221 -0.04531 0.012559
0.26142 0.064737 1.0528 7.7444e-39 304 269.5 0 0 0 -0.99807 -0.028973 -0.054994 0.012406
0.26142 0.069048 1.0528 9.3118e-39 274 271 0 0 0 -0.99764 0.038093 -0.057203 0.011579
0.26389 0.075207 1.0528 8.1132e-39 283 273 0 0 0 -0.99075 0.11817 -0.066756 0.0043193
0.26411 0.07712 1.0537 7.7905e-39 325 273.5 0 0 0 -0.98825 0.13882 -0.064033 0.00255
0.26524 0.08325 1.0533 7.3757e-39 367.5 275.5 0 0 0 -0.99053 0.12677 -0.052652 0.0035557
0.26635 0.088757 1.0528 5.8083e-39 499 277 0 0 0 -0.9964 0.073802 -0.041824 0.0047401
0.26658 0.090682 1.0537 9.6343e-39 328.5 278 0 0 0 -0.99782 0.051628 -0.041193 0.0049577
0.26635 0.093068 1.0528 7.8366e-39 229 279 0 0 0 -0.99931 0.015096 -0.033978 0.004942
0.27494 0.0099449 1.0551 5.4857e-39 468.5 253 0 0 0 -0.42207 -0.83448 -0.35424 0.04511
0.27668 0.0099406 1.0546 4.4254e-39 470 253 0 0 0 -0.34602 -0.86133 -0.37199 0.045731
0.27865 0.0087105 1.0551 7.0069e-39 396.5 253 0 0 0 -0.25565 -0.88926 -0.37928 0.040013
0.28128 0.0095318 1.0549 6.7303e-39 267.33 253.67 0 0 0 -0.17011 -0.90103 -0.39901 0.032291
0.28285 0.0099406 1.0546 6.4537e-39 203 254 0 0 0 -0.11561 -0.9026 -0.41465 0.022837
0.30334 0.0099449 1.0551 1.0925e-38 250.5 254 0 0 0 -0.067017 -0.91321 -0.40195 0.002304
0.30506 0.0099406 1.0546 1.0418e-38 252 254 0 0 0 -0.07011 -0.91577 -0.39553 0.0021818
0.30703 0.0099449 1.0551 1.0234e-38 253.5 254 0 0 0 -0.068186 -0.91934 -0.38752 0.0022012
0.30999 0.0099406 1.0546 1.0602e-38 262 254 0 0 0 -0.056607 -0.92429 -0.37748 0.0019765
0.31123 0.0099406 1.0546 1.051e-38 263 254 0 0 0 -0.054897 -0.92509 -0.37577 0.0018961
0.31273 0.0087142 1.0555 8.8508e-39 433 253 0 0 0 -0.043828 -0.92788 -0.37029 0.0017556
0.31493 0.0099406 1.0546 9.8649e-39 266 254 0 0 0 -0.041539 -0.93006 -0.36505 0.0015518
0.31678 0.0099406 1.0546 9.404e-39 267.5 254 0 0 0 -0.029788 -0.93177 -0.36182 0.0013695
0.31938 0.0099449 1.0551 8.8507e-39 269.5 254 0 0 0 -0.0168 -0.93345 -0.35832 0.0012996
0.32384 0.0099491 1.0555 5.9927e-39 273 254 0 0 0 -0.0062594 -0.93602 -0.35189 0.0013353
0.3248 0.0099406 1.0546 5.9927e-39 274 254 0 0 0 -0.0082093 -0.93568 -0.35275 0.0014249
0.32665 0.0099406 1.0546 6.0388e-39 275.5 254 0 0 0 -0.005703 -0.9359 -0.35222 0.0015497
0.32878 0.0099491 1.0555 6.1771e-39 277 254 0 0 0 -0.0036423 -0.93644 -0.35082 0.0016268
0.3322 0.0099406 1.0546 6.0849e-39 280 254 0 0 0 -0.0050852 -0.93686 -0.34967 0.0017204
0.3359 0.0099406 1.0546 6.7303e-39 348 254 0 0 0 -0.00091922 -0.93693 -0.34952 0.0018715
0.33989 0.0099491 1.0555 7.6522e-39 351 254 0 0 0 0.0090497 -0.93452 -0.35579 0.00214
0.27298 0.011174 1.0546 1.0234e-38 362 254 0 0 0 -0.50995 -0.78913 -0.34238 0.043372
0.28469 0.011174 1.0546 9.1735e-39 373.5 254 0 0 0 -0.092622 -0.9035 -0.41846 0.018438
0.29111 0.011184 1.0555 8.6203e-39 378.5 254 0 0 0 0.0029024 -0.90504 -0.42532 0.0033938
0.29297 0.011184 1.0555 7.8366e-39 380 254 0 0 0 -0.002137 -0.90459 -0.42628 0.0037656
0.29914 0.011184 1.0555 7.2835e-39 385 254 0 0 0 -0.046675 -0.90828 -0.41575 0.0033849
0.30135 0.011174 1.0546 7.56e-39 387 254 0 0 0 -0.063568 -0.9105 -0.40859 0.0027827
0.33837 0.011174 1.0546 7.6522e-39 427 254 0 0 0 0.0060412 -0.93617 -0.35151 0.0020851
0.27124 0.013648 1.0551 9.7727e-39 265.5 255 0 0 0 -0.60575 -0.72252 -0.33321 0.038907
0.28716 0.012408 1.0546 8.2976e-39 453.5 254 0 0 0 -0.040936 -0.90464 -0.4242 0.0092154
0.28902 0.012408 1.0546 8.482e-39 455 254 0 0 0 -0.013562 -0.9039 -0.42754 0.0053331
0.29395 0.012408 1.0546 9.0352e-39 459 254 0 0 0 -0.0095251 -0.90481 -0.42571 0.0041808
0.29544 0.012419 1.0555 9.0352e-39 460 254 0 0 0 -0.019472 -0.90532 -0.42428 0.0041387
0.29704 0.012408 1.0546 8.2054e-39 461.5 254 0 0 0 -0.03265 -0.90656 -0.42081 0.0040861
0.27051 0.014876 1.0546 7.1913e-39 400 255 0 0 0 -0.6342 -0.69653 -0.33562 0.038438
0.26938 0.016734 1.0551 7.9749e-39 300 256 0 0 0 -0.69696 -0.63792 -0.32758 0.031838
0.26827 0.019828 1.0555 6.9147e-39 281 257 0 0 0 -0.74951 -0.57779 -0.3231 0.025902
0.26804 0.021045 1.0546 9.3118e-39 428 257 0 0 0 -0.76041 -0.56464 -0.32087 0.024291
0.26703 0.023533 1.0555 7.3757e-39 380 258 0 0 0 -0.79674 -0.51938 -0.30895 0.01673
0.26804 0.022279 1.0546 7.2835e-39 246 258 0 0 0 -0.76902 -0.55238 -0.32168 0.022469
0.26557 0.024747 1.0546 7.2835e-39 479 258 0 0 0 -0.83169 -0.46523 -0.30308 0.016237
0.26333 0.027238 1.0555 9.1274e-39 427 259 0 0 0 -0.90066 -0.32454 -0.28894 0.018663
0.26445 0.026609 1.0551 8.1132e-39 355 259 0 0 0 -0.88349 -0.36417 -0.29467 0.017536
0.26259 0.029079 1.0551 7.5601e-39 316 260 0 0 0 -0.9265 -0.24478 -0.28579 0.021942
0.26187 0.030916 1.0546 6.3615e-39 184 261 0 0 0 -0.93673 -0.20149 -0.28626 0.023691
0.26187 0.03215 1.0546 7.1913e-39 288 261 0 0 0 -0.94406 -0.1667 -0.28455 0.024956
0.26209 0.033413 1.0555 8.5742e-39 424 261 0 0 0 -0.95658 -0.11243 -0.2689 0.02434
0.26209 0.035265 1.0555 7.053e-39 255 262 0 0 0 -0.96263 -0.070186 -0.26158 0.021023
0.26434 0.045723 1.0546 8.6664e-39 426 263 0 0 0 -0.97049 -0.0067387 -0.24107 0.014295
0.26456 0.046997 1.0555 6.6381e-39 191 264 0 0 0 -0.97578 0.0025852 -0.21876 0.016068
0.26456 0.04885 1.0555 8.482e-39 333.5 264 0 0 0 -0.98358 -0.014817 -0.17985 0.018137
0.26507 0.051297 1.0551 6.3615e-39 261 265 0 0 0 -0.9867 -0.052784 -0.15372 0.017779
0.26507 0.053149 1.0551 8.8969e-39 440.5 265 0 0 0 -0.98793 -0.077522 -0.13414 0.016033
0.2631 0.055594 1.0546 7.56e-39 395 266 0 0 0 -0.98923 -0.10351 -0.10349 0.013505
0.26209 0.056876 1.0555 8.8508e-39 199 267 0 0 0 -0.99075 -0.099456 -0.092329 0.01348
0.26187 0.059295 1.0546 7.6522e-39 464 267 0 0 0 -0.99482 -0.080823 -0.06159 0.012906
0.26209 0.058111 1.0555 9.6805e-39 357 267 0 0 0 -0.99259 -0.095302 -0.07536 0.01314
0.26187 0.060529 1.0546 8.021e-39 284 268 0 0 0 -0.99609 -0.070226 -0.053538 0.012636
0.26187 0.0704 1.0546 8.5742e-39 399 271 0 0 0 -0.99753 0.050439 -0.048798 0.0099758
0.2631 0.072868 1.0546 7.9288e-39 354 272 0 0 0 -0.99349 0.092342 -0.066706 0.0065817
0.26333 0.074165 1.0555 6.8225e-39 457 272 0 0 0 -0.99111 0.1106 -0.074018 0.0049671
0.26456 0.079105 1.0555 6.9147e-39 371 274 0 0 0 -0.98686 0.1457 -0.069856 0.0026751
0.26557 0.085207 1.0546 9.3118e-39 416 276 0 0 0 -0.99209 0.11315 -0.054285 0.0039686
0.2658 0.086514 1.0555 9.4961e-39 236 277 0 0 0 -0.99238 0.10809 -0.0591 0.0041
0.26557 0.096311 1.0546 6.2693e-39 191 280 0 0 0 -0.99976 0.011957 -0.018308 0.0057536
0.27368 0.0099662 1.0573 6.6381e-39 467 253 0 0 0 -0.46764 -0.81458 -0.34318 0.042327
0.27491 0.0087291 1.0573 7.56e-39 393 253 0 0 0 -0.423 -0.83641 -0.34856 0.041796
0.27677 0.0087291 1.0573 7.514e-39 394.5 253 0 0 0 -0.35544 -0.86094 -0.36394 0.042452
0.28086 0.0087216 1.0564 7.0069e-39 398 253 0 0 0 -0.16966 -0.89742 -0.40724 0.030599
0.28333 0.0087216 1.0564 7.0069e-39 400 253 0 0 0 -0.10249 -0.90454 -0.41389 0.020419
0.28519 0.0099576 1.0564 6.7303e-39 204.5 254 0 0 0 -0.074638 -0.90671 -0.4151 0.014185
0.30063 0.0099576 1.0564 1.0602e-38 248 254 0 0 0 -0.049575 -0.90902 -0.4138 0.0031192
0.30213 0.0099662 1.0573 1.0695e-38 249 254 0 0 0 -0.054215 -0.91048 -0.40998 0.0028335
0.3046 0.0087291 1.0573 7.2835e-39 426 253 0 0 0 -0.0584 -0.91164 -0.40681 0.0025062
0.30929 0.0099576 1.0564 9.9571e-39 255 254 0 0 0 -0.054426 -0.92238 -0.38242 0.0020788
0.31128 0.0087254 1.0568 8.2515e-39 431.5 253 0 0 0 -0.044159 -0.92518 -0.37696 0.0020549
0.31498 0.0087254 1.0568 9.45e-39 434.5 253 0 0 0 -0.035375 -0.93093 -0.36349 0.0016189
0.31697 0.0087291 1.0573 9.2196e-39 436 253 0 0 0 -0.021135 -0.93109 -0.36419 0.0015972
0.32116 0.0087254 1.0568 9.0352e-39 443.5 253 0 0 0 -0.0073785 -0.93553 -0.35318 0.0012775
0.32288 0.0087216 1.0564 8.8508e-39 445 253 0 0 0 -0.0054683 -0.93603 -0.35189 0.0012789
0.32934 0.0087291 1.0573 8.6664e-39 450 253 0 0 0 -0.004572 -0.93614 -0.3516 0.0016399
0.33092 0.0087216 1.0564 8.6664e-39 451.5 253 0 0 0 -0.0036876 -0.93676 -0.34994 0.0017213
0.33305 0.0087291 1.0573 8.7586e-39 453 253 0 0 0 -0.010145 -0.93621 -0.35131 0.0019283
0.33463 0.0087216 1.0564 8.7586e-39 454.5 253 0 0 0 -0.005798 -0.93639 -0.3509 0.0018876
0.33724 0.0093434 1.0568 7.9749e-39 402.5 253.5 0 0 0 -0.0074948 -0.93569 -0.35275 0.0022336
0.33895 0.0099576 1.0564 7.8366e-39 350 254 0 0 0 0.00045269 -0.93517 -0.35421 0.0022685
0.27244 0.011203 1.0573 1.0418e-38 361 254 0 0 0 -0.53587 -0.77799 -0.32797 0.040915
0.28704 0.011194 1.0564 9.7727e-39 375 254 0 0 0 -0.039369 -0.90602 -0.4214 0.0084046
0.28889 0.011194 1.0564 9.5884e-39 376.5 254 0 0 0 -0.018194 -0.90523 -0.42453 0.005384
0.29533 0.011203 1.0573 7.3296e-39 381.5 254 0 0 0 -0.017455 -0.90429 -0.42657 0.0039412
0.29693 0.011194 1.0564 6.9147e-39 383 254 0 0 0 -0.025983 -0.90628 -0.42188 0.0039363
0.29842 0.011203 1.0573 7.0991e-39 384 254 0 0 0 -0.038758 -0.90657 -0.42027 0.0034424
0.26997 0.013677 1.0573 1.0142e-38 264 255 0 0 0 -0.6365 -0.70026 -0.32326 0.033955
0.2712 0.01244 1.0573 9.1274e-39 439 254 0 0 0 -0.60236 -0.72826 -0.32679 0.036326
0.27221 0.01243 1.0564 9.0352e-39 440 254 0 0 0 -0.55878 -0.75581 -0.34135 0.041573
0.26973 0.014902 1.0564 7.1913e-39 399 255 0 0 0 -0.65598 -0.67828 -0.33109 0.033693
0.2685 0.018609 1.0564 7.6522e-39 468 256 0 0 0 -0.72976 -0.60127 -0.32546 0.02948
0.26749 0.021099 1.0573 9.3118e-39 427 257 0 0 0 -0.77726 -0.54743 -0.31015 0.019613
0.26651 0.022736 1.0567 6.7303e-39 289.33 258 0 0 0 -0.80389 -0.51166 -0.30325 0.014741
0.26502 0.024811 1.0573 7.2835e-39 478 258 0 0 0 -0.84726 -0.4439 -0.29173 0.012931
0.26316 0.026666 1.0573 8.0671e-39 353.5 259 0 0 0 -0.88759 -0.3585 -0.28925 0.017386
0.26131 0.029759 1.0573 7.7444e-39 383 260 0 0 0 -0.92972 -0.23059 -0.28715 0.024796
0.26232 0.028497 1.0564 6.8225e-39 247 260 0 0 0 -0.91643 -0.28133 -0.28463 0.021396
0.26057 0.030982 1.0568 6.2232e-39 182.5 261 0 0 0 -0.93717 -0.19785 -0.28735 0.02419
0.25934 0.033455 1.0568 8.8047e-39 421.5 261 0 0 0 -0.95829 -0.10708 -0.26499 0.026156
0.26074 0.032626 1.0567 7.5908e-39 332 261 0 0 0 -0.95157 -0.13673 -0.27534 0.024977
0.26063 0.035318 1.0571 7.2604e-39 250.25 262 0 0 0 -0.9645 -0.067328 -0.25534 0.022477
0.26232 0.037149 1.0564 7.7444e-39 381 262 0 0 0 -0.96265 -0.050337 -0.26603 0.018966
0.26356 0.044565 1.0564 9.404e-39 370 263 0 0 0 -0.96983 0.003095 -0.24375 0.013436
0.26479 0.051981 1.0564 6.6381e-39 339 265 0 0 0 -0.98723 -0.058421 -0.14818 0.018969
0.26305 0.055095 1.0568 8.6203e-39 325.5 266 0 0 0 -0.98885 -0.095396 -0.11432 0.015031
0.26254 0.071818 1.0573 8.6664e-39 226 272 0 0 0 -0.99556 0.072363 -0.060135 0.0073431
0.26378 0.075529 1.0573 8.943e-39 282 273 0 0 0 -0.98672 0.14309 -0.076862 0.0027593
0.26491 0.081061 1.0568 6.4537e-39 263.5 275 0 0 0 -0.98686 0.1444 -0.07245 0.0031647
0.26603 0.087824 1.0564 9.4961e-39 361 277 0 0 0 -0.99288 0.10113 -0.062864 0.0042597
0.26603 0.08906 1.0564 6.1771e-39 498 277 0 0 0 -0.99422 0.088142 -0.061283 0.00439
0.26625 0.090374 1.0573 9.4961e-39 267 278 0 0 0 -0.99464 0.082917 -0.061771 0.0047695
0.26614 0.094663 1.0568 9.1735e-39 340.5 279 0 0 0 -0.99823 0.050648 -0.031183 0.00601
0.27886 0.0074985 1.0582 9.7727e-39 266 253 0 0 0 -0.25478 -0.88657 -0.3861 0.036686
0.28084 0.0075017 1.0587 9.3578e-39 267.5 253 0 0 0 -0.18144 -0.89743 -0.40211 0.030555
0.28258 0.0074985 1.0582 8.2976e-39 269 253 0 0 0 -0.11565 -0.90307 -0.41363 0.021446
0.3138 0.0075049 1.0592 1.0049e-38 362 253 0 0 0 -0.030521 -0.92555 -0.37741 0.0022656
0.33672 0.0075049 1.0592 7.8827e-39 380.5 253 0 0 0 -0.018875 -0.92943 -0.36851 0.0028671
0.27291 0.0099832 1.0592 6.6381e-39 466 253 0 0 0 -0.52042 -0.78583 -0.3341 0.03879
0.27415 0.0087441 1.0592 7.0069e-39 392 253 0 0 0 -0.45696 -0.81742 -0.35074 0.03946
0.28505 0.0087366 1.0582 7.0069e-39 401 253 0 0 0 -0.07392 -0.90311 -0.42299 0.014285
0.28703 0.0093599 1.0587 6.9147e-39 304 253.5 0 0 0 -0.054704 -0.90539 -0.42103 0.010425
0.28877 0.0099747 1.0582 6.3615e-39 207 254 0 0 0 -0.019138 -0.90324 -0.42871 0.0053222
0.29063 0.0099747 1.0582 6.6381e-39 239.5 254 0 0 0 -0.0049104 -0.90144 -0.43287 0.0037253
0.2931 0.0099747 1.0582 6.4998e-39 241.5 254 0 0 0 -0.0031934 -0.90196 -0.43181 0.0036074
0.29521 0.0099832 1.0592 7.1913e-39 243 254 0 0 0 -0.012299 -0.90233 -0.43088 0.0039491
0.29707 0.0099832 1.0592 8.9429e-39 244.5 254 0 0 0 -0.02249 -0.90239 -0.43034 0.0037687
0.29991 0.0099747 1.0582 1.051e-38 247 254 0 0 0 -0.039407 -0.90571 -0.42207 0.0033243
0.30141 0.0087441 1.0592 8.021e-39 423 253 0 0 0 -0.044075 -0.9063 -0.42033 0.0031419
0.30363 0.0087366 1.0582 7.56e-39 425 253 0 0 0 -0.055362 -0.90934 -0.41236 0.0026604
0.30672 0.0087366 1.0582 7.3296e-39 427.5 253 0 0 0 -0.05394 -0.91389 -0.40236 0.0025702
0.3092 0.0087366 1.0582 7.9749e-39 429.5 253 0 0 0 -0.045532 -0.91975 -0.38986 0.0025423
0.3191 0.0087366 1.0582 9.1735e-39 439.5 253 0 0 0 -0.011319 -0.93196 -0.36238 0.0014899
0.32529 0.0087366 1.0582 8.5742e-39 446.5 253 0 0 0 -0.0064558 -0.93492 -0.35481 0.0014266
0.32715 0.0087366 1.0582 8.3898e-39 448 253 0 0 0 -0.0059081 -0.93478 -0.35519 0.0015092
0.32839 0.0087366 1.0582 8.5742e-39 449 253 0 0 0 -0.0069553 -0.93466 -0.35549 0.0017283
0.27144 0.011213 1.0582 1.0326e-38 360 254 0 0 0 -0.56937 -0.75656 -0.32161 0.037763
0.27043 0.012462 1.0592 8.943e-39 438 254 0 0 0 -0.6196 -0.71691 -0.31959 0.032997
0.26908 0.016791 1.0587 8.2515e-39 287.5 256 0 0 0 -0.69946 -0.64079 -0.31645 0.026349
0.26795 0.019897 1.0592 6.6381e-39 280 257 0 0 0 -0.76254 -0.56755 -0.31051 0.020503
0.26648 0.021118 1.0582 9.1274e-39 426 257 0 0 0 -0.79001 -0.53182 -0.30505 0.016589
0.26547 0.022994 1.0592 6.9608e-39 310.5 258 0 0 0 -0.81998 -0.49153 -0.29331 0.011404
0.26401 0.024832 1.0582 7.0991e-39 477 258 0 0 0 -0.85596 -0.42953 -0.28782 0.012456
0.26299 0.026092 1.0592 6.7303e-39 280 259 0 0 0 -0.87656 -0.38549 -0.28818 0.016052
0.25928 0.02981 1.0592 8.021e-39 381 260 0 0 0 -0.92339 -0.25012 -0.29119 0.026847
0.26091 0.029165 1.0582 7.1913e-39 314 260 0 0 0 -0.91444 -0.28275 -0.28957 0.023707
0.25905 0.031022 1.0582 6.1771e-39 181 261 0 0 0 -0.93711 -0.19624 -0.28865 0.026289
0.25905 0.03226 1.0582 6.6381e-39 285 261 0 0 0 -0.95277 -0.13979 -0.26959 0.026553
0.25905 0.034737 1.0582 8.6664e-39 207 262 0 0 0 -0.9655 -0.070414 -0.25072 0.02484
0.26401 0.04588 1.0582 8.6664e-39 425 263 0 0 0 -0.97279 0.015616 -0.23116 0.014401
0.26423 0.047158 1.0592 6.3615e-39 190 264 0 0 0 -0.97253 0.021806 -0.23174 0.01641
0.26423 0.053354 1.0592 9.1274e-39 439 265 0 0 0 -0.98909 -0.080184 -0.12359 0.019445
0.26175 0.055832 1.0592 7.1913e-39 393 266 0 0 0 -0.99158 -0.10604 -0.074379 0.014334
0.26299 0.054593 1.0592 9.5883e-39 256 266 0 0 0 -0.98943 -0.099433 -0.10559 0.016305
0.26153 0.057022 1.0582 8.943e-39 198 267 0 0 0 -0.99285 -0.094173 -0.073364 0.013532
0.26175 0.062028 1.0592 8.6664e-39 421 268 0 0 0 -0.99836 -0.053463 -0.020379 0.012743
0.26175 0.065126 1.0592 8.0671e-39 295 269.5 0 0 0 -0.99954 -0.028411 -0.01024 0.011956
0.26153 0.066927 1.0582 1.051e-38 350 270 0 0 0 -0.99982 -0.0038006 -0.018725 0.01163
0.26164 0.068814 1.0587 8.4359e-39 365.5 270.5 0 0 0 -0.99907 0.030501 -0.03061 0.0093431
0.26299 0.07318 1.0592 8.2054e-39 353 272 0 0 0 -0.99049 0.11783 -0.071011 0.0041061
0.26401 0.076832 1.0582 8.8508e-39 407 273 0 0 0 -0.9849 0.15288 -0.081179 0.0028086
0.26412 0.078723 1.0587 7.0991e-39 305.5 274 0 0 0 -0.98466 0.15402 -0.081966 0.0030674
0.26524 0.083022 1.0582 6.2693e-39 451 275 0 0 0 -0.98758 0.13781 -0.075503 0.0038412
0.26535 0.084917 1.0587 8.7125e-39 344.5 276 0 0 0 -0.9889 0.1296 -0.07268 0.0041019
0.26547 0.086811 1.0592 9.3118e-39 235 277 0 0 0 -0.9902 0.11873 -0.073574 0.0043022
0.26648 0.091689 1.0582 8.943e-39 388 278 0 0 0 -0.99412 0.089568 -0.060799 0.0053329
0.26648 0.092927 1.0582 7.0991e-39 176 279 0 0 0 -0.99556 0.076055 -0.055428 0.0058836
0.27485 0.0075243 1.0619 1.0418e-38 262 253 0 0 0 -0.43219 -0.82602 -0.36181 0.038411
0.27672 0.0075243 1.0619 1.0464e-38 263.5 253 0 0 0 -0.36898 -0.85073 -0.37432 0.039327
0.27884 0.006894 1.0605 8.8967e-39 344.5 252.5 0 0 0 -0.26483 -0.88046 -0.39326 0.036564
0.28504 0.0075146 1.0605 7.0991e-39 270.5 253 0 0 0 -0.084228 -0.9029 -0.42151 0.016138
0.28728 0.0075243 1.0619 6.3615e-39 272 253 0 0 0 -0.048214 -0.90051 -0.43215 0.0092569
0.29287 0.0075243 1.0619 6.1771e-39 276.5 253 0 0 0 -0.0008844 -0.89782 -0.44037 0.003929
0.29473 0.0075243 1.0619 5.9927e-39 278 253 0 0 0 -0.0053049 -0.89769 -0.4406 0.00401
0.30281 0.0075243 1.0619 7.6522e-39 352.5 253 0 0 0 -0.036449 -0.90166 -0.43091 0.0036935
0.3049 0.0075146 1.0605 9.4499e-39 354.5 253 0 0 0 -0.044506 -0.90719 -0.41836 0.0033948
0.30715 0.0075243 1.0619 1.0326e-38 356 253 0 0 0 -0.031011 -0.91047 -0.41242 0.0036118
0.3084 0.0075243 1.0619 1.0142e-38 357 253 0 0 0 -0.026568 -0.91316 -0.40674 0.0035339
0.31186 0.0075178 1.061 1.051e-38 360 253 0 0 0 -0.025453 -0.92055 -0.3898 0.0029206
0.31283 0.0075114 1.0601 1.0326e-38 361 253 0 0 0 -0.030692 -0.92351 -0.38235 0.0026213
0.31531 0.0075114 1.0601 9.7727e-39 363 253 0 0 0 -0.024006 -0.92694 -0.37444 0.0021483
0.31682 0.0075178 1.061 9.7727e-39 364 253 0 0 0 -0.018623 -0.92707 -0.37444 0.0022572
0.31882 0.0075211 1.0615 1.0003e-38 365.5 253 0 0 0 -0.013638 -0.9264 -0.3763 0.0022085
0.32082 0.0075243 1.0619 9.9571e-39 367 253 0 0 0 -0.0078639 -0.9248 -0.38037 0.0025109
0.32254 0.0075211 1.0615 9.45e-39 368.5 253 0 0 0 -0.0061442 -0.92452 -0.38109 0.0025093
0.32503 0.0075211 1.0615 9.3578e-39 370.5 253 0 0 0 -0.006449 -0.92461 -0.38086 0.0027236
0.32703 0.0075243 1.0619 9.0352e-39 372 253 0 0 0 -0.010793 -0.92309 -0.38443 0.0029773
0.32889 0.0075243 1.0619 9.1274e-39 373.5 253 0 0 0 -0.014957 -0.92264 -0.38538 0.0032561
0.33081 0.0075114 1.0601 9.6805e-39 375.5 253 0 0 0 -0.013425 -0.92763 -0.37326 0.0026612
0.33267 0.0075114 1.0601 9.404e-39 377 253 0 0 0 -0.015328 -0.92763 -0.37317 0.0028513
0.33503 0.0071037 1.061 8.1747e-39 333 253 0 0 0 -0.023895 -0.92453 -0.38036 0.0033634
0.33697 0.0062819 1.0619 6.6381e-39 243 253 0 0 0 -0.033042 -0.92158 -0.38679 0.0038186
0.2719 0.0099918 1.0601 6.6381e-39 465 253 0 0 0 -0.5392 -0.77353 -0.33303 0.037926
0.27299 0.0087666 1.0619 6.8225e-39 390.5 253 0 0 0 -0.50282 -0.79152 -0.34736 0.03768
0.28877 0.0087554 1.0605 7.0991e-39 403.5 253 0 0 0 -0.021358 -0.90068 -0.43395 0.0053957
0.29112 0.0087516 1.0601 7.1452e-39 405.5 253 0 0 0 -0.002416 -0.90065 -0.43454 0.0038017
0.29299 0.0087516 1.0601 7.7444e-39 407 253 0 0 0 0.0020463 -0.90047 -0.43491 0.0036038
0.2951 0.0087591 1.061 7.4218e-39 412 253 0 0 0 -0.0085575 -0.89875 -0.43838 0.0039355
0.29722 0.0087666 1.0619 7.2835e-39 415 253 0 0 0 -0.01803 -0.89851 -0.43858 0.0039303
0.29912 0.009175 1.0613 8.4514e-39 361.33 253.33 0 0 0 -0.027072 -0.9007 -0.43359 0.0035807
0.30068 0.0087591 1.061 7.56e-39 422 253 0 0 0 -0.037597 -0.9016 -0.43094 0.0034715
0.30291 0.0087516 1.0601 8.021e-39 424 253 0 0 0 -0.047051 -0.90493 -0.42294 0.0031429
0.2709 0.01062 1.061 8.2515e-39 411.5 253.5 0 0 0 -0.58748 -0.74224 -0.32241 0.033471
0.26977 0.013109 1.0615 9.6345e-39 350 254.5 0 0 0 -0.64788 -0.69479 -0.31227 0.029393
0.26942 0.014953 1.0601 6.9147e-39 398 255 0 0 0 -0.67731 -0.67146 -0.30064 0.027128
0.26864 0.017463 1.0619 1.0142e-38 367 256 0 0 0 -0.72965 -0.61689 -0.29505 0.020664
0.26367 0.019948 1.0619 6.8225e-39 276 257 0 0 0 -0.81786 -0.50289 -0.27965 0.010149
0.26667 0.01994 1.0615 6.4537e-39 278.5 257 0 0 0 -0.79431 -0.53506 -0.28773 0.013869
0.26818 0.018673 1.0601 7.56e-39 467 256 0 0 0 -0.74255 -0.59533 -0.30692 0.022238
0.26345 0.021172 1.061 7.9288e-39 423 257 0 0 0 -0.8295 -0.48559 -0.27593 0.0097863
0.2652 0.021163 1.0605 8.8047e-39 424.5 257 0 0 0 -0.81718 -0.50399 -0.27966 0.011022
0.26345 0.023034 1.061 7.9288e-39 308.5 258 0 0 0 -0.83545 -0.47397 -0.27818 0.0096442
0.26446 0.023014 1.0601 7.2835e-39 309.5 258 0 0 0 -0.83278 -0.47777 -0.27967 0.0099622
0.26322 0.024874 1.0601 6.9147e-39 476 258 0 0 0 -0.8477 -0.44654 -0.28637 0.010335
0.26147 0.027367 1.0605 8.8969e-39 424.5 259 0 0 0 -0.8843 -0.36539 -0.2907 0.018853
0.26243 0.02616 1.0619 6.7303e-39 279 259 0 0 0 -0.85467 -0.43254 -0.28715 0.013296
0.25921 0.029254 1.0615 7.053e-39 312 260 0 0 0 -0.90387 -0.31222 -0.29245 0.024402
0.26074 0.028595 1.0601 6.3615e-39 245 260 0 0 0 -0.90763 -0.30281 -0.29072 0.023569
0.26446 0.049059 1.0601 8.6204e-39 332.5 264 0 0 0 -0.97903 0.014389 -0.20321 0.021902
0.26469 0.050963 1.061 6.2693e-39 181 265 0 0 0 -0.98582 -0.03352 -0.16443 0.026074
0.26356 0.052847 1.0615 7.7905e-39 387.5 265 0 0 0 -0.98768 -0.090138 -0.12791 0.022389
0.26446 0.052159 1.0601 6.5459e-39 338 265 0 0 0 -0.98849 -0.06328 -0.13739 0.022153
0.26198 0.063321 1.0601 6.6381e-39 248 269 0 0 0 -0.99896 -0.045077 -0.0062633 0.011983
0.2622 0.070824 1.061 8.7586e-39 398 271 0 0 0 -0.99717 0.061215 -0.043583 0.0069591
0.26345 0.075169 1.061 7.6522e-39 368.5 272.5 0 0 0 -0.98476 0.1512 -0.085971 0.0034777
0.26458 0.08134 1.0605 6.592e-39 262.5 275 0 0 0 -0.98514 0.14839 -0.086456 0.0035056
0.26469 0.083236 1.061 5.9005e-39 450 275 0 0 0 -0.98631 0.14077 -0.085855 0.0039559
0.26491 0.085172 1.0619 8.482e-39 343.5 276 0 0 0 -0.98669 0.13486 -0.090911 0.0040761
0.26582 0.088785 1.0605 7.8366e-39 428.5 277 0 0 0 -0.99051 0.11306 -0.07821 0.0045025
0.26593 0.091304 1.061 8.5742e-39 326.5 278 0 0 0 -0.99169 0.10489 -0.074467 0.0048165
0.26593 0.093167 1.061 6.9147e-39 175 279 0 0 0 -0.99245 0.10098 -0.06962 0.0054065
0.26593 0.094408 1.061 9.5883e-39 279 279 0 0 0 -0.99399 0.090225 -0.061933 0.0064797
0.26616 0.095732 1.0619 9.1274e-39 400 279 0 0 0 -0.99337 0.094589 -0.065369 0.0074297
0.27906 0.0062928 1.0637 7.9288e-39 423 252 0 0 0 -0.2798 -0.87907 -0.38594 0.038174
0.28155 0.0062928 1.0637 7.3757e-39 425 252 0 0 0 -0.18761 -0.89557 -0.40343 0.031873
0.28317 0.0062873 1.0628 7.0991e-39 426.5 252 0 0 0 -0.12743 -0.90019 -0.41643 0.023042
0.29063 0.0075308 1.0628 6.0849e-39 274.5 253 0 0 0 -0.0063508 -0.89819 -0.43957 0.0045878
0.29773 0.0075373 1.0637 6.0849e-39 280 253 0 0 0 -0.01567 -0.89486 -0.44607 0.0040951
0.29897 0.0075373 1.0637 7.2835e-39 349 253 0 0 0 -0.021801 -0.89508 -0.44537 0.0039999
0.30071 0.0075341 1.0633 7.6522e-39 350.5 253 0 0 0 -0.0297 -0.89719 -0.44064 0.0039467
0.30991 0.0075308 1.0628 9.9571e-39 358 253 0 0 0 -0.017791 -0.91415 -0.40499 0.0036097
0.31115 0.0075308 1.0628 9.9571e-39 359 253 0 0 0 -0.016792 -0.91658 -0.39951 0.0034637
0.33104 0.0062873 1.0628 3.8722e-39 468 252 0 0 0 -0.017717 -0.91907 -0.3937 0.0039656
0.33305 0.0062901 1.0633 3.3651e-39 469.5 252 0 0 0 -0.023154 -0.91782 -0.39633 0.0044479
0.27136 0.0087742 1.0628 6.9147e-39 389 253 0 0 0 -0.5456 -0.76586 -0.34026 0.035373
0.27035 0.011271 1.0637 9.6805e-39 358 254 0 0 0 -0.61535 -0.71919 -0.32265 0.031171
0.2691 0.016249 1.0637 6.9147e-39 206 256 0 0 0 -0.70859 -0.64115 -0.29468 0.021787
0.26514 0.019965 1.0628 6.7303e-39 277 257 0 0 0 -0.80657 -0.5212 -0.27893 0.010548
0.26786 0.018738 1.0637 7.1913e-39 466 256 0 0 0 -0.75763 -0.58417 -0.29111 0.015122
0.26288 0.021227 1.0637 7.4678e-39 422 257 0 0 0 -0.8281 -0.49012 -0.27211 0.0095378
0.26288 0.023093 1.0637 8.3437e-39 307.5 258 0 0 0 -0.83502 -0.47887 -0.27096 0.009602
0.26266 0.024939 1.0628 6.8225e-39 475 258 0 0 0 -0.83946 -0.46467 -0.28174 0.010566
0.26079 0.026804 1.0628 7.8827e-39 350.5 259 0 0 0 -0.85803 -0.42288 -0.29147 0.016802
0.2639 0.051051 1.0628 6.1771e-39 496 264 0 0 0 -0.98281 -0.025337 -0.18287 0.027671
0.26277 0.072842 1.0633 9.0352e-39 288.5 272 0 0 0 -0.99001 0.11987 -0.074186 0.0047891
0.2639 0.077163 1.0628 8.8508e-39 406 273 0 0 0 -0.98234 0.16014 -0.096782 0.0037376
0.2639 0.078406 1.0628 7.4678e-39 240 274 0 0 0 -0.98304 0.15579 -0.096741 0.0035664
0.26413 0.079718 1.0637 7.0991e-39 369 274 0 0 0 -0.98273 0.15373 -0.10298 0.0036434
0.26514 0.08711 1.0628 9.0352e-39 234 277 0 0 0 -0.98782 0.12495 -0.09274 0.0044969
0.26537 0.088429 1.0637 9.0352e-39 359 277 0 0 0 -0.98768 0.12526 -0.093816 0.004253
0.28079 0.005057 1.0655 7.56e-39 353 252 0 0 0 -0.22362 -0.89123 -0.3946 0.034198
0.27257 0.007547 1.0651 9.8649e-39 252.5 253 0 0 0 -0.50473 -0.78745 -0.35378 0.033855
0.27432 0.0075437 1.0646 9.4961e-39 254 253 0 0 0 -0.45347 -0.81313 -0.36495 0.03683
0.28578 0.0063036 1.0655 7.2835e-39 428 252 0 0 0 -0.088563 -0.90046 -0.42582 0.015759
0.28677 0.0062982 1.0646 7.56e-39 429 252 0 0 0 -0.067149 -0.90009 -0.43049 0.011929
0.28927 0.0075437 1.0646 6.2693e-39 273 253 0 0 0 -0.024931 -0.89848 -0.43831 0.0061711
0.29076 0.0063036 1.0655 7.56e-39 432 252 0 0 0 -0.015139 -0.89577 -0.44426 0.0051533
0.29264 0.0063036 1.0655 8.4359e-39 434.5 252 0 0 0 -0.0020456 -0.8916 -0.45281 0.0044228
0.295 0.0063009 1.0651 8.9891e-39 438 252 0 0 0 -0.0096175 -0.88969 -0.45646 0.0041433
0.29674 0.0075437 1.0646 5.8083e-39 279 253 0 0 0 -0.01358 -0.89194 -0.45194 0.0040926
0.30198 0.0063036 1.0655 8.943e-39 444 252 0 0 0 -0.024206 -0.89474 -0.44593 0.0043849
0.30323 0.0063036 1.0655 8.7586e-39 445 252 0 0 0 -0.021077 -0.8975 -0.4405 0.0044693
0.30497 0.0063009 1.0651 8.6203e-39 446.5 252 0 0 0 -0.019547 -0.90033 -0.43478 0.0045997
0.3067 0.0062982 1.0646 8.6664e-39 448 252 0 0 0 -0.014335 -0.90499 -0.4252 0.0045103
0.30946 0.0063036 1.0655 8.8508e-39 450 252 0 0 0 -0.0084571 -0.90914 -0.41641 0.0043602
0.31493 0.0063009 1.0651 8.9891e-39 454.5 252 0 0 0 -0.007152 -0.91632 -0.40038 0.0037012
0.31819 0.0063036 1.0655 8.482e-39 457 252 0 0 0 -0.014285 -0.91812 -0.39605 0.003545
0.32442 0.0063036 1.0655 6.6381e-39 462 252 0 0 0 -0.015229 -0.91578 -0.4014 0.0037945
0.33065 0.0063036 1.0655 4.6098e-39 467 252 0 0 0 -0.016996 -0.91316 -0.40724 0.0044286
0.33535 0.0062982 1.0646 6.6381e-39 241 253 0 0 0 -0.027852 -0.91426 -0.40417 0.0048161
0.27082 0.010044 1.0655 7.0069e-39 463 253 0 0 0 -0.60187 -0.7282 -0.32783 0.031576
0.26957 0.01503 1.0655 6.7303e-39 397 255 0 0 0 -0.68914 -0.66088 -0.2972 0.02242
0.26311 0.019999 1.0646 6.8225e-39 275 257 0 0 0 -0.82022 -0.50589 -0.26705 0.0090505
0.26435 0.018754 1.0646 6.6381e-39 463 256 0 0 0 -0.79958 -0.53873 -0.2654 0.0094452
0.26708 0.01877 1.0655 6.8225e-39 465 256 0 0 0 -0.77886 -0.56363 -0.27513 0.011683
0.26209 0.02064 1.0655 7.1913e-39 347.5 257 0 0 0 -0.82354 -0.50007 -0.2678 0.0093787
0.26186 0.024982 1.0646 7.0991e-39 474 258 0 0 0 -0.83297 -0.47766 -0.27929 0.010812
0.26084 0.02625 1.0655 7.3757e-39 277 259 0 0 0 -0.83318 -0.47664 -0.2804 0.012037
0.25937 0.028718 1.0646 6.1771e-39 243 260 0 0 0 -0.88168 -0.37883 -0.2813 0.022407
0.26311 0.074804 1.0646 6.0849e-39 455 272 0 0 0 -0.98367 0.15025 -0.099057 0.0041977
0.26334 0.076116 1.0655 8.8508e-39 280 273 0 0 0 -0.98123 0.15822 -0.11022 0.0040495
0.26435 0.081032 1.0646 6.1771e-39 188 275 0 0 0 -0.98291 0.149 -0.10811 0.0037263
0.26458 0.082972 1.0655 6.3154e-39 392 275 0 0 0 -0.98253 0.14806 -0.11276 0.0035602
0.26435 0.084769 1.0646 8.482e-39 279 276 0 0 0 -0.98435 0.14038 -0.10651 0.0039625
0.26447 0.086675 1.0651 9.1274e-39 319.5 276.5 0 0 0 -0.98429 0.14003 -0.10757 0.003749
0.2656 0.089751 1.0646 6.9147e-39 496 277 0 0 0 -0.98719 0.12612 -0.097724 0.0044324
0.2656 0.090997 1.0646 7.6522e-39 265 278 0 0 0 -0.9875 0.12284 -0.098724 0.004647
