# .PCD v.7 - Point Cloud Data file format
VERSION .7
FIELDS x y z rgb u v vx vy vz normal_x normal_y normal_z curvature
SIZE 4 4 4 4 4 4 4 4 4 4 4 4 4
TYPE F F F F F F F F F F F F F
COUNT 1 1 1 1 1 1 1 1 1 1 1 1 1
WIDTH 551
HEIGHT 1
VIEWPOINT 0 0 0 1 0 0 0
POINTS 551
DATA ascii
-0.037041 0.0050483 1.0637 6.3615e-39 177 257 0 0 0 0.59813 -0.46578 -0.65214 0.024824
0.048787 0.0050439 1.0628 7.0991e-39 274 257 0 0 0 -0.66117 -0.2633 -0.70252 0.009172
-0.03516 0.0069118 1.0633 7.5601e-39 364 257.5 0 0 0 0.6156 -0.43759 -0.6554 0.021074
-0.00095051 0.0069123 1.0633 6.8225e-39 297.5 258 0 0 0 -0.57544 0.43446 -0.6929 0.13395
0.047564 0.0069118 1.0633 7.9749e-39 203.5 258.5 0 0 0 -0.65441 -0.28127 -0.70187 0.010446
0.00029332 0.0087742 1.0628 8.021e-39 256 259 0 0 0 -0.51646 0.46148 -0.72132 0.1366
0.0089973 0.0087742 1.0628 7.7444e-39 263 259 0 0 0 0.46973 0.17607 -0.86508 0.13408
-0.033308 0.011271 1.0637 7.4678e-39 278 260 0 0 0 0.62894 -0.43491 -0.64443 0.016153
0.00029358 0.010026 1.0637 6.7303e-39 191 260 0 0 0 -0.45277 0.45181 -0.76868 0.13334
0.0089973 0.010639 1.0628 7.0069e-39 329 260 0 0 0 0.44141 0.16323 -0.88234 0.12698
0.045095 0.011271 1.0637 7.1913e-39 151 261 0 0 0 -0.64812 -0.31664 -0.69259 0.012474
0.04632 0.010644 1.0633 7.2835e-39 198 260.5 0 0 0 -0.66278 -0.31695 -0.67843 0.012647
-0.032671 0.013132 1.0633 7.1452e-39 327 261 0 0 0 0.6327 -0.43515 -0.64057 0.014301
0.0015374 0.013132 1.0633 7.3296e-39 381 261 0 0 0 -0.32929 0.45508 -0.82733 0.13144
0.0027814 0.013132 1.0633 7.1913e-39 382 261 0 0 0 -0.21388 0.45438 -0.86475 0.14291
0.0040236 0.013748 1.0628 5.7161e-39 525 261 0 0 0 -0.087642 0.43253 -0.89735 0.14537
0.0071336 0.013129 1.063 7.9749e-39 194 261.5 0 0 0 0.25305 0.27464 -0.92765 0.1362
0.009005 0.013137 1.0637 8.4359e-39 195.5 261.5 0 0 0 0.36557 0.16195 -0.91659 0.12172
0.043851 0.01376 1.0637 6.6381e-39 196 262 0 0 0 -0.63771 -0.33976 -0.6913 0.015223
0.045076 0.013132 1.0633 6.592e-39 239 261.5 0 0 0 -0.65267 -0.33662 -0.67876 0.013224
0.0463 0.012504 1.0628 6.8225e-39 282 261 0 0 0 -0.66375 -0.33241 -0.67003 0.012683
-0.032036 0.014991 1.0628 8.2976e-39 234 262 0 0 0 0.64813 -0.41452 -0.63883 0.013829
0.0046471 0.014997 1.0633 7.1452e-39 271.5 262 0 0 0 -0.014284 0.39621 -0.91805 0.13995
0.0077605 0.015004 1.0637 6.8225e-39 277 262 0 0 0 0.26176 0.24157 -0.93441 0.12007
0.043851 0.015004 1.0637 7.3757e-39 431 262 0 0 0 -0.64002 -0.34827 -0.6849 0.015645
0.045057 0.014991 1.0628 7.2835e-39 432 262 0 0 0 -0.65889 -0.35172 -0.66495 0.014715
-0.032036 0.016856 1.0628 7.8827e-39 358 262.5 0 0 0 0.66056 -0.3959 -0.6379 0.013014
-0.030819 0.016871 1.0637 7.9749e-39 359 262.5 0 0 0 0.66103 -0.36885 -0.65344 0.014168
0.0077605 0.016249 1.0637 6.6381e-39 158 263 0 0 0 0.2344 0.25897 -0.93701 0.11664
0.043813 0.016856 1.0628 7.1452e-39 333.5 263 0 0 0 -0.64812 -0.37697 -0.66169 0.017554
-0.032063 0.018738 1.0637 7.1913e-39 479 263 0 0 0 0.67241 -0.36055 -0.64643 0.013807
-0.030819 0.018738 1.0637 6.9147e-39 480 263 0 0 0 0.67703 -0.33139 -0.65713 0.013895
0.042606 0.019982 1.0637 8.1132e-39 457 264 0 0 0 -0.64523 -0.39448 -0.65426 0.020205
0.041362 0.022471 1.0637 7.1913e-39 350 265 0 0 0 -0.63555 -0.41485 -0.65114 0.022401
0.013361 0.067273 1.0637 6.6842e-39 352.5 273 0 0 0 0.27811 0.73502 -0.61838 0.047657
0.015228 0.067273 1.0637 6.6381e-39 354 273 0 0 0 0.27431 0.73799 -0.61654 0.051518
0.0077605 0.069762 1.0637 6.9147e-39 415 273 0 0 0 0.35617 0.69048 -0.62959 0.040669
0.0089973 0.069702 1.0628 7.0991e-39 416 273 0 0 0 0.3536 0.69537 -0.62564 0.040555
0.011484 0.069081 1.0628 7.1451e-39 403.5 273 0 0 0 0.30837 0.72303 -0.61817 0.042105
0.0046476 0.070976 1.0633 7.3296e-39 443.5 273 0 0 0 0.39256 0.66952 -0.63059 0.036812
0.01025 0.071007 1.0637 7.56e-39 448 273 0 0 0 0.33985 0.67444 -0.65546 0.04433
0.0027826 0.072251 1.0637 7.56e-39 462 273 0 0 0 0.39841 0.65298 -0.64411 0.035879
0.050138 -0.0067829 1.0651 8.7586e-39 253 249.5 0 0 0 -0.66512 -0.17528 -0.72588 0.012596
-0.0021992 -0.0036695 1.0655 5.6239e-39 183 252 0 0 0 -0.93845 0.11816 -0.32456 0.13062
0.050138 -0.0030452 1.0651 7.514e-39 219 252.5 0 0 0 -0.65579 -0.20115 -0.72765 0.010903
-0.044547 0.0013159 1.0646 6.6381e-39 280 254 0 0 0 0.53648 -0.55936 -0.63191 0.03034
-0.04332 0.00069315 1.0651 6.592e-39 265.5 254 0 0 0 0.52947 -0.55095 -0.64507 0.029856
-0.040845 0.001317 1.0655 6.7303e-39 359 254 0 0 0 0.54679 -0.52207 -0.65457 0.028673
0.048892 0.00069315 1.0651 8.021e-39 250.5 254.5 0 0 0 -0.64843 -0.22265 -0.72799 0.0094282
-0.042092 0.0025637 1.0655 8.5742e-39 252 255 0 0 0 0.56221 -0.52213 -0.64132 0.028654
-0.038975 0.0025637 1.0655 7.7444e-39 254.5 255 0 0 0 0.57201 -0.49253 -0.65591 0.027049
-0.037105 0.0038103 1.0655 7.6522e-39 230 256 0 0 0 0.58347 -0.47922 -0.65567 0.02506
-0.0021983 0.0031859 1.0651 7.6522e-39 308.5 255.5 0 0 0 -0.71297 0.32716 -0.62019 0.15324
-0.035859 0.005057 1.0655 7.0991e-39 195 257 0 0 0 0.59319 -0.46233 -0.65907 0.023094
-0.0021973 0.0050526 1.0646 8.482e-39 235 257 0 0 0 -0.62838 0.36935 -0.68464 0.12852
0.047625 0.0050526 1.0646 7.0991e-39 273 257 0 0 0 -0.64591 -0.25219 -0.72056 0.0099335
-0.034582 0.0062982 1.0646 7.7444e-39 459 257 0 0 0 0.60848 -0.4391 -0.66102 0.02019
-0.0021992 0.0063036 1.0655 6.9147e-39 166 258 0 0 0 -0.60357 0.35671 -0.71306 0.13996
0.04642 0.0075503 1.0655 7.1913e-39 165 259 0 0 0 -0.65014 -0.26263 -0.71298 0.010662
-0.033365 0.0087969 1.0655 7.56e-39 229 259 0 0 0 0.61254 -0.42576 -0.66597 0.019256
-0.00095174 0.0087893 1.0646 7.4678e-39 255 259 0 0 0 -0.5058 0.40741 -0.76039 0.13053
0.045173 0.0087969 1.0655 6.6381e-39 371 259 0 0 0 -0.63171 -0.28254 -0.72188 0.012659
0.04638 0.0087893 1.0646 6.4537e-39 372 259 0 0 0 -0.65775 -0.27969 -0.69938 0.011469
-0.032728 0.010662 1.0651 6.131e-39 400.5 259.5 0 0 0 0.61897 -0.42287 -0.66186 0.016078
0.00029383 0.01128 1.0646 7.8366e-39 432 260 0 0 0 -0.40756 0.44213 -0.79901 0.13739
0.043927 0.010667 1.0655 7.8366e-39 196 260.5 0 0 0 -0.62347 -0.30214 -0.7211 0.014262
0.045134 0.010035 1.0646 8.021e-39 243 260 0 0 0 -0.64572 -0.29553 -0.70407 0.011639
-0.032091 0.012526 1.0646 6.9147e-39 201 261 0 0 0 0.63116 -0.41482 -0.65541 0.015393
-0.030872 0.013783 1.0655 7.4678e-39 455 261 0 0 0 0.63231 -0.39329 -0.66747 0.015071
0.043889 0.012526 1.0646 6.5459e-39 280 261 0 0 0 -0.62825 -0.32655 -0.70616 0.014495
-0.030845 0.015017 1.0646 8.2976e-39 235 262 0 0 0 0.64276 -0.38791 -0.6606 0.014442
0.0015394 0.015017 1.0646 7.56e-39 266 262 0 0 0 -0.29247 0.44464 -0.84661 0.12684
0.002785 0.015017 1.0646 7.1913e-39 267 262 0 0 0 -0.22815 0.43504 -0.87103 0.13436
0.0065217 0.015017 1.0646 7.0991e-39 276 262 0 0 0 0.16748 0.26816 -0.9487 0.13458
0.0090128 0.015017 1.0646 6.5459e-39 278 262 0 0 0 0.31325 0.15888 -0.93629 0.11626
0.0048636 0.016688 1.0652 7.0069e-39 199.33 263 0 0 0 0.017122 0.35893 -0.93321 0.13621
0.0077672 0.017508 1.0646 7.0069e-39 289 263 0 0 0 0.20099 0.26334 -0.94354 0.11444
0.0090206 0.016277 1.0655 6.5459e-39 159 263 0 0 0 0.28713 0.16479 -0.94361 0.11457
-0.030845 0.019999 1.0646 8.2976e-39 247 264 0 0 0 0.68118 -0.29575 -0.66972 0.015955
0.0077672 0.018754 1.0646 6.4537e-39 161 264 0 0 0 0.20059 0.24342 -0.94895 0.10962
0.04268 0.01877 1.0655 8.482e-39 230 264 0 0 0 -0.62358 -0.35991 -0.69398 0.018294
0.0077739 0.020017 1.0655 6.5459e-39 293 264 0 0 0 0.14829 0.30368 -0.94116 0.10477
0.041415 0.020631 1.0651 7.8366e-39 339.5 264.5 0 0 0 -0.6118 -0.38784 -0.68941 0.021398
0.013169 0.069012 1.0649 6.6996e-39 400 273 0 0 0 0.30839 0.68934 -0.65552 0.049571
0.014834 0.069447 1.0652 6.9147e-39 411 273 0 0 0 0.30123 0.68004 -0.66844 0.054808
0.0071478 0.071098 1.0651 8.021e-39 445.5 273 0 0 0 0.36832 0.64365 -0.67087 0.042632
0.0090128 0.071068 1.0646 7.9288e-39 447 273 0 0 0 0.35115 0.65967 -0.66448 0.043562
0.011504 0.071068 1.0646 7.4678e-39 449 273 0 0 0 0.31919 0.66679 -0.67343 0.046925
0.01089 0.072376 1.0655 7.56e-39 468.5 273 0 0 0 0.33297 0.62408 -0.70686 0.047543
0.00029396 0.076706 1.0651 6.7303e-39 193 274 0 0 0 0.39198 0.60004 -0.69735 0.040911
0.00029408 0.078609 1.0655 6.7303e-39 221 274 0 0 0 0.3532 0.57571 -0.73743 0.04246
0.017747 0.079856 1.0655 7.0991e-39 267 274 0 0 0 0.20794 0.46561 -0.86021 0.049112
0.048955 -0.0086636 1.0665 8.3898e-39 246 248 0 0 0 -0.66782 -0.15322 -0.72838 0.013587
0.048998 -0.0074223 1.0674 8.8508e-39 251 249 0 0 0 -0.66163 -0.16281 -0.73194 0.013203
-0.002203 -0.0049247 1.0674 6.5459e-39 209 251 0 0 0 -0.93462 0.075068 -0.34765 0.14953
0.050203 -0.0049204 1.0665 9.2196e-39 250 251 0 0 0 -0.6591 -0.18762 -0.72827 0.011714
0.048998 -0.0030515 1.0674 7.4218e-39 218 252.5 0 0 0 -0.64716 -0.19514 -0.73696 0.011052
-0.043413 -0.0011783 1.0674 6.6381e-39 222 253 0 0 0 0.46439 -0.59566 -0.65538 0.036541
0.048955 -0.0011773 1.0665 6.3615e-39 372 253 0 0 0 -0.64371 -0.20819 -0.73641 0.010242
-0.044624 7.0462e-05 1.0665 6.1771e-39 173 254 0 0 0 0.48264 -0.59078 -0.64656 0.034473
-0.042147 0.00069436 1.0669 6.4537e-39 266.5 254 0 0 0 0.51615 -0.55384 -0.65334 0.032878
-0.04088 7.0462e-05 1.0665 5.9005e-39 176 254 0 0 0 0.51686 -0.54922 -0.65667 0.032106
-0.039239 0.00090267 1.0671 6.8532e-39 300 254 0 0 0 0.53586 -0.53061 -0.65674 0.030341
-0.0034488 0.0013182 1.0665 6.5459e-39 170 255 0 0 0 -0.78903 0.057325 -0.61168 0.1526
-0.037169 0.0025681 1.0674 7.7444e-39 256 255 0 0 0 0.56199 -0.48696 -0.66861 0.026074
-0.035906 0.0031908 1.0669 8.2515e-39 244 255.5 0 0 0 0.57321 -0.47074 -0.6707 0.023917
-0.0034518 0.0031925 1.0674 7.5601e-39 307.5 255.5 0 0 0 -0.70685 -0.0042497 -0.70735 0.16497
0.047319 0.0033995 1.0671 7.56e-39 167.33 256.67 0 0 0 -0.63939 -0.22776 -0.73437 0.010053
-0.034642 0.0050613 1.0665 6.8225e-39 196 257 0 0 0 0.5904 -0.44861 -0.67095 0.022433
-0.0034488 0.0050613 1.0665 8.482e-39 234 257 0 0 0 -0.61514 0.25999 -0.74432 0.14227
0.04646 0.0050613 1.0665 7.4678e-39 272 257 0 0 0 -0.64115 -0.23365 -0.73098 0.010727
-0.032997 0.0071449 1.0671 7.7444e-39 334.33 257.67 0 0 0 0.59873 -0.42799 -0.67701 0.018541
-0.0028264 0.0069356 1.0669 7.2835e-39 296 258 0 0 0 -0.55345 0.26109 -0.7909 0.1522
0.044822 0.0071449 1.0671 8.0518e-39 188.67 258.67 0 0 0 -0.62268 -0.25008 -0.74144 0.013649
0.04646 0.0063091 1.0665 9.6805e-39 240 258 0 0 0 -0.64483 -0.24513 -0.72395 0.010912
-0.032146 0.0088045 1.0665 7.6522e-39 230 259 0 0 0 0.60407 -0.41818 -0.6784 0.018217
-0.002203 0.0088121 1.0674 7.3757e-39 254 259 0 0 0 -0.50845 0.27104 -0.81732 0.15258
0.043965 0.0088045 1.0665 6.7303e-39 370 259 0 0 0 -0.61861 -0.27309 -0.73671 0.013563
-0.032146 0.010052 1.0665 8.1132e-39 147 260 0 0 0 0.61227 -0.40926 -0.67648 0.016543
-0.030912 0.010681 1.0669 7.5601e-39 214 260 0 0 0 0.60867 -0.39822 -0.68625 0.016748
-0.002203 0.010061 1.0674 6.2693e-39 171 260 0 0 0 -0.47946 0.28212 -0.83098 0.14191
-0.00095338 0.010676 1.0665 7.3296e-39 302 260 0 0 0 -0.44116 0.37048 -0.81739 0.14836
0.010285 0.010685 1.0674 7.1452e-39 330 260 0 0 0 0.39458 -0.090425 -0.9144 0.13357
0.042754 0.01131 1.0674 8.2976e-39 149 261 0 0 0 -0.59189 -0.30197 -0.74732 0.016709
-0.030899 0.012548 1.0665 6.7303e-39 202 261 0 0 0 0.61368 -0.39985 -0.68082 0.015964
-0.029677 0.013807 1.0674 7.4678e-39 456 261 0 0 0 0.62283 -0.36627 -0.69133 0.016504
0.00029446 0.013177 1.0669 7.1452e-39 380 261 0 0 0 -0.35162 0.35869 -0.8647 0.14344
0.010285 0.012559 1.0674 7.8366e-39 246 261 0 0 0 0.36075 -0.03511 -0.932 0.12713
0.041505 0.013807 1.0674 7.3757e-39 192 262 0 0 0 -0.57222 -0.32687 -0.75215 0.022229
0.042735 0.013177 1.0669 6.9147e-39 236 261.5 0 0 0 -0.59855 -0.32253 -0.73329 0.017659
-0.029052 0.015056 1.0674 8.1132e-39 236.5 262 0 0 0 0.6321 -0.34364 -0.69452 0.01869
0.010285 0.015056 1.0674 6.5459e-39 279 262 0 0 0 0.32859 0.056408 -0.94279 0.11386
0.041469 0.015043 1.0665 7.8366e-39 429 262 0 0 0 -0.58137 -0.33366 -0.74208 0.021653
0.042717 0.015043 1.0665 7.3757e-39 430 262 0 0 0 -0.61116 -0.33213 -0.71846 0.01775
-0.029039 0.016922 1.0669 8.1593e-39 360.5 262.5 0 0 0 0.64352 -0.32167 -0.69456 0.019166
-0.027179 0.016929 1.0674 7.8366e-39 365 262.5 0 0 0 0.62407 -0.31194 -0.7164 0.025763
0.0015428 0.016922 1.0669 7.053e-39 218.5 263 0 0 0 -0.26297 0.38283 -0.8856 0.12335
0.0027898 0.016915 1.0665 7.2374e-39 219.5 263 0 0 0 -0.18621 0.3964 -0.899 0.13095
0.0040375 0.017539 1.0665 7.6522e-39 286 263 0 0 0 -0.089013 0.37451 -0.92294 0.13287
0.0065357 0.016922 1.0669 6.9608e-39 222.5 263 0 0 0 0.13203 0.21858 -0.96685 0.1391
0.0090284 0.017539 1.0665 6.9147e-39 290 263 0 0 0 0.25158 0.14848 -0.95638 0.11247
0.010285 0.016305 1.0674 6.5459e-39 160 263 0 0 0 0.32206 0.035939 -0.94604 0.11313
0.041469 0.016915 1.0665 6.8685e-39 331.5 263 0 0 0 -0.58627 -0.3573 -0.72706 0.023068
0.042717 0.016915 1.0665 6.9147e-39 332.5 263 0 0 0 -0.61473 -0.34696 -0.70833 0.018699
-0.029039 0.018794 1.0669 6.0849e-39 516.5 263 0 0 0 0.65795 -0.29357 -0.69348 0.018998
-0.027179 0.018802 1.0674 5.6239e-39 518 263 0 0 0 0.63409 -0.27873 -0.72128 0.032175
0.0015434 0.018802 1.0674 6.5459e-39 156 264 0 0 0 -0.26928 0.41746 -0.86788 0.10027
0.0027922 0.018802 1.0674 6.7303e-39 157 264 0 0 0 -0.19023 0.40752 -0.89316 0.11853
0.0046614 0.018786 1.0665 6.8225e-39 158.5 264 0 0 0 -0.045907 0.36232 -0.93092 0.12434
0.0065386 0.018802 1.0674 6.7303e-39 160 264 0 0 0 0.094242 0.24706 -0.96441 0.13035
0.0090284 0.018786 1.0665 6.5459e-39 162 264 0 0 0 0.25993 0.17975 -0.94875 0.10658
0.010285 0.018802 1.0674 6.5459e-39 163 264 0 0 0 0.27845 0.1093 -0.95421 0.10162
0.041469 0.018786 1.0665 8.3898e-39 229 264 0 0 0 -0.5938 -0.3703 -0.71434 0.023257
-0.029677 0.020051 1.0674 8.3898e-39 256 264 0 0 0 0.66378 -0.26648 -0.69884 0.019741
-0.027179 0.020051 1.0674 8.2976e-39 257 264 0 0 0 0.63699 -0.24399 -0.73124 0.033424
0.0027922 0.020051 1.0674 6.8225e-39 289 264 0 0 0 -0.18574 0.42189 -0.88742 0.10389
0.0046643 0.020671 1.0672 6.9608e-39 218.5 264.5 0 0 0 -0.086886 0.40288 -0.91112 0.10814
0.0071597 0.020667 1.0669 6.7303e-39 220.5 264.5 0 0 0 0.11734 0.27561 -0.95408 0.11241
0.0090323 0.020667 1.0669 6.7764e-39 249.5 264.5 0 0 0 0.22572 0.17491 -0.95836 0.10518
0.011534 0.0213 1.0674 6.7303e-39 152 265 0 0 0 0.30674 0.10875 -0.94556 0.078968
0.0052898 0.023173 1.0674 7.514e-39 356.5 265 0 0 0 -0.041867 0.36262 -0.93099 0.095986
0.007784 0.023164 1.0669 7.514e-39 358.5 265 0 0 0 0.11683 0.25587 -0.95962 0.097088
0.0090362 0.023173 1.0674 7.3757e-39 359.5 265 0 0 0 0.1867 0.20457 -0.96088 0.091705
0.011534 0.022549 1.0674 7.2835e-39 275 265 0 0 0 0.28458 0.14493 -0.94763 0.073342
0.040256 0.022549 1.0674 6.9147e-39 349 265 0 0 0 -0.58458 -0.40172 -0.7049 0.027127
0.020275 0.068754 1.0674 6.1771e-39 396 273 0 0 0 0.28117 0.63468 -0.71981 0.076303
0.012772 0.07119 1.0665 7.56e-39 450 273 0 0 0 0.32397 0.62742 -0.70809 0.052291
0.014656 0.071252 1.0674 7.8827e-39 451.5 273 0 0 0 0.30194 0.61817 -0.72574 0.054971
0.0015421 0.073686 1.0665 9.404e-39 139 274 0 0 0 0.3872 0.61411 -0.68771 0.041214
0.0027922 0.07375 1.0674 9.404e-39 140 274 0 0 0 0.37154 0.59906 -0.70929 0.041219
0.0046636 0.07247 1.0669 7.6983e-39 463.5 273 0 0 0 0.37818 0.60739 -0.69861 0.042975
0.007163 0.072501 1.0674 7.7444e-39 465.5 273 0 0 0 0.33912 0.60768 -0.71814 0.045999
0.0090284 0.072438 1.0665 7.6522e-39 467 273 0 0 0 0.33512 0.6125 -0.71592 0.046386
0.010909 0.07375 1.0674 9.2196e-39 146.5 274 0 0 0 0.3239 0.58378 -0.7445 0.048583
0.012783 0.072501 1.0674 8.021e-39 470 273 0 0 0 0.31254 0.6041 -0.73307 0.052549
0.017778 0.073125 1.0674 8.2976e-39 315 273.5 0 0 0 0.26628 0.57251 -0.77546 0.061766
0.019027 0.073125 1.0674 8.0671e-39 316 273.5 0 0 0 0.23856 0.58117 -0.77803 0.06686
0.017778 0.074998 1.0674 6.2693e-39 182 274 0 0 0 0.2599 0.56123 -0.7858 0.058381
0.019027 0.074998 1.0674 6.6381e-39 183 274 0 0 0 0.2395 0.53785 -0.8083 0.060956
0.017778 0.076871 1.0674 6.4998e-39 207.5 274 0 0 0 0.24077 0.50831 -0.82683 0.052892
0.00029434 0.079925 1.0665 8.1132e-39 239 274 0 0 0 0.25943 0.54779 -0.79537 0.041678
0.017762 0.078677 1.0665 7.56e-39 236 274 0 0 0 0.2096 0.47882 -0.85252 0.050129
0.00029434 0.081172 1.0665 7.3757e-39 269 274 0 0 0 0.25134 0.52334 -0.81422 0.042339
0.017762 0.081172 1.0665 6.4537e-39 283 274 0 0 0 0.19686 0.43371 -0.87929 0.045019
0.00029459 0.082491 1.0674 5.9927e-39 285 274 0 0 0 0.19405 0.51208 -0.83673 0.050831
0.041541 -0.013678 1.0683 7.0991e-39 230 244 0 0 0 -0.59664 -0.11576 -0.79411 0.036979
0.042791 -0.012428 1.0683 1.1893e-38 234 245 0 0 0 -0.62065 -0.11251 -0.77597 0.031957
0.021543 -0.011178 1.0683 7.3757e-39 252 245 0 0 0 -0.24641 -0.28717 -0.92564 0.056822
0.021561 -0.009937 1.0692 3.6878e-39 231 247 0 0 0 -0.24729 -0.29343 -0.92344 0.047514
-0.0022049 -0.0061788 1.0683 6.1771e-39 222 250 0 0 0 -0.93041 0.21226 -0.29879 0.15123
0.04904 -0.0061788 1.0683 8.6664e-39 253 250 0 0 0 -0.6544 -0.17167 -0.7364 0.01279
0.049083 -0.0049332 1.0692 9.404e-39 249 251 0 0 0 -0.65115 -0.18007 -0.73728 0.012405
-0.043489 -0.0024313 1.0692 9.7727e-39 248 252 0 0 0 0.42126 -0.6209 -0.66107 0.046425
-0.040987 -0.0024313 1.0692 9.2196e-39 250 252 0 0 0 0.46557 -0.58641 -0.66285 0.041041
-0.039111 -0.0024313 1.0692 8.7125e-39 251.5 252 0 0 0 0.48421 -0.57361 -0.66069 0.037434
-0.035983 -0.0024313 1.0692 8.3898e-39 254 252 0 0 0 0.50232 -0.5346 -0.67961 0.031045
-0.044739 -0.0011803 1.0692 6.5459e-39 221 253 0 0 0 0.43566 -0.62201 -0.65062 0.044138
-0.042201 -0.0011793 1.0683 7.0991e-39 223 253 0 0 0 0.47621 -0.58712 -0.65462 0.04049
-0.040951 -0.0011793 1.0683 6.7303e-39 224 253 0 0 0 0.48745 -0.57793 -0.65452 0.03814
-0.039093 -0.0011798 1.0688 6.5459e-39 225.5 253 0 0 0 0.50545 -0.55047 -0.66446 0.032116
-0.035983 -0.0011803 1.0692 7.0069e-39 228 253 0 0 0 0.5236 -0.52372 -0.67198 0.028889
0.047206 -0.0011803 1.0692 6.592e-39 370.5 253 0 0 0 -0.63238 -0.19808 -0.74891 0.011976
-0.038451 7.0584e-05 1.0683 6.2693e-39 178 254 0 0 0 0.52169 -0.53308 -0.66608 0.03051
-0.037217 0.00069557 1.0688 6.592e-39 273 254 0 0 0 0.53861 -0.51264 -0.66865 0.029372
-0.035967 0.00069557 1.0688 6.4998e-39 274 254 0 0 0 0.54326 -0.50463 -0.67098 0.027973
0.04533 0.0013216 1.0692 9.0352e-39 232 255 0 0 0 -0.61761 -0.20406 -0.75955 0.01488
0.047175 0.00069556 1.0685 8.4359e-39 249 254.5 0 0 0 -0.63474 -0.21093 -0.74338 0.010812
-0.034717 0.0031964 1.0688 8.7125e-39 245 255.5 0 0 0 0.57164 -0.46867 -0.67348 0.02322
-0.033481 0.0038235 1.0692 9.1274e-39 233 256 0 0 0 0.57438 -0.45196 -0.68251 0.02191
0.0449 0.0034054 1.0689 5.6547e-39 410.67 256 0 0 0 -0.61279 -0.21072 -0.76164 0.015042
0.04654 0.0025703 1.0683 6.5459e-39 196 256 0 0 0 -0.63147 -0.21183 -0.7459 0.01117
-0.032841 0.0050723 1.0688 7.053e-39 197.5 257 0 0 0 0.58423 -0.44052 -0.68163 0.020746
0.044684 0.0050723 1.0688 7.7905e-39 270.5 257 0 0 0 -0.61248 -0.2231 -0.75835 0.01506
-0.032202 0.00632 1.0683 7.6522e-39 466 257 0 0 0 0.5857 -0.43784 -0.6821 0.020679
-0.030965 0.0069476 1.0688 7.514e-39 370 257.5 0 0 0 0.58313 -0.41744 -0.69692 0.017023
-0.029103 0.0075764 1.0692 7.2835e-39 274.5 258 0 0 0 0.58065 -0.40019 -0.70901 0.015958
-0.0034548 0.0075699 1.0683 6.8225e-39 426 258 0 0 0 -0.53655 0.15405 -0.82969 0.15203
0.042828 0.0069509 1.0692 7.8827e-39 199.5 258.5 0 0 0 -0.57735 -0.24669 -0.77834 0.018741
0.044041 0.00632 1.0683 8.943e-39 238 258 0 0 0 -0.60583 -0.23961 -0.75866 0.015039
-0.030952 0.0088197 1.0683 7.9288e-39 231 259 0 0 0 0.59303 -0.41138 -0.69216 0.01808
-0.029103 0.0088274 1.0692 8.8047e-39 232.5 259 0 0 0 0.58935 -0.3861 -0.70964 0.01605
-0.0034548 0.0088197 1.0683 7.4678e-39 253 259 0 0 0 -0.50339 0.20584 -0.83918 0.14328
0.010303 0.0088274 1.0692 7.6522e-39 264 259 0 0 0 0.38893 -0.21333 -0.89623 0.13732
0.041577 0.0088274 1.0692 7.1913e-39 368 259 0 0 0 -0.5494 -0.27616 -0.78861 0.021535
0.042791 0.0088197 1.0683 7.0069e-39 369 259 0 0 0 -0.58459 -0.27503 -0.76329 0.017393
-0.029083 0.010696 1.0685 7.7675e-39 215.5 260 0 0 0 0.59663 -0.38107 -0.70627 0.016047
-0.027226 0.011329 1.0692 6.8225e-39 283 260 0 0 0 0.58564 -0.3524 -0.72995 0.020364
-0.0030402 0.010909 1.0689 7.0376e-39 343 260 0 0 0 -0.45833 0.16696 -0.87296 0.13746
0.011544 0.011319 1.0683 7.9288e-39 461 260 0 0 0 0.37786 -0.10232 -0.92019 0.11856
0.041541 0.010695 1.0683 8.6203e-39 194 260.5 0 0 0 -0.56067 -0.29962 -0.77193 0.021355
0.042791 0.01007 1.0683 8.2054e-39 241 260 0 0 0 -0.58037 -0.28501 -0.76285 0.017708
-0.028869 0.012986 1.0683 6.884e-39 288 261 0 0 0 0.61043 -0.36481 -0.70306 0.017149
-0.027214 0.013199 1.0688 7.1452e-39 331.5 261 0 0 0 0.59651 -0.34485 -0.72475 0.021083
-0.0022068 0.01258 1.0692 8.3898e-39 236 261 0 0 0 -0.40209 0.19138 -0.89538 0.13729
-0.00095544 0.0132 1.0688 6.9608e-39 379 261 0 0 0 -0.36973 0.25024 -0.89481 0.1432
0.011131 0.013406 1.0686 8.3898e-39 180.67 261.67 0 0 0 0.34249 -0.04921 -0.93823 0.11508
0.040933 0.0132 1.0688 7.0069e-39 234.5 261.5 0 0 0 -0.55173 -0.31378 -0.77275 0.02297
-0.027202 0.015069 1.0683 8.482e-39 238 262 0 0 0 0.60941 -0.33985 -0.71633 0.022822
-0.025975 0.015082 1.0692 8.7586e-39 239 262 0 0 0 0.58532 -0.32114 -0.74449 0.034637
-0.00095586 0.015082 1.0692 7.4678e-39 264 262 0 0 0 -0.35816 0.28853 -0.88796 0.12258
0.00029485 0.015069 1.0683 7.7444e-39 265 262 0 0 0 -0.32751 0.33075 -0.88506 0.13271
0.011544 0.015069 1.0683 6.4537e-39 280 262 0 0 0 0.33412 -0.0079199 -0.9425 0.1042
0.040291 0.015069 1.0683 8.021e-39 428 262 0 0 0 -0.54935 -0.3305 -0.76745 0.025474
-0.025558 0.017167 1.0692 8.021e-39 329.33 262.67 0 0 0 0.59782 -0.28799 -0.74811 0.042047
0.0002951 0.016333 1.0692 6.7303e-39 152 263 0 0 0 -0.30611 0.32006 -0.89658 0.12507
0.011127 0.017152 1.0683 6.6996e-39 267 263 0 0 0 0.32309 0.040006 -0.94552 0.10469
0.012805 0.016333 1.0692 6.7303e-39 162 263 0 0 0 0.33183 -0.026695 -0.94296 0.091225
0.040291 0.016944 1.0683 6.7303e-39 330.5 263 0 0 0 -0.55419 -0.33953 -0.75999 0.026074
-0.025349 0.018835 1.0692 5.6239e-39 519.5 263 0 0 0 0.60025 -0.24473 -0.76145 0.048579
0.011544 0.018819 1.0683 6.1771e-39 164 264 0 0 0 0.30005 0.069553 -0.95139 0.090312
0.040291 0.018819 1.0683 8.1132e-39 228 264 0 0 0 -0.56233 -0.35745 -0.74567 0.027091
-0.025975 0.020086 1.0692 8.482e-39 258 264 0 0 0 0.61585 -0.21582 -0.75772 0.048262
0.0015447 0.020694 1.0683 7.1913e-39 216 264.5 0 0 0 -0.25097 0.40981 -0.87697 0.087922
0.0027946 0.021319 1.0683 7.0069e-39 145 265 0 0 0 -0.20654 0.42438 -0.88161 0.092603
0.0065442 0.021319 1.0683 7.0069e-39 148 265 0 0 0 0.060399 0.27801 -0.95868 0.1165
0.010711 0.020486 1.0683 7.1605e-39 284 264.33 0 0 0 0.26864 0.085855 -0.95941 0.088195
0.040291 0.020694 1.0683 7.3757e-39 338 264.5 0 0 0 -0.56848 -0.37286 -0.73335 0.026806
0.0015447 0.023193 1.0683 7.6061e-39 346 265 0 0 0 -0.25295 0.41926 -0.87192 0.07537
0.0027946 0.023193 1.0683 7.4218e-39 354.5 265 0 0 0 -0.17388 0.39888 -0.90037 0.0883
0.0040445 0.023193 1.0683 7.514e-39 355.5 265 0 0 0 -0.1213 0.38564 -0.91464 0.093388
0.0065442 0.023193 1.0683 7.5601e-39 357.5 265 0 0 0 0.027426 0.30506 -0.95194 0.10153
0.010711 0.023401 1.0683 7.222e-39 392.33 265 0 0 0 0.24689 0.14128 -0.95869 0.075361
0.014056 0.023839 1.0692 8.5742e-39 457 265 0 0 0 0.26931 0.072264 -0.96034 0.056929
0.0015461 0.02509 1.0692 6.2693e-39 526 265 0 0 0 -0.23415 0.41598 -0.87871 0.065388
0.0027946 0.025068 1.0683 8.1132e-39 141 266 0 0 0 -0.17639 0.41571 -0.89223 0.075266
0.0046712 0.025079 1.0688 7.4218e-39 142.5 266 0 0 0 -0.10024 0.3757 -0.9213 0.08651
0.007172 0.025079 1.0688 6.8686e-39 144.5 266 0 0 0 0.064722 0.28169 -0.95732 0.088606
0.009044 0.025068 1.0683 7.0991e-39 146 266 0 0 0 0.16445 0.2345 -0.95811 0.080003
0.010924 0.025079 1.0688 7.0991e-39 147.5 266 0 0 0 0.23974 0.1664 -0.95647 0.0714
0.002797 0.026967 1.0692 7.1913e-39 233.5 266 0 0 0 -0.19028 0.43333 -0.88092 0.065292
0.0052989 0.026341 1.0692 6.5459e-39 211 266 0 0 0 -0.054803 0.36116 -0.93089 0.082064
0.0078009 0.026967 1.0692 7.4218e-39 238.5 266 0 0 0 0.089479 0.28037 -0.95571 0.075979
0.0090518 0.026967 1.0692 7.3757e-39 242.5 266 0 0 0 0.14452 0.25402 -0.95634 0.071146
0.010303 0.026341 1.0692 7.0991e-39 221 266 0 0 0 0.21902 0.1811 -0.95877 0.069814
0.016543 0.066314 1.0683 6.0849e-39 292 273 0 0 0 0.26475 0.67476 -0.68892 0.070124
0.017793 0.070689 1.0683 7.3296e-39 438.5 273 0 0 0 0.24836 0.61706 -0.74669 0.067179
0.019043 0.070689 1.0683 7.2374e-39 445 273 0 0 0 0.23631 0.608 -0.75796 0.071938
0.0046735 0.073877 1.0692 9.3118e-39 141.5 274 0 0 0 0.34864 0.56827 -0.74533 0.043747
0.0071754 0.073877 1.0692 9.3118e-39 143.5 274 0 0 0 0.33854 0.56419 -0.75305 0.045491
0.009044 0.073813 1.0683 9.404e-39 145 274 0 0 0 0.332 0.57111 -0.75073 0.046298
0.012794 0.073813 1.0683 9.1274e-39 148 274 0 0 0 0.3012 0.57183 -0.76308 0.050782
0.014675 0.07322 1.0688 8.2746e-39 311.75 273.5 0 0 0 0.28607 0.57129 -0.76928 0.053876
0.0015461 0.075128 1.0692 8.3898e-39 158 274 0 0 0 0.30628 0.5652 -0.76599 0.04517
0.010919 0.075063 1.0683 7.053e-39 176.5 274 0 0 0 0.31588 0.55177 -0.77187 0.047837
0.012805 0.075128 1.0692 6.7303e-39 178 274 0 0 0 0.29613 0.53662 -0.79016 0.049032
-0.00095503 0.078813 1.0683 6.9147e-39 220 274 0 0 0 0.2418 0.55555 -0.79555 0.049178
0.011554 0.078881 1.0692 7.56e-39 231 274 0 0 0 0.26576 0.47594 -0.83836 0.043817
-0.00095586 0.080132 1.0692 7.8366e-39 237 274 0 0 0 0.19725 0.53813 -0.81945 0.054794
0.010928 0.080757 1.0692 7.1452e-39 262.5 274 0 0 0 0.25567 0.44756 -0.85692 0.041794
0.012805 0.080132 1.0692 7.56e-39 263 274 0 0 0 0.25946 0.45639 -0.85111 0.043853
0.0002951 0.083885 1.0692 6.5459e-39 344 274 0 0 0 0.10805 0.47489 -0.87339 0.056415
0.017809 0.082634 1.0692 7.0991e-39 341 274 0 0 0 0.22025 0.40472 -0.88752 0.04709
0.041005 -0.013082 1.0706 9.542e-39 231 244.5 0 0 0 -0.52903 -0.084785 -0.84436 0.066824
-0.037298 -0.011207 1.0711 9.8649e-39 237 245 0 0 0 0.33741 -0.62569 -0.70333 0.057534
0.020328 -0.011198 1.0702 6.8225e-39 251 245 0 0 0 -0.25991 -0.32358 -0.9098 0.048132
0.042865 -0.011198 1.0702 4.6098e-39 235 246 0 0 0 -0.60447 -0.14348 -0.7836 0.031516
-0.036014 -0.0093196 1.0702 7.4679e-39 245.5 246.5 0 0 0 0.3993 -0.60456 -0.68925 0.049932
-0.031033 -0.0087011 1.0711 9.2196e-39 253 247 0 0 0 0.4398 -0.50121 -0.74523 0.033592
0.02158 -0.0086936 1.0702 6.9147e-39 234 248 0 0 0 -0.24363 -0.29832 -0.92285 0.038852
0.044781 -0.0093277 1.0711 8.2054e-39 242.5 247.5 0 0 0 -0.62433 -0.14827 -0.76696 0.023198
0.046621 -0.0086936 1.0702 8.8508e-39 245 248 0 0 0 -0.64776 -0.13917 -0.74903 0.017023
-0.039178 -0.0061949 1.0711 8.3898e-39 261.5 249 0 0 0 0.41524 -0.59899 -0.68468 0.048125
-0.036656 -0.0068185 1.0706 9.0352e-39 259.5 248.5 0 0 0 0.43154 -0.58014 -0.6908 0.045548
0.045408 -0.007448 1.0711 9.404e-39 248 249 0 0 0 -0.62558 -0.1614 -0.76328 0.020604
0.047066 -0.0070282 1.0708 8.9737e-39 250 249.33 0 0 0 -0.64066 -0.15857 -0.75128 0.015999
-0.041058 -0.0049418 1.0711 8.2976e-39 265 250 0 0 0 0.40271 -0.61113 -0.68143 0.050869
-0.039178 -0.0049418 1.0711 7.9288e-39 266.5 250 0 0 0 0.43341 -0.58675 -0.68402 0.045499
-0.036656 -0.0049397 1.0706 7.8827e-39 268.5 250 0 0 0 0.46204 -0.56747 -0.68154 0.040226
-0.034792 -0.0049418 1.0711 8.482e-39 270 250 0 0 0 0.4724 -0.55036 -0.68843 0.037606
0.046661 -0.0049418 1.0711 9.3118e-39 247 251 0 0 0 -0.62701 -0.17586 -0.75891 0.017313
-0.042274 -0.0024334 1.0702 9.5883e-39 249 252 0 0 0 0.43164 -0.61186 -0.6628 0.044172
-0.041022 -0.0036854 1.0702 8.482e-39 264 251 0 0 0 0.43294 -0.60372 -0.66939 0.046086
-0.039144 -0.0036854 1.0702 8.1593e-39 265.5 251 0 0 0 0.45398 -0.58388 -0.67305 0.041833
-0.036849 -0.0032681 1.0702 8.0825e-39 262.67 251.33 0 0 0 0.48222 -0.56325 -0.67098 0.035747
-0.034792 -0.003062 1.0711 8.2054e-39 262 251.5 0 0 0 0.49566 -0.54094 -0.67949 0.033768
0.045408 -0.003062 1.0711 7.514e-39 215 252.5 0 0 0 -0.61636 -0.19036 -0.76411 0.017718
0.047258 -0.0030602 1.0704 7.6522e-39 216.5 252.5 0 0 0 -0.63096 -0.18635 -0.7531 0.013187
-0.037266 -0.0011813 1.0702 6.8225e-39 227 253 0 0 0 0.50393 -0.5481 -0.66756 0.033992
-0.034792 -0.0011824 1.0711 7.2835e-39 229 253 0 0 0 0.51187 -0.52441 -0.68044 0.03238
0.045369 -0.0011813 1.0702 6.6381e-39 369 253 0 0 0 -0.61465 -0.19686 -0.76384 0.016461
-0.034762 0.00069675 1.0702 6.3615e-39 275 254 0 0 0 0.53891 -0.49285 -0.68314 0.026757
-0.033539 0.0013239 1.0711 6.8225e-39 370 254 0 0 0 0.53937 -0.47855 -0.69287 0.025464
0.042902 0.0013239 1.0711 7.6522e-39 230 255 0 0 0 -0.56521 -0.21077 -0.79757 0.022675
0.04456 0.00048846 1.0708 8.0517e-39 251.67 254.33 0 0 0 -0.60676 -0.2007 -0.76913 0.016666
-0.032685 0.0029929 1.0705 8.2669e-39 251 255.33 0 0 0 0.5575 -0.45587 -0.69381 0.021816
-0.031033 0.0038302 1.0711 8.3898e-39 235 256 0 0 0 0.55044 -0.43788 -0.71083 0.019616
0.041649 0.0038302 1.0711 6.1771e-39 516 256 0 0 0 -0.5324 -0.21933 -0.81758 0.024646
0.042884 0.0032019 1.0706 5.8544e-39 347 256 0 0 0 -0.56385 -0.21291 -0.79796 0.021845
0.044117 0.0025748 1.0702 6.1771e-39 178 256 0 0 0 -0.59128 -0.21212 -0.77807 0.018749
-0.031006 0.0050789 1.0702 7.56e-39 199 257 0 0 0 0.56556 -0.4325 -0.7022 0.018811
-0.029153 0.0050833 1.0711 7.4679e-39 200.5 257 0 0 0 0.54775 -0.41391 -0.72708 0.017338
0.041649 0.0050833 1.0711 7.3757e-39 268 257 0 0 0 -0.53209 -0.22607 -0.81595 0.024296
0.042865 0.0050789 1.0702 7.4678e-39 269 257 0 0 0 -0.57084 -0.22387 -0.78995 0.020023
-0.029128 0.0063309 1.0702 6.8686e-39 514.5 257 0 0 0 0.5697 -0.40449 -0.71542 0.016854
-0.027273 0.0069629 1.0711 7.1913e-39 396 257.5 0 0 0 0.54405 -0.38163 -0.74724 0.017685
0.039143 0.0075895 1.0711 6.6381e-39 159 259 0 0 0 -0.46193 -0.25031 -0.85086 0.029389
0.041005 0.00696 1.0706 7.6292e-39 198 258.5 0 0 0 -0.516 -0.25137 -0.81888 0.02596
-0.026635 0.0088389 1.0706 8.6664e-39 234.5 259 0 0 0 0.5615 -0.35751 -0.74626 0.019642
0.039143 0.0088427 1.0711 7.0069e-39 366 259 0 0 0 -0.47339 -0.26365 -0.84047 0.029135
0.040361 0.008835 1.0702 7.2835e-39 367 259 0 0 0 -0.51302 -0.27433 -0.81336 0.025726
-0.026635 0.010092 1.0706 7.8827e-39 151.5 260 0 0 0 0.56522 -0.34818 -0.74787 0.022447
-0.025177 0.010928 1.0708 6.7918e-39 240.67 260 0 0 0 0.53662 -0.34811 -0.76867 0.029612
0.011564 0.010087 1.0702 6.5459e-39 201 260 0 0 0 0.33624 -0.20835 -0.91844 0.11912
0.012821 0.010718 1.0706 7.1452e-39 332 260 0 0 0 0.33317 -0.20508 -0.92029 0.10506
0.039143 0.010722 1.0711 8.7586e-39 192 260.5 0 0 0 -0.48001 -0.28622 -0.82926 0.028651
0.040361 0.010713 1.0702 8.8047e-39 193 260.5 0 0 0 -0.51688 -0.29218 -0.80465 0.025952
-0.025377 0.01322 1.0704 7.3987e-39 333 261 0 0 0 0.56361 -0.32647 -0.75879 0.035918
-0.023514 0.013229 1.0711 7.4218e-39 334.5 261 0 0 0 0.50087 -0.30641 -0.80947 0.054179
-0.0030444 0.01343 1.0705 6.5459e-39 424.67 261 0 0 0 -0.39887 0.11806 -0.90937 0.12116
0.012816 0.013217 1.0702 7.8366e-39 198.5 261.5 0 0 0 0.33048 -0.11626 -0.93662 0.10113
0.037263 0.013228 1.0711 6.7994e-39 220.25 261.5 0 0 0 -0.43918 -0.29272 -0.84937 0.032103
0.039143 0.013229 1.0711 6.8224e-39 223 261.5 0 0 0 -0.49366 -0.30202 -0.81552 0.028739
0.040361 0.012591 1.0702 7.1913e-39 277 261 0 0 0 -0.52167 -0.31095 -0.79446 0.025936
-0.024746 0.015095 1.0702 8.6664e-39 240 262 0 0 0 0.55299 -0.31102 -0.77296 0.047801
-0.023514 0.015108 1.0711 8.3898e-39 241 262 0 0 0 0.51843 -0.29199 -0.80373 0.059133
-0.0028363 0.015101 1.0706 7.4218e-39 262.5 262 0 0 0 -0.38652 0.16913 -0.90664 0.1088
0.012816 0.015095 1.0702 6.9147e-39 281 262 0 0 0 0.32117 -0.092645 -0.94248 0.096656
0.01408 0.015108 1.0711 7.0991e-39 282 262 0 0 0 0.27603 -0.13709 -0.95132 0.084728
0.037246 0.015101 1.0706 7.0068e-39 424.5 262 0 0 0 -0.45399 -0.31546 -0.83329 0.032613
0.039109 0.015095 1.0702 7.7444e-39 427 262 0 0 0 -0.50803 -0.31972 -0.7998 0.02893
-0.024746 0.016347 1.0702 6.4537e-39 516 262 0 0 0 0.56355 -0.2887 -0.77399 0.053608
-0.023493 0.016973 1.0702 7.3757e-39 387 262.5 0 0 0 0.53259 -0.26274 -0.80456 0.061934
-0.0022106 0.016988 1.0711 6.9608e-39 215.5 263 0 0 0 -0.35282 0.2206 -0.90931 0.10017
-0.0009571 0.016981 1.0706 7.0069e-39 216.5 263 0 0 0 -0.33513 0.22929 -0.91384 0.11208
0.00029536 0.017599 1.0702 7.1913e-39 283 263 0 0 0 -0.28976 0.27271 -0.91742 0.11819
0.012816 0.017599 1.0702 7.2835e-39 350 263 0 0 0 0.29453 -0.044495 -0.95461 0.084646
0.014068 0.016973 1.0702 7.1452e-39 257 263 0 0 0 0.28206 -0.074639 -0.95649 0.082408
0.032877 0.016988 1.0711 6.8225e-39 324 263 0 0 0 -0.32338 -0.31233 -0.89324 0.034529
0.035383 0.017615 1.0711 7.8366e-39 450 263 0 0 0 -0.39336 -0.32507 -0.86 0.0346
0.037231 0.016973 1.0702 7.099e-39 327.5 263 0 0 0 -0.46363 -0.33298 -0.82108 0.033218
0.039109 0.016973 1.0702 7.0069e-39 329.5 263 0 0 0 -0.51496 -0.33139 -0.79057 0.029707
-0.023493 0.018851 1.0702 5.9005e-39 521 263 0 0 0 0.53453 -0.22207 -0.81545 0.066493
-0.0028372 0.018868 1.0711 6.6842e-39 152.5 264 0 0 0 -0.35557 0.22099 -0.90815 0.078133
-0.00095752 0.018868 1.0711 6.8225e-39 154 264 0 0 0 -0.32416 0.26242 -0.90887 0.094159
0.00029536 0.018851 1.0702 6.6381e-39 155 264 0 0 0 -0.28571 0.30584 -0.9082 0.10647
0.012816 0.018851 1.0702 6.0849e-39 165 264 0 0 0 0.29299 -0.048978 -0.95486 0.080211
0.014068 0.018851 1.0702 6.5459e-39 166 264 0 0 0 0.26489 -0.06075 -0.96236 0.076265
0.032877 0.018868 1.0711 6.7303e-39 212 264 0 0 0 -0.32734 -0.32529 -0.88715 0.036227
0.037246 0.01886 1.0706 8.1132e-39 225 264 0 0 0 -0.46583 -0.34362 -0.81543 0.033799
0.039143 0.018868 1.0711 7.8366e-39 227 264 0 0 0 -0.51042 -0.34033 -0.78971 0.030453
-0.024746 0.020103 1.0702 8.1132e-39 259 264 0 0 0 0.57771 -0.22146 -0.78562 0.059031
-0.023514 0.020121 1.0711 7.7444e-39 260 264 0 0 0 0.54443 -0.14282 -0.82656 0.080699
-0.0026283 0.020539 1.0711 7.5293e-39 236.67 264.33 0 0 0 -0.33124 0.25389 -0.90875 0.073087
-0.00095669 0.020729 1.0702 7.9288e-39 214 264.5 0 0 0 -0.31496 0.3288 -0.89033 0.075129
0.00029536 0.020729 1.0702 7.514e-39 215 264.5 0 0 0 -0.28061 0.35628 -0.89125 0.084545
0.012816 0.020729 1.0702 6.6842e-39 277 264.5 0 0 0 0.28695 0.019597 -0.95775 0.073199
0.014068 0.020729 1.0702 6.6381e-39 285.5 264.5 0 0 0 0.26988 0.0035546 -0.96289 0.065862
0.037246 0.020738 1.0706 6.8686e-39 331.5 264.5 0 0 0 -0.46947 -0.35951 -0.80644 0.035411
0.039143 0.020121 1.0711 7.3757e-39 454 264 0 0 0 -0.51617 -0.35426 -0.77979 0.030344
0.00029536 0.022608 1.0702 8.021e-39 259 265 0 0 0 -0.27543 0.37069 -0.88698 0.072846
0.012816 0.023234 1.0702 7.6061e-39 366 265 0 0 0 0.28319 0.06573 -0.95681 0.065797
0.014701 0.023244 1.0706 7.6983e-39 368 265 0 0 0 0.26356 0.026793 -0.96427 0.056001
0.017212 0.02388 1.0711 7.6522e-39 459.5 265 0 0 0 0.23545 -0.0071577 -0.97186 0.044168
0.012816 0.025112 1.0702 6.9147e-39 149 266 0 0 0 0.26227 0.086849 -0.96108 0.059929
0.014701 0.025123 1.0706 6.7303e-39 150.5 266 0 0 0 0.25174 0.050227 -0.96649 0.049929
0.017212 0.025133 1.0711 6.7303e-39 152.5 266 0 0 0 0.23753 0.034225 -0.97078 0.042146
0.0015474 0.026364 1.0702 6.8225e-39 202 266 0 0 0 -0.22909 0.4269 -0.8748 0.060452
0.0044688 0.027199 1.0702 7.222e-39 243 266 0 0 0 -0.11371 0.39291 -0.91252 0.072115
0.0065556 0.02699 1.0702 7.1452e-39 237.5 266 0 0 0 -0.0010454 0.31675 -0.94851 0.082165
0.011147 0.027199 1.0702 7.3142e-39 252.33 266 0 0 0 0.22279 0.13883 -0.96493 0.062931
0.012827 0.026386 1.0711 8.2976e-39 224 266 0 0 0 0.24606 0.092024 -0.96488 0.053943
0.014074 0.027002 1.0706 7.514e-39 250.5 266 0 0 0 0.25316 0.10317 -0.96191 0.046339
0.017212 0.026386 1.0711 7.4218e-39 227.5 266 0 0 0 0.23419 0.048827 -0.97096 0.039583
0.0046815 0.028893 1.0711 7.053e-39 352.5 266 0 0 0 -0.10988 0.36701 -0.92371 0.066322
0.0071844 0.02888 1.0706 6.7303e-39 354.5 266 0 0 0 0.064877 0.27002 -0.96067 0.068372
0.0090597 0.028868 1.0702 7.2835e-39 356 266 0 0 0 0.14626 0.23674 -0.9605 0.05987
0.010947 0.028893 1.0711 6.7764e-39 378 266 0 0 0 0.21658 0.19536 -0.95652 0.049679
0.0053081 0.030146 1.0711 7.8366e-39 451 266 0 0 0 -0.074703 0.38069 -0.92168 0.068431
0.0078144 0.030146 1.0711 7.4678e-39 453 266 0 0 0 0.074579 0.31223 -0.94707 0.063526
0.0090675 0.030146 1.0711 7.2835e-39 454 266 0 0 0 0.143 0.2424 -0.95958 0.057474
0.020346 0.06774 1.0711 7.0991e-39 358 273 0 0 0 0.27866 0.56455 -0.77693 0.090432
0.017205 0.068963 1.0706 6.0388e-39 393.5 273 0 0 0 0.23354 0.61312 -0.75468 0.072544
0.019076 0.068933 1.0702 5.8083e-39 395 273 0 0 0 0.2331 0.611 -0.75653 0.077798
0.016579 0.070842 1.0706 7.4679e-39 437.5 273 0 0 0 0.24777 0.57851 -0.77713 0.063631
0.0027994 0.075193 1.0702 7.9288e-39 159 274 0 0 0 0.31675 0.54833 -0.77395 0.047564
0.0053081 0.075259 1.0711 7.0991e-39 161 274 0 0 0 0.30604 0.53225 -0.78934 0.049125
0.0071878 0.075259 1.0711 6.9608e-39 162.5 274 0 0 0 0.30032 0.53134 -0.79214 0.04903
0.0090597 0.075193 1.0702 6.7303e-39 175 274 0 0 0 0.31233 0.53416 -0.78557 0.04483
0.014694 0.075193 1.0702 6.3615e-39 179.5 274 0 0 0 0.27255 0.51788 -0.81087 0.050479
0.0015487 0.077138 1.0711 6.9608e-39 194 274 0 0 0 0.21734 0.5516 -0.80529 0.054266
0.0090675 0.077138 1.0711 7.0069e-39 200 274 0 0 0 0.2831 0.50824 -0.81335 0.046607
0.010938 0.077071 1.0702 6.4537e-39 201.5 274 0 0 0 0.29667 0.50536 -0.81031 0.043384
0.012816 0.077071 1.0702 6.5459e-39 203 274 0 0 0 0.25423 0.48746 -0.83532 0.045192
0.014706 0.077138 1.0711 6.592e-39 204.75 274 0 0 0 0.26255 0.48671 -0.83317 0.046008
0.0015487 0.079018 1.0711 6.9147e-39 223 274 0 0 0 0.19406 0.52673 -0.82759 0.055041
0.0090675 0.079018 1.0711 6.7303e-39 229 274 0 0 0 0.26235 0.4731 -0.84104 0.045811
0.010312 0.078949 1.0702 6.9147e-39 230 274 0 0 0 0.27511 0.47065 -0.83834 0.042151
0.012816 0.078949 1.0702 7.8366e-39 232 274 0 0 0 0.26321 0.47344 -0.84058 0.043468
0.014701 0.078984 1.0706 7.2835e-39 233.5 274 0 0 0 0.26642 0.45925 -0.84741 0.044826
-0.00095669 0.081454 1.0702 7.0069e-39 268 274 0 0 0 0.14344 0.51028 -0.84796 0.059249
0.0015487 0.080271 1.0711 7.8366e-39 240 274 0 0 0 0.1729 0.51487 -0.83965 0.052926
0.0065613 0.081524 1.0711 6.4537e-39 274 274 0 0 0 0.17502 0.46357 -0.86861 0.0519
0.0090675 0.080897 1.0711 7.4218e-39 261 274 0 0 0 0.24582 0.44674 -0.86023 0.049455
0.012816 0.081454 1.0702 6.7303e-39 279 274 0 0 0 0.26208 0.43633 -0.86077 0.042719
0.01449 0.080642 1.0705 7.1913e-39 269.67 274 0 0 0 0.243 0.43278 -0.86813 0.043997
0.0090675 0.082777 1.0711 5.9927e-39 298 274 0 0 0 0.19348 0.44222 -0.87579 0.051505
0.010938 0.082706 1.0702 6.3615e-39 317.5 274 0 0 0 0.25717 0.42195 -0.86938 0.040254
0.012816 0.082706 1.0702 6.5459e-39 337 274 0 0 0 0.24827 0.41523 -0.87518 0.041471
0.01408 0.082777 1.0711 6.2693e-39 338 274 0 0 0 0.23276 0.4086 -0.88253 0.040871
0.00029536 0.08521 1.0702 6.7303e-39 360 274 0 0 0 0.084818 0.44592 -0.89104 0.055062
0.010947 0.084657 1.0711 6.592e-39 363.5 274 0 0 0 0.1953 0.40388 -0.89372 0.043384
0.012827 0.08403 1.0711 6.5459e-39 354 274 0 0 0 0.22879 0.39366 -0.89033 0.039942
0.00029561 0.087164 1.0711 6.9608e-39 396 274 0 0 0 0.03553 0.42091 -0.90641 0.055444
0.016586 0.10659 1.0711 7.0991e-39 409 275 0 0 0 0.0067941 0.33122 -0.94353 0.057626
-0.038585 -0.012471 1.072 1.0971e-38 231 244 0 0 0 0.28779 -0.6444 -0.70847 0.064556
0.037955 -0.013737 1.073 7.56e-39 249 243 0 0 0 -0.32754 -0.045073 -0.94376 0.078975
0.040501 -0.012493 1.0739 1.1524e-38 232 245 0 0 0 -0.44763 -0.096803 -0.88897 0.069879
-0.038618 -0.011227 1.073 9.8649e-39 236 245 0 0 0 0.30555 -0.64348 -0.70184 0.06146
0.041685 -0.011217 1.072 5.8083e-39 234 246 0 0 0 -0.55912 -0.16136 -0.81323 0.036986
-0.039229 -0.0093402 1.0725 6.6842e-39 243 246.5 0 0 0 0.34343 -0.63188 -0.69483 0.055299
-0.037331 -0.0093358 1.072 7.1452e-39 244.5 246.5 0 0 0 0.38326 -0.60992 -0.69362 0.051464
-0.034822 -0.0093358 1.072 7.7905e-39 246.5 246.5 0 0 0 0.40623 -0.56931 -0.71475 0.043787
-0.033169 -0.0091322 1.0727 8.3284e-39 249 246.67 0 0 0 0.41534 -0.54223 -0.7304 0.040988
0.020363 -0.0099629 1.072 3.5956e-39 230 247 0 0 0 -0.25245 -0.30752 -0.91744 0.040466
0.04174 -0.0093477 1.0734 7.514e-39 240 247.5 0 0 0 -0.53686 -0.17668 -0.82496 0.0382
0.042958 -0.0093396 1.0725 7.9749e-39 241 247.5 0 0 0 -0.57529 -0.16501 -0.80113 0.031115
0.044193 -0.0087087 1.072 9.3118e-39 243 248 0 0 0 -0.59927 -0.16237 -0.78391 0.027343
-0.042421 -0.006211 1.0739 8.482e-39 259 249 0 0 0 0.32959 -0.62315 -0.70926 0.059897
-0.041147 -0.0068365 1.0734 8.5742e-39 256 248.5 0 0 0 0.35296 -0.61895 -0.70166 0.056916
-0.039212 -0.0074545 1.072 9.1274e-39 253.5 248 0 0 0 0.38209 -0.61327 -0.69131 0.050188
-0.034822 -0.0068274 1.072 9.1274e-39 261 248.5 0 0 0 0.44103 -0.5596 -0.70167 0.040216
-0.032963 -0.0068317 1.0727 8.6895e-39 262.5 248.5 0 0 0 0.44249 -0.52834 -0.72461 0.03697
-0.031073 -0.0068301 1.0725 8.2515e-39 264 248.5 0 0 0 0.44447 -0.50651 -0.73884 0.034682
-0.029857 -0.0068392 1.0739 8.1132e-39 265 248.5 0 0 0 0.43966 -0.47129 -0.76458 0.033132
-0.0047272 -0.0068365 1.0734 5.9005e-39 221.5 249.5 0 0 0 -0.22433 -0.81729 -0.53077 0.15087
0.021646 -0.006836 1.0734 8.5742e-39 238.5 249.5 0 0 0 -0.23055 -0.31607 -0.9203 0.03528
0.041758 -0.0068392 1.0739 8.9891e-39 246 249.5 0 0 0 -0.52654 -0.19089 -0.82844 0.035769
0.042977 -0.0068333 1.073 9.0352e-39 247 249.5 0 0 0 -0.55612 -0.1901 -0.80907 0.030993
0.044637 -0.0066223 1.0727 9.0967e-39 248.67 249.67 0 0 0 -0.59577 -0.17761 -0.78327 0.025372
0.047956 -0.0062003 1.072 8.8508e-39 252 250 0 0 0 -0.64249 -0.15785 -0.74986 0.015896
-0.043031 -0.0049524 1.0734 8.7125e-39 263.5 250 0 0 0 0.34474 -0.62884 -0.69694 0.057235
-0.032941 -0.004946 1.072 8.5742e-39 271.5 250 0 0 0 0.45984 -0.51191 -0.7256 0.034394
-0.03106 -0.004946 1.072 8.2054e-39 273 250 0 0 0 0.47445 -0.47929 -0.73837 0.027634
-0.029857 -0.0049546 1.0739 8.021e-39 274 250 0 0 0 0.46508 -0.45564 -0.759 0.025613
-0.0047251 -0.0049503 1.073 6.6381e-39 208 251 0 0 0 -0.34499 -0.7417 -0.57521 0.14985
0.021655 -0.0049546 1.0739 7.9288e-39 232 251 0 0 0 -0.21981 -0.31918 -0.92185 0.034437
0.025424 -0.0049546 1.0739 8.2054e-39 233 251 0 0 0 -0.24781 -0.24342 -0.93773 0.029074
0.041758 -0.0049546 1.0739 9.2196e-39 243 251 0 0 0 -0.51405 -0.20849 -0.83204 0.032474
0.042977 -0.0049503 1.073 8.943e-39 244 251 0 0 0 -0.55634 -0.20065 -0.80637 0.028542
0.04484 -0.0049481 1.0725 8.9891e-39 245.5 251 0 0 0 -0.59709 -0.18449 -0.78067 0.02336
0.047956 -0.004946 1.072 9.4961e-39 248 251 0 0 0 -0.63892 -0.16543 -0.75128 0.015167
-0.044856 -0.0024376 1.072 9.6805e-39 247 252 0 0 0 0.38486 -0.63432 -0.67047 0.053509
-0.042975 -0.0036918 1.072 8.3898e-39 262.5 251 0 0 0 0.38473 -0.62783 -0.67662 0.051087
-0.032941 -0.0030647 1.072 8.2515e-39 263.5 251.5 0 0 0 0.48191 -0.51019 -0.71237 0.030868
-0.031073 -0.0030658 1.0725 8.2054e-39 265 251.5 0 0 0 0.48508 -0.46804 -0.73867 0.02525
-0.029857 -0.00307 1.0739 7.9288e-39 266 251.5 0 0 0 0.47706 -0.44855 -0.75579 0.023199
-0.004723 -0.0030663 1.0725 6.5919e-39 230 252 0 0 0 -0.39904 -0.67771 -0.61764 0.14544
0.021655 -0.00307 1.0739 6.8686e-39 188 252.5 0 0 0 -0.20555 -0.32106 -0.92449 0.03404
0.022912 -0.00307 1.0739 6.7303e-39 189 252.5 0 0 0 -0.21158 -0.30838 -0.92744 0.032199
0.027303 -0.0030692 1.0737 6.3154e-39 193.5 252.5 0 0 0 -0.24746 -0.22288 -0.94291 0.027266
0.041111 -0.0030687 1.0734 6.7073e-39 211.5 252.5 0 0 0 -0.47724 -0.21466 -0.85215 0.035663
0.042977 -0.0030674 1.073 6.8685e-39 213 252.5 0 0 0 -0.55086 -0.20817 -0.80822 0.027508
0.044212 -0.0030663 1.0725 7.099e-39 214 252.5 0 0 0 -0.57492 -0.19859 -0.79374 0.025046
-0.032955 -0.0011839 1.0725 7.9288e-39 230.5 253 0 0 0 0.50895 -0.48942 -0.70812 0.025248
-0.031087 -0.0011844 1.073 8.6664e-39 232 253 0 0 0 0.49633 -0.45936 -0.73665 0.023414
-0.029857 -0.0011854 1.0739 8.7586e-39 233 253 0 0 0 0.48923 -0.44712 -0.74882 0.021844
-0.004721 -0.0011834 1.072 9.1274e-39 251 253 0 0 0 -0.44774 -0.57968 -0.68081 0.14201
0.027309 -0.0011854 1.0739 7.5139e-39 274.5 253 0 0 0 -0.2376 -0.23031 -0.94367 0.026725
0.039245 -0.0011854 1.0739 7.3757e-39 361 253 0 0 0 -0.4232 -0.21437 -0.88031 0.035352
0.041111 -0.0011849 1.0734 6.8686e-39 362.5 253 0 0 0 -0.48054 -0.22181 -0.84846 0.03212
0.042939 -0.0011834 1.072 7.2835e-39 367 253 0 0 0 -0.56116 -0.21068 -0.80045 0.02473
0.044193 -0.0011834 1.072 6.9147e-39 368 253 0 0 0 -0.57596 -0.20478 -0.79141 0.02323
-0.032732 0.00048889 1.072 6.5459e-39 254 254 0 0 0 0.52506 -0.47749 -0.7045 0.023821
-0.031073 0.00069795 1.0725 6.6842e-39 313.5 254 0 0 0 0.51204 -0.45923 -0.72589 0.022115
-0.029216 0.00069858 1.0734 7.1221e-39 331.5 254 0 0 0 0.50091 -0.42986 -0.75121 0.018374
-0.004723 0.00069851 1.0725 6.8225e-39 196.5 254.5 0 0 0 -0.43093 -0.53522 -0.72653 0.14436
0.027309 0.00069918 1.0739 7.9288e-39 228 254.5 0 0 0 -0.21496 -0.24307 -0.94589 0.026922
0.037988 0.00069918 1.0739 7.4679e-39 241 254.5 0 0 0 -0.38992 -0.21037 -0.8965 0.032558
0.039245 0.00069918 1.0739 7.6061e-39 242 254.5 0 0 0 -0.42416 -0.21303 -0.88017 0.032046
0.041093 0.00069826 1.073 7.9519e-39 243.5 254.5 0 0 0 -0.48462 -0.22018 -0.84656 0.030167
0.042939 7.0829e-05 1.072 8.1132e-39 260 254 0 0 0 -0.55933 -0.20888 -0.8022 0.023543
-0.03106 0.0025793 1.072 7.6522e-39 261 255 0 0 0 0.53489 -0.44193 -0.72013 0.020006
-0.029191 0.0032075 1.0725 8.0441e-39 250.5 255.5 0 0 0 0.52215 -0.42084 -0.74179 0.01801
-0.026704 0.0032103 1.0734 8.4128e-39 252.5 255.5 0 0 0 0.4936 -0.38541 -0.77963 0.016387
-0.004723 0.0032075 1.0725 7.4218e-39 306.5 255.5 0 0 0 -0.44471 -0.48267 -0.75449 0.14085
0.021655 0.0032119 1.0739 6.6381e-39 219.5 256 0 0 0 -0.11337 -0.34401 -0.9321 0.049218
0.022912 0.0032119 1.0739 6.7303e-39 220.5 256 0 0 0 -0.12788 -0.31998 -0.93876 0.043773
0.024796 0.0038401 1.0739 6.8686e-39 321.5 256 0 0 0 -0.15398 -0.2727 -0.9497 0.034218
0.027303 0.0032111 1.0737 7.0991e-39 264.75 256 0 0 0 -0.18955 -0.2393 -0.95226 0.027713
0.035476 0.0038401 1.0739 7.6522e-39 431 256 0 0 0 -0.33726 -0.20428 -0.91898 0.027407
0.037352 0.0032111 1.0737 6.8224e-39 319.5 256 0 0 0 -0.3898 -0.20984 -0.89668 0.029951
0.039211 0.0032091 1.073 6.9146e-39 321 256 0 0 0 -0.44547 -0.21064 -0.87017 0.03064
0.040861 0.0029981 1.0723 5.9927e-39 288.67 256 0 0 0 -0.49305 -0.21717 -0.84246 0.02855
-0.026681 0.0050899 1.0725 6.7303e-39 202.5 257 0 0 0 0.51772 -0.37364 -0.76965 0.016571
-0.024832 0.0050965 1.0739 6.8225e-39 204 257 0 0 0 0.48778 -0.35284 -0.79848 0.022762
-0.004721 0.0050877 1.072 8.7586e-39 233 257 0 0 0 -0.48546 -0.38868 -0.7831 0.15076
0.021636 0.0050921 1.073 7.7444e-39 252 257 0 0 0 -0.046678 -0.3498 -0.93566 0.061196
0.022912 0.0050965 1.0739 7.6522e-39 253 257 0 0 0 -0.10501 -0.3077 -0.94567 0.046322
0.024796 0.0050965 1.0739 7.5139e-39 254.5 257 0 0 0 -0.14079 -0.27651 -0.95064 0.03836
0.027298 0.0050943 1.0734 7.9749e-39 256.5 257 0 0 0 -0.17348 -0.24299 -0.95439 0.029791
0.031706 0.0050965 1.0739 7.8366e-39 260 257 0 0 0 -0.24993 -0.2043 -0.94646 0.025318
0.034847 0.0050965 1.0739 7.6983e-39 262.5 257 0 0 0 -0.33023 -0.21211 -0.91976 0.026327
0.037327 0.0050921 1.073 7.6983e-39 264.5 257 0 0 0 -0.39152 -0.21269 -0.89525 0.029626
0.039177 0.0050877 1.072 7.8366e-39 266 257 0 0 0 -0.45727 -0.22649 -0.86 0.02894
0.040431 0.0050877 1.072 7.7444e-39 267 257 0 0 0 -0.49434 -0.22361 -0.84002 0.027855
-0.026043 0.006969 1.072 6.8686e-39 397 257.5 0 0 0 0.52642 -0.36237 -0.76914 0.019948
-0.024821 0.0069778 1.0734 6.5459e-39 398 257.5 0 0 0 0.49806 -0.34738 -0.79452 0.026963
-0.023575 0.0069811 1.0739 6.3615e-39 399 257.5 0 0 0 0.46208 -0.34503 -0.81697 0.038486
-0.004723 0.0069723 1.0725 6.9607e-39 268 258 0 0 0 -0.43443 -0.35656 -0.82713 0.13996
0.010339 0.0076027 1.073 7.6522e-39 459 258 0 0 0 0.28243 -0.3476 -0.89409 0.12149
0.01286 0.0069811 1.0739 7.4218e-39 331.5 258 0 0 0 0.24858 -0.39334 -0.88515 0.093805
0.021655 0.0069811 1.0739 6.4076e-39 361.5 258 0 0 0 -0.034516 -0.34098 -0.93944 0.057672
0.022912 0.0069811 1.0739 6.3615e-39 362.5 258 0 0 0 -0.08444 -0.3063 -0.94818 0.047395
0.024168 0.0069811 1.0739 6.3615e-39 363.5 258 0 0 0 -0.10018 -0.28551 -0.95313 0.045091
0.027303 0.0069797 1.0737 7.9288e-39 179 258.5 0 0 0 -0.15987 -0.23762 -0.95811 0.031452
0.031278 0.0071883 1.0736 7.8366e-39 177.67 258.67 0 0 0 -0.24286 -0.23489 -0.94119 0.023664
0.032963 0.0069811 1.0739 7.2374e-39 191.5 258.5 0 0 0 -0.28196 -0.23144 -0.93109 0.024347
0.03484 0.0069794 1.0737 7.3526e-39 193 258.5 0 0 0 -0.32856 -0.23478 -0.91484 0.025888
0.037311 0.006972 1.0725 7.7675e-39 195 258.5 0 0 0 -0.39835 -0.24016 -0.88523 0.029876
0.039177 0.0063419 1.072 8.7586e-39 234 258 0 0 0 -0.45537 -0.23188 -0.85958 0.029708
-0.024788 0.0088504 1.072 8.3898e-39 236 259 0 0 0 0.51452 -0.34474 -0.78513 0.030164
