# .PCD v.7 - Point Cloud Data file format
VERSION .7
FIELDS x y z rgb u v vx vy vz normal_x normal_y normal_z curvature
SIZE 4 4 4 4 4 4 4 4 4 4 4 4 4
TYPE F F F F F F F F F F F F F
COUNT 1 1 1 1 1 1 1 1 1 1 1 1 1
WIDTH 556
HEIGHT 1
VIEWPOINT 0 0 0 1 0 0 0
POINTS 556
DATA ascii
-0.024272 0.18505 1.1056 8.021e-39 192 326 0 0 0 0.44938 -0.31677 -0.83529 0.0071877
-0.022978 0.18505 1.1056 7.9288e-39 193 326 0 0 0 0.44666 -0.315 -0.83742 0.0068232
0.07921 0.18505 1.1056 9.0352e-39 270 326 0 0 0 -0.72541 -0.24994 -0.64133 0.0090966
0.081114 0.18496 1.1051 8.8047e-39 271.5 326 0 0 0 -0.73963 -0.23472 -0.63075 0.0086582
0.084308 0.18488 1.1046 9.2196e-39 274 326 0 0 0 -0.76786 -0.23408 -0.59632 0.0097707
-0.028127 0.18617 1.1046 8.7586e-39 383 326 0 0 0 0.45459 -0.33341 -0.82594 0.0089694
-0.026835 0.18682 1.1046 8.2976e-39 296 326.5 0 0 0 0.45258 -0.3372 -0.82551 0.0083688
-0.025119 0.18666 1.1049 8.1747e-39 326.67 326.33 0 0 0 0.44978 -0.33476 -0.82803 0.0074925
-0.022978 0.18699 1.1056 7.7905e-39 299 326.5 0 0 0 0.44636 -0.33233 -0.83085 0.0073106
-0.021685 0.18763 1.1056 8.021e-39 212 327 0 0 0 0.44565 -0.33428 -0.83045 0.0069312
-0.019098 0.18699 1.1056 8.0671e-39 302 326.5 0 0 0 0.44318 -0.33213 -0.83263 0.0065199
0.07921 0.18634 1.1056 7.1913e-39 147 327 0 0 0 -0.72161 -0.25538 -0.64348 0.0097013
0.081317 0.18666 1.1049 7.8059e-39 189 327 0 0 0 -0.74024 -0.24385 -0.62656 0.0091004
0.084308 0.18617 1.1046 8.1132e-39 151 327 0 0 0 -0.76492 -0.23526 -0.59963 0.010244
-0.026835 0.18876 1.1046 7.1913e-39 393 327 0 0 0 0.44888 -0.3566 -0.81936 0.0088926
-0.025542 0.18876 1.1046 7.0069e-39 394 327 0 0 0 0.44886 -0.35096 -0.8218 0.0083448
-0.022978 0.18893 1.1056 7.9288e-39 396 327 0 0 0 0.44366 -0.3407 -0.82891 0.0076402
-0.021685 0.18893 1.1056 8.021e-39 397 327 0 0 0 0.44627 -0.33824 -0.82852 0.0071272
-0.026835 0.1907 1.1046 9.3577e-39 241 328 0 0 0 0.44513 -0.37542 -0.81297 0.010287
-0.025542 0.1907 1.1046 9.3116e-39 242 328 0 0 0 0.44737 -0.36823 -0.81502 0.0093296
-0.022978 0.19087 1.1056 9.2655e-39 244 328 0 0 0 0.44308 -0.34947 -0.82556 0.0082155
-0.021685 0.19087 1.1056 9.1275e-39 245 328 0 0 0 0.44613 -0.34502 -0.82579 0.0076592
-0.022958 0.19328 1.1046 7.6522e-39 177.5 329 0 0 0 0.44337 -0.37718 -0.81312 0.0096788
-0.021038 0.19281 1.1056 7.4218e-39 143.5 329 0 0 0 0.44487 -0.35561 -0.82197 0.0082302
0.085831 0.15104 1.1076 7.8366e-39 375.5 314 0 0 0 -0.68459 -0.26601 -0.67866 0.0094939
0.087049 0.15155 1.1066 6.0849e-39 420 314 0 0 0 -0.6834 -0.27504 -0.67626 0.0094079
0.088991 0.15284 1.1066 8.7586e-39 263.5 315 0 0 0 -0.68427 -0.28067 -0.67305 0.0097694
-0.043086 0.1555 1.1071 9.5422e-39 370.5 315 0 0 0 0.34468 -0.37662 -0.85986 0.069041
-0.041124 0.15543 1.1066 1.0142e-38 372 315 0 0 0 0.39239 -0.30169 -0.86891 0.052209
-0.03983 0.15543 1.1066 1.0602e-38 373 315 0 0 0 0.43181 -0.24267 -0.86871 0.037927
-0.034682 0.15557 1.1076 1.0049e-38 377 315 0 0 0 0.50168 -0.17143 -0.8479 0.01955
0.087127 0.15557 1.1076 6.1771e-39 194 316 0 0 0 -0.70001 -0.26238 -0.66419 0.0082473
0.088801 0.15462 1.1069 8.7277e-39 308.67 315.33 0 0 0 -0.69304 -0.2718 -0.6677 0.0088222
0.090933 0.15414 1.1066 1.0326e-38 367 315 0 0 0 -0.69014 -0.28372 -0.66574 0.010204
-0.03724 0.15673 1.1066 6.6381e-39 208 316 0 0 0 0.47447 -0.1956 -0.85827 0.025488
-0.034651 0.15673 1.1066 6.7303e-39 210 316 0 0 0 0.50428 -0.16843 -0.84696 0.018013
0.087127 0.15687 1.1076 7.3757e-39 304 316 0 0 0 -0.70467 -0.25763 -0.66111 0.0079072
-0.033386 0.15881 1.1076 8.5281e-39 387 316 0 0 0 0.5107 -0.15175 -0.84626 0.015289
0.085831 0.15946 1.1076 8.482e-39 245 317 0 0 0 -0.7138 -0.24555 -0.65589 0.0075891
0.087049 0.15867 1.1066 8.5281e-39 333.5 316.5 0 0 0 -0.7161 -0.2561 -0.64932 0.0082041
-0.034651 0.16126 1.1066 8.2976e-39 337 317 0 0 0 0.50718 -0.1569 -0.84744 0.014174
-0.033386 0.16076 1.1076 6.9147e-39 276 317 0 0 0 0.50986 -0.15321 -0.8465 0.013806
0.083239 0.16076 1.1076 9.3118e-39 366 317 0 0 0 -0.70885 -0.23622 -0.66463 0.0072869
0.085126 0.1613 1.1069 8.021e-39 280 317.5 0 0 0 -0.72047 -0.24133 -0.65014 0.007519
-0.064428 0.1632 1.1066 7.56e-39 203 318 0 0 0 -0.070276 -0.96588 -0.24928 0.093243
-0.061895 0.16335 1.1076 7.7444e-39 205 318 0 0 0 0.10515 -0.92797 -0.35752 0.14897
-0.034651 0.1632 1.1066 7.9288e-39 226 318 0 0 0 0.50926 -0.15187 -0.8471 0.012429
-0.032944 0.16287 1.1073 8.7893e-39 285 317.67 0 0 0 0.50846 -0.15185 -0.84759 0.012223
0.083239 0.1627 1.1076 7.9749e-39 254 318 0 0 0 -0.71328 -0.23362 -0.6608 0.0069769
0.084459 0.1632 1.1066 8.6664e-39 318 318 0 0 0 -0.72769 -0.23579 -0.64411 0.0075819
-0.034651 0.1645 1.1066 9.1274e-39 353 318 0 0 0 0.509 -0.15236 -0.84717 0.011807
-0.032723 0.16522 1.1071 8.5281e-39 268.5 318.5 0 0 0 0.50905 -0.15445 -0.84677 0.011033
0.081906 0.16522 1.1071 8.1593e-39 357 318.5 0 0 0 -0.71171 -0.22955 -0.6639 0.0070712
0.083165 0.16515 1.1066 7.8827e-39 358 318.5 0 0 0 -0.7247 -0.23145 -0.64903 0.0068906
-0.032708 0.16709 1.1066 8.1593e-39 311.5 319 0 0 0 0.50623 -0.16225 -0.847 0.010621
-0.030794 0.16724 1.1076 7.8366e-39 313 319 0 0 0 0.50348 -0.16062 -0.84894 0.0087136
0.08187 0.16709 1.1066 8.482e-39 400 319 0 0 0 -0.71705 -0.2242 -0.65998 0.0071283
-0.032723 0.1691 1.1071 7.8366e-39 356 319.5 0 0 0 0.50393 -0.16876 -0.8471 0.0087735
-0.030794 0.16918 1.1076 7.7444e-39 357.5 319.5 0 0 0 0.49906 -0.17273 -0.84918 0.0084603
0.08187 0.16903 1.1066 8.8047e-39 296.5 320 0 0 0 -0.71854 -0.22168 -0.65921 0.0070713
-0.032723 0.17105 1.1071 8.6664e-39 408.5 320 0 0 0 0.49959 -0.18367 -0.84657 0.0083944
-0.030794 0.17112 1.1076 8.8508e-39 410 320 0 0 0 0.49571 -0.18761 -0.84798 0.0086675
0.08187 0.17097 1.1066 7.7444e-39 197 321 0 0 0 -0.72136 -0.23 -0.65325 0.0067656
-0.032493 0.1727 1.1066 8.8815e-39 290.67 321 0 0 0 0.49705 -0.19229 -0.84615 0.0082921
-0.030794 0.17307 1.1076 8.6664e-39 316 321 0 0 0 0.49437 -0.19648 -0.84676 0.0086282
-0.029499 0.17372 1.1076 9.404e-39 389 321 0 0 0 0.4906 -0.20458 -0.84703 0.0082916
0.081259 0.173 1.1071 7.9288e-39 252.5 321.5 0 0 0 -0.72011 -0.22456 -0.65651 0.0064814
-0.032061 0.17485 1.1066 7.6522e-39 219 322 0 0 0 0.49231 -0.20536 -0.84585 0.0086798
-0.030767 0.17485 1.1066 7.3757e-39 220 322 0 0 0 0.48841 -0.21012 -0.84694 0.0086726
-0.029472 0.17485 1.1066 7.56e-39 221 322 0 0 0 0.48664 -0.21437 -0.84689 0.0083665
0.080648 0.17501 1.1076 8.3898e-39 301 322 0 0 0 -0.71238 -0.21675 -0.66748 0.007061
-0.030767 0.1768 1.1066 8.482e-39 286 322.5 0 0 0 0.4831 -0.22623 -0.84583 0.0084763
-0.028837 0.17687 1.1071 8.4359e-39 287.5 322.5 0 0 0 0.47755 -0.23542 -0.84648 0.0080403
0.079352 0.1776 1.1076 8.943e-39 279 323 0 0 0 -0.71072 -0.20883 -0.67177 0.0080441
0.080575 0.1768 1.1066 7.4218e-39 211.5 323 0 0 0 -0.72176 -0.21543 -0.65776 0.0070053
-0.028203 0.1789 1.1076 1.3461e-38 348 323 0 0 0 0.4684 -0.25637 -0.84551 0.0076165
0.079352 0.1789 1.1076 7.7444e-39 434 323 0 0 0 -0.71436 -0.21032 -0.66742 0.0081123
0.080575 0.17874 1.1066 7.6522e-39 435 323 0 0 0 -0.72802 -0.21806 -0.64995 0.0074073
-0.030767 0.18003 1.1066 8.7586e-39 181 324 0 0 0 0.47242 -0.26034 -0.84205 0.0078817
-0.028203 0.18084 1.1076 9.3118e-39 247 324 0 0 0 0.4623 -0.27038 -0.8445 0.007456
0.079281 0.18068 1.1066 8.3437e-39 340.5 324 0 0 0 -0.72042 -0.22219 -0.65698 0.008283
0.080575 0.18068 1.1066 8.6203e-39 341.5 324 0 0 0 -0.72776 -0.22127 -0.64916 0.0078236
-0.028177 0.18262 1.1066 8.2976e-39 173 325 0 0 0 0.45857 -0.29288 -0.83901 0.0075224
-0.026895 0.18336 1.1071 1.0049e-38 243.5 325 0 0 0 0.45721 -0.29615 -0.8386 0.0074747
-0.024293 0.18392 1.1066 1.4751e-38 316 325 0 0 0 0.44926 -0.30588 -0.83941 0.0068324
0.077986 0.18392 1.1066 6.7303e-39 439 325 0 0 0 -0.70224 -0.23728 -0.67124 0.0098932
0.078056 0.18279 1.1076 8.6664e-39 255 325 0 0 0 -0.69282 -0.22449 -0.68528 0.0098149
-0.0256 0.18464 1.1071 1.0557e-38 253 325.5 0 0 0 0.45207 -0.31107 -0.83598 0.0071061
-0.023019 0.18408 1.1076 1.6687e-38 317 325 0 0 0 0.44968 -0.30662 -0.83891 0.0065565
-0.021704 0.18521 1.1066 7.8366e-39 194 326 0 0 0 0.4467 -0.3206 -0.83527 0.0061811
-0.019115 0.18521 1.1066 8.3898e-39 196 326 0 0 0 0.4432 -0.32702 -0.83465 0.0063116
0.077146 0.18483 1.1069 8.4206e-39 325 325.67 0 0 0 -0.68523 -0.23648 -0.68886 0.010517
-0.020853 0.18705 1.1073 8.021e-39 330 326.33 0 0 0 0.44352 -0.32939 -0.83354 0.0063405
0.077373 0.18724 1.1071 8.8507e-39 206 327 0 0 0 -0.6831 -0.25201 -0.68547 0.010312
0.079281 0.1878 1.1066 9.9571e-39 268 327 0 0 0 -0.70226 -0.26283 -0.66163 0.0099021
0.080575 0.1878 1.1066 9.7727e-39 269 327 0 0 0 -0.71992 -0.26757 -0.64041 0.0097375
-0.020428 0.18927 1.1076 7.7444e-39 398 327 0 0 0 0.44173 -0.3341 -0.83262 0.0065086
-0.019115 0.1891 1.1066 7.2835e-39 399 327 0 0 0 0.44031 -0.33655 -0.83238 0.0066178
-0.020418 0.19113 1.1071 9.1273e-39 246 328 0 0 0 0.44364 -0.33929 -0.8295 0.007164
-0.019115 0.19104 1.1066 9.3579e-39 247 328 0 0 0 0.43902 -0.33988 -0.83171 0.0069893
-0.017836 0.19121 1.1076 9.7266e-39 248 328 0 0 0 0.4333 -0.3403 -0.83453 0.0072812
0.083389 0.14936 1.1096 6.5459e-39 194 314 0 0 0 -0.68097 -0.25854 -0.68515 0.009599
0.083389 0.15066 1.1096 7.8366e-39 330 314 0 0 0 -0.68393 -0.25457 -0.68369 0.0087699
0.084687 0.15066 1.1096 8.1132e-39 331 314 0 0 0 -0.68408 -0.25565 -0.68314 0.0085064
0.087205 0.15312 1.1086 8.943e-39 262 315 0 0 0 -0.68951 -0.26478 -0.67415 0.0086941
-0.038639 0.15585 1.1096 1.0418e-38 374 315 0 0 0 0.44978 -0.22864 -0.86338 0.034774
-0.036675 0.15578 1.1091 9.911e-39 375.5 315 0 0 0 0.47937 -0.19429 -0.85584 0.026105
-0.034744 0.15456 1.1096 9.6805e-39 269 315 0 0 0 0.50673 -0.1674 -0.84569 0.02013
-0.029539 0.15514 1.1091 8.8047e-39 327 315 0 0 0 0.50795 -0.13608 -0.85057 0.018974
0.085985 0.15585 1.1096 6.2693e-39 193 316 0 0 0 -0.69967 -0.2495 -0.66949 0.0075679
0.087205 0.15442 1.1086 1.0234e-38 364 315 0 0 0 -0.69535 -0.26282 -0.66889 0.0081749
-0.032782 0.15708 1.1091 6.8686e-39 211.5 316 0 0 0 0.50817 -0.14553 -0.84887 0.016698
-0.03085 0.15715 1.1096 7.1913e-39 213 316 0 0 0 0.50739 -0.13879 -0.85047 0.016429
-0.029525 0.15701 1.1086 7.8366e-39 214 316 0 0 0 0.50783 -0.13936 -0.85011 0.016737
0.085985 0.15715 1.1096 7.3757e-39 303 316 0 0 0 -0.70212 -0.24588 -0.66826 0.007316
-0.055465 0.15831 1.1086 7.2835e-39 313 316 0 0 0 -0.005978 -0.83094 -0.55632 0.12838
-0.032119 0.15896 1.1086 8.3898e-39 388 316 0 0 0 0.50926 -0.14542 -0.84824 0.015005
-0.03085 0.1591 1.1096 8.2976e-39 389 316 0 0 0 0.50707 -0.14211 -0.85011 0.014608
-0.029552 0.15845 1.1096 9.2196e-39 331 316 0 0 0 0.50747 -0.1396 -0.85029 0.015067
0.083352 0.15903 1.1091 8.1593e-39 330.5 316.5 0 0 0 -0.70016 -0.23433 -0.67443 0.0073829
0.085069 0.15879 1.1089 7.1913e-39 361 316.33 0 0 0 -0.70577 -0.23966 -0.66667 0.0071689
-0.032119 0.1609 1.1086 6.8225e-39 277 317 0 0 0 0.50832 -0.14684 -0.84856 0.013238
-0.03085 0.16105 1.1096 7.0991e-39 278 317 0 0 0 0.505 -0.14471 -0.8509 0.01293
0.082091 0.16105 1.1096 9.2196e-39 365 317 0 0 0 -0.6917 -0.22829 -0.68515 0.0078018
-0.064602 0.16234 1.1096 9.1274e-39 378 317 0 0 0 -0.30582 -0.94087 -0.14574 0.036001
-0.060708 0.16364 1.1096 7.2835e-39 206 318 0 0 0 0.023562 -0.91922 -0.39304 0.15023
-0.058734 0.16227 1.1091 9.6345e-39 380.5 317 0 0 0 0.088802 -0.81978 -0.56575 0.16262
-0.032119 0.1622 1.1086 8.2976e-39 401 317 0 0 0 0.50833 -0.14931 -0.84812 0.012463
-0.030836 0.16292 1.1091 8.482e-39 315.5 317.5 0 0 0 0.50488 -0.14871 -0.85029 0.011908
-0.029552 0.16364 1.1096 8.3898e-39 230 318 0 0 0 0.50069 -0.15007 -0.85252 0.011136
0.082017 0.16285 1.1086 8.1593e-39 253 318 0 0 0 -0.69912 -0.23084 -0.67672 0.0074879
-0.030822 0.16479 1.1086 1.051e-38 356 318 0 0 0 0.50402 -0.15371 -0.8499 0.010964
-0.030822 0.16609 1.1086 6.8225e-39 184 319 0 0 0 0.50143 -0.16164 -0.84997 0.010561
-0.029539 0.16682 1.1091 7.4679e-39 249.5 319 0 0 0 0.50203 -0.16026 -0.84987 0.0084774
0.080793 0.16689 1.1096 9.2657e-39 334.5 319 0 0 0 -0.6871 -0.22204 -0.69181 0.0084309
-0.029539 0.16941 1.1091 7.6983e-39 358.5 319.5 0 0 0 0.49831 -0.17759 -0.84861 0.0082898
0.080793 0.16883 1.1096 8.5742e-39 227 320 0 0 0 -0.68912 -0.21447 -0.69218 0.0078442
-0.028889 0.17136 1.1091 9.2657e-39 411.5 320 0 0 0 0.49658 -0.18943 -0.84707 0.008284
0.080757 0.1707 1.1091 8.3437e-39 280 320.5 0 0 0 -0.69661 -0.22245 -0.68209 0.0074246
-0.028669 0.17306 1.1089 8.6357e-39 293.67 321 0 0 0 0.48932 -0.20617 -0.84738 0.0082079
0.08072 0.17257 1.1086 8.2976e-39 336 321 0 0 0 -0.70224 -0.22466 -0.67556 0.0077053
-0.028228 0.17517 1.1086 8.2976e-39 222 322 0 0 0 0.48188 -0.2276 -0.84616 0.0080437
-0.026955 0.17468 1.1096 8.7125e-39 307 321.5 0 0 0 0.48472 -0.22421 -0.84544 0.0080498
0.079494 0.17468 1.1096 7.9749e-39 233.5 322 0 0 0 -0.68987 -0.20915 -0.69306 0.009008
-0.026931 0.17711 1.1086 8.3898e-39 289 322.5 0 0 0 0.47387 -0.24616 -0.84549 0.0076036
-0.025008 0.17727 1.1096 8.3667e-39 290.5 322.5 0 0 0 0.47153 -0.25302 -0.84477 0.0071491
0.078809 0.17719 1.1091 7.5601e-39 210 323 0 0 0 -0.68468 -0.20583 -0.69918 0.010007
-0.026931 0.17906 1.1086 8.6664e-39 364 323 0 0 0 0.46863 -0.25819 -0.84482 0.0072773
-0.025657 0.17922 1.1096 8.8508e-39 365 323 0 0 0 0.46494 -0.26542 -0.84462 0.0069692
0.078126 0.17906 1.1086 7.56e-39 433 323 0 0 0 -0.68077 -0.20775 -0.70242 0.01067
-0.026943 0.18108 1.1091 8.7585e-39 248 324 0 0 0 0.46467 -0.27334 -0.84224 0.0072318
0.076898 0.18182 1.1096 7.6522e-39 424 324 0 0 0 -0.65704 -0.21485 -0.72259 0.012364
0.078126 0.18101 1.1086 8.021e-39 339.5 324 0 0 0 -0.68271 -0.21596 -0.69804 0.010187
-0.024997 0.18303 1.1091 8.8047e-39 175.5 325 0 0 0 0.45277 -0.2945 -0.84159 0.0066948
0.076829 0.18295 1.1086 7.9288e-39 254 325 0 0 0 -0.66936 -0.22353 -0.70852 0.01166
-0.021095 0.1849 1.1086 1.3691e-38 266 325.5 0 0 0 0.44731 -0.31802 -0.83593 0.006217
-0.019149 0.18425 1.1086 1.7978e-38 339 325 0 0 0 0.44177 -0.32303 -0.83696 0.0062405
-0.017852 0.18554 1.1086 8.6664e-39 197 326 0 0 0 0.43556 -0.33088 -0.83714 0.0066304
0.075566 0.18497 1.1091 8.0672e-39 352 325.5 0 0 0 -0.63375 -0.23746 -0.73619 0.013245
0.075532 0.18684 1.1086 7.3757e-39 144 327 0 0 0 -0.63623 -0.2566 -0.72757 0.013101
-0.017425 0.18906 1.1089 7.1298e-39 338.67 327 0 0 0 0.43191 -0.34072 -0.83508 0.0072761
-0.016555 0.19073 1.1086 8.2054e-39 199 328 0 0 0 0.42487 -0.34951 -0.83506 0.0076081
0.083464 0.1521 1.1106 8.021e-39 417 314 0 0 0 -0.68078 -0.24546 -0.69013 0.0083075
0.084763 0.1521 1.1106 8.482e-39 418 314 0 0 0 -0.68655 -0.24865 -0.68324 0.0083004
0.086063 0.15339 1.1106 8.6664e-39 261 315 0 0 0 -0.6894 -0.25248 -0.67895 0.0077274
-0.04261 0.15483 1.1116 8.943e-39 266 315 0 0 0 0.33411 -0.39087 -0.85766 0.065676
-0.041272 0.15469 1.1106 9.4961e-39 267 315 0 0 0 0.38549 -0.30861 -0.86957 0.052281
-0.036075 0.15469 1.1106 9.7727e-39 268 315 0 0 0 0.49173 -0.18291 -0.85132 0.024489
-0.032826 0.15599 1.1106 9.6805e-39 378.5 315 0 0 0 0.50815 -0.14436 -0.84908 0.018789
-0.030891 0.15541 1.1111 9.1274e-39 326 315 0 0 0 0.50849 -0.1341 -0.85056 0.018727
-0.028304 0.15483 1.1116 7.4678e-39 274 315 0 0 0 0.50028 -0.12749 -0.85643 0.019317
0.086063 0.15469 1.1106 1.0695e-38 363 315 0 0 0 -0.69152 -0.25041 -0.67756 0.007542
-0.028304 0.15678 1.1116 8.8046e-39 298.5 315.5 0 0 0 0.503 -0.13185 -0.85417 0.016895
0.083502 0.15671 1.1111 7.5601e-39 246 316 0 0 0 -0.68286 -0.23062 -0.69319 0.0083829
0.084801 0.15671 1.1111 7.053e-39 247 316 0 0 0 -0.69224 -0.23866 -0.68106 0.0075281
-0.029578 0.15989 1.1106 7.8366e-39 449 316 0 0 0 0.50646 -0.14641 -0.84974 0.013776
-0.056864 0.16119 1.1106 8.482e-39 258 317 0 0 0 -0.024997 -0.79236 -0.60954 0.15022
-0.029578 0.16119 1.1106 7.56e-39 279 317 0 0 0 0.5028 -0.14781 -0.85167 0.012742
0.082238 0.16004 1.1116 9.0352e-39 242 317 0 0 0 -0.67454 -0.22074 -0.70446 0.0094829
-0.029578 0.16249 1.1106 8.2976e-39 403 317 0 0 0 0.49999 -0.14953 -0.85302 0.011701
0.080902 0.16322 1.1111 7.8827e-39 252 318 0 0 0 -0.67562 -0.2198 -0.70372 0.0094602
-0.029578 0.16509 1.1106 1.0326e-38 357 318 0 0 0 0.49875 -0.15505 -0.85276 0.01063
0.080865 0.16509 1.1106 7.6522e-39 442 318 0 0 0 -0.68116 -0.22024 -0.69822 0.0089096
-0.028292 0.16712 1.1111 8.1132e-39 250.5 319 0 0 0 0.49954 -0.1599 -0.85141 0.0075545
0.079637 0.16719 1.1116 9.3578e-39 333.5 319 0 0 0 -0.66734 -0.2162 -0.71268 0.010208
-0.028279 0.16899 1.1106 6.6381e-39 444 319 0 0 0 0.50006 -0.17121 -0.8489 0.0075581
0.079637 0.16914 1.1116 7.8366e-39 226 320 0 0 0 -0.66783 -0.21311 -0.71315 0.0098302
-0.028279 0.17029 1.1106 8.482e-39 275 320 0 0 0 0.49757 -0.18057 -0.84842 0.0079974
-0.027004 0.17174 1.1116 9.1274e-39 413 320 0 0 0 0.48932 -0.19813 -0.8493 0.008072
-0.025703 0.17174 1.1116 8.6664e-39 414 320 0 0 0 0.48675 -0.2008 -0.85015 0.0081181
0.079601 0.17101 1.1111 8.2976e-39 279 320.5 0 0 0 -0.67597 -0.21653 -0.7044 0.0090112
-0.027004 0.17304 1.1116 8.2976e-39 247 321 0 0 0 0.48653 -0.20657 -0.84889 0.0081207
-0.025703 0.17304 1.1116 8.3898e-39 248 321 0 0 0 0.48477 -0.21271 -0.84838 0.0080466
0.079566 0.17288 1.1106 8.482e-39 335 321 0 0 0 -0.67952 -0.2168 -0.7009 0.0091958
-0.025036 0.17487 1.1108 8.2285e-39 308.5 321.5 0 0 0 0.47819 -0.23387 -0.84654 0.0075544
-0.023102 0.17564 1.1116 7.7444e-39 226 322 0 0 0 0.47371 -0.24321 -0.84643 0.0071673
0.078337 0.17499 1.1116 8.2515e-39 232.5 322 0 0 0 -0.66097 -0.20921 -0.72066 0.011628
-0.023081 0.17678 1.1106 8.6664e-39 380 322 0 0 0 0.47055 -0.25397 -0.84503 0.0067417
0.078267 0.17678 1.1106 6.6381e-39 474 322 0 0 0 -0.66637 -0.20338 -0.71735 0.011688
-0.024381 0.17938 1.1106 9.1274e-39 366 323 0 0 0 0.46383 -0.27163 -0.84326 0.0066283
-0.023092 0.17881 1.1111 9.0812e-39 285.5 323 0 0 0 0.46514 -0.27136 -0.84262 0.0064851
0.077036 0.17954 1.1116 7.0991e-39 432 323 0 0 0 -0.64024 -0.20417 -0.74055 0.012951
-0.025036 0.18137 1.1108 8.7125e-39 249.5 324 0 0 0 0.45847 -0.28239 -0.84265 0.006797
-0.023102 0.18084 1.1116 8.7586e-39 187 324 0 0 0 0.45846 -0.28505 -0.84176 0.0063055
0.075736 0.18084 1.1116 8.5742e-39 252 324 0 0 0 -0.62023 -0.208 -0.75634 0.013719
0.076967 0.18068 1.1106 8.2976e-39 253 324 0 0 0 -0.64664 -0.20253 -0.73541 0.012779
-0.023092 0.18271 1.1111 8.7586e-39 246 324.5 0 0 0 0.4529 -0.29931 -0.83982 0.006141
-0.021802 0.18344 1.1116 8.2054e-39 178 325 0 0 0 0.44736 -0.30798 -0.83965 0.0062072
0.075702 0.18271 1.1111 7.6061e-39 338 324.5 0 0 0 -0.61855 -0.21413 -0.756 0.01423
-0.020483 0.18458 1.1106 1.7425e-38 338 325 0 0 0 0.44258 -0.31954 -0.83787 0.0062229
-0.01725 0.18474 1.1116 2.2034e-38 340.5 325 0 0 0 0.4241 -0.33259 -0.84233 0.0063845
-0.012698 0.1867 1.1116 7.6983e-39 296.5 326 0 0 0 0.39786 -0.35522 -0.84589 0.0067309
0.073135 0.1867 1.1116 8.0211e-39 203.5 326.5 0 0 0 -0.58084 -0.238 -0.77845 0.015847
0.074435 0.1867 1.1116 8.1133e-39 204.5 326.5 0 0 0 -0.59409 -0.23657 -0.76883 0.014832
-0.015299 0.18995 1.1116 6.9147e-39 402 327 0 0 0 0.41241 -0.3601 -0.8368 0.0075298
-0.012698 0.18865 1.1116 7.7444e-39 218 327 0 0 0 0.39686 -0.3649 -0.84223 0.007381
0.073135 0.1893 1.1116 8.4359e-39 359.5 327 0 0 0 -0.5801 -0.26626 -0.7698 0.015211
0.074435 0.18865 1.1116 9.6805e-39 265 327 0 0 0 -0.59635 -0.25233 -0.76204 0.01442
-0.032264 0.15381 1.1136 7.7444e-39 422 314 0 0 0 0.50605 -0.13919 -0.8512 0.02269
-0.030933 0.15367 1.1126 9.0352e-39 423 314 0 0 0 0.50487 -0.13859 -0.852 0.023174
-0.027028 0.15367 1.1126 8.7586e-39 424 314 0 0 0 0.49404 -0.12371 -0.8606 0.021012
-0.02575 0.15381 1.1136 7.9288e-39 425 314 0 0 0 0.49422 -0.1259 -0.86017 0.020851
0.08369 0.15381 1.1136 8.6664e-39 259 315 0 0 0 -0.67195 -0.22494 -0.70561 0.010482
0.084992 0.15381 1.1136 8.482e-39 260 315 0 0 0 -0.68043 -0.23097 -0.69546 0.0089978
-0.032885 0.15497 1.1126 9.2657e-39 270.5 315 0 0 0 0.50511 -0.14069 -0.85151 0.019938
-0.027028 0.15497 1.1126 7.1913e-39 275 315 0 0 0 0.50061 -0.12528 -0.85656 0.018706
-0.025098 0.15511 1.1136 7.2835e-39 276.5 315 0 0 0 0.5095 -0.1086 -0.85359 0.013162
-0.021841 0.15511 1.1136 7.7444e-39 279 315 0 0 0 0.4976 -0.11603 -0.85961 0.01265
0.08369 0.15511 1.1136 9.9571e-39 361 315 0 0 0 -0.67022 -0.22401 -0.70755 0.010164
0.084992 0.15511 1.1136 1.0602e-38 362 315 0 0 0 -0.67994 -0.22545 -0.69775 0.0090324
-0.045252 0.15627 1.1126 9.7727e-39 369 315 0 0 0 0.20527 -0.54128 -0.8154 0.096119
-0.027028 0.15692 1.1126 8.3437e-39 299.5 315.5 0 0 0 0.50028 -0.13446 -0.85536 0.016415
-0.025316 0.15685 1.1136 8.0825e-39 328.67 315.33 0 0 0 0.49685 -0.12309 -0.85906 0.013031
0.081084 0.15772 1.1136 8.021e-39 299 316 0 0 0 -0.65975 -0.20611 -0.72267 0.011857
0.082387 0.15772 1.1136 8.6664e-39 300 316 0 0 0 -0.66507 -0.2131 -0.71573 0.010894
-0.02833 0.15888 1.1126 9.1274e-39 332 316 0 0 0 0.49858 -0.14406 -0.85479 0.01506
-0.027052 0.15902 1.1136 8.6664e-39 333 316 0 0 0 0.49406 -0.14625 -0.85704 0.014813
0.081084 0.15902 1.1136 5.9005e-39 416 316 0 0 0 -0.6573 -0.20899 -0.72407 0.011412
0.082313 0.15888 1.1126 7.0069e-39 417 316 0 0 0 -0.67298 -0.21483 -0.70778 0.010036
-0.058268 0.16148 1.1126 8.6664e-39 257 317 0 0 0 -0.13884 -0.92553 -0.3523 0.11719
-0.028355 0.16098 1.1136 7.8366e-39 365 316.5 0 0 0 0.49806 -0.14966 -0.85413 0.013555
-0.027052 0.16098 1.1136 7.7444e-39 218.5 317 0 0 0 0.49369 -0.15353 -0.85598 0.013312
0.079781 0.16163 1.1136 1.0418e-38 363 317 0 0 0 -0.6479 -0.20662 -0.73317 0.012216
0.081047 0.1609 1.1131 9.1273e-39 302.5 317 0 0 0 -0.66197 -0.21179 -0.71899 0.010736
-0.060927 0.16293 1.1136 9.1274e-39 379 317 0 0 0 -0.26276 -0.94762 -0.18157 0.05751
-0.02833 0.16278 1.1126 8.1132e-39 404 317 0 0 0 0.49709 -0.14996 -0.85464 0.012097
-0.027028 0.16278 1.1126 7.8366e-39 405 317 0 0 0 0.49789 -0.14406 -0.85519 0.0093087
-0.025098 0.16293 1.1136 7.6061e-39 406.5 317 0 0 0 0.50071 -0.1407 -0.85411 0.0082202
0.079781 0.16293 1.1136 7.7444e-39 188 318 0 0 0 -0.64779 -0.20888 -0.73262 0.011879
-0.02833 0.16473 1.1126 8.7585e-39 294.5 318 0 0 0 0.49593 -0.15069 -0.85519 0.011157
-0.02704 0.16481 1.1131 8.3898e-39 295.5 318 0 0 0 0.49891 -0.1412 -0.85507 0.007475
-0.025098 0.16423 1.1136 8.2054e-39 233.5 318 0 0 0 0.49626 -0.14491 -0.85599 0.0076988
0.079709 0.16473 1.1126 7.4218e-39 377.5 318 0 0 0 -0.6559 -0.21499 -0.72359 0.01101
-0.027028 0.16734 1.1126 8.8507e-39 251.5 319 0 0 0 0.49822 -0.15821 -0.85249 0.007291
-0.025308 0.16722 1.1133 8.6356e-39 231.33 319 0 0 0 0.4969 -0.1613 -0.85269 0.006823
0.078478 0.16684 1.1136 8.7586e-39 268 319 0 0 0 -0.64153 -0.21245 -0.73709 0.012823
-0.027028 0.16929 1.1126 6.5459e-39 445 319 0 0 0 0.49686 -0.17304 -0.8504 0.0074934
-0.025086 0.16872 1.1131 7.6522e-39 392 319 0 0 0 0.4904 -0.17437 -0.85387 0.0073627
0.078478 0.16879 1.1136 8.2976e-39 311 319.5 0 0 0 -0.64376 -0.21526 -0.73433 0.012076
-0.027028 0.17059 1.1126 8.2976e-39 276 320 0 0 0 0.49188 -0.1861 -0.85054 0.0079514
-0.024866 0.17108 1.1129 8.3898e-39 323.33 320 0 0 0 0.48493 -0.19809 -0.85182 0.0080336
0.078443 0.17132 1.1131 8.1593e-39 278 320.5 0 0 0 -0.64244 -0.21581 -0.73533 0.012237
-0.024425 0.1732 1.1126 7.8366e-39 249 321 0 0 0 0.47952 -0.21709 -0.85026 0.0078689
-0.023144 0.17335 1.1136 7.56e-39 250 321 0 0 0 0.4758 -0.21862 -0.85195 0.007814
0.078408 0.1732 1.1126 8.3898e-39 334 321 0 0 0 -0.64533 -0.21318 -0.73356 0.012766
-0.023123 0.1745 1.1126 8.5742e-39 394 321 0 0 0 0.47499 -0.22928 -0.8496 0.0075961
-0.020966 0.17547 1.1133 8.6664e-39 283.67 321.67 0 0 0 0.46018 -0.24567 -0.85316 0.0071675
-0.019235 0.17596 1.1136 9.0352e-39 229 322 0 0 0 0.44506 -0.25196 -0.85933 0.0069543
-0.02118 0.17718 1.1131 8.9891e-39 381.5 322 0 0 0 0.4567 -0.2628 -0.84992 0.0066753
-0.019218 0.1771 1.1126 9.2196e-39 383 322 0 0 0 0.44431 -0.2669 -0.8552 0.0066618
-0.01663 0.17726 1.1136 8.482e-39 385 322 0 0 0 0.42897 -0.26791 -0.86268 0.0067787
0.077175 0.17726 1.1136 6.4537e-39 473 322 0 0 0 -0.61869 -0.19922 -0.75996 0.013157
-0.02118 0.17913 1.1131 8.8969e-39 287 323 0 0 0 0.45307 -0.27824 -0.84694 0.0064844
-0.019235 0.17921 1.1136 8.2515e-39 288.5 323 0 0 0 0.44106 -0.28273 -0.85178 0.0065179
-0.01663 0.17921 1.1136 8.2055e-39 290.5 323 0 0 0 0.4257 -0.28576 -0.85855 0.0066349
0.075839 0.17913 1.1131 8.1133e-39 353.5 323 0 0 0 -0.60702 -0.19874 -0.76944 0.014127
0.077106 0.1784 1.1126 9.0352e-39 277 323 0 0 0 -0.63171 -0.19897 -0.74924 0.012847
-0.021189 0.18117 1.1136 8.4359e-39 188.5 324 0 0 0 0.44917 -0.29278 -0.84412 0.0064662
-0.019235 0.18117 1.1136 8.482e-39 190 324 0 0 0 0.43884 -0.29853 -0.84752 0.0063663
-0.01663 0.18117 1.1136 8.7586e-39 192 324 0 0 0 0.42258 -0.30295 -0.85419 0.0064805
-0.020972 0.18291 1.1136 9.3117e-39 270.67 324.33 0 0 0 0.44396 -0.30838 -0.84131 0.0062224
-0.019218 0.18361 1.1126 8.7586e-39 180 325 0 0 0 0.43438 -0.31876 -0.84244 0.0062589
-0.01663 0.18312 1.1136 1.1525e-38 252 324.5 0 0 0 0.42133 -0.3205 -0.84839 0.0063278
-0.012721 0.18378 1.1136 8.482e-39 185 325 0 0 0 0.39542 -0.33359 -0.85578 0.0063171
0.07457 0.18378 1.1136 8.8508e-39 252 325 0 0 0 -0.58529 -0.21909 -0.78067 0.015208
-0.014024 0.18508 1.1136 2.1943e-38 343 325 0 0 0 0.40379 -0.34121 -0.84884 0.0063946
-0.01271 0.18491 1.1126 2.0099e-38 344 325 0 0 0 0.39548 -0.34638 -0.85066 0.0063436
0.073267 0.18508 1.1136 7.3757e-39 435 325 0 0 0 -0.56405 -0.2271 -0.7939 0.016281
0.074503 0.18491 1.1126 6.7303e-39 436 325 0 0 0 -0.59137 -0.22634 -0.77399 0.014766
-0.014669 0.18695 1.1131 8.0902e-39 295 326 0 0 0 0.40672 -0.35338 -0.84244 0.0067723
0.069358 0.18768 1.1136 7.7444e-39 478 326 0 0 0 -0.5243 -0.23261 -0.81915 0.016521
0.07153 0.18725 1.1136 7.7752e-39 181.67 326.67 0 0 0 -0.54406 -0.23739 -0.80476 0.016639
-0.014662 0.18882 1.1126 7.1913e-39 216.5 327 0 0 0 0.40813 -0.36192 -0.83812 0.0072409
0.069358 0.18899 1.1136 9.9571e-39 261 327 0 0 0 -0.51696 -0.24759 -0.81942 0.016704
0.071313 0.18899 1.1136 9.5884e-39 262.5 327 0 0 0 -0.5416 -0.24347 -0.8046 0.016886
-0.014011 0.19012 1.1126 7.0069e-39 403 327 0 0 0 0.40557 -0.36638 -0.83742 0.0076865
-0.011418 0.19029 1.1136 7.3757e-39 404 327 0 0 0 0.37162 -0.38308 -0.84567 0.0089196
0.068924 0.19116 1.1136 7.1298e-39 301 327.67 0 0 0 -0.50942 -0.25887 -0.82066 0.01644
0.070661 0.19094 1.1136 7.5601e-39 338 327.5 0 0 0 -0.5367 -0.25991 -0.80275 0.016486
0.069358 0.1929 1.1136 8.2054e-39 391 328 0 0 0 -0.51758 -0.27147 -0.81142 0.016366
0.079853 0.15069 1.1146 8.2054e-39 259 314 0 0 0 -0.63639 -0.20213 -0.74442 0.017201
0.08123 0.15082 1.1156 7.8366e-39 260 314 0 0 0 -0.65296 -0.21462 -0.72635 0.015236
0.082536 0.15082 1.1156 7.3757e-39 261 314 0 0 0 -0.65693 -0.21048 -0.72398 0.014658
-0.024469 0.1533 1.1146 8.6664e-39 379.5 314 0 0 0 0.50431 -0.11833 -0.85538 0.015335
-0.023176 0.15337 1.1151 8.4359e-39 380.5 314 0 0 0 0.49317 -0.11787 -0.86191 0.015245
-0.021861 0.1533 1.1146 8.1593e-39 381.5 314 0 0 0 0.49918 -0.11011 -0.85947 0.014205
0.079853 0.15264 1.1146 6.9147e-39 414 314 0 0 0 -0.63899 -0.197 -0.74356 0.015843
0.081157 0.15264 1.1146 6.5459e-39 415 314 0 0 0 -0.65345 -0.21258 -0.72651 0.013806
0.082461 0.15264 1.1146 6.7303e-39 416 314 0 0 0 -0.65807 -0.20829 -0.72358 0.013203
-0.023165 0.15525 1.1146 7.3757e-39 278 315 0 0 0 0.49836 -0.11799 -0.8589 0.013833
-0.020575 0.15474 1.1156 7.8366e-39 354.5 314.5 0 0 0 0.49125 -0.12862 -0.86147 0.014607
0.079925 0.15474 1.1156 9.9572e-39 307 315 0 0 0 -0.63682 -0.19722 -0.74537 0.015606
0.082536 0.15474 1.1156 9.404e-39 309 315 0 0 0 -0.65821 -0.21493 -0.7215 0.012639
-0.024469 0.15786 1.1146 6.9147e-39 218 316 0 0 0 0.5059 -0.13638 -0.85174 0.012439
-0.023165 0.15656 1.1146 8.2054e-39 386 315 0 0 0 0.49634 -0.13136 -0.85813 0.012931
-0.021432 0.15704 1.1149 8.1747e-39 331.67 315.33 0 0 0 0.49731 -0.13824 -0.85649 0.012741
0.079853 0.15721 1.1146 7.2835e-39 243 316 0 0 0 -0.64242 -0.1981 -0.74031 0.014122
0.081157 0.15656 1.1146 6.6381e-39 189 316 0 0 0 -0.65304 -0.2075 -0.72834 0.012673
0.082461 0.15656 1.1146 6.6381e-39 190 316 0 0 0 -0.65995 -0.21375 -0.72026 0.011717
-0.025121 0.15916 1.1146 8.5742e-39 334.5 316 0 0 0 0.50401 -0.13754 -0.85268 0.011039
-0.023186 0.15866 1.1156 8.1132e-39 277.5 316 0 0 0 0.49342 -0.14201 -0.85812 0.011079
-0.021881 0.15931 1.1156 9.3118e-39 337 316 0 0 0 0.49019 -0.14334 -0.85975 0.010217
0.079853 0.15916 1.1146 5.4395e-39 415 316 0 0 0 -0.64206 -0.20227 -0.73949 0.013488
-0.059678 0.16177 1.1146 8.6664e-39 256 317 0 0 0 -0.25399 -0.9473 -0.19521 0.061514
-0.025121 0.16112 1.1146 7.4218e-39 220 317 0 0 0 0.49833 -0.13658 -0.85616 0.0091045
-0.023186 0.16192 1.1156 7.56e-39 284 317 0 0 0 0.49288 -0.14975 -0.85712 0.0091016
-0.021881 0.16127 1.1156 7.1913e-39 222.5 317 0 0 0 0.48709 -0.15115 -0.86018 0.0094014
0.079236 0.16119 1.1151 9.1273e-39 301 317 0 0 0 -0.63696 -0.20285 -0.74373 0.014253
-0.023186 0.16322 1.1156 7.4678e-39 408 317 0 0 0 0.49043 -0.14694 -0.85901 0.008102
-0.021881 0.16322 1.1156 7.0991e-39 409 317 0 0 0 0.48324 -0.15306 -0.862 0.0088713
0.07862 0.16322 1.1156 7.7444e-39 187 318 0 0 0 -0.63163 -0.20256 -0.74834 0.014404
-0.025121 0.16568 1.1146 9.2656e-39 360.5 318 0 0 0 0.49413 -0.14938 -0.85646 0.006825
-0.023186 0.16518 1.1156 9.4502e-39 298.5 318 0 0 0 0.48248 -0.14506 -0.86381 0.0068327
-0.021881 0.16453 1.1156 8.1132e-39 236 318 0 0 0 0.4789 -0.15332 -0.86437 0.0078724
0.078549 0.16503 1.1146 7.2835e-39 376.5 318 0 0 0 -0.6347 -0.20613 -0.74475 0.013797
-0.023186 0.16714 1.1156 7.6522e-39 190 319 0 0 0 0.47943 -0.1602 -0.86283 0.0067804
-0.021228 0.16714 1.1156 6.7764e-39 191.5 319 0 0 0 0.46922 -0.16702 -0.86714 0.0068908
0.077315 0.16714 1.1156 8.2976e-39 267 319 0 0 0 -0.62315 -0.20965 -0.75348 0.014028
-0.024469 0.1696 1.1146 6.4537e-39 467 319 0 0 0 0.48546 -0.18001 -0.85553 0.0073263
-0.023186 0.1691 1.1156 7.6522e-39 230.5 319.5 0 0 0 0.47809 -0.17828 -0.86003 0.00735
-0.021228 0.16844 1.1156 7.8366e-39 320.5 319 0 0 0 0.46702 -0.17988 -0.86576 0.0074347
-0.023186 0.17106 1.1156 8.8508e-39 279 320 0 0 0 0.47486 -0.19255 -0.85874 0.0078105
-0.020575 0.17106 1.1156 7.6522e-39 281 320 0 0 0 0.45842 -0.19555 -0.86696 0.007549
0.077315 0.17106 1.1156 9.3118e-39 361 320 0 0 0 -0.61244 -0.21894 -0.75959 0.013408
-0.023165 0.1722 1.1146 7.8366e-39 416 320 0 0 0 0.47668 -0.20477 -0.85489 0.0078088
-0.021224 0.17298 1.1154 7.9519e-39 334.5 320.5 0 0 0 0.46117 -0.21287 -0.8614 0.0076355
-0.01927 0.17367 1.1156 9.404e-39 253 321 0 0 0 0.44431 -0.22574 -0.86696 0.0074463
-0.01666 0.17301 1.1156 8.2515e-39 338 320.5 0 0 0 0.42816 -0.22345 -0.87564 0.0069869
-0.015355 0.17367 1.1156 9.5883e-39 256 321 0 0 0 0.42199 -0.22977 -0.877 0.00696
0.076663 0.17301 1.1156 8.1593e-39 259 321 0 0 0 -0.60455 -0.21506 -0.76699 0.013756
-0.021861 0.17481 1.1146 8.2976e-39 395 321 0 0 0 0.464 -0.2361 -0.85379 0.007415
-0.019253 0.17481 1.1146 8.5742e-39 397 321 0 0 0 0.44487 -0.23653 -0.8638 0.0075246
-0.017305 0.17489 1.1151 8.7125e-39 398.5 321 0 0 0 0.43329 -0.24282 -0.86793 0.0071949
-0.015355 0.17497 1.1156 8.021e-39 400 321 0 0 0 0.42069 -0.24313 -0.87402 0.0069548
0.075941 0.17481 1.1146 7.56e-39 164 322 0 0 0 -0.59994 -0.20559 -0.77318 0.013896
0.077245 0.17481 1.1146 6.9147e-39 165 322 0 0 0 -0.62083 -0.2056 -0.75651 0.013176
-0.017525 0.17666 1.1153 8.482e-39 281.67 322 0 0 0 0.42957 -0.26014 -0.86475 0.006961
-0.015341 0.17677 1.1146 7.9749e-39 309 322 0 0 0 0.42103 -0.26544 -0.86734 0.006752
-0.012744 0.17758 1.1156 8.943e-39 388 322 0 0 0 0.39691 -0.27017 -0.87719 0.0067605
0.075529 0.17704 1.1149 7.6523e-39 408 322 0 0 0 -0.59678 -0.20055 -0.77693 0.014384
0.077245 0.17612 1.1146 9.6805e-39 298 322 0 0 0 -0.61792 -0.20513 -0.75901 0.012967
-0.017965 0.17889 1.1156 7.2835e-39 208 323 0 0 0 0.42883 -0.28224 -0.85816 0.0066698
-0.015341 0.17872 1.1146 7.3757e-39 210 323 0 0 0 0.41644 -0.28358 -0.86381 0.0065074
-0.012744 0.17889 1.1156 8.1132e-39 212 323 0 0 0 0.39707 -0.28411 -0.87271 0.0067863
-0.011439 0.17889 1.1156 7.3757e-39 213 323 0 0 0 0.37951 -0.2889 -0.87893 0.0069386
0.074704 0.17889 1.1156 9.6805e-39 275 323 0 0 0 -0.57939 -0.20463 -0.78894 0.014874
-0.017965 0.18084 1.1156 8.8969e-39 281 323.5 0 0 0 0.42781 -0.29779 -0.8534 0.0065275
-0.01491 0.18095 1.1149 8.5435e-39 253.33 323.67 0 0 0 0.41163 -0.30289 -0.85955 0.0065063
-0.012738 0.18076 1.1151 8.7125e-39 285 323.5 0 0 0 0.39728 -0.3063 -0.86507 0.0064962
-0.010786 0.18085 1.1156 9.1043e-39 286.5 323.5 0 0 0 0.36778 -0.3105 -0.87654 0.0073014
0.073399 0.1815 1.1156 8.2976e-39 250 324 0 0 0 -0.55608 -0.21166 -0.80372 0.016083
0.074637 0.18068 1.1146 7.6061e-39 340.5 323.5 0 0 0 -0.58044 -0.20204 -0.78884 0.015852
-0.019253 0.18264 1.1146 1.0418e-38 318 324 0 0 0 0.43471 -0.31291 -0.84446 0.0064076
-0.017957 0.18337 1.1151 1.0326e-38 250.5 324.5 0 0 0 0.42365 -0.32105 -0.84702 0.0064337
-0.014695 0.18337 1.1151 1.3714e-38 260.5 324.5 0 0 0 0.40742 -0.32478 -0.85354 0.0064252
-0.012733 0.18264 1.1146 1.8808e-38 339 324 0 0 0 0.39307 -0.32621 -0.8597 0.0063913
-0.010997 0.18313 1.1149 1.7917e-38 289 324.33 0 0 0 0.37031 -0.33496 -0.86641 0.0073276
-0.0075233 0.1828 1.1156 2.056e-38 343 324 0 0 0 0.33564 -0.33603 -0.88002 0.007791
0.072942 0.18318 1.1153 7.6523e-39 364 324.33 0 0 0 -0.55025 -0.21639 -0.80648 0.016545
0.074637 0.18264 1.1146 6.7303e-39 422 324 0 0 0 -0.57837 -0.21237 -0.78765 0.015729
-0.015341 0.18525 1.1146 2.351e-38 342 325 0 0 0 0.408 -0.34045 -0.84713 0.0065048
-0.010566 0.18492 1.1153 9.6803e-39 306.67 325 0 0 0 0.36369 -0.35569 -0.86094 0.0076139
-0.0088285 0.18476 1.1156 9.1274e-39 278 325 0 0 0 0.34558 -0.35125 -0.87017 0.007871
-0.0075233 0.18476 1.1156 8.4359e-39 279.5 325 0 0 0 0.33325 -0.35336 -0.87412 0.0081588
0.069484 0.18541 1.1156 7.0069e-39 432 325 0 0 0 -0.50889 -0.21854 -0.83263 0.016114
0.070789 0.18476 1.1156 8.3437e-39 341 325 0 0 0 -0.52639 -0.21887 -0.82159 0.016157
0.072062 0.18468 1.1151 8.3898e-39 342 325 0 0 0 -0.53977 -0.22391 -0.81149 0.016576
-0.010779 0.18724 1.1148 7.8136e-39 298 326 0 0 0 0.36335 -0.37017 -0.85496 0.0079841
-0.0088285 0.18672 1.1156 7.9288e-39 203 326 0 0 0 0.34575 -0.36485 -0.86449 0.0084631
-0.0075233 0.18672 1.1156 8.3898e-39 204 326 0 0 0 0.32815 -0.36588 -0.87089 0.008856
0.068572 0.18704 1.1149 9.2501e-39 333.33 326 0 0 0 -0.49979 -0.2333 -0.83414 0.016354
0.070725 0.18655 1.1146 9.5883e-39 263 326 0 0 0 -0.5307 -0.22562 -0.81698 0.016652
-0.010777 0.18916 1.1146 8.5742e-39 219.5 327 0 0 0 0.36462 -0.37738 -0.85126 0.0085191
-0.0088245 0.18859 1.1151 7.8366e-39 308.5 326.5 0 0 0 0.34677 -0.3806 -0.85726 0.0087942
-0.0075199 0.18859 1.1151 7.6983e-39 309.5 326.5 0 0 0 0.32787 -0.37719 -0.86616 0.0093496
0.066873 0.18933 1.1156 9.1274e-39 259 327 0 0 0 -0.46322 -0.23639 -0.85414 0.01726
0.068117 0.18916 1.1146 9.404e-39 260 327 0 0 0 -0.49577 -0.24594 -0.8329 0.016656
-0.010125 0.19046 1.1146 7.6522e-39 405 327 0 0 0 0.36321 -0.38399 -0.8489 0.0091689
-0.0088206 0.19046 1.1146 7.8366e-39 406 327 0 0 0 0.34926 -0.38981 -0.85209 0.009532
-0.0066509 0.19101 1.1153 7.6215e-39 338.33 327.33 0 0 0 0.3184 -0.38679 -0.86546 0.010587
-0.0049129 0.19063 1.1156 7.0991e-39 409 327 0 0 0 0.2958 -0.38501 -0.87423 0.010805
-0.0023025 0.19194 1.1156 8.6664e-39 201 328 0 0 0 0.24706 -0.3776 -0.8924 0.010473
0.065568 0.19194 1.1156 8.482e-39 227 328 0 0 0 -0.43775 -0.24999 -0.86364 0.017287
0.066873 0.19128 1.1156 7.2835e-39 335 327.5 0 0 0 -0.46307 -0.25324 -0.84938 0.017196
0.068117 0.19046 1.1146 6.7303e-39 443 327 0 0 0 -0.49332 -0.2524 -0.83242 0.016513
0.072029 0.19111 1.1146 8.2054e-39 343 327.5 0 0 0 -0.54689 -0.26751 -0.79331 0.016629
0.0016131 0.19324 1.1156 1.5858e-38 301 328 0 0 0 0.19196 -0.36927 -0.90928 0.0094587
0.0068339 0.19324 1.1156 1.8531e-38 305 328 0 0 0 0.13481 -0.38949 -0.91111 0.0085903
0.065568 0.19324 1.1156 7.1913e-39 388 328 0 0 0 -0.43706 -0.25214 -0.86337 0.01676
0.066873 0.19324 1.1156 7.2835e-39 389 328 0 0 0 -0.45983 -0.26146 -0.84864 0.017333
0.068117 0.19307 1.1146 7.6522e-39 390 328 0 0 0 -0.4914 -0.26299 -0.83028 0.016523
0.070725 0.19307 1.1146 7.9288e-39 392 328 0 0 0 -0.5256 -0.27079 -0.80648 0.016238
0.065568 0.19455 1.1156 8.2976e-39 145 329 0 0 0 -0.44102 -0.25795 -0.85963 0.016862
0.066873 0.19455 1.1156 8.3898e-39 146 329 0 0 0 -0.46301 -0.26208 -0.84672 0.016319
0.068117 0.19437 1.1146 8.021e-39 147 329 0 0 0 -0.48869 -0.2659 -0.83095 0.017324
0.076801 0.15175 1.1176 8.8508e-39 324.5 314 0 0 0 -0.60427 -0.17876 -0.77647 0.017993
0.078691 0.15096 1.1166 8.6203e-39 256.5 314 0 0 0 -0.62404 -0.19364 -0.75702 0.018452
-0.019305 0.15306 1.1176 9.404e-39 336 314 0 0 0 0.48654 -0.16977 -0.857 0.021889
0.076766 0.15299 1.1171 6.2693e-39 411.5 314 0 0 0 -0.60789 -0.18984 -0.771 0.017917
0.078691 0.15292 1.1166 7.0069e-39 413 314 0 0 0 -0.62707 -0.19397 -0.75443 0.017554
-0.045415 0.15553 1.1166 8.5742e-39 265 315 0 0 0 0.095229 -0.79736 -0.59595 0.097718
-0.019297 0.15495 1.1171 7.7905e-39 355.5 314.5 0 0 0 0.482 -0.16245 -0.86098 0.020021
-0.017551 0.15514 1.1169 7.5908e-39 332 314.67 0 0 0 0.47211 -0.17658 -0.86367 0.020503
-0.015382 0.15567 1.1176 7.2835e-39 284 315 0 0 0 0.46088 -0.19988 -0.86466 0.022978
0.077455 0.15502 1.1176 9.8189e-39 305 315 0 0 0 -0.61319 -0.18777 -0.7673 0.017289
0.078762 0.15437 1.1176 9.2196e-39 255 315 0 0 0 -0.62154 -0.18816 -0.76045 0.017788
0.081304 0.15488 1.1166 9.7266e-39 308 315 0 0 0 -0.64427 -0.19637 -0.73916 0.015045
-0.019288 0.15684 1.1166 8.943e-39 389 315 0 0 0 0.47941 -0.15541 -0.86372 0.01574
-0.017336 0.15691 1.1171 8.3437e-39 390.5 315 0 0 0 0.4653 -0.17689 -0.8673 0.018688
-0.015382 0.15698 1.1176 7.8366e-39 392 315 0 0 0 0.45473 -0.19331 -0.8694 0.020049
0.077385 0.15684 1.1166 7.2835e-39 186 316 0 0 0 -0.6178 -0.18338 -0.76465 0.016566
0.078762 0.15698 1.1176 7.4678e-39 187 316 0 0 0 -0.6267 -0.18198 -0.75771 0.016954
-0.020594 0.1588 1.1166 8.1132e-39 279.5 316 0 0 0 0.47873 -0.15515 -0.86415 0.012112
-0.019305 0.15894 1.1176 8.2054e-39 280.5 316 0 0 0 0.47253 -0.17872 -0.863 0.016406
-0.017344 0.15895 1.1176 8.021e-39 282 316 0 0 0 0.46055 -0.18813 -0.86747 0.016895
-0.015382 0.15894 1.1176 8.021e-39 283.5 316 0 0 0 0.44948 -0.18982 -0.87289 0.016219
0.076972 0.15907 1.1169 6.2078e-39 373.67 316 0 0 0 -0.61018 -0.19201 -0.76864 0.01688
0.078727 0.15887 1.1171 6.4076e-39 355.5 316 0 0 0 -0.62696 -0.19031 -0.75545 0.016579
-0.023207 0.16076 1.1166 6.5459e-39 159 317 0 0 0 0.48751 -0.1522 -0.85975 0.010085
-0.020594 0.16076 1.1166 6.7303e-39 161 317 0 0 0 0.47736 -0.16437 -0.8632 0.011105
-0.019305 0.1609 1.1176 7.2835e-39 162 317 0 0 0 0.46123 -0.16685 -0.87145 0.011545
-0.017344 0.1609 1.1176 7.3757e-39 163.5 317 0 0 0 0.45729 -0.18667 -0.86951 0.015005
-0.015382 0.1609 1.1176 6.8225e-39 165 317 0 0 0 0.44823 -0.19473 -0.87245 0.014699
0.076766 0.16083 1.1171 7.7444e-39 237.5 317 0 0 0 -0.60728 -0.19443 -0.77033 0.016954
0.078691 0.16076 1.1166 7.56e-39 239 317 0 0 0 -0.62424 -0.19815 -0.75569 0.015847
-0.061147 0.16221 1.1176 8.943e-39 255 317 0 0 0 -0.39473 -0.9166 -0.06357 0.016451
-0.020594 0.16272 1.1166 7.3296e-39 348 317 0 0 0 0.4776 -0.1672 -0.86252 0.010405
-0.019288 0.16272 1.1166 7.2835e-39 349 317 0 0 0 0.46565 -0.16611 -0.86924 0.010361
-0.017344 0.16286 1.1176 7.3065e-39 350.5 317 0 0 0 0.44951 -0.17588 -0.87579 0.011083
-0.015382 0.16286 1.1176 7.1913e-39 352 317 0 0 0 0.44541 -0.19702 -0.87338 0.013827
0.076766 0.16279 1.1171 8.2976e-39 273 317.5 0 0 0 -0.60955 -0.19932 -0.76728 0.016049
-0.021029 0.16555 1.1166 9.066e-39 321.33 318 0 0 0 0.46913 -0.16204 -0.86814 0.0081691
-0.019288 0.16468 1.1166 7.3757e-39 238 318 0 0 0 0.45682 -0.16094 -0.87488 0.0083855
-0.017344 0.16483 1.1176 7.3757e-39 239.5 318 0 0 0 0.44674 -0.1744 -0.8775 0.0096867
-0.015382 0.16483 1.1176 8.1132e-39 241 318 0 0 0 0.43606 -0.17879 -0.88198 0.0094886
0.076749 0.16537 1.1169 7.4218e-39 375 318 0 0 0 -0.60529 -0.20546 -0.76903 0.015598
-0.019297 0.16671 1.1171 7.8366e-39 279 318.5 0 0 0 0.45163 -0.17353 -0.87517 0.0081893
-0.017344 0.16679 1.1176 7.9749e-39 280.5 318.5 0 0 0 0.44047 -0.17595 -0.88036 0.0080744
-0.015382 0.16679 1.1176 8.2515e-39 282 318.5 0 0 0 0.43103 -0.18908 -0.8823 0.0090522
0.07484 0.16744 1.1176 8.2976e-39 265 319 0 0 0 -0.57814 -0.21455 -0.78722 0.015697
0.076078 0.16729 1.1166 8.2976e-39 266 319 0 0 0 -0.60063 -0.21333 -0.77054 0.014748
-0.021247 0.1699 1.1166 6.592e-39 146.5 320 0 0 0 0.45967 -0.18587 -0.86842 0.0074548
-0.019288 0.1686 1.1166 8.2976e-39 322 319 0 0 0 0.45094 -0.18317 -0.87356 0.0071479
-0.017121 0.16913 1.1173 8.2976e-39 265.67 319.33 0 0 0 0.43453 -0.18843 -0.88072 0.0070425
-0.015382 0.16875 1.1176 9.404e-39 325 319 0 0 0 0.42309 -0.19538 -0.88477 0.0075755
0.07484 0.16875 1.1176 8.7586e-39 394 319 0 0 0 -0.57424 -0.21996 -0.78859 0.015023
0.076732 0.16925 1.1166 8.3898e-39 309.5 319.5 0 0 0 -0.60573 -0.21954 -0.76478 0.013857
-0.0219 0.17121 1.1166 8.3898e-39 280 320 0 0 0 0.46232 -0.19283 -0.86549 0.0076735
-0.019297 0.17063 1.1171 7.0068e-39 215 320 0 0 0 0.44508 -0.19536 -0.87392 0.0072826
-0.017556 0.17088 1.1173 7.1605e-39 238.67 320 0 0 0 0.43305 -0.20134 -0.87859 0.0070135
-0.015375 0.17063 1.1171 7.3757e-39 218.5 320 0 0 0 0.41965 -0.20439 -0.88438 0.0066613
0.07484 0.17071 1.1176 8.5281e-39 290.5 320 0 0 0 -0.57615 -0.22037 -0.78708 0.014445
0.076078 0.17121 1.1166 8.6664e-39 360 320 0 0 0 -0.59532 -0.22078 -0.77256 0.013789
-0.019288 0.17252 1.1166 7.9288e-39 419 320 0 0 0 0.44104 -0.21074 -0.8724 0.0072552
-0.017981 0.17317 1.1166 8.5742e-39 337 320.5 0 0 0 0.43366 -0.22087 -0.87359 0.0072723
-0.014721 0.17325 1.1171 8.1593e-39 339.5 320.5 0 0 0 0.41407 -0.2244 -0.88215 0.0066645
-0.012761 0.17325 1.1171 8.2055e-39 341 320.5 0 0 0 0.39455 -0.22484 -0.89094 0.0058792
-0.010806 0.17333 1.1176 8.0902e-39 342.5 320.5 0 0 0 0.37657 -0.22819 -0.89784 0.0054524
0.070917 0.17398 1.1176 8.3898e-39 321 321 0 0 0 -0.53639 -0.21776 -0.81539 0.013284
0.072225 0.17333 1.1176 8.6203e-39 255.5 321 0 0 0 -0.55326 -0.21866 -0.8038 0.014085
0.074772 0.17317 1.1166 8.8507e-39 257.5 321 0 0 0 -0.58038 -0.2148 -0.78551 0.014663
-0.014075 0.17529 1.1176 7.9288e-39 401 321 0 0 0 0.40422 -0.2429 -0.88182 0.0066439
-0.012756 0.17513 1.1166 8.2054e-39 402 321 0 0 0 0.39598 -0.2454 -0.88486 0.0064546
-0.0108 0.17521 1.1171 8.3898e-39 403.5 321 0 0 0 0.37338 -0.24454 -0.89487 0.0060023
0.070917 0.17529 1.1176 7.0069e-39 160 322 0 0 0 -0.53533 -0.2123 -0.81753 0.013099
0.072225 0.17529 1.1176 7.6522e-39 161 322 0 0 0 -0.54932 -0.21142 -0.80842 0.013798
0.074772 0.17513 1.1166 7.7444e-39 163 322 0 0 0 -0.57729 -0.20945 -0.78922 0.014631
-0.014062 0.17709 1.1166 8.0671e-39 310 322 0 0 0 0.40571 -0.26443 -0.87491 0.0067505
-0.012756 0.17644 1.1166 8.2054e-39 234 322 0 0 0 0.39557 -0.25647 -0.8819 0.0065564
-0.010796 0.17709 1.1166 8.6894e-39 312.5 322 0 0 0 0.37415 -0.26835 -0.8877 0.0067141
-0.0088445 0.1779 1.1176 8.6664e-39 391 322 0 0 0 0.35093 -0.27294 -0.89574 0.0066952
0.070917 0.17725 1.1176 7.4679e-39 367.5 322 0 0 0 -0.53061 -0.21021 -0.82113 0.01375
0.072862 0.17721 1.1173 7.2835e-39 369 322 0 0 0 -0.55073 -0.20598 -0.80887 0.014675
0.074772 0.17644 1.1166 8.482e-39 296 322 0 0 0 -0.57469 -0.20356 -0.79265 0.014584
-0.014062 0.17905 1.1166 8.021e-39 211 323 0 0 0 0.40704 -0.28235 -0.86867 0.0065927
-0.010143 0.17905 1.1166 7.0069e-39 214 323 0 0 0 0.36307 -0.28878 -0.88588 0.0070611
-0.0088445 0.17921 1.1176 6.9147e-39 215 323 0 0 0 0.34799 -0.28759 -0.8923 0.0071787
-0.0075369 0.17921 1.1176 7.0991e-39 216 323 0 0 0 0.33197 -0.29098 -0.89729 0.0070266
0.070917 0.17921 1.1176 8.7586e-39 272 323 0 0 0 -0.52763 -0.20869 -0.82344 0.014438
0.072812 0.17905 1.1166 8.9891e-39 273.5 323 0 0 0 -0.54669 -0.2058 -0.81165 0.015459
-0.014062 0.18035 1.1166 8.943e-39 374 323 0 0 0 0.40323 -0.29457 -0.86639 0.0066647
-0.0088365 0.18101 1.1166 8.9429e-39 288 323.5 0 0 0 0.34916 -0.31488 -0.88257 0.0072108
-0.0075335 0.18109 1.1171 8.5742e-39 289 323.5 0 0 0 0.33068 -0.31609 -0.88923 0.0077061
0.069173 0.18139 1.1176 7.4371e-39 306.33 323.67 0 0 0 -0.50219 -0.21496 -0.83761 0.01452
0.070853 0.18101 1.1166 8.021e-39 337.5 323.5 0 0 0 -0.5271 -0.21066 -0.82328 0.015361
0.072595 0.18079 1.1166 7.4679e-39 368.67 323.33 0 0 0 -0.54069 -0.20719 -0.8153 0.015723
-0.0088365 0.18297 1.1166 2.268e-38 342 324 0 0 0 0.3427 -0.3349 -0.87772 0.007499
-0.0062294 0.18313 1.1176 2.0191e-38 344 324 0 0 0 0.3106 -0.33087 -0.89109 0.007815
-0.0049218 0.18313 1.1176 1.7148e-38 345 324 0 0 0 0.29596 -0.33679 -0.89385 0.0079606
-0.0029605 0.18313 1.1176 1.7102e-38 346.5 324 0 0 0 0.27425 -0.33909 -0.89989 0.0079868
0.068924 0.18305 1.1171 7.8827e-39 417.5 324 0 0 0 -0.49936 -0.21793 -0.83854 0.014955
0.070853 0.18297 1.1166 7.6522e-39 419 324 0 0 0 -0.52293 -0.21353 -0.8252 0.015983
-0.0062265 0.18501 1.1171 8.3898e-39 280.5 325 0 0 0 0.308 -0.34982 -0.88474 0.0086154
-0.0049196 0.18501 1.1171 8.4359e-39 281.5 325 0 0 0 0.29327 -0.35153 -0.88906 0.0084566
-0.0029589 0.18501 1.1171 8.4589e-39 283.75 325 0 0 0 0.27305 -0.3558 -0.89378 0.0088334
-0.00099911 0.18509 1.1176 8.4359e-39 286 325 0 0 0 0.25164 -0.35807 -0.89915 0.0079783
0.001616 0.18575 1.1176 8.2976e-39 380 325 0 0 0 0.22684 -0.38064 -0.89647 0.0088854
0.0068463 0.18575 1.1176 8.2054e-39 384 325 0 0 0 0.19263 -0.42593 -0.88401 0.012498
0.030368 0.18501 1.1171 8.021e-39 310 325 0 0 0 0.025917 -0.63877 -0.76896 0.016739
0.065687 0.18575 1.1176 6.8225e-39 429 325 0 0 0 -0.43626 -0.22331 -0.87167 0.014618
0.066994 0.18509 1.1176 7.0069e-39 338 325 0 0 0 -0.4567 -0.21792 -0.86251 0.014491
0.068675 0.18471 1.1166 7.7752e-39 308.67 325 0 0 0 -0.49414 -0.2238 -0.84009 0.015643
-0.0062237 0.18689 1.1166 8.3898e-39 205 326 0 0 0 0.30546 -0.36554 -0.87925 0.0089921
-0.0049174 0.18689 1.1166 8.2054e-39 206 326 0 0 0 0.29049 -0.36007 -0.88655 0.0090553
-0.0029589 0.18698 1.1171 7.6522e-39 207.5 326 0 0 0 0.27025 -0.36525 -0.89082 0.0094094
-0.00099911 0.18706 1.1176 7.2835e-39 209 326 0 0 0 0.2421 -0.36381 -0.89946 0.0080811
0.00096223 0.18706 1.1176 7.7444e-39 210.5 326 0 0 0 0.22678 -0.37454 -0.89905 0.0082286
0.0068463 0.18706 1.1176 7.3757e-39 215 326 0 0 0 0.18377 -0.42793 -0.88493 0.012414
0.012077 0.18706 1.1176 8.7586e-39 219 326 0 0 0 0.15464 -0.49774 -0.85343 0.020034
0.015999 0.18706 1.1176 7.3757e-39 222 326 0 0 0 0.10176 -0.55918 -0.82277 0.023815
0.065687 0.18706 1.1176 9.404e-39 259 326 0 0 0 -0.43331 -0.22395 -0.87298 0.015531
0.066934 0.18689 1.1166 9.4961e-39 260 326 0 0 0 -0.46471 -0.22105 -0.85742 0.015921
-0.0062237 0.18885 1.1166 7.4218e-39 310.5 326.5 0 0 0 0.3041 -0.37539 -0.87556 0.0097235
-0.0049174 0.18885 1.1166 7.2835e-39 311.5 326.5 0 0 0 0.28994 -0.37323 -0.88127 0.0097394
-0.0029583 0.18889 1.1169 7.6292e-39 313 326.5 0 0 0 0.26545 -0.37627 -0.88767 0.010303
-0.00099911 0.18902 1.1176 7.8827e-39 314.5 326.5 0 0 0 0.23738 -0.37363 -0.89669 0.0085806
0.00096188 0.18897 1.1173 7.2835e-39 316 326.5 0 0 0 0.219 -0.37853 -0.89931 0.0083789
0.0029236 0.18967 1.1176 7.3757e-39 230 327 0 0 0 0.19691 -0.38997 -0.89953 0.0095267
0.0055387 0.18967 1.1176 8.943e-39 232 327 0 0 0 0.18338 -0.41534 -0.89099 0.011068
0.0068463 0.18902 1.1176 7.8366e-39 320.5 326.5 0 0 0 0.17169 -0.42503 -0.88875 0.012116
0.0081538 0.18967 1.1176 8.2054e-39 234 327 0 0 0 0.15612 -0.43862 -0.88501 0.013209
0.010769 0.18902 1.1176 7.6522e-39 323.5 326.5 0 0 0 0.15235 -0.47124 -0.86875 0.017013
0.012077 0.18902 1.1176 7.514e-39 324.5 326.5 0 0 0 0.1405 -0.49164 -0.85939 0.019758
0.015999 0.18902 1.1176 7.2374e-39 327.5 326.5 0 0 0 0.090023 -0.56619 -0.81934 0.02547
0.017307 0.18967 1.1176 7.6522e-39 241 327 0 0 0 0.063562 -0.59112 -0.80408 0.025242
0.063072 0.18967 1.1176 8.943e-39 256 327 0 0 0 -0.38562 -0.21557 -0.89712 0.014359
0.065003 0.18893 1.1171 8.1593e-39 366 326.5 0 0 0 -0.42495 -0.22393 -0.87708 0.016355
0.066934 0.18819 1.1166 7.4678e-39 476 326 0 0 0 -0.45815 -0.22899 -0.85887 0.016371
-0.0029578 0.19081 1.1166 7.7905e-39 410.5 327 0 0 0 0.26396 -0.38111 -0.88605 0.01086
-0.00099911 0.19098 1.1176 7.9288e-39 412 327 0 0 0 0.22859 -0.37108 -0.90003 0.0091169
0.00096153 0.19089 1.1171 7.1452e-39 413.5 327 0 0 0 0.20994 -0.37447 -0.90316 0.0085885
0.0029236 0.19098 1.1176 7.1913e-39 415 327 0 0 0 0.19139 -0.38868 -0.90128 0.0090059
0.0055387 0.19098 1.1176 7.7444e-39 417 327 0 0 0 0.17201 -0.40824 -0.89652 0.010515
0.0068401 0.19081 1.1166 7.9288e-39 418 327 0 0 0 0.1515 -0.41109 -0.89892 0.010197
0.0081538 0.19098 1.1176 7.8366e-39 419 327 0 0 0 0.14834 -0.43523 -0.88801 0.012913
0.010769 0.19098 1.1176 7.0991e-39 421 327 0 0 0 0.1319 -0.46466 -0.87561 0.016542
