# .PCD v.7 - Point Cloud Data file format
VERSION .7
FIELDS x y z rgb u v vx vy vz normal_x normal_y normal_z curvature
SIZE 4 4 4 4 4 4 4 4 4 4 4 4 4
TYPE F F F F F F F F F F F F F
COUNT 1 1 1 1 1 1 1 1 1 1 1 1 1
WIDTH 551
HEIGHT 1
VIEWPOINT 0 0 0 1 0 0 0
POINTS 551
DATA ascii
0.055077 0.17481 1.1146 7.0991e-39 295 324 0 0 0 -0.3775 -0.16846 -0.91056 0.010538
-0.024491 0.17693 1.1156 7.9288e-39 287.5 324.5 0 0 0 0.38584 -0.27272 -0.88133 0.013052
-0.023165 0.17677 1.1146 7.9288e-39 288.5 324.5 0 0 0 0.37389 -0.26808 -0.88788 0.01357
-0.020575 0.17693 1.1156 8.3437e-39 290.5 324.5 0 0 0 0.32866 -0.25023 -0.9107 0.014327
-0.01927 0.17693 1.1156 8.3437e-39 291.5 324.5 0 0 0 0.31205 -0.25011 -0.91655 0.014268
0.0094443 0.17758 1.1156 7.8366e-39 227 325 0 0 0 0.0031003 -0.23482 -0.97203 0.013983
0.01075 0.17758 1.1156 7.3757e-39 228 325 0 0 0 0.0030821 -0.23131 -0.97288 0.014019
0.014665 0.17758 1.1156 7.56e-39 231 325 0 0 0 0.019614 -0.22657 -0.9738 0.014225
0.053156 0.17689 1.1154 7.7905e-39 347 324.5 0 0 0 -0.34666 -0.19298 -0.91793 0.010988
0.055077 0.17677 1.1146 7.6061e-39 348.5 324.5 0 0 0 -0.37398 -0.18838 -0.9081 0.010417
-0.024469 0.17872 1.1146 8.6664e-39 346 325 0 0 0 0.40403 -0.29583 -0.86559 0.011859
-0.023165 0.17872 1.1146 7.9288e-39 347 325 0 0 0 0.38205 -0.29057 -0.87727 0.012617
-0.021228 0.17889 1.1156 7.4218e-39 348.5 325 0 0 0 0.34602 -0.28391 -0.89424 0.013975
-0.01927 0.17889 1.1156 7.2835e-39 350 325 0 0 0 0.32086 -0.27676 -0.90579 0.014575
-0.01666 0.17889 1.1156 8.2054e-39 352 325 0 0 0 0.27692 -0.26633 -0.92325 0.015499
-0.015355 0.17889 1.1156 8.482e-39 353 325 0 0 0 0.25625 -0.262 -0.93043 0.015735
-0.011439 0.17889 1.1156 8.943e-39 356 325 0 0 0 0.18358 -0.25277 -0.94995 0.015142
0.0094358 0.17872 1.1146 7.1913e-39 372 325 0 0 0 0.0043616 -0.24751 -0.96887 0.014631
0.01074 0.17872 1.1146 7.3757e-39 373 325 0 0 0 0.005349 -0.24659 -0.9691 0.014787
0.014665 0.17889 1.1156 7.9288e-39 376 325 0 0 0 0.022134 -0.24001 -0.97052 0.014488
0.042074 0.17889 1.1156 8.7586e-39 397 325 0 0 0 -0.18454 -0.19037 -0.96421 0.0093368
0.053144 0.1788 1.1151 8.2515e-39 405.5 325 0 0 0 -0.34464 -0.21583 -0.91359 0.010889
0.055077 0.17872 1.1146 7.6522e-39 407 325 0 0 0 -0.36907 -0.21744 -0.90361 0.010013
-0.024469 0.18003 1.1146 6.8225e-39 164 326 0 0 0 0.40683 -0.30754 -0.86018 0.011445
-0.021223 0.1808 1.1154 7.2835e-39 233 326 0 0 0 0.35225 -0.30775 -0.88386 0.013888
-0.019261 0.18076 1.1151 7.1913e-39 234.5 326 0 0 0 0.32637 -0.30216 -0.89565 0.014665
-0.017313 0.18085 1.1156 7.3757e-39 236 326 0 0 0 0.29375 -0.29785 -0.90829 0.015295
-0.01492 0.18106 1.1156 8.021e-39 260 326 0 0 0 0.24662 -0.29748 -0.92233 0.016449
-0.010786 0.18085 1.1156 7.6522e-39 241 326 0 0 0 0.15731 -0.27989 -0.94706 0.016321
0.0068308 0.18076 1.1151 8.2976e-39 262 326 0 0 0 -0.0026157 -0.27291 -0.96203 0.014569
0.0087874 0.18011 1.1151 6.6381e-39 189.5 326 0 0 0 0.0047002 -0.26051 -0.96546 0.014938
0.012702 0.18076 1.1151 7.6522e-39 266.5 326 0 0 0 0.019528 -0.26547 -0.96392 0.015614
0.015311 0.18076 1.1151 7.3065e-39 268.5 326 0 0 0 0.028559 -0.26216 -0.9646 0.01506
0.017268 0.18076 1.1151 8.1593e-39 270 326 0 0 0 0.035613 -0.25869 -0.9653 0.015142
0.019233 0.1815 1.1156 9.1274e-39 345.5 326 0 0 0 0.049376 -0.26754 -0.96228 0.013556
0.042074 0.18084 1.1156 7.6983e-39 289 326 0 0 0 -0.18399 -0.21066 -0.96009 0.010113
0.04599 0.18084 1.1156 8.482e-39 292 326 0 0 0 -0.23498 -0.22473 -0.94567 0.01145
0.047295 0.18084 1.1156 8.8508e-39 293 326 0 0 0 -0.25545 -0.22529 -0.94021 0.011982
0.049253 0.18085 1.1156 8.5742e-39 294.5 326 0 0 0 -0.28379 -0.23397 -0.9299 0.012151
0.051211 0.18084 1.1156 7.9749e-39 296 326 0 0 0 -0.31258 -0.24094 -0.91883 0.011901
0.052469 0.18068 1.1146 7.6983e-39 297 326 0 0 0 -0.33182 -0.23797 -0.91283 0.010941
0.055077 0.18068 1.1146 7.9288e-39 298.5 326 0 0 0 -0.3634 -0.24148 -0.89979 0.0099794
-0.021209 0.18329 1.1146 9.7495e-39 349 326.5 0 0 0 0.35714 -0.33589 -0.87157 0.013915
-0.019253 0.18264 1.1146 1.134e-38 448 326 0 0 0 0.33151 -0.3268 -0.88504 0.014263
-0.017301 0.18333 1.1148 5.5317e-39 385.5 326.5 0 0 0 0.29873 -0.33183 -0.89479 0.014732
-0.014915 0.18318 1.1153 5.1629e-39 431 326.33 0 0 0 0.25299 -0.32666 -0.91066 0.016263
-0.011001 0.18318 1.1153 6.1157e-39 434 326.33 0 0 0 0.16843 -0.31761 -0.93314 0.017792
0.015956 0.18264 1.1146 6.2693e-39 146 327 0 0 0 0.034445 -0.28287 -0.95854 0.015138
0.01726 0.18264 1.1146 6.0849e-39 147 327 0 0 0 0.040846 -0.28479 -0.95772 0.015242
0.019439 0.18313 1.1149 6.9147e-39 191.33 327 0 0 0 0.052963 -0.2896 -0.95568 0.01365
0.021181 0.18337 1.1151 7.6061e-39 214 327 0 0 0 0.058291 -0.29547 -0.95357 0.013966
0.039017 0.18318 1.1153 7.2835e-39 206.33 327 0 0 0 -0.14988 -0.23446 -0.9605 0.010407
0.042707 0.18337 1.1151 7.4679e-39 230.5 327 0 0 0 -0.20038 -0.2467 -0.94815 0.011267
0.045317 0.18337 1.1151 7.3065e-39 232.5 327 0 0 0 -0.22918 -0.2574 -0.93874 0.011501
0.047252 0.18264 1.1146 7.0069e-39 170 327 0 0 0 -0.26406 -0.25507 -0.93017 0.011863
0.048992 0.18307 1.1146 7.3449e-39 214 327 0 0 0 -0.29007 -0.27124 -0.91776 0.011831
0.051165 0.18264 1.1146 7.2835e-39 173 327 0 0 0 -0.3159 -0.26889 -0.90989 0.011441
0.052469 0.18264 1.1146 7.4678e-39 174 327 0 0 0 -0.33062 -0.26752 -0.90506 0.010642
-0.016645 0.18525 1.1146 8.2976e-39 407 327 0 0 0 0.28818 -0.3556 -0.8891 0.014548
-0.014476 0.18487 1.1149 7.7137e-39 358 327 0 0 0 0.25177 -0.34643 -0.90366 0.01628
-0.012744 0.18541 1.1156 8.482e-39 410 327 0 0 0 0.21635 -0.34851 -0.91199 0.017218
-0.010566 0.18492 1.1153 9.1581e-39 361 327 0 0 0 0.15778 -0.3522 -0.92253 0.019513
0.019868 0.18525 1.1146 7.56e-39 429 327 0 0 0 0.061458 -0.31275 -0.94784 0.014378
0.021172 0.18525 1.1146 7.56e-39 430 327 0 0 0 0.06848 -0.31803 -0.9456 0.014301
0.022496 0.18476 1.1156 8.2976e-39 355 327 0 0 0 0.058877 -0.30679 -0.94995 0.014353
0.032938 0.18476 1.1156 6.3154e-39 363 327 0 0 0 -0.059394 -0.25262 -0.96574 0.011368
0.035548 0.18476 1.1156 6.2232e-39 365 327 0 0 0 -0.094299 -0.24905 -0.96389 0.010811
0.038582 0.18492 1.1153 6.6074e-39 392.67 327 0 0 0 -0.14009 -0.25912 -0.95563 0.010741
0.040769 0.18476 1.1156 8.5281e-39 369 327 0 0 0 -0.17023 -0.25492 -0.95186 0.010895
0.042688 0.18525 1.1146 1.1524e-38 446.5 327 0 0 0 -0.20509 -0.27538 -0.9392 0.011593
0.044644 0.18525 1.1146 1.1801e-38 448 327 0 0 0 -0.22584 -0.28761 -0.93074 0.01111
-0.015341 0.18655 1.1146 8.482e-39 202 328 0 0 0 0.26777 -0.36987 -0.88966 0.015314
-0.012733 0.18655 1.1146 8.2976e-39 204 328 0 0 0 0.22286 -0.36837 -0.90257 0.016503
-0.010782 0.18664 1.1151 8.943e-39 205.5 328 0 0 0 0.17145 -0.37233 -0.91213 0.019845
-0.0088245 0.18729 1.1151 8.8047e-39 290.5 328 0 0 0 0.11638 -0.39102 -0.91299 0.023053
-0.0075199 0.18729 1.1151 8.6203e-39 291.5 328 0 0 0 0.0644 -0.4051 -0.912 0.024654
-0.0049129 0.18672 1.1156 8.3898e-39 210 328 0 0 0 0.025399 -0.39581 -0.91798 0.023649
-0.0029538 0.18729 1.1151 7.6061e-39 295 328 0 0 0 -0.0058917 -0.40346 -0.91498 0.022257
0.00074237 0.18704 1.1149 8.2669e-39 270 328 0 0 0 -0.031848 -0.36134 -0.93189 0.017934
0.021172 0.1872 1.1146 8.4359e-39 310 328 0 0 0 0.082037 -0.33975 -0.93693 0.015149
0.023149 0.18672 1.1156 8.6664e-39 228.5 328 0 0 0 0.068447 -0.32249 -0.94409 0.015094
0.032938 0.18672 1.1156 7.0991e-39 236 328 0 0 0 -0.06096 -0.27464 -0.95961 0.012603
0.035102 0.1871 1.1153 7.683e-39 293 328 0 0 0 -0.09113 -0.28038 -0.95555 0.012486
0.036854 0.18672 1.1156 7.6522e-39 239 328 0 0 0 -0.11244 -0.27723 -0.9542 0.012001
0.038124 0.18655 1.1146 7.6522e-39 240 328 0 0 0 -0.13358 -0.27982 -0.95071 0.011834
0.04075 0.18729 1.1151 7.6983e-39 325 328 0 0 0 -0.17204 -0.29686 -0.93929 0.011525
0.042036 0.18655 1.1146 7.56e-39 243 328 0 0 0 -0.19629 -0.29261 -0.93587 0.011535
-0.0062181 0.18802 1.1156 8.021e-39 376 328 0 0 0 0.036012 -0.4139 -0.90961 0.02524
-0.00099685 0.18859 1.1151 6.6842e-39 274 328.5 0 0 0 -0.027442 -0.42635 -0.90414 0.020532
0.021172 0.18916 1.1146 5.9927e-39 176 329 0 0 0 0.10124 -0.35945 -0.92766 0.015697
0.023144 0.18863 1.1154 6.9607e-39 286 328.5 0 0 0 0.087963 -0.34525 -0.93438 0.015517
0.025107 0.18868 1.1156 7.6061e-39 287.5 328.5 0 0 0 0.070168 -0.32832 -0.94196 0.015287
0.027282 0.18889 1.1156 6.9454e-39 253 328.67 0 0 0 0.050294 -0.32043 -0.94594 0.017129
0.029022 0.18933 1.1156 6.0849e-39 182 329 0 0 0 0.00037915 -0.3083 -0.95129 0.016712
0.030981 0.18933 1.1156 5.9466e-39 183.5 329 0 0 0 -0.032235 -0.29783 -0.95407 0.014866
0.032923 0.18859 1.1151 7.1913e-39 293.5 328.5 0 0 0 -0.061309 -0.29764 -0.95271 0.013742
0.034227 0.18859 1.1151 7.6522e-39 294.5 328.5 0 0 0 -0.071982 -0.30002 -0.95121 0.012938
0.036837 0.18859 1.1151 7.5601e-39 296.5 328.5 0 0 0 -0.12384 -0.30777 -0.94337 0.012505
0.023128 0.19046 1.1146 1.2308e-38 293.5 329 0 0 0 0.10974 -0.3724 -0.92156 0.01593
0.025084 0.19046 1.1146 1.4567e-38 295 329 0 0 0 0.087057 -0.35058 -0.93248 0.016672
0.02704 0.19046 1.1146 1.5443e-38 296.5 329 0 0 0 0.056627 -0.33974 -0.93881 0.018386
0.029022 0.19063 1.1156 1.5489e-38 298 329 0 0 0 0.0050692 -0.32165 -0.94684 0.017776
0.030952 0.19046 1.1146 1.701e-38 299.5 329 0 0 0 -0.034639 -0.3211 -0.94641 0.016457
0.032908 0.19046 1.1146 1.2262e-38 357 329 0 0 0 -0.061102 -0.32341 -0.94428 0.015435
0.03682 0.19046 1.1146 9.7727e-39 360 329 0 0 0 -0.13073 -0.33761 -0.93216 0.012773
0.038228 0.15044 1.1176 6.2693e-39 416 315 0 0 0 -0.11432 -0.088309 -0.98951 0.0035377
0.043458 0.1511 1.1176 5.8083e-39 387.5 315.5 0 0 0 -0.16841 -0.053904 -0.98424 0.0077852
0.044766 0.1511 1.1176 5.8083e-39 388.5 315.5 0 0 0 -0.19167 -0.050092 -0.98018 0.0097137
0.046509 0.15131 1.1176 6.3922e-39 379 315.67 0 0 0 -0.22795 -0.048468 -0.97246 0.011006
0.04956 0.15131 1.1176 6.5766e-39 380.67 315.67 0 0 0 -0.3044 -0.0080271 -0.95251 0.017756
0.051303 0.15175 1.1176 7.2835e-39 361 316 0 0 0 -0.34038 0.011291 -0.94022 0.019002
0.044766 0.15306 1.1176 8.1132e-39 407 316 0 0 0 -0.1947 -0.046881 -0.97974 0.0097429
0.046073 0.15306 1.1176 8.021e-39 408 316 0 0 0 -0.21931 -0.047326 -0.97451 0.0099513
0.049342 0.15306 1.1176 6.8225e-39 410.5 316 0 0 0 -0.30027 -0.012107 -0.95378 0.017101
0.051303 0.15306 1.1176 7.4678e-39 412 316 0 0 0 -0.34195 0.0076983 -0.93969 0.018195
0.05387 0.15292 1.1166 6.4537e-39 414 316 0 0 0 -0.38874 0.041812 -0.9204 0.017321
-0.046764 0.15567 1.1176 7.56e-39 302 317 0 0 0 0.32044 -0.4449 -0.83629 0.034367
-0.044782 0.15495 1.1171 6.9608e-39 360.5 316.5 0 0 0 0.31733 -0.419 -0.85073 0.038503
-0.038883 0.15553 1.1166 6.6381e-39 309 317 0 0 0 0.31195 -0.30356 -0.9003 0.036504
-0.037577 0.15423 1.1166 6.6381e-39 419 316 0 0 0 0.3005 -0.29423 -0.90727 0.040688
-0.019305 0.15502 1.1176 8.1132e-39 277 317 0 0 0 0.28006 -0.11825 -0.95267 0.020799
-0.017556 0.15519 1.1173 8.3283e-39 294 317 0 0 0 0.28197 -0.10705 -0.95343 0.01969
-0.015382 0.15502 1.1176 7.9749e-39 280 317 0 0 0 0.28616 -0.15473 -0.94561 0.027378
0.025152 0.15437 1.1176 8.7586e-39 267 317 0 0 0 -0.099298 -0.11498 -0.98839 0.0077209
0.046509 0.15524 1.1176 7.4678e-39 348 317 0 0 0 -0.22074 -0.042136 -0.97442 0.0094764
0.049342 0.15502 1.1176 7.8366e-39 334.5 317 0 0 0 -0.29827 -0.012745 -0.9544 0.01582
0.05128 0.15495 1.1171 7.5601e-39 336 317 0 0 0 -0.33987 0.0060469 -0.94045 0.01682
0.053217 0.15488 1.1166 6.9608e-39 337.5 317 0 0 0 -0.37802 0.028079 -0.92537 0.01646
-0.019305 0.15698 1.1176 1.1985e-38 427 317 0 0 0 0.27688 -0.11832 -0.95359 0.018983
-0.017336 0.15691 1.1171 9.7725e-39 480 317 0 0 0 0.27306 -0.10847 -0.95586 0.018676
-0.015368 0.15684 1.1166 5.8083e-39 150 318 0 0 0 0.27107 -0.13073 -0.95364 0.022671
0.044766 0.15698 1.1176 7.1913e-39 229 318 0 0 0 -0.19736 -0.04 -0.97952 0.0088035
0.046727 0.15698 1.1176 6.5459e-39 230.5 318 0 0 0 -0.23093 -0.03625 -0.97229 0.010113
0.049297 0.15684 1.1166 6.0849e-39 232.5 318 0 0 0 -0.2976 -0.013161 -0.9546 0.014939
0.051257 0.15684 1.1166 6.8225e-39 234 318 0 0 0 -0.33587 0.00057845 -0.94191 0.015597
0.053217 0.15684 1.1166 6.6842e-39 235.5 318 0 0 0 -0.37301 0.020776 -0.9276 0.015286
-0.023207 0.15945 1.1166 6.6381e-39 406 318 0 0 0 0.29865 -0.11555 -0.94734 0.014724
-0.020594 0.15945 1.1166 6.5459e-39 408 318 0 0 0 0.27559 -0.1055 -0.95547 0.014581
-0.019305 0.15894 1.1176 7.0068e-39 348.5 318 0 0 0 0.27264 -0.12178 -0.95438 0.017919
-0.017344 0.15895 1.1176 7.0068e-39 350 318 0 0 0 0.26831 -0.1088 -0.95717 0.016971
-0.014946 0.15916 1.1176 7.4064e-39 372 318 0 0 0 0.26108 -0.13702 -0.95554 0.023886
-0.01146 0.1596 1.1176 6.0849e-39 415 318 0 0 0 0.21927 -0.16746 -0.96119 0.02506
0.03692 0.1596 1.1176 6.7303e-39 169 319 0 0 0 -0.11628 -0.070902 -0.99068 0.0024574
0.038664 0.15916 1.1176 7.5909e-39 224.33 318.67 0 0 0 -0.12269 -0.0638 -0.99039 0.002997
0.040843 0.1596 1.1176 6.4537e-39 172 319 0 0 0 -0.14169 -0.05593 -0.98833 0.0041452
0.043022 0.15916 1.1176 7.222e-39 227.67 318.67 0 0 0 -0.16988 -0.046396 -0.98437 0.0063557
0.044766 0.15894 1.1176 7.514e-39 256 318.5 0 0 0 -0.19448 -0.041787 -0.98002 0.0075858
0.046727 0.15895 1.1176 7.3987e-39 257.5 318.5 0 0 0 -0.23133 -0.035132 -0.97224 0.010139
0.049298 0.1588 1.1166 6.8225e-39 259.5 318.5 0 0 0 -0.29427 -0.015369 -0.9556 0.014283
0.051257 0.15815 1.1166 6.6381e-39 342 318 0 0 0 -0.33353 0.0010707 -0.94274 0.014923
0.05387 0.1588 1.1166 6.4076e-39 263 318.5 0 0 0 -0.37461 0.017505 -0.92702 0.014313
-0.023207 0.16076 1.1166 6.9147e-39 248 319 0 0 0 0.30574 -0.12044 -0.94447 0.014426
-0.021247 0.16076 1.1166 6.4998e-39 249.5 319 0 0 0 0.28733 -0.1192 -0.95039 0.0142
-0.019305 0.1609 1.1176 6.4537e-39 251 319 0 0 0 0.27903 -0.11931 -0.95284 0.016251
-0.017344 0.1609 1.1176 8.021e-39 252.5 319 0 0 0 0.26635 -0.11046 -0.95753 0.015624
-0.014728 0.1609 1.1176 9.4501e-39 254.5 319 0 0 0 0.25117 -0.13197 -0.9589 0.021876
-0.01146 0.1609 1.1176 8.7586e-39 257 319 0 0 0 0.21659 -0.1575 -0.96348 0.023711
0.03692 0.1609 1.1176 6.6381e-39 294 319 0 0 0 -0.11282 -0.066936 -0.99136 0.0021666
0.038882 0.1609 1.1176 7.3757e-39 295.5 319 0 0 0 -0.12271 -0.062153 -0.99049 0.0028227
0.040843 0.1609 1.1176 8.2976e-39 297 319 0 0 0 -0.13835 -0.05757 -0.98871 0.0039585
0.042805 0.1609 1.1176 8.2976e-39 298.5 319 0 0 0 -0.16401 -0.052141 -0.98508 0.0054427
0.044725 0.16076 1.1166 7.7444e-39 300 319 0 0 0 -0.19612 -0.043852 -0.9796 0.0076149
0.046727 0.1609 1.1176 7.6983e-39 301.5 319 0 0 0 -0.22987 -0.039536 -0.97242 0.0096584
0.049297 0.16076 1.1166 7.6061e-39 303.5 319 0 0 0 -0.28598 -0.020636 -0.95801 0.012638
-0.023207 0.16272 1.1166 7.8827e-39 292 319.5 0 0 0 0.30855 -0.13193 -0.94201 0.014081
-0.021247 0.16272 1.1166 8.0671e-39 293.5 319.5 0 0 0 0.28929 -0.12325 -0.94927 0.013734
-0.019297 0.16279 1.1171 8.1132e-39 295 319.5 0 0 0 0.27542 -0.11258 -0.95471 0.013084
-0.017332 0.16276 1.1169 7.9749e-39 296.5 319.5 0 0 0 0.26547 -0.11572 -0.95715 0.014791
-0.014728 0.16286 1.1176 7.2834e-39 298.5 319.5 0 0 0 0.24016 -0.12316 -0.96289 0.017395
-0.01146 0.16286 1.1176 6.4998e-39 301 319.5 0 0 0 0.20019 -0.15453 -0.96749 0.021127
0.035613 0.16352 1.1176 9.4961e-39 256 320 0 0 0 -0.10462 -0.067896 -0.99219 0.0019949
0.03692 0.16286 1.1176 8.3898e-39 338 319.5 0 0 0 -0.1098 -0.064642 -0.99185 0.0020167
0.038882 0.16286 1.1176 7.1221e-39 339.5 319.5 0 0 0 -0.12019 -0.059986 -0.99094 0.0024628
0.040843 0.16286 1.1176 8.7125e-39 342.5 319.5 0 0 0 -0.13576 -0.056847 -0.98911 0.003495
0.042785 0.16279 1.1171 1.0303e-38 344 319.5 0 0 0 -0.16272 -0.054226 -0.98518 0.0047414
0.044725 0.16272 1.1166 1.0142e-38 345.5 319.5 0 0 0 -0.19831 -0.047265 -0.979 0.0072413
0.046685 0.16272 1.1166 9.4502e-39 347 319.5 0 0 0 -0.22813 -0.040696 -0.97278 0.0092157
0.049298 0.16272 1.1166 8.9429e-39 349 319.5 0 0 0 -0.27991 -0.02825 -0.95961 0.011938
-0.023207 0.16533 1.1166 7.4218e-39 257.5 320.5 0 0 0 0.31408 -0.14284 -0.93859 0.013846
-0.021247 0.16533 1.1166 7.6061e-39 259 320.5 0 0 0 0.29446 -0.13247 -0.94644 0.012905
-0.019305 0.16483 1.1176 8.482e-39 341 320 0 0 0 0.27931 -0.11922 -0.95277 0.012368
-0.017116 0.16516 1.1169 7.4679e-39 289 320.33 0 0 0 0.26353 -0.11754 -0.95746 0.012152
-0.014728 0.16483 1.1176 6.8225e-39 344.5 320 0 0 0 0.23146 -0.12179 -0.96519 0.014597
-0.01146 0.16483 1.1176 7.9288e-39 347 320 0 0 0 0.1939 -0.15243 -0.96911 0.01927
0.030382 0.16483 1.1176 6.6381e-39 379 320 0 0 0 -0.081995 -0.0857 -0.99294 0.0028465
0.035613 0.16483 1.1176 6.9147e-39 383 320 0 0 0 -0.10164 -0.067202 -0.99255 0.001923
0.03692 0.16483 1.1176 6.7303e-39 384 320 0 0 0 -0.10619 -0.065213 -0.99221 0.001896
0.038882 0.16483 1.1176 6.3154e-39 385.5 320 0 0 0 -0.11796 -0.063761 -0.99097 0.0023449
0.040843 0.16483 1.1176 6.4537e-39 387 320 0 0 0 -0.13781 -0.062623 -0.98848 0.0032011
0.042765 0.16533 1.1166 7.3065e-39 308 320.5 0 0 0 -0.16472 -0.064632 -0.98422 0.0039916
0.044725 0.16533 1.1166 7.4218e-39 309.5 320.5 0 0 0 -0.18876 -0.062031 -0.98006 0.0054943
0.046685 0.16533 1.1166 7.2604e-39 311 320.5 0 0 0 -0.22266 -0.055364 -0.97332 0.0082026
0.048644 0.16533 1.1166 6.9607e-39 312.5 320.5 0 0 0 -0.25959 -0.048367 -0.96451 0.010154
-0.023207 0.16729 1.1166 7.1913e-39 308 321 0 0 0 0.31553 -0.1432 -0.93805 0.013442
-0.021247 0.16729 1.1166 8.1132e-39 309.5 321 0 0 0 0.30445 -0.13584 -0.94279 0.01202
-0.019305 0.16679 1.1176 7.0069e-39 245.5 321 0 0 0 0.28318 -0.12351 -0.95108 0.011633
-0.017556 0.16695 1.1173 7.1913e-39 268.67 321 0 0 0 0.26693 -0.12017 -0.95619 0.011878
-0.015382 0.16679 1.1176 7.2835e-39 248.5 321 0 0 0 0.2404 -0.12217 -0.96296 0.012139
-0.010806 0.16679 1.1176 8.5049e-39 252 321 0 0 0 0.17401 -0.15107 -0.97309 0.015255
0.030382 0.16679 1.1176 8.5742e-39 283.5 321 0 0 0 -0.070491 -0.091993 -0.99326 0.0028744
0.035177 0.167 1.1176 7.0376e-39 309 321 0 0 0 -0.095563 -0.074819 -0.99261 0.0017556
0.03692 0.16679 1.1176 7.3757e-39 288.5 321 0 0 0 -0.104 -0.07132 -0.99202 0.0019258
0.038882 0.16679 1.1176 7.4679e-39 290 321 0 0 0 -0.119 -0.071751 -0.9903 0.0022869
0.040843 0.16679 1.1176 7.514e-39 291.5 321 0 0 0 -0.14097 -0.074326 -0.98722 0.002863
0.042765 0.16729 1.1166 7.6522e-39 358.5 321 0 0 0 -0.16556 -0.081265 -0.98285 0.0038329
0.044725 0.16729 1.1166 7.3757e-39 360 321 0 0 0 -0.18521 -0.077462 -0.97964 0.0049497
0.046685 0.16729 1.1166 8.021e-39 361.5 321 0 0 0 -0.21126 -0.075181 -0.97453 0.0068156
0.049297 0.16729 1.1166 7.6061e-39 363.5 321 0 0 0 -0.27329 -0.070576 -0.95934 0.010227
-0.023207 0.16925 1.1166 7.0991e-39 213 322 0 0 0 0.32907 -0.15021 -0.93228 0.012489
-0.021247 0.16925 1.1166 6.9608e-39 214.5 322 0 0 0 0.30958 -0.14263 -0.94011 0.011677
-0.019297 0.16932 1.1171 6.9607e-39 216 322 0 0 0 0.28983 -0.14148 -0.94656 0.011243
-0.017332 0.16929 1.1169 7.1913e-39 217.5 322 0 0 0 0.26749 -0.13871 -0.95352 0.01121
-0.015375 0.16932 1.1171 6.7764e-39 219 322 0 0 0 0.23844 -0.13902 -0.96116 0.011003
-0.012767 0.16875 1.1176 6.3615e-39 152 322 0 0 0 0.19282 -0.13778 -0.97151 0.010496
-0.01102 0.16913 1.1173 7.1605e-39 199.33 322 0 0 0 0.16667 -0.14428 -0.9754 0.0096702
-0.0068831 0.16875 1.1176 6.3154e-39 156.5 322 0 0 0 0.1031 -0.17973 -0.9783 0.013848
-0.0036142 0.16875 1.1176 6.1771e-39 159 322 0 0 0 0.065346 -0.19482 -0.97866 0.013934
0.0029236 0.16875 1.1176 7.0069e-39 164 322 0 0 0 0.002727 -0.23113 -0.97292 0.015065
0.030382 0.16875 1.1176 6.8225e-39 186 322 0 0 0 -0.061668 -0.097448 -0.99333 0.0030483
0.032998 0.16875 1.1176 7.6522e-39 188 322 0 0 0 -0.076525 -0.087685 -0.9932 0.0024159
0.034959 0.16875 1.1176 8.021e-39 189.5 322 0 0 0 -0.092423 -0.082279 -0.99231 0.0019272
0.03692 0.16875 1.1176 8.482e-39 191 322 0 0 0 -0.10715 -0.083767 -0.99071 0.0021787
0.038882 0.16875 1.1176 8.5281e-39 192.5 322 0 0 0 -0.1218 -0.086661 -0.98876 0.0024692
0.040843 0.16875 1.1176 8.3898e-39 194 322 0 0 0 -0.14179 -0.090133 -0.98579 0.0028574
0.042765 0.16925 1.1166 8.8047e-39 264.5 322 0 0 0 -0.16715 -0.095749 -0.98127 0.0041644
0.044725 0.16925 1.1166 8.8969e-39 266 322 0 0 0 -0.18406 -0.098293 -0.97799 0.0050499
0.046685 0.16925 1.1166 8.5281e-39 267.5 322 0 0 0 -0.21627 -0.10012 -0.97119 0.0072197
0.049298 0.16925 1.1166 8.8508e-39 269.5 322 0 0 0 -0.27289 -0.099811 -0.95685 0.0096848
-0.023207 0.17121 1.1166 6.8225e-39 420 322 0 0 0 0.33951 -0.1638 -0.92623 0.012495
-0.021247 0.17121 1.1166 6.1771e-39 422.5 322 0 0 0 0.31353 -0.16107 -0.93582 0.011958
-0.019288 0.17121 1.1166 6.9147e-39 424 322 0 0 0 0.29383 -0.15633 -0.94299 0.01125
-0.017981 0.17121 1.1166 7.0991e-39 425 322 0 0 0 0.27583 -0.15997 -0.9478 0.011123
-0.014506 0.17088 1.1173 5.9005e-39 381.33 322 0 0 0 0.22106 -0.15303 -0.96318 0.010633
-0.012767 0.17071 1.1176 5.7622e-39 359.5 322 0 0 0 0.19287 -0.15686 -0.96861 0.010191
-0.010584 0.17088 1.1173 6.0542e-39 384.33 322 0 0 0 0.15715 -0.16609 -0.97351 0.0093795
-0.0088445 0.17071 1.1176 7.5601e-39 362.5 322 0 0 0 0.12197 -0.17323 -0.9773 0.0090096
-0.0071011 0.17049 1.1176 7.9288e-39 340.67 322 0 0 0 0.093513 -0.17612 -0.97992 0.0093542
-0.0049218 0.17136 1.1176 1.0787e-38 435 322 0 0 0 0.064632 -0.19491 -0.97869 0.0096513
-0.0036142 0.17071 1.1176 8.3898e-39 366.5 322 0 0 0 0.051287 -0.20096 -0.97826 0.010909
0.0029236 0.17071 1.1176 7.1913e-39 416 322 0 0 0 -0.0015879 -0.23334 -0.97239 0.013514
0.029075 0.17136 1.1176 6.2693e-39 158 323 0 0 0 -0.043825 -0.11989 -0.99182 0.004527
0.030382 0.17071 1.1176 8.3896e-39 241 322.5 0 0 0 -0.054639 -0.11067 -0.99235 0.0036571
0.032998 0.17071 1.1176 8.6662e-39 243 322.5 0 0 0 -0.072153 -0.10512 -0.99184 0.0031301
0.034959 0.17071 1.1176 7.975e-39 244.75 322.5 0 0 0 -0.093181 -0.10022 -0.99059 0.0025236
0.03692 0.17071 1.1176 7.8366e-39 247 322.5 0 0 0 -0.112 -0.10181 -0.98848 0.0025111
0.038882 0.17071 1.1176 8.7587e-39 248.5 322.5 0 0 0 -0.12604 -0.10534 -0.98642 0.0031041
0.040843 0.17071 1.1176 8.482e-39 250.5 322.5 0 0 0 -0.1428 -0.10917 -0.98371 0.0034938
0.042765 0.17121 1.1166 6.592e-39 170.5 323 0 0 0 -0.16739 -0.11959 -0.97861 0.0051107
0.044725 0.17121 1.1166 6.3615e-39 172 323 0 0 0 -0.19181 -0.1231 -0.97368 0.0064464
0.046685 0.17121 1.1166 6.5459e-39 173.5 323 0 0 0 -0.22118 -0.12749 -0.96686 0.0082239
0.049297 0.17121 1.1166 6.4998e-39 175.5 323 0 0 0 -0.27078 -0.13134 -0.95364 0.010159
-0.0219 0.17317 1.1166 8.5742e-39 330 323 0 0 0 0.32746 -0.18375 -0.92683 0.012913
-0.019288 0.17317 1.1166 8.4359e-39 332 323 0 0 0 0.29468 -0.17721 -0.93902 0.012009
-0.017981 0.17317 1.1166 8.5281e-39 333 323 0 0 0 0.27617 -0.17776 -0.94453 0.011825
-0.014721 0.17325 1.1171 8.2976e-39 335.5 323 0 0 0 0.222 -0.17392 -0.95941 0.010803
-0.012761 0.17325 1.1171 8.2976e-39 337 323 0 0 0 0.19139 -0.18115 -0.96465 0.0099612
-0.010796 0.17317 1.1166 7.8828e-39 338.5 323 0 0 0 0.1486 -0.1829 -0.97184 0.0087338
-0.0088445 0.17333 1.1176 7.8366e-39 340 323 0 0 0 0.11178 -0.18711 -0.97596 0.0083404
-0.0071011 0.17311 1.1176 8.1439e-39 318.33 323 0 0 0 0.085082 -0.19286 -0.97753 0.0088227
-0.0049218 0.17333 1.1176 8.2515e-39 343 323 0 0 0 0.055465 -0.21066 -0.97599 0.010354
-0.0036142 0.17333 1.1176 8.0671e-39 344 323 0 0 0 0.03793 -0.21724 -0.97538 0.011143
0.001616 0.17333 1.1176 8.482e-39 348.5 323 0 0 0 -0.00032107 -0.23394 -0.97225 0.012606
0.0029236 0.17333 1.1176 8.3898e-39 349.5 323 0 0 0 -0.0052365 -0.23754 -0.97136 0.012724
0.029075 0.17333 1.1176 8.021e-39 369.5 323 0 0 0 -0.03817 -0.1403 -0.98937 0.0057311
0.030818 0.17354 1.1176 4.702e-39 449.33 323 0 0 0 -0.054386 -0.13878 -0.98883 0.0053532
0.032983 0.17325 1.1171 5.9005e-39 414 323 0 0 0 -0.069976 -0.13806 -0.98795 0.0047374
0.034959 0.17333 1.1176 6.8685e-39 415.5 323 0 0 0 -0.090993 -0.13561 -0.98657 0.004397
0.036904 0.17325 1.1171 7.2374e-39 417 323 0 0 0 -0.10858 -0.13441 -0.98496 0.0042506
0.038873 0.17329 1.1173 7.2143e-39 418.5 323 0 0 0 -0.13068 -0.13302 -0.98246 0.004586
0.040824 0.17325 1.1171 7.4679e-39 420 323 0 0 0 -0.14662 -0.13423 -0.98004 0.005024
0.042765 0.17317 1.1166 7.5831e-39 323.5 323.25 0 0 0 -0.17098 -0.138 -0.97556 0.0060244
0.044725 0.17317 1.1166 7.1913e-39 227 323.5 0 0 0 -0.19472 -0.14484 -0.97011 0.0075013
0.046685 0.17317 1.1166 7.1913e-39 228.5 323.5 0 0 0 -0.22494 -0.15089 -0.96262 0.0092174
0.049298 0.17317 1.1166 7.9288e-39 230.5 323.5 0 0 0 -0.27187 -0.15297 -0.9501 0.010523
-0.0219 0.17513 1.1166 7.6522e-39 234 324 0 0 0 0.33206 -0.22048 -0.91713 0.01333
-0.017328 0.17513 1.1166 7.2374e-39 237.5 324 0 0 0 0.27165 -0.2063 -0.94002 0.013138
-0.014721 0.17521 1.1171 7.6983e-39 239.5 324 0 0 0 0.21936 -0.19792 -0.95536 0.012014
-0.012767 0.17529 1.1176 7.6522e-39 241 324 0 0 0 0.17897 -0.1956 -0.96422 0.010562
-0.010796 0.17513 1.1166 8.1132e-39 242.5 324 0 0 0 0.14977 -0.19223 -0.96985 0.0095912
-0.0088445 0.17529 1.1176 7.0069e-39 246 324 0 0 0 0.10654 -0.19372 -0.97525 0.008995
-0.0075369 0.17529 1.1176 7.1913e-39 247 324 0 0 0 0.081891 -0.20393 -0.97555 0.010106
-0.0049218 0.17529 1.1176 7.8366e-39 249 324 0 0 0 0.045264 -0.21458 -0.97566 0.011254
-0.0036142 0.17529 1.1176 7.7444e-39 250 324 0 0 0 0.030264 -0.22091 -0.97482 0.012163
0.001616 0.17529 1.1176 7.56e-39 254 324 0 0 0 -0.0043075 -0.23418 -0.97218 0.012393
0.0029236 0.17529 1.1176 7.6522e-39 255 324 0 0 0 -0.011403 -0.24011 -0.97068 0.012549
0.0042311 0.17529 1.1176 8.3898e-39 256 324 0 0 0 -0.01207 -0.23578 -0.97173 0.012154
0.0094614 0.17529 1.1176 9.4961e-39 260 324 0 0 0 -0.0030255 -0.22346 -0.97471 0.013137
0.010769 0.17529 1.1176 9.6805e-39 261 324 0 0 0 0.00077872 -0.22361 -0.97468 0.012907
0.014692 0.17529 1.1176 9.5883e-39 264 324 0 0 0 0.01457 -0.21359 -0.97682 0.012956
0.021229 0.17529 1.1176 9.404e-39 269 324 0 0 0 0.02461 -0.19321 -0.98085 0.011684
0.029075 0.17529 1.1176 8.8508e-39 275 324 0 0 0 -0.034839 -0.15813 -0.9868 0.0069832
0.031036 0.17529 1.1176 8.5281e-39 276.5 324 0 0 0 -0.055761 -0.15479 -0.98637 0.0061015
0.032968 0.17513 1.1166 8.2054e-39 278 324 0 0 0 -0.069863 -0.15231 -0.98586 0.0058368
0.034959 0.17529 1.1176 8.4359e-39 279.5 324 0 0 0 -0.090336 -0.14733 -0.98495 0.0051474
0.036887 0.17513 1.1166 8.7586e-39 281 324 0 0 0 -0.10748 -0.1447 -0.98362 0.0050647
0.038864 0.17521 1.1171 9.2196e-39 282.5 324 0 0 0 -0.12951 -0.14413 -0.98105 0.0052684
0.040806 0.17513 1.1166 8.2976e-39 284 324 0 0 0 -0.15353 -0.15086 -0.97656 0.0063186
0.042765 0.17513 1.1166 7.8827e-39 285.5 324 0 0 0 -0.18215 -0.16047 -0.97009 0.0078363
0.044725 0.17513 1.1166 7.6522e-39 287 324 0 0 0 -0.20268 -0.16318 -0.96555 0.0088714
0.046685 0.17513 1.1166 7.6983e-39 288.5 324 0 0 0 -0.2291 -0.16695 -0.95898 0.01003
0.049297 0.17513 1.1166 8.482e-39 290.5 324 0 0 0 -0.27214 -0.1706 -0.94701 0.011223
-0.0219 0.17709 1.1166 8.1132e-39 289.5 324.5 0 0 0 0.34323 -0.25684 -0.90345 0.014029
-0.017328 0.17709 1.1166 8.1823e-39 293 324.5 0 0 0 0.27721 -0.23912 -0.93058 0.014777
-0.014718 0.17713 1.1169 8.3667e-39 295 324.5 0 0 0 0.22462 -0.22951 -0.94703 0.014246
-0.012756 0.17709 1.1166 8.2054e-39 296.5 324.5 0 0 0 0.1939 -0.2248 -0.95492 0.013493
-0.010796 0.17709 1.1166 7.9749e-39 298 324.5 0 0 0 0.14971 -0.21452 -0.96518 0.011901
-0.0088405 0.17717 1.1171 7.9288e-39 299.5 324.5 0 0 0 0.10699 -0.21413 -0.97093 0.011766
-0.0075335 0.17717 1.1171 7.8827e-39 300.5 324.5 0 0 0 0.080405 -0.21264 -0.97382 0.012071
-0.0049218 0.17725 1.1176 8.2054e-39 302.5 324.5 0 0 0 0.039418 -0.22434 -0.97371 0.013207
-0.0036126 0.17717 1.1171 8.2976e-39 303.5 324.5 0 0 0 0.028607 -0.22583 -0.97375 0.013617
0.00096223 0.17725 1.1176 7.8366e-39 307 324.5 0 0 0 -0.0086708 -0.23828 -0.97116 0.013375
0.0029236 0.17725 1.1176 7.9749e-39 308.5 324.5 0 0 0 -0.013538 -0.24227 -0.97011 0.013224
0.004667 0.17747 1.1176 8.1747e-39 281 324.67 0 0 0 -0.011772 -0.24337 -0.96986 0.013258
0.0068463 0.1779 1.1176 8.3898e-39 225 325 0 0 0 -0.0029903 -0.24167 -0.97035 0.013576
0.0085897 0.17703 1.1176 7.9288e-39 341.67 324.33 0 0 0 0.0012869 -0.23438 -0.97215 0.013813
0.010769 0.1766 1.1176 7.56e-39 401 324 0 0 0 0.0018656 -0.22326 -0.97476 0.013558
0.012509 0.17741 1.1173 7.683e-39 287 324.67 0 0 0 0.011533 -0.22701 -0.97383 0.013929
0.015554 0.17693 1.1169 7.56e-39 347 324.33 0 0 0 0.019514 -0.21922 -0.97548 0.013884
0.017299 0.17717 1.1171 7.7444e-39 319.5 324.5 0 0 0 0.022354 -0.21997 -0.97525 0.014106
0.019268 0.1779 1.1176 8.1593e-39 234.5 325 0 0 0 0.035341 -0.2209 -0.97466 0.013409
0.021229 0.17725 1.1176 7.514e-39 322.5 324.5 0 0 0 0.028332 -0.21081 -0.97712 0.012312
0.023191 0.1779 1.1176 7.0069e-39 237.5 325 0 0 0 0.023352 -0.21237 -0.97691 0.012276
0.029075 0.17725 1.1176 7.6061e-39 328.5 324.5 0 0 0 -0.02814 -0.18011 -0.98324 0.0086148
0.030818 0.17747 1.1176 7.9288e-39 301 324.67 0 0 0 -0.049388 -0.173 -0.98368 0.0075171
0.032968 0.17709 1.1166 7.8366e-39 331.5 324.5 0 0 0 -0.067264 -0.16933 -0.98326 0.0073237
0.034951 0.17721 1.1173 7.514e-39 333 324.5 0 0 0 -0.085238 -0.16381 -0.9828 0.0065352
0.036887 0.17709 1.1166 7.4679e-39 334.5 324.5 0 0 0 -0.10936 -0.15911 -0.98118 0.0061352
0.038847 0.17709 1.1166 7.7214e-39 336 324.5 0 0 0 -0.13366 -0.16148 -0.97778 0.0065534
0.040824 0.17717 1.1171 8.3437e-39 337.5 324.5 0 0 0 -0.15931 -0.16987 -0.9725 0.007684
0.042765 0.17709 1.1166 8.2976e-39 339 324.5 0 0 0 -0.18437 -0.17381 -0.96737 0.0088056
0.044725 0.17709 1.1166 7.5601e-39 340.5 324.5 0 0 0 -0.2046 -0.17688 -0.96273 0.0098028
0.046685 0.17709 1.1166 7.1913e-39 342 324.5 0 0 0 -0.23569 -0.18371 -0.95431 0.010826
0.049298 0.17709 1.1166 7.4217e-39 344 324.5 0 0 0 -0.27398 -0.1918 -0.94242 0.011849
0.051257 0.17709 1.1166 7.6061e-39 345.5 324.5 0 0 0 -0.30708 -0.19624 -0.93123 0.011905
-0.017981 0.17905 1.1166 7.7444e-39 351 325 0 0 0 0.28993 -0.27044 -0.91805 0.0153
-0.014062 0.17905 1.1166 8.1132e-39 354 325 0 0 0 0.22593 -0.25372 -0.94052 0.015537
-0.012756 0.17905 1.1166 8.6664e-39 355 325 0 0 0 0.19381 -0.25264 -0.94795 0.015209
-0.010143 0.17905 1.1166 8.943e-39 357 325 0 0 0 0.13871 -0.24499 -0.95955 0.01488
-0.0088365 0.17905 1.1166 8.6664e-39 358 325 0 0 0 0.1026 -0.24879 -0.96311 0.015836
-0.0075301 0.17905 1.1166 7.8366e-39 359 325 0 0 0 0.075447 -0.2467 -0.96615 0.016132
-0.0049218 0.17921 1.1176 8.2054e-39 361 325 0 0 0 0.034012 -0.24903 -0.9679 0.01546
-0.0029589 0.17913 1.1171 7.7444e-39 362.5 325 0 0 0 0.014554 -0.25247 -0.96749 0.015408
0.00096223 0.17921 1.1176 7.8366e-39 365.5 325 0 0 0 -0.011493 -0.25624 -0.96654 0.014624
0.0029209 0.17905 1.1166 8.7586e-39 367 325 0 0 0 -0.017168 -0.25623 -0.96646 0.013884
0.004883 0.17913 1.1171 8.2976e-39 368.5 325 0 0 0 -0.011113 -0.25555 -0.96673 0.013747
0.0068401 0.17905 1.1166 7.2835e-39 370 325 0 0 0 -0.00065609 -0.25028 -0.96817 0.013998
0.0081465 0.17905 1.1166 7.0991e-39 371 325 0 0 0 0.0051349 -0.25041 -0.96813 0.014026
0.012719 0.17905 1.1166 7.9749e-39 374.5 325 0 0 0 0.017496 -0.24524 -0.96931 0.014695
0.015985 0.17905 1.1166 8.2054e-39 377 325 0 0 0 0.022493 -0.23624 -0.97143 0.014395
0.017291 0.17905 1.1166 8.482e-39 378 325 0 0 0 0.027314 -0.23408 -0.97183 0.01464
0.01926 0.17913 1.1171 7.9288e-39 379.5 325 0 0 0 0.04046 -0.23816 -0.97038 0.013917
0.02121 0.17905 1.1166 8.3898e-39 381 325 0 0 0 0.037783 -0.23319 -0.9717 0.013554
0.023191 0.17921 1.1176 8.4359e-39 382.5 325 0 0 0 0.028837 -0.22629 -0.97363 0.012907
0.025152 0.17921 1.1176 7.6522e-39 384 325 0 0 0 0.019416 -0.22181 -0.9749 0.012422
0.027767 0.17921 1.1176 7.3757e-39 386 325 0 0 0 -0.0061232 -0.2044 -0.97887 0.010111
0.029075 0.17921 1.1176 7.4678e-39 387 325 0 0 0 -0.02527 -0.19707 -0.98006 0.009529
0.031036 0.17921 1.1176 8.021e-39 388.5 325 0 0 0 -0.052875 -0.18781 -0.98078 0.008225
0.032968 0.17905 1.1166 8.2976e-39 390 325 0 0 0 -0.065255 -0.18185 -0.98116 0.0077765
0.034928 0.17905 1.1166 7.4679e-39 391.5 325 0 0 0 -0.083311 -0.18234 -0.9797 0.0076286
0.036887 0.17905 1.1166 7.1913e-39 393 325 0 0 0 -0.10631 -0.17794 -0.97828 0.007466
0.038847 0.17905 1.1166 7.514e-39 394.5 325 0 0 0 -0.13919 -0.18154 -0.97348 0.0080375
0.040806 0.17905 1.1166 8.6664e-39 396 325 0 0 0 -0.16467 -0.18788 -0.96829 0.0089917
0.043419 0.17905 1.1166 8.6664e-39 398 325 0 0 0 -0.19581 -0.18938 -0.96218 0.0098403
0.044725 0.17905 1.1166 8.1132e-39 399 325 0 0 0 -0.21061 -0.1956 -0.9578 0.010558
0.046685 0.17905 1.1166 7.6061e-39 400.5 325 0 0 0 -0.23703 -0.20285 -0.95009 0.01141
0.049297 0.17905 1.1166 7.6983e-39 402.5 325 0 0 0 -0.28078 -0.21224 -0.93601 0.012246
0.051257 0.17905 1.1166 7.6522e-39 404 325 0 0 0 -0.30932 -0.21919 -0.92535 0.012057
-0.014062 0.18035 1.1166 7.0991e-39 172 326 0 0 0 0.22717 -0.2763 -0.93384 0.016227
-0.012756 0.18101 1.1166 7.8827e-39 239.5 326 0 0 0 0.19749 -0.28246 -0.93873 0.016434
-0.0088365 0.18101 1.1166 7.6061e-39 242.5 326 0 0 0 0.097628 -0.28566 -0.95335 0.018251
-0.0075301 0.18101 1.1166 7.7444e-39 243.5 326 0 0 0 0.07416 -0.28863 -0.95456 0.018717
-0.0049218 0.18117 1.1176 7.514e-39 245.5 326 0 0 0 0.029152 -0.2804 -0.95944 0.018
-0.0029589 0.18109 1.1171 7.8597e-39 247 326 0 0 0 0.0077037 -0.28071 -0.95976 0.016658
0.00096188 0.18113 1.1173 8.8737e-39 253.75 326 0 0 0 -0.016531 -0.28632 -0.95799 0.015074
0.0029209 0.18101 1.1166 8.897e-39 259 326 0 0 0 -0.017776 -0.2815 -0.9594 0.014571
0.0048805 0.18101 1.1166 8.5741e-39 260.5 326 0 0 0 -0.013175 -0.27754 -0.96062 0.014124
0.019251 0.18035 1.1166 8.5742e-39 197.5 326 0 0 0 0.042729 -0.24886 -0.9676 0.013811
0.02121 0.18101 1.1166 8.6203e-39 273 326 0 0 0 0.043592 -0.25728 -0.96535 0.013671
0.023181 0.18109 1.1171 8.1362e-39 274.5 326 0 0 0 0.031453 -0.24918 -0.96795 0.013098
0.025152 0.18117 1.1176 7.9749e-39 276 326 0 0 0 0.026826 -0.24362 -0.9695 0.01274
0.027331 0.18139 1.1176 8.6357e-39 302.33 326 0 0 0 0.0062792 -0.22994 -0.97318 0.011407
0.029049 0.18101 1.1166 8.6203e-39 279 326 0 0 0 -0.019441 -0.21649 -0.97609 0.010632
0.031036 0.18117 1.1176 8.5281e-39 280.5 326 0 0 0 -0.047078 -0.20998 -0.97657 0.0097951
0.032968 0.18101 1.1166 8.5281e-39 282 326 0 0 0 -0.063128 -0.20635 -0.97644 0.0091587
0.034928 0.18101 1.1166 8.4359e-39 283.5 326 0 0 0 -0.085473 -0.202 -0.97565 0.0085145
0.03692 0.18117 1.1176 8.1593e-39 285 326 0 0 0 -0.10532 -0.20351 -0.97339 0.0084593
0.038847 0.18101 1.1166 8.1132e-39 286.5 326 0 0 0 -0.14138 -0.20696 -0.96808 0.0092132
0.040806 0.18101 1.1166 7.9749e-39 288 326 0 0 0 -0.16692 -0.20802 -0.96378 0.0097964
0.043419 0.18101 1.1166 7.6061e-39 290 326 0 0 0 -0.1984 -0.21555 -0.95613 0.010817
0.044725 0.18101 1.1166 7.8827e-39 291 326 0 0 0 -0.21068 -0.21512 -0.95359 0.010976
-0.012756 0.18297 1.1166 4.3332e-39 520 326 0 0 0 0.20418 -0.31053 -0.92837 0.017144
-0.0088365 0.18297 1.1166 5.4395e-39 523 326 0 0 0 0.11008 -0.31287 -0.94339 0.01939
-0.0075301 0.18297 1.1166 5.6239e-39 524 326 0 0 0 0.069416 -0.32054 -0.94469 0.02039
-0.0049218 0.18313 1.1176 6.2693e-39 526 326 0 0 0 0.026496 -0.31129 -0.94995 0.019892
-0.0029589 0.18305 1.1171 6.9147e-39 527.5 326 0 0 0 0.0040135 -0.31648 -0.94859 0.018348
0.00096153 0.18305 1.1171 7.8827e-39 530.5 326 0 0 0 -0.022847 -0.31076 -0.95022 0.015655
0.02317 0.18297 1.1166 6.592e-39 151.5 327 0 0 0 0.045641 -0.28067 -0.95872 0.014068
0.025152 0.18313 1.1176 6.2693e-39 153 327 0 0 0 0.03422 -0.26562 -0.96347 0.013042
0.027114 0.18313 1.1176 6.0388e-39 154.5 327 0 0 0 0.018294 -0.25381 -0.96708 0.012549
0.029049 0.18297 1.1166 5.9005e-39 156 327 0 0 0 -0.0099286 -0.24119 -0.97043 0.012561
0.031036 0.18313 1.1176 5.9927e-39 157.5 327 0 0 0 -0.039265 -0.22772 -0.97293 0.010737
0.032968 0.18297 1.1166 6.3615e-39 159 327 0 0 0 -0.060597 -0.22129 -0.97332 0.0096693
0.034928 0.18297 1.1166 7.0069e-39 160.5 327 0 0 0 -0.085323 -0.22223 -0.97125 0.0096724
0.036887 0.18297 1.1166 6.7303e-39 162 327 0 0 0 -0.10972 -0.22444 -0.96829 0.0097956
0.040806 0.18297 1.1166 5.9927e-39 165 327 0 0 0 -0.16432 -0.23179 -0.95879 0.010274
-0.012756 0.18427 1.1166 7.7444e-39 258 327 0 0 0 0.20274 -0.32244 -0.92462 0.016668
-0.0088365 0.18492 1.1166 9.0812e-39 337 327 0 0 0 0.10761 -0.34955 -0.93072 0.021204
-0.0075301 0.18492 1.1166 8.6203e-39 338 327 0 0 0 0.068689 -0.35146 -0.93368 0.022105
-0.0049196 0.18501 1.1171 8.8508e-39 340 327 0 0 0 0.022427 -0.34837 -0.93709 0.022096
-0.0029583 0.18497 1.1169 9.1965e-39 341.5 327 0 0 0 -0.0021134 -0.34557 -0.93839 0.019992
-0.00099911 0.18575 1.1176 9.2196e-39 419 327 0 0 0 -0.027405 -0.34511 -0.93816 0.018107
0.00030818 0.18492 1.1166 9.1735e-39 344 327 0 0 0 -0.023762 -0.34207 -0.93938 0.01662
0.023823 0.18492 1.1166 8.3898e-39 356 327 0 0 0 0.05211 -0.30112 -0.95216 0.014448
0.025129 0.18492 1.1166 8.7125e-39 357 327 0 0 0 0.046721 -0.28951 -0.95603 0.01377
0.027089 0.18493 1.1166 8.9891e-39 358.5 327 0 0 0 0.035196 -0.27765 -0.96004 0.014213
0.029049 0.18492 1.1166 8.5281e-39 360 327 0 0 0 -0.0030339 -0.25986 -0.96564 0.013486
0.031015 0.18497 1.1169 7.1912e-39 361.5 327 0 0 0 -0.0371 -0.24972 -0.96761 0.011677
0.034274 0.18492 1.1166 6.2693e-39 364 327 0 0 0 -0.07489 -0.24861 -0.9657 0.010989
0.036887 0.18492 1.1166 6.4537e-39 366 327 0 0 0 -0.11099 -0.24638 -0.9628 0.010349
-0.0062294 0.18706 1.1176 8.6664e-39 209 328 0 0 0 0.034507 -0.39133 -0.9196 0.024022
-0.00099821 0.18689 1.1166 8.7586e-39 213 328 0 0 0 -0.025692 -0.38224 -0.92371 0.019429
0.025129 0.18689 1.1166 8.2976e-39 230 328 0 0 0 0.059696 -0.30715 -0.94979 0.014511
0.027089 0.18689 1.1166 8.7125e-39 231.5 328 0 0 0 0.04596 -0.29621 -0.95402 0.015083
0.029049 0.18689 1.1166 8.2976e-39 233 328 0 0 0 -0.0012553 -0.28365 -0.95893 0.015136
0.031008 0.18689 1.1166 7.4679e-39 234.5 328 0 0 0 -0.034712 -0.27211 -0.96164 0.013199
0.026436 0.18819 1.1166 9.404e-39 397 328 0 0 0 0.05554 -0.30795 -0.94978 0.015416
0.029049 0.18819 1.1166 8.021e-39 399 328 0 0 0 -0.002039 -0.29214 -0.95637 0.01541
0.031008 0.18819 1.1166 7.9288e-39 400.5 328 0 0 0 -0.032098 -0.28043 -0.95934 0.01401
0.025198 0.14941 1.1196 7.1913e-39 418 314 0 0 0 -0.11956 -0.16476 -0.97906 0.013775
0.04088 0.14927 1.1186 6.1771e-39 419 314 0 0 0 -0.12637 -0.074769 -0.98916 0.0045306
0.043497 0.14927 1.1186 4.6098e-39 420 314 0 0 0 -0.16352 -0.05524 -0.98499 0.0081919
0.025175 0.15123 1.1186 8.1132e-39 362 315.5 0 0 0 -0.11408 -0.14555 -0.98275 0.012163
0.026937 0.15111 1.1193 7.5293e-39 375.33 315.33 0 0 0 -0.10897 -0.12302 -0.9864 0.0085386
0.029114 0.1513 1.1191 8.482e-39 369.5 315.5 0 0 0 -0.1035 -0.11192 -0.98831 0.0065265
0.030856 0.15106 1.1189 7.8674e-39 384 315.33 0 0 0 -0.098018 -0.10067 -0.99008 0.0049887
0.033057 0.15072 1.1196 7.4678e-39 412 315 0 0 0 -0.102 -0.094595 -0.99028 0.0043876
0.034991 0.15123 1.1186 7.998e-39 374 315.5 0 0 0 -0.10805 -0.091473 -0.98993 0.0040146
0.036954 0.15123 1.1186 7.8366e-39 375.5 315.5 0 0 0 -0.11348 -0.090976 -0.98937 0.0039741
0.039135 0.15145 1.1186 7.7137e-39 368.67 315.67 0 0 0 -0.11755 -0.082433 -0.98964 0.0034782
0.04088 0.15123 1.1186 7.099e-39 385.5 315.5 0 0 0 -0.13745 -0.067424 -0.98821 0.0051739
0.042189 0.15123 1.1186 6.5459e-39 386.5 315.5 0 0 0 -0.15538 -0.06076 -0.98598 0.0071442
-0.01672 0.15334 1.1196 7.9288e-39 363 316 0 0 0 0.31259 -0.16103 -0.93614 0.029679
-0.015396 0.1532 1.1186 7.2835e-39 364 316 0 0 0 0.30294 -0.17719 -0.93639 0.0309
0.021268 0.15334 1.1196 8.2054e-39 389 316 0 0 0 -0.10562 -0.15533 -0.9822 0.012664
0.023888 0.15269 1.1196 8.3898e-39 358.5 316 0 0 0 -0.10601 -0.14415 -0.98386 0.011248
0.025175 0.1532 1.1186 6.9147e-39 392 316 0 0 0 -0.10861 -0.13228 -0.98524 0.010827
0.027373 0.15286 1.1193 7.9288e-39 372 316 0 0 0 -0.10687 -0.11548 -0.98754 0.0077735
0.029128 0.15334 1.1196 7.0069e-39 395 316 0 0 0 -0.1002 -0.10407 -0.98951 0.0061057
0.031301 0.15286 1.1193 7.5908e-39 375 316 0 0 0 -0.099433 -0.092236 -0.99076 0.0046422
0.033057 0.15269 1.1196 8.1132e-39 365.5 316 0 0 0 -0.10215 -0.088333 -0.99084 0.0040169
0.035007 0.15327 1.1191 7.053e-39 399.5 316 0 0 0 -0.10797 -0.08802 -0.99025 0.003755
0.036954 0.1532 1.1186 6.6381e-39 401 316 0 0 0 -0.11571 -0.086803 -0.98948 0.0037261
0.038934 0.15327 1.1191 6.4076e-39 402.5 316 0 0 0 -0.1212 -0.078293 -0.98954 0.0035964
0.04088 0.1532 1.1186 6.8225e-39 404 316 0 0 0 -0.14037 -0.065338 -0.98794 0.0050302
0.042862 0.15327 1.1191 7.4679e-39 405.5 316 0 0 0 -0.16221 -0.052555 -0.98536 0.0070977
0.047424 0.1532 1.1186 7.56e-39 409 316 0 0 0 -0.23523 -0.0478 -0.97076 0.010368
-0.045497 0.15451 1.1186 6.0849e-39 416 316 0 0 0 0.29786 -0.45602 -0.83865 0.04472
-0.016705 0.15451 1.1186 6.3615e-39 232 317 0 0 0 0.30201 -0.1446 -0.94227 0.02717
-0.014094 0.15523 1.1191 8.2055e-39 281 317 0 0 0 0.27764 -0.18952 -0.94181 0.034579
-0.01148 0.15596 1.1196 9.2196e-39 330 317 0 0 0 0.25405 -0.26553 -0.93003 0.043842
0.016683 0.15596 1.1196 7.6983e-39 356.5 317 0 0 0 -0.099634 -0.20157 -0.97439 0.022709
0.019958 0.1553 1.1196 8.0211e-39 311 317 0 0 0 -0.10426 -0.16027 -0.98155 0.014986
0.021268 0.1553 1.1196 7.6983e-39 312 317 0 0 0 -0.098641 -0.14387 -0.98467 0.011723
0.023227 0.15527 1.1194 7.9749e-39 313.5 317 0 0 0 -0.098866 -0.12982 -0.9866 0.010201
0.025175 0.15582 1.1186 7.7444e-39 363 317 0 0 0 -0.09666 -0.11159 -0.98904 0.0071246
0.027157 0.15527 1.1194 7.9519e-39 316.5 317 0 0 0 -0.10219 -0.10512 -0.9892 0.0068532
0.029128 0.1553 1.1196 8.2054e-39 318 317 0 0 0 -0.098877 -0.097989 -0.99026 0.0055569
0.031078 0.15523 1.1191 8.1133e-39 319.5 317 0 0 0 -0.095231 -0.084346 -0.99188 0.0038764
0.033057 0.1553 1.1196 7.7444e-39 321 317 0 0 0 -0.10094 -0.083644 -0.99137 0.0036415
0.035014 0.15527 1.1194 7.3987e-39 322.5 317 0 0 0 -0.10821 -0.083757 -0.99059 0.0034216
0.036987 0.1553 1.1196 7.514e-39 324 317 0 0 0 -0.11564 -0.082502 -0.98986 0.0033573
0.038934 0.15523 1.1191 7.4679e-39 325.5 317 0 0 0 -0.12467 -0.073638 -0.98946 0.0035822
0.040917 0.1553 1.1196 7.1452e-39 327 317 0 0 0 -0.13895 -0.060907 -0.98843 0.0046342
0.042862 0.15523 1.1191 7.2374e-39 328.75 317 0 0 0 -0.16156 -0.050143 -0.98559 0.0065124
0.044806 0.15517 1.1186 7.1913e-39 331 317 0 0 0 -0.18969 -0.04858 -0.98064 0.0084698
0.047424 0.15451 1.1186 7.9288e-39 286 317 0 0 0 -0.23752 -0.038874 -0.97061 0.01053
-0.014088 0.15712 1.1186 5.7161e-39 158 318 0 0 0 0.26474 -0.16714 -0.94972 0.031104
-0.01279 0.15727 1.1196 5.6239e-39 159 318 0 0 0 0.26808 -0.22437 -0.9369 0.040481
-0.01147 0.15712 1.1186 5.7161e-39 160 318 0 0 0 0.24608 -0.24418 -0.93799 0.041475
0.012098 0.15727 1.1196 7.8366e-39 199 318 0 0 0 -0.093852 -0.26714 -0.95908 0.030393
0.014718 0.15727 1.1196 8.1132e-39 201 318 0 0 0 -0.097254 -0.22317 -0.96992 0.024859
0.016683 0.15727 1.1196 8.1593e-39 202.5 318 0 0 0 -0.085855 -0.18794 -0.97842 0.018876
0.019303 0.15727 1.1196 8.8047e-39 204.5 318 0 0 0 -0.09479 -0.15923 -0.98268 0.014362
0.021268 0.15727 1.1196 8.3898e-39 206 318 0 0 0 -0.09291 -0.13804 -0.98606 0.010735
0.023233 0.15727 1.1196 8.1132e-39 207.5 318 0 0 0 -0.095185 -0.12386 -0.98772 0.0093538
0.025175 0.15712 1.1186 8.021e-39 209 318 0 0 0 -0.095463 -0.10831 -0.98952 0.0067176
0.027163 0.15727 1.1196 7.8827e-39 210.5 318 0 0 0 -0.099516 -0.10175 -0.98982 0.0062547
0.029128 0.15727 1.1196 7.9288e-39 212 318 0 0 0 -0.093981 -0.089586 -0.99153 0.0044277
0.031078 0.1572 1.1191 5.9927e-39 218.5 318 0 0 0 -0.094586 -0.081407 -0.99218 0.0034923
0.033057 0.15727 1.1196 5.9005e-39 220 318 0 0 0 -0.10139 -0.080937 -0.99155 0.0033274
0.035022 0.15727 1.1196 6.4998e-39 221.5 318 0 0 0 -0.10967 -0.079218 -0.99081 0.0031406
0.036954 0.15712 1.1186 6.7303e-39 223 318 0 0 0 -0.11838 -0.075035 -0.99013 0.0028955
0.038916 0.15712 1.1186 6.1771e-39 224.5 318 0 0 0 -0.12257 -0.067684 -0.99015 0.0031931
0.04088 0.15712 1.1186 6.4537e-39 226 318 0 0 0 -0.13931 -0.060072 -0.98842 0.0043844
0.042843 0.15712 1.1186 7.1452e-39 227.5 318 0 0 0 -0.1624 -0.048842 -0.98551 0.0060759
-0.014088 0.15843 1.1186 6.9147e-39 292 318 0 0 0 0.25732 -0.15694 -0.9535 0.029125
-0.012784 0.15916 1.1191 6.6381e-39 353.5 318 0 0 0 0.24309 -0.18343 -0.9525 0.031584
-0.0106 0.15892 1.1189 6.5152e-39 335 318 0 0 0 0.22084 -0.2363 -0.94625 0.039498
-0.0088605 0.15924 1.1196 7.1913e-39 356.5 318 0 0 0 0.2039 -0.27271 -0.94024 0.047023
-0.0068957 0.15924 1.1196 7.7214e-39 358 318 0 0 0 0.17039 -0.2975 -0.93939 0.048321
-0.0049307 0.15989 1.1196 5.4395e-39 420 318 0 0 0 0.13236 -0.29216 -0.94717 0.045649
-0.0029659 0.15989 1.1196 3.78e-39 421.5 318 0 0 0 0.093189 -0.31921 -0.94309 0.047148
-0.0010004 0.15916 1.1191 6.0849e-39 362.5 318 0 0 0 0.070071 -0.34049 -0.93764 0.048362
0.00096401 0.15989 1.1196 1.2908e-38 426.5 318 0 0 0 0.044199 -0.33496 -0.94119 0.048175
0.0029289 0.15989 1.1196 1.1893e-38 428 318 0 0 0 0.01159 -0.32153 -0.94683 0.042769
0.0048938 0.15989 1.1196 8.5742e-39 287 318.5 0 0 0 -0.011487 -0.31975 -0.94743 0.040701
0.0068587 0.15989 1.1196 6.0849e-39 146 319 0 0 0 -0.042184 -0.30985 -0.94985 0.037472
0.0090419 0.15945 1.1196 6.3922e-39 201.67 318.67 0 0 0 -0.068721 -0.29174 -0.95403 0.034382
0.010789 0.15924 1.1196 6.4076e-39 230 318.5 0 0 0 -0.06897 -0.24443 -0.96721 0.025361
0.01275 0.1592 1.1193 6.3384e-39 231.5 318.5 0 0 0 -0.082503 -0.23383 -0.96877 0.024654
0.014718 0.15924 1.1196 6.4998e-39 233 318.5 0 0 0 -0.07693 -0.20923 -0.97484 0.020858
0.01668 0.1592 1.1193 7.1913e-39 234.5 318.5 0 0 0 -0.073422 -0.17546 -0.98175 0.014599
0.019303 0.15924 1.1196 7.998e-39 236.5 318.5 0 0 0 -0.08639 -0.15688 -0.98383 0.01309
0.021268 0.15924 1.1196 7.4679e-39 238 318.5 0 0 0 -0.088398 -0.13825 -0.98644 0.0099525
0.023227 0.1592 1.1194 7.1452e-39 239.5 318.5 0 0 0 -0.083555 -0.11283 -0.99009 0.0067224
0.025175 0.15909 1.1186 7.1452e-39 241 318.5 0 0 0 -0.091862 -0.1067 -0.99004 0.0062469
0.027157 0.1592 1.1193 7.7675e-39 242.5 318.5 0 0 0 -0.093444 -0.093186 -0.99125 0.0047035
0.029114 0.15916 1.1191 8.2976e-39 244 318.5 0 0 0 -0.090951 -0.08633 -0.99211 0.003825
0.031071 0.15912 1.1188 7.6983e-39 245.5 318.5 0 0 0 -0.094442 -0.080276 -0.99229 0.0032236
0.033042 0.15916 1.1191 7.514e-39 247 318.5 0 0 0 -0.10087 -0.078642 -0.99179 0.0030422
0.034991 0.15909 1.1186 7.7905e-39 248.5 318.5 0 0 0 -0.10969 -0.077037 -0.99098 0.0028731
0.036954 0.15843 1.1186 1.0234e-38 331 318 0 0 0 -0.11799 -0.073145 -0.99032 0.0027971
0.039571 0.15843 1.1186 9.3118e-39 333 318 0 0 0 -0.12544 -0.066111 -0.9899 0.0031914
0.04088 0.15843 1.1186 8.7586e-39 334 318 0 0 0 -0.13942 -0.057698 -0.98855 0.0042282
0.042189 0.15843 1.1186 8.3898e-39 335 318 0 0 0 -0.15315 -0.054039 -0.98672 0.0051562
-0.012779 0.16105 1.1186 9.0352e-39 256 319 0 0 0 0.22593 -0.15604 -0.96157 0.026562
-0.010161 0.16105 1.1186 8.7586e-39 258 319 0 0 0 0.19437 -0.19053 -0.96225 0.029415
-0.0088525 0.16105 1.1186 8.5742e-39 259 319 0 0 0 0.18458 -0.2316 -0.95514 0.036591
-0.0068894 0.16105 1.1186 8.943e-39 260.5 319 0 0 0 0.15565 -0.25138 -0.95529 0.039132
-0.0049263 0.16105 1.1186 9.5883e-39 262 319 0 0 0 0.13205 -0.27015 -0.95372 0.040165
-0.0029659 0.1612 1.1196 9.1273e-39 263.5 319 0 0 0 0.092179 -0.29848 -0.94995 0.042001
-0.001 0.16105 1.1186 8.3898e-39 265 319 0 0 0 0.069282 -0.29028 -0.95443 0.037654
0.00096401 0.1612 1.1196 8.3898e-39 266.5 319 0 0 0 0.045404 -0.3035 -0.95175 0.040029
0.0029289 0.1612 1.1196 8.6664e-39 268 319 0 0 0 0.010606 -0.31812 -0.94799 0.04067
0.0048938 0.1612 1.1196 8.943e-39 269.5 319 0 0 0 -0.0093814 -0.30725 -0.95158 0.035757
0.0068587 0.1612 1.1196 8.5742e-39 271 319 0 0 0 -0.029765 -0.28122 -0.95918 0.030512
0.0088193 0.16113 1.1191 8.2976e-39 272.5 319 0 0 0 -0.047895 -0.25977 -0.96448 0.024725
0.010779 0.16105 1.1186 8.2054e-39 274 319 0 0 0 -0.060692 -0.24492 -0.96764 0.022982
0.012748 0.16113 1.1191 8.2515e-39 275.5 319 0 0 0 -0.060498 -0.22209 -0.97315 0.019903
0.014705 0.16105 1.1186 8.482e-39 277 319 0 0 0 -0.055013 -0.19282 -0.97969 0.014145
0.016668 0.16105 1.1186 8.5742e-39 278.5 319 0 0 0 -0.064513 -0.1799 -0.98157 0.013336
0.019294 0.16113 1.1191 7.3757e-39 280.5 319 0 0 0 -0.070456 -0.15185 -0.98589 0.0099929
0.021249 0.16105 1.1186 7.2835e-39 282 319 0 0 0 -0.071181 -0.13072 -0.98886 0.0070759
0.023211 0.16105 1.1186 7.2835e-39 283.5 319 0 0 0 -0.078057 -0.11955 -0.98976 0.0063692
0.025175 0.16105 1.1186 7.8366e-39 285 319 0 0 0 -0.081003 -0.10448 -0.99122 0.0049282
0.027138 0.16105 1.1186 8.2054e-39 286.5 319 0 0 0 -0.086446 -0.095512 -0.99167 0.0040468
0.029101 0.16105 1.1186 7.7444e-39 288 319 0 0 0 -0.085681 -0.083738 -0.9928 0.0032265
0.031064 0.16105 1.1186 8.021e-39 289.5 319 0 0 0 -0.092439 -0.080576 -0.99245 0.0028495
0.033027 0.16105 1.1186 7.8366e-39 291 319 0 0 0 -0.099546 -0.078117 -0.99196 0.0027835
0.034991 0.16105 1.1186 7.1452e-39 292.5 319 0 0 0 -0.10808 -0.074995 -0.99131 0.0025872
-0.012779 0.16302 1.1186 6.8686e-39 300 319.5 0 0 0 0.21647 -0.14432 -0.96556 0.021183
