# .PCD v.7 - Point Cloud Data file format
VERSION .7
FIELDS x y z rgb u v vx vy vz normal_x normal_y normal_z curvature
SIZE 4 4 4 4 4 4 4 4 4 4 4 4 4
TYPE F F F F F F F F F F F F F
COUNT 1 1 1 1 1 1 1 1 1 1 1 1 1
WIDTH 555
HEIGHT 1
VIEWPOINT 0 0 0 1 0 0 0
POINTS 555
DATA ascii
-0.047985 0.16127 1.1156 9.0812e-39 349 318 0 0 0 0.56811 -0.23075 -0.78994 0.037247
0.027282 0.16148 1.1156 6.4844e-39 260.33 318.67 0 0 0 -0.48245 -0.25766 -0.83717 0.013791
0.028996 0.16112 1.1146 7.1913e-39 287 318.5 0 0 0 -0.47989 -0.28348 -0.83027 0.015984
-0.047985 0.16322 1.1156 5.5317e-39 265 319 0 0 0 0.57657 -0.23197 -0.78343 0.0337
0.027065 0.16322 1.1156 5.4395e-39 322.5 319 0 0 0 -0.49054 -0.24693 -0.8357 0.011866
0.028996 0.16308 1.1146 5.8083e-39 324 319 0 0 0 -0.48445 -0.2626 -0.83448 0.013829
-0.049245 0.16438 1.1146 9.404e-39 362 319 0 0 0 0.61016 -0.24459 -0.75358 0.02906
-0.047963 0.16511 1.1151 7.4679e-39 290.5 319.5 0 0 0 0.59161 -0.23639 -0.77079 0.030267
0.025107 0.16518 1.1156 8.5742e-39 354.5 319.5 0 0 0 -0.48515 -0.21955 -0.84642 0.0086914
0.027065 0.16518 1.1156 8.2054e-39 356 319.5 0 0 0 -0.4931 -0.22978 -0.83908 0.0098703
0.028996 0.16503 1.1146 8.2976e-39 357.5 319.5 0 0 0 -0.50068 -0.24238 -0.83101 0.011092
-0.047941 0.16699 1.1146 6.0849e-39 338 320 0 0 0 0.60785 -0.23689 -0.75789 0.025479
0.027065 0.16714 1.1156 8.6664e-39 397.5 320 0 0 0 -0.499 -0.2244 -0.83704 0.0085404
0.028996 0.16699 1.1146 8.3898e-39 399 320 0 0 0 -0.50668 -0.23528 -0.82941 0.0093624
-0.046679 0.1691 1.1156 6.3154e-39 382 320.5 0 0 0 0.58362 -0.23611 -0.77694 0.025527
0.027065 0.1691 1.1156 6.592e-39 311 321 0 0 0 -0.50784 -0.21789 -0.83344 0.0075044
0.028996 0.16894 1.1146 6.592e-39 312.5 321 0 0 0 -0.51739 -0.22425 -0.82584 0.0076356
-0.046679 0.17106 1.1156 8.1132e-39 419 321 0 0 0 0.59079 -0.23354 -0.77228 0.021777
-0.044721 0.17106 1.1156 6.8225e-39 420.5 321 0 0 0 0.56234 -0.22026 -0.79703 0.020584
0.027052 0.17098 1.1151 5.3934e-39 211.5 322 0 0 0 -0.51045 -0.22147 -0.8309 0.0070738
-0.046679 0.17301 1.1156 8.1594e-39 334 322 0 0 0 0.60275 -0.23683 -0.76198 0.017865
-0.044721 0.17367 1.1156 7.1913e-39 390.5 322 0 0 0 0.56762 -0.23655 -0.78858 0.019353
0.023802 0.17301 1.1156 6.131e-39 386.5 322 0 0 0 -0.48524 -0.22669 -0.84448 0.0067868
0.025107 0.17301 1.1156 5.8544e-39 387.5 322 0 0 0 -0.49264 -0.22971 -0.83937 0.0067239
0.02704 0.17286 1.1146 5.9696e-39 391.25 322 0 0 0 -0.51188 -0.22954 -0.82783 0.0068888
-0.046637 0.17481 1.1146 5.9927e-39 250 323 0 0 0 0.6169 -0.24834 -0.74683 0.016367
-0.044721 0.17497 1.1156 6.4076e-39 251.5 323 0 0 0 0.56709 -0.24478 -0.78644 0.019977
0.021191 0.17497 1.1156 7.0991e-39 304 323 0 0 0 -0.44729 -0.24135 -0.86121 0.0068232
0.023149 0.17497 1.1156 6.592e-39 305.5 323 0 0 0 -0.4704 -0.23834 -0.84965 0.0069334
0.025107 0.17497 1.1156 6.4537e-39 307 323 0 0 0 -0.49048 -0.23684 -0.83865 0.0070371
0.026388 0.17481 1.1146 6.2693e-39 308 323 0 0 0 -0.50764 -0.23463 -0.829 0.0069501
-0.046637 0.17612 1.1146 7.1913e-39 368 323 0 0 0 0.62056 -0.2607 -0.73955 0.017191
-0.044701 0.17685 1.1151 6.108e-39 288.5 323.5 0 0 0 0.57428 -0.26994 -0.77287 0.021832
-0.042764 0.17758 1.1156 5.5317e-39 211 324 0 0 0 0.51968 -0.28872 -0.80409 0.026908
0.021191 0.17693 1.1156 6.1771e-39 346.5 323.5 0 0 0 -0.44426 -0.25273 -0.85951 0.0071074
0.023133 0.17681 1.1148 6.2002e-39 348 323.5 0 0 0 -0.47473 -0.25089 -0.84361 0.0073127
0.025084 0.17677 1.1146 6.4537e-39 349.5 323.5 0 0 0 -0.4956 -0.24549 -0.83314 0.007251
0.026388 0.17677 1.1146 6.4537e-39 350.5 323.5 0 0 0 -0.50659 -0.24445 -0.8268 0.0070625
-0.044681 0.17872 1.1146 9.3578e-39 357.5 324 0 0 0 0.57964 -0.30018 -0.75757 0.023245
-0.042764 0.17889 1.1156 8.7586e-39 359 324 0 0 0 0.51963 -0.2999 -0.80003 0.028082
-0.019253 0.17872 1.1146 6.6381e-39 377 324 0 0 0 0.14407 -0.44853 -0.88208 0.0285
-0.017965 0.17889 1.1156 6.8225e-39 378 324 0 0 0 0.14932 -0.46753 -0.87128 0.028255
0.021191 0.17889 1.1156 8.021e-39 408 324 0 0 0 -0.44217 -0.26536 -0.85678 0.0074155
0.023128 0.17872 1.1146 8.3437e-39 409.5 324 0 0 0 -0.47355 -0.26115 -0.84116 0.0074902
0.025084 0.17872 1.1146 8.6664e-39 411 324 0 0 0 -0.49126 -0.25741 -0.83211 0.0075167
0.026388 0.17872 1.1146 8.3898e-39 412 324 0 0 0 -0.50536 -0.25358 -0.82481 0.0072503
-0.044681 0.18003 1.1146 6.2693e-39 182.5 325 0 0 0 0.57834 -0.31295 -0.75338 0.02418
-0.042725 0.18068 1.1146 6.5459e-39 273 325 0 0 0 0.52728 -0.33136 -0.78242 0.029978
-0.024491 0.1815 1.1156 6.6381e-39 376 325 0 0 0 0.12428 -0.40388 -0.90633 0.024663
-0.023186 0.18084 1.1156 6.2232e-39 290 325 0 0 0 0.13457 -0.4218 -0.89665 0.026197
-0.021228 0.18085 1.1156 6.3154e-39 291.5 325 0 0 0 0.13401 -0.43624 -0.88979 0.027316
-0.017304 0.18011 1.1151 5.67e-39 211.5 325 0 0 0 0.13954 -0.45492 -0.87953 0.028196
-0.015355 0.1815 1.1156 7.0069e-39 383 325 0 0 0 0.13116 -0.45293 -0.88185 0.028501
0.019886 0.18084 1.1156 7.6522e-39 331 325 0 0 0 -0.41976 -0.28374 -0.86215 0.0078324
0.021172 0.18068 1.1146 7.5601e-39 332 325 0 0 0 -0.44607 -0.27883 -0.85046 0.0078053
0.023128 0.18068 1.1146 7.3296e-39 333.5 325 0 0 0 -0.46799 -0.2762 -0.83946 0.0077378
0.025084 0.18003 1.1146 6.6381e-39 256 325 0 0 0 -0.49035 -0.26414 -0.83053 0.0073602
0.026388 0.18003 1.1146 7.0069e-39 257 325 0 0 0 -0.50361 -0.26043 -0.82374 0.0072554
-0.042725 0.18329 1.1146 5.8083e-39 278.5 326 0 0 0 0.51909 -0.36689 -0.77197 0.032493
-0.041459 0.1828 1.1156 5.9005e-39 188 326 0 0 0 0.47088 -0.35993 -0.80543 0.03325
-0.02448 0.18337 1.1151 6.2232e-39 296.5 326 0 0 0 0.11248 -0.39239 -0.9129 0.023679
-0.023165 0.18329 1.1146 6.3154e-39 297.5 326 0 0 0 0.1125 -0.39186 -0.91312 0.024781
-0.021209 0.18329 1.1146 6.8224e-39 299 326 0 0 0 0.11931 -0.4062 -0.90596 0.025875
-0.015348 0.18337 1.1151 6.8225e-39 303.5 326 0 0 0 0.12552 -0.42814 -0.89495 0.028192
0.019445 0.18318 1.1153 6.4537e-39 308.33 326 0 0 0 -0.40944 -0.3041 -0.86017 0.0080105
0.021172 0.18329 1.1146 6.6381e-39 337 326 0 0 0 -0.43895 -0.30237 -0.8461 0.0081034
0.022911 0.18307 1.1146 6.6688e-39 311 326 0 0 0 -0.46299 -0.29498 -0.83584 0.0080913
-0.044029 0.18525 1.1146 5.6239e-39 189 327 0 0 0 0.55453 -0.38292 -0.73883 0.031499
-0.042725 0.18525 1.1146 5.8083e-39 190 327 0 0 0 0.51035 -0.39566 -0.76354 0.033532
-0.040806 0.18476 1.1156 5.693e-39 286.5 326.5 0 0 0 0.43809 -0.39207 -0.80892 0.035304
-0.038848 0.18541 1.1156 5.5317e-39 203 327 0 0 0 0.38733 -0.39875 -0.83125 0.034888
-0.029059 0.18476 1.1156 6.2002e-39 295.5 326.5 0 0 0 0.13572 -0.37719 -0.91614 0.023474
-0.027101 0.18541 1.1156 5.7161e-39 212 327 0 0 0 0.11349 -0.37938 -0.91825 0.022916
-0.024469 0.18525 1.1146 5.7161e-39 214 327 0 0 0 0.10406 -0.37582 -0.92083 0.023851
-0.023165 0.18525 1.1146 5.2552e-39 215 327 0 0 0 0.1035 -0.37494 -0.92125 0.02475
-0.021209 0.18525 1.1146 5.3473e-39 216.5 327 0 0 0 0.1113 -0.39199 -0.91321 0.026362
-0.015355 0.18541 1.1156 6.4537e-39 221 327 0 0 0 0.12796 -0.40907 -0.90348 0.028793
0.015317 0.18541 1.1156 6.5459e-39 255.5 327 0 0 0 -0.35095 -0.31954 -0.88018 0.0065878
0.017276 0.18476 1.1156 6.4998e-39 336.5 326.5 0 0 0 -0.3793 -0.31505 -0.86998 0.007051
0.019004 0.18487 1.1149 6.423e-39 311.33 326.67 0 0 0 -0.40271 -0.32281 -0.85652 0.0076178
-0.040769 0.18655 1.1146 8.2054e-39 386.5 327 0 0 0 0.44739 -0.42811 -0.78521 0.037105
-0.038813 0.18655 1.1146 8.2054e-39 388 327 0 0 0 0.38516 -0.43646 -0.81311 0.036951
-0.036874 0.18729 1.1151 7.0299e-39 299.5 327.5 0 0 0 0.29532 -0.45287 -0.84125 0.042886
-0.031003 0.18729 1.1151 7.0529e-39 304 327.5 0 0 0 0.15919 -0.40409 -0.90076 0.03048
-0.029033 0.1872 1.1146 7.0991e-39 305.5 327.5 0 0 0 0.1248 -0.36928 -0.9209 0.026255
-0.027101 0.18672 1.1156 8.8508e-39 397 327 0 0 0 0.10355 -0.36546 -0.92505 0.022884
-0.024911 0.18704 1.1149 7.4064e-39 338.67 327.33 0 0 0 0.094092 -0.34688 -0.93318 0.024034
-0.023165 0.1872 1.1146 6.7764e-39 310 327.5 0 0 0 0.095289 -0.34782 -0.93271 0.025306
-0.020992 0.18698 1.1146 7.222e-39 341.67 327.33 0 0 0 0.10548 -0.3562 -0.92844 0.025939
-0.016645 0.18785 1.1146 8.2976e-39 225 328 0 0 0 0.12432 -0.34897 -0.92885 0.028643
-0.015355 0.18672 1.1156 8.3898e-39 406 327 0 0 0 0.12901 -0.39941 -0.90765 0.029368
0.01336 0.18672 1.1156 5.9927e-39 428 327 0 0 0 -0.32174 -0.33284 -0.8864 0.0067558
0.015087 0.18698 1.1146 6.3e-39 373.33 327.33 0 0 0 -0.3498 -0.33234 -0.87589 0.0066577
0.01726 0.18655 1.1146 6.1771e-39 431 327 0 0 0 -0.38062 -0.33546 -0.86174 0.007124
-0.034933 0.18868 1.1156 6.0849e-39 314 328 0 0 0 0.21986 -0.46526 -0.85744 0.042181
-0.033627 0.18933 1.1156 6.7303e-39 418 328 0 0 0 0.1846 -0.46727 -0.86463 0.037788
-0.030989 0.18916 1.1146 6.4537e-39 420 328 0 0 0 0.15292 -0.42273 -0.89326 0.033336
-0.029033 0.18916 1.1146 6.592e-39 421.5 328 0 0 0 0.1286 -0.37401 -0.91846 0.029477
-0.027101 0.18868 1.1156 6.1771e-39 320 328 0 0 0 0.099039 -0.33334 -0.93759 0.023963
-0.025354 0.18884 1.1153 6.6996e-39 355.67 328 0 0 0 0.088525 -0.3283 -0.94042 0.024722
-0.023165 0.18916 1.1146 6.9147e-39 426 328 0 0 0 0.090708 -0.3206 -0.94286 0.026066
-0.021446 0.18889 1.1156 6.2386e-39 358.67 328 0 0 0 0.10113 -0.32583 -0.94 0.025689
-0.019253 0.18916 1.1146 6.1771e-39 429 328 0 0 0 0.1094 -0.31894 -0.94144 0.028216
-0.017297 0.18916 1.1146 6.2693e-39 430.5 328 0 0 0 0.12143 -0.32205 -0.9389 0.028606
0.0068339 0.18933 1.1156 6.3615e-39 450 328 0 0 0 -0.20259 -0.35057 -0.91436 0.014659
0.01075 0.18868 1.1156 6.0388e-39 355.5 328 0 0 0 -0.26856 -0.34867 -0.89794 0.010523
0.012702 0.18859 1.1151 6.1771e-39 357 328 0 0 0 -0.31368 -0.34655 -0.88403 0.007437
-0.066257 0.19063 1.1156 5.6239e-39 201 329 0 0 0 -0.8341 0.41427 -0.36421 0.0042962
-0.034901 0.19046 1.1146 7.1913e-39 224 329 0 0 0 0.23086 -0.49333 -0.83865 0.043671
-0.033597 0.19046 1.1146 7.9288e-39 225 329 0 0 0 0.18347 -0.48471 -0.85522 0.040406
-0.02904 0.19116 1.1148 7.3526e-39 325 329 0 0 0 0.11421 -0.34105 -0.93308 0.031455
-0.027101 0.19128 1.1156 7.5601e-39 326.5 329 0 0 0 0.088494 -0.2958 -0.95114 0.026895
-0.025144 0.19128 1.1156 7.8828e-39 328 329 0 0 0 0.079736 -0.28677 -0.95468 0.026144
-0.023186 0.19128 1.1156 7.8366e-39 329.5 329 0 0 0 0.086048 -0.28373 -0.95504 0.027102
-0.021881 0.19063 1.1156 8.7586e-39 234 329 0 0 0 0.095273 -0.28536 -0.95367 0.025841
-0.01927 0.19063 1.1156 8.021e-39 247 329 0 0 0 0.10972 -0.29266 -0.9499 0.028161
-0.017313 0.19063 1.1156 7.6983e-39 248.5 329 0 0 0 0.12294 -0.29664 -0.94704 0.029229
0.0068308 0.1912 1.1151 7.3757e-39 404 329 0 0 0 -0.20375 -0.36229 -0.90952 0.013887
0.0081391 0.19194 1.1156 6.3615e-39 450 329 0 0 0 -0.22428 -0.35521 -0.90748 0.012114
0.01074 0.19046 1.1146 5.9927e-39 362 329 0 0 0 -0.27775 -0.35961 -0.89081 0.009775
0.012696 0.19046 1.1146 5.9927e-39 363.5 329 0 0 0 -0.31553 -0.3668 -0.87516 0.0074569
-0.027101 0.19324 1.1156 5.9005e-39 174 330 0 0 0 0.079109 -0.2569 -0.9632 0.030027
-0.025132 0.19315 1.1151 5.9927e-39 175.5 330 0 0 0 0.072725 -0.23661 -0.96888 0.028698
-0.023186 0.19324 1.1156 5.8083e-39 184 330 0 0 0 0.080037 -0.22105 -0.97197 0.028379
0.027767 0.15175 1.1176 7.0069e-39 389 315 0 0 0 -0.43046 -0.39152 -0.81327 0.02055
0.029049 0.15096 1.1166 6.1771e-39 354.5 315 0 0 0 -0.42703 -0.41858 -0.80152 0.021076
0.044725 0.15031 1.1166 5.3473e-39 322 315 0 0 0 -0.31839 -0.59336 -0.73929 0.031689
0.027114 0.15306 1.1176 5.8544e-39 247.5 316 0 0 0 -0.43843 -0.37381 -0.81734 0.02008
0.046032 0.15292 1.1166 8.5742e-39 288 316 0 0 0 -0.3638 -0.5556 -0.74763 0.033332
-0.057224 0.15437 1.1176 6.2693e-39 302 316 0 0 0 0.65557 -0.35478 -0.6666 0.038709
-0.055213 0.15423 1.1166 5.7622e-39 303.5 316 0 0 0 0.62802 -0.34066 -0.69967 0.04177
-0.051947 0.15553 1.1166 6.8225e-39 388 316 0 0 0 0.57826 -0.27242 -0.76903 0.050477
-0.048071 0.15567 1.1176 6.5459e-39 391 316 0 0 0 0.50544 -0.22988 -0.83167 0.053634
0.025152 0.15502 1.1176 7.3296e-39 406 316 0 0 0 -0.45203 -0.328 -0.82951 0.017142
0.027101 0.15495 1.1171 6.8455e-39 407.5 316 0 0 0 -0.449 -0.34632 -0.82369 0.01917
-0.050641 0.15684 1.1166 6.0849e-39 232 317 0 0 0 0.58297 -0.24521 -0.77461 0.047156
-0.048703 0.15691 1.1171 6.0388e-39 233.5 317 0 0 0 0.52768 -0.23083 -0.81748 0.050064
0.025152 0.15698 1.1176 5.5317e-39 312 317 0 0 0 -0.46198 -0.29966 -0.83473 0.016194
0.027101 0.15691 1.1171 5.5778e-39 313.5 317 0 0 0 -0.4566 -0.32408 -0.82854 0.018741
-0.048028 0.15815 1.1166 6.3615e-39 341 317 0 0 0 0.53044 -0.22355 -0.81771 0.046411
-0.046764 0.15894 1.1176 6.7303e-39 388 317 0 0 0 0.50683 -0.2047 -0.83739 0.045056
-0.044803 0.1596 1.1176 6.0388e-39 435.5 317 0 0 0 0.47567 -0.19616 -0.85748 0.041582
0.025152 0.15894 1.1176 7.1913e-39 330.5 317.5 0 0 0 -0.46459 -0.29204 -0.83598 0.015262
0.027095 0.15883 1.1169 7.1221e-39 332 317.5 0 0 0 -0.45778 -0.30559 -0.8349 0.017216
-0.046722 0.16076 1.1166 8.3898e-39 301 318 0 0 0 0.53176 -0.21379 -0.81947 0.040146
-0.044803 0.1609 1.1176 6.592e-39 302.5 318 0 0 0 0.48302 -0.19583 -0.85343 0.039368
0.025129 0.16076 1.1166 9.0352e-39 356 318 0 0 0 -0.47298 -0.26087 -0.84157 0.013136
0.026436 0.16076 1.1166 9.1274e-39 357 318 0 0 0 -0.47348 -0.27062 -0.8382 0.013992
-0.046722 0.16272 1.1166 7.0991e-39 332.5 318.5 0 0 0 0.54311 -0.21561 -0.8115 0.03647
-0.044802 0.16286 1.1176 7.0299e-39 334 318.5 0 0 0 0.49129 -0.20219 -0.8472 0.036434
0.021229 0.16352 1.1176 5.9927e-39 318 319 0 0 0 -0.45285 -0.23659 -0.85962 0.0096883
0.023191 0.16286 1.1176 5.9005e-39 389 318.5 0 0 0 -0.46353 -0.24442 -0.8517 0.011506
0.025129 0.16272 1.1166 5.6701e-39 390.5 318.5 0 0 0 -0.47632 -0.23824 -0.84638 0.011037
-0.046722 0.16533 1.1166 6.9607e-39 291.5 319.5 0 0 0 0.55966 -0.22839 -0.79663 0.032558
-0.044803 0.16483 1.1176 7.2374e-39 365.5 319 0 0 0 0.50381 -0.20817 -0.83836 0.03344
0.021229 0.16483 1.1176 8.2976e-39 418 319 0 0 0 -0.4485 -0.22493 -0.86502 0.0082824
0.02317 0.16533 1.1166 9.1964e-39 353 319.5 0 0 0 -0.46968 -0.2178 -0.85555 0.0080754
-0.046722 0.16729 1.1166 6.6381e-39 339 320 0 0 0 0.5675 -0.23122 -0.79024 0.030277
-0.044782 0.16671 1.1171 7.1451e-39 280.5 320 0 0 0 0.52284 -0.21907 -0.8238 0.031641
-0.041534 0.16744 1.1176 8.2976e-39 343 320 0 0 0 0.45716 -0.20256 -0.86601 0.025063
0.021229 0.16679 1.1176 8.5742e-39 339 320 0 0 0 -0.44416 -0.21474 -0.86983 0.0064585
0.02317 0.16729 1.1166 7.6983e-39 394.5 320 0 0 0 -0.46996 -0.21526 -0.85604 0.0070915
0.025129 0.16729 1.1166 8.2054e-39 396 320 0 0 0 -0.48632 -0.21588 -0.8467 0.0076976
-0.044762 0.16925 1.1166 6.2693e-39 383.5 320.5 0 0 0 0.54113 -0.22493 -0.8103 0.026673
-0.042841 0.16875 1.1176 5.9927e-39 458 320 0 0 0 0.48465 -0.20906 -0.84936 0.025139
-0.041534 0.16875 1.1176 5.9927e-39 459 320 0 0 0 0.45844 -0.2069 -0.8643 0.023984
0.021229 0.16875 1.1176 6.0849e-39 251 321 0 0 0 -0.44227 -0.21599 -0.87049 0.0058806
0.02317 0.16925 1.1166 7.8136e-39 307.5 321 0 0 0 -0.46851 -0.21586 -0.85668 0.0063316
0.025129 0.16925 1.1166 7.099e-39 309.5 321 0 0 0 -0.48729 -0.21697 -0.84586 0.0069846
-0.042841 0.17071 1.1176 5.9005e-39 367 321 0 0 0 0.49482 -0.20695 -0.84399 0.022476
-0.041534 0.17071 1.1176 5.9005e-39 368 321 0 0 0 0.46752 -0.20901 -0.85892 0.021448
0.019922 0.17136 1.1176 5.8083e-39 206 322 0 0 0 -0.42076 -0.22578 -0.87863 0.005179
0.021229 0.17071 1.1176 7.2835e-39 284 321.5 0 0 0 -0.43664 -0.2199 -0.87235 0.0055954
0.02317 0.17121 1.1166 5.1169e-39 208.5 322 0 0 0 -0.4668 -0.22012 -0.85653 0.0062281
0.025129 0.17121 1.1166 5.0708e-39 210 322 0 0 0 -0.4884 -0.21831 -0.84487 0.006777
-0.044762 0.17252 1.1166 9.4501e-39 280.5 322 0 0 0 0.54817 -0.22566 -0.80535 0.020783
-0.042841 0.17333 1.1176 8.4359e-39 337 322 0 0 0 0.49528 -0.21962 -0.84051 0.02121
-0.04088 0.17398 1.1176 7.8366e-39 393.5 322 0 0 0 0.4515 -0.22603 -0.86317 0.022028
0.019922 0.17333 1.1176 5.9927e-39 383.5 322 0 0 0 -0.42049 -0.23114 -0.87736 0.0055562
0.02121 0.17317 1.1166 6.1771e-39 384.5 322 0 0 0 -0.44244 -0.22919 -0.86702 0.006255
0.022517 0.17317 1.1166 6.2232e-39 385.5 322 0 0 0 -0.46116 -0.22788 -0.85756 0.0064689
-0.042802 0.17513 1.1166 6.5459e-39 253 323 0 0 0 0.51092 -0.2464 -0.82356 0.023067
-0.04088 0.17529 1.1176 6.5459e-39 254.5 323 0 0 0 0.44338 -0.24096 -0.86334 0.02391
-0.038918 0.17529 1.1176 6.7303e-39 256 323 0 0 0 0.40301 -0.24657 -0.88136 0.024241
-0.019305 0.17529 1.1176 5.7161e-39 271 323 0 0 0 0.19507 -0.45088 -0.87101 0.02918
0.015999 0.17529 1.1176 9.4961e-39 300 323 0 0 0 -0.37138 -0.25031 -0.89411 0.0045044
0.017307 0.17529 1.1176 9.0352e-39 301 323 0 0 0 -0.38476 -0.24869 -0.88888 0.0050634
0.019268 0.17529 1.1176 8.482e-39 302.5 323 0 0 0 -0.4074 -0.24534 -0.87968 0.0060261
-0.042802 0.17644 1.1166 6.4537e-39 371 323 0 0 0 0.50619 -0.26241 -0.82153 0.024638
-0.040861 0.17717 1.1171 6.0619e-39 292.75 323.5 0 0 0 0.44873 -0.27135 -0.85148 0.027266
-0.038918 0.17725 1.1176 5.8544e-39 294.5 323.5 0 0 0 0.39128 -0.27641 -0.87778 0.027394
-0.037611 0.1779 1.1176 5.2552e-39 216 324 0 0 0 0.34574 -0.29694 -0.89011 0.0295
-0.019297 0.17717 1.1171 7.8366e-39 309.5 323.5 0 0 0 0.1757 -0.45705 -0.87191 0.028419
-0.017997 0.1779 1.1176 7.7444e-39 231 324 0 0 0 0.16496 -0.46837 -0.86799 0.02724
0.015346 0.17725 1.1176 7.2374e-39 342 323.5 0 0 0 -0.35538 -0.26496 -0.89638 0.004614
0.017299 0.17717 1.1171 7.0991e-39 343.5 323.5 0 0 0 -0.37848 -0.26137 -0.88794 0.0054899
0.019255 0.17713 1.1169 6.7072e-39 345 323.5 0 0 0 -0.40583 -0.25744 -0.87694 0.0064008
-0.040843 0.17905 1.1166 8.6203e-39 360.5 324 0 0 0 0.45762 -0.30431 -0.83545 0.029837
-0.038918 0.17921 1.1176 8.021e-39 362 324 0 0 0 0.38421 -0.30885 -0.87006 0.029039
-0.036957 0.17921 1.1176 6.5459e-39 363.5 324 0 0 0 0.31639 -0.32072 -0.89277 0.032193
-0.029766 0.17921 1.1176 7.0069e-39 369 324 0 0 0 0.18177 -0.37232 -0.91013 0.025874
-0.024535 0.17921 1.1176 6.7303e-39 373 324 0 0 0 0.15604 -0.41809 -0.8949 0.027722
-0.023228 0.17921 1.1176 6.4537e-39 374 324 0 0 0 0.15689 -0.42816 -0.88998 0.027696
-0.021256 0.17913 1.1171 6.592e-39 375.5 324 0 0 0 0.15675 -0.4439 -0.88226 0.02771
-0.016675 0.17905 1.1166 6.7303e-39 379 324 0 0 0 0.14823 -0.47166 -0.86923 0.027776
-0.015382 0.17921 1.1176 7.0069e-39 380 324 0 0 0 0.13932 -0.4876 -0.86188 0.027491
0.013384 0.17921 1.1176 8.5742e-39 402 324 0 0 0 -0.33691 -0.27848 -0.89941 0.0047871
0.015346 0.17921 1.1176 8.2515e-39 403.5 324 0 0 0 -0.353 -0.27476 -0.89437 0.005002
0.017291 0.17905 1.1166 8.2054e-39 405 324 0 0 0 -0.38215 -0.27364 -0.88266 0.0060976
0.019251 0.17905 1.1166 8.1132e-39 406.5 324 0 0 0 -0.40634 -0.26868 -0.87333 0.0069682
-0.040843 0.18101 1.1166 6.2463e-39 274.5 325 0 0 0 0.43726 -0.3358 -0.83429 0.032355
-0.038901 0.18109 1.1171 6.3615e-39 276 325 0 0 0 0.38394 -0.33698 -0.85967 0.031505
-0.036957 0.18117 1.1176 6.3845e-39 277.5 325 0 0 0 0.30526 -0.346 -0.88718 0.034085
-0.034996 0.18183 1.1176 6.6381e-39 368 325 0 0 0 0.2356 -0.36842 -0.89931 0.034311
-0.029098 0.18109 1.1171 5.7852e-39 283.5 325 0 0 0 0.15505 -0.38392 -0.91025 0.024368
-0.02715 0.18183 1.1176 6.6381e-39 374 325 0 0 0 0.13838 -0.39267 -0.90921 0.024503
-0.0254 0.1809 1.1173 5.8698e-39 259.33 325 0 0 0 0.14209 -0.41477 -0.89876 0.026073
-0.014721 0.18109 1.1171 5.9927e-39 298.5 325 0 0 0 0.12888 -0.47911 -0.86824 0.028582
-0.012767 0.18183 1.1176 6.6381e-39 385 325 0 0 0 0.12308 -0.4802 -0.86848 0.029032
-0.01102 0.18134 1.1173 6.2693e-39 329.67 325 0 0 0 0.11209 -0.47883 -0.87072 0.029824
-0.0088445 0.18183 1.1176 7.7444e-39 388 325 0 0 0 0.082519 -0.46561 -0.88114 0.030483
-0.0075369 0.18183 1.1176 8.482e-39 389 325 0 0 0 0.073916 -0.45734 -0.88621 0.031942
0.010769 0.18183 1.1176 8.1132e-39 403 325 0 0 0 -0.27895 -0.30949 -0.90907 0.009782
0.012948 0.18139 1.1176 8.3591e-39 348 325 0 0 0 -0.3239 -0.29426 -0.89916 0.0059449
0.015332 0.18101 1.1166 7.7214e-39 327.5 325 0 0 0 -0.35496 -0.28723 -0.88967 0.0055444
0.017291 0.18101 1.1166 7.4679e-39 329 325 0 0 0 -0.37715 -0.28658 -0.8807 0.0064897
0.018598 0.18101 1.1166 7.6061e-39 330 325 0 0 0 -0.39562 -0.28385 -0.87345 0.0071631
-0.04019 0.18297 1.1166 5.6239e-39 189 326 0 0 0 0.4199 -0.36938 -0.829 0.03319
-0.038883 0.18297 1.1166 5.4395e-39 190 326 0 0 0 0.39018 -0.36551 -0.84508 0.031639
-0.036957 0.18313 1.1176 5.5778e-39 193 326 0 0 0 0.29829 -0.36681 -0.88118 0.034717
-0.034996 0.18313 1.1176 5.7161e-39 201 326 0 0 0 0.22441 -0.38034 -0.89721 0.03522
-0.031073 0.18313 1.1176 5.6239e-39 204 326 0 0 0 0.17093 -0.38464 -0.9071 0.026039
-0.029086 0.18297 1.1166 5.7622e-39 205.5 326 0 0 0 0.1461 -0.38424 -0.9116 0.023658
-0.027126 0.18297 1.1166 5.6239e-39 207 326 0 0 0 0.12789 -0.39427 -0.91005 0.023694
-0.025819 0.18297 1.1166 5.4395e-39 208 326 0 0 0 0.12641 -0.39969 -0.90789 0.023505
-0.014062 0.18297 1.1166 5.2552e-39 217 326 0 0 0 0.12312 -0.45406 -0.88242 0.028203
-0.012767 0.18313 1.1176 5.9005e-39 218 326 0 0 0 0.12271 -0.46426 -0.87716 0.028852
-0.0108 0.18305 1.1171 6.7764e-39 219.5 326 0 0 0 0.11448 -0.45587 -0.88265 0.029992
-0.0088445 0.18313 1.1176 7.6522e-39 221 326 0 0 0 0.092162 -0.45328 -0.88659 0.030382
-0.0075301 0.18297 1.1166 8.1132e-39 222 326 0 0 0 0.08246 -0.43829 -0.89504 0.030571
0.010769 0.18313 1.1176 8.2976e-39 236 326 0 0 0 -0.27935 -0.326 -0.90315 0.0098488
0.012725 0.18305 1.1171 7.6983e-39 248.5 326 0 0 0 -0.3143 -0.31222 -0.89651 0.0069074
0.015332 0.18297 1.1166 6.8686e-39 250.5 326 0 0 0 -0.3514 -0.30144 -0.88637 0.0058649
0.017291 0.18297 1.1166 6.4537e-39 252 326 0 0 0 -0.37627 -0.29985 -0.87665 0.0067761
-0.038883 0.18427 1.1166 6.1771e-39 373 326 0 0 0 0.38219 -0.37604 -0.84411 0.03168
-0.036932 0.18497 1.1169 6.2463e-39 289.5 326.5 0 0 0 0.30687 -0.4064 -0.86062 0.038164
-0.034996 0.18509 1.1176 6.3154e-39 291 326.5 0 0 0 0.20905 -0.39855 -0.893 0.036461
-0.033035 0.18575 1.1176 5.8544e-39 207.5 327 0 0 0 0.16464 -0.39192 -0.90515 0.030118
-0.031045 0.18492 1.1166 6.1771e-39 294 326.5 0 0 0 0.1638 -0.38491 -0.9083 0.027037
-0.027126 0.18427 1.1166 7.3757e-39 382 326 0 0 0 0.11773 -0.38595 -0.91498 0.0232
-0.025819 0.18492 1.1166 6.592e-39 298 326.5 0 0 0 0.11129 -0.38585 -0.91583 0.022737
-0.014062 0.18492 1.1166 7.6522e-39 307 326.5 0 0 0 0.1294 -0.43952 -0.88886 0.029192
-0.012756 0.18492 1.1166 7.9749e-39 308 326.5 0 0 0 0.13069 -0.43222 -0.89225 0.028646
-0.010801 0.18501 1.1171 8.3437e-39 309.5 326.5 0 0 0 0.11901 -0.43687 -0.89162 0.030045
-0.0088405 0.18501 1.1171 8.9891e-39 311 326.5 0 0 0 0.10072 -0.43534 -0.89461 0.030679
-0.0070965 0.18476 1.1169 8.8815e-39 340.67 326.33 0 0 0 0.083003 -0.4316 -0.89824 0.032576
0.001616 0.18444 1.1176 8.1132e-39 404 326 0 0 0 -0.10067 -0.36882 -0.92403 0.0249
0.0068463 0.18509 1.1176 7.8827e-39 328.5 326.5 0 0 0 -0.20141 -0.33872 -0.91908 0.01486
0.010769 0.18509 1.1176 7.4218e-39 331.5 326.5 0 0 0 -0.26977 -0.33124 -0.90416 0.01011
0.012722 0.18497 1.1169 7.2143e-39 333 326.5 0 0 0 -0.31276 -0.32431 -0.89275 0.0075341
0.015332 0.18427 1.1166 7.0069e-39 414.5 326 0 0 0 -0.35067 -0.30928 -0.88395 0.0060742
-0.034964 0.18689 1.1166 8.5742e-39 391 327 0 0 0 0.21819 -0.43671 -0.87274 0.040198
-0.03302 0.18698 1.1171 8.2515e-39 392.5 327 0 0 0 0.16862 -0.40243 -0.89979 0.032377
-0.014075 0.18706 1.1176 8.1132e-39 407 327 0 0 0 0.13052 -0.41123 -0.90214 0.028562
-0.012756 0.18689 1.1166 8.1132e-39 408 327 0 0 0 0.13234 -0.40404 -0.90512 0.02872
-0.010806 0.18706 1.1176 8.1593e-39 409.5 327 0 0 0 0.1245 -0.41811 -0.89982 0.030216
-0.0088445 0.18706 1.1176 8.5742e-39 411 327 0 0 0 0.11521 -0.40061 -0.90897 0.030213
-0.0075369 0.18706 1.1176 8.482e-39 412 327 0 0 0 0.10603 -0.39887 -0.91086 0.03044
0.0068463 0.18706 1.1176 6.6381e-39 423 327 0 0 0 -0.19794 -0.34248 -0.91844 0.014345
0.010759 0.18689 1.1166 6.4537e-39 426 327 0 0 0 -0.26714 -0.33505 -0.90354 0.0099616
0.012066 0.18689 1.1166 6.1771e-39 427 327 0 0 0 -0.29294 -0.33557 -0.89531 0.0087506
-0.032787 0.18863 1.1166 6.0849e-39 281.33 328 0 0 0 0.16221 -0.42022 -0.89281 0.034816
-0.014937 0.18868 1.1169 7.8981e-39 295 328 0 0 0 0.13554 -0.37577 -0.91675 0.029497
-0.012756 0.18885 1.1166 7.6983e-39 331 328 0 0 0 0.13666 -0.37648 -0.91629 0.029045
-0.01146 0.18836 1.1176 8.1132e-39 229 328 0 0 0 0.13441 -0.38646 -0.91246 0.029525
-0.0075369 0.18902 1.1176 7.7444e-39 335 328 0 0 0 0.11613 -0.3622 -0.92484 0.03062
0.001616 0.18902 1.1176 6.6842e-39 348 328 0 0 0 -0.082649 -0.36004 -0.92927 0.023801
0.0029236 0.18967 1.1176 6.8225e-39 446 328 0 0 0 -0.11788 -0.35215 -0.92849 0.019534
0.0055387 0.18967 1.1176 6.6381e-39 449 328 0 0 0 -0.16735 -0.34584 -0.92325 0.015144
0.0068401 0.18819 1.1166 6.3615e-39 255 328 0 0 0 -0.20309 -0.34502 -0.91636 0.014504
0.0088076 0.18902 1.1176 6.0619e-39 354 328 0 0 0 -0.23556 -0.34313 -0.90927 0.01115
-0.032351 0.19081 1.1166 8.5742e-39 226 329 0 0 0 0.162 -0.43397 -0.88624 0.037501
-0.020594 0.19081 1.1166 8.482e-39 235 329 0 0 0 0.10605 -0.29586 -0.94933 0.027456
-0.015382 0.19098 1.1176 7.6522e-39 250 329 0 0 0 0.1384 -0.32172 -0.93666 0.029611
-0.012756 0.19081 1.1166 6.9147e-39 252 329 0 0 0 0.14551 -0.32604 -0.93409 0.028568
-0.0075369 0.19098 1.1176 6.1771e-39 256 329 0 0 0 0.12749 -0.32418 -0.93737 0.030679
-0.0036142 0.19098 1.1176 5.9005e-39 259 329 0 0 0 0.062211 -0.34693 -0.93582 0.03481
0.0016146 0.19081 1.1166 8.482e-39 355 329 0 0 0 -0.084098 -0.35769 -0.93004 0.023292
0.0029236 0.19098 1.1176 8.1132e-39 356 329 0 0 0 -0.11664 -0.34581 -0.93103 0.019488
0.0048824 0.19089 1.1171 8.3437e-39 357.5 329 0 0 0 -0.15574 -0.34904 -0.92408 0.016287
0.008804 0.19089 1.1171 6.6381e-39 360.5 329 0 0 0 -0.23232 -0.35436 -0.90579 0.011706
-0.021247 0.19276 1.1166 6.2232e-39 306.5 329.5 0 0 0 0.09454 -0.23601 -0.96714 0.028918
-0.019288 0.19211 1.1166 6.4537e-39 429 329 0 0 0 0.10647 -0.25759 -0.96037 0.02918
-0.01711 0.19255 1.1166 6.2693e-39 351.33 329.33 0 0 0 0.12516 -0.2487 -0.96046 0.029143
-0.015382 0.19294 1.1176 6.0849e-39 313 329.5 0 0 0 0.13769 -0.24849 -0.9588 0.027847
-0.012767 0.19294 1.1176 6.592e-39 315 329.5 0 0 0 0.15869 -0.26621 -0.95076 0.027951
-0.01146 0.19359 1.1176 5.7161e-39 201 330 0 0 0 0.15829 -0.25831 -0.95301 0.029618
-0.0068831 0.19294 1.1176 6.2463e-39 321.5 329.5 0 0 0 0.12676 -0.30489 -0.94391 0.034255
-0.0049218 0.19294 1.1176 6.5459e-39 323 329.5 0 0 0 0.096226 -0.31018 -0.94579 0.036065
-0.0029605 0.19294 1.1176 6.3154e-39 324.5 329.5 0 0 0 0.045662 -0.32886 -0.94327 0.036251
-0.00099911 0.19294 1.1176 6.0849e-39 326 329.5 0 0 0 -0.019628 -0.34775 -0.93738 0.029092
0.00096153 0.19285 1.1171 5.9927e-39 327.5 329.5 0 0 0 -0.0743 -0.36231 -0.92909 0.025423
0.0029209 0.19211 1.1166 6.7303e-39 446 329 0 0 0 -0.11954 -0.34828 -0.92974 0.018953
0.0048824 0.1922 1.1171 7.1913e-39 447.5 329 0 0 0 -0.15842 -0.35377 -0.92182 0.0158
0.0094529 0.19211 1.1166 6.0849e-39 451 329 0 0 0 -0.2467 -0.35969 -0.89987 0.01117
-0.012756 0.19472 1.1166 5.9927e-39 367 330 0 0 0 0.16129 -0.20329 -0.96574 0.027761
-0.010806 0.1949 1.1176 5.9466e-39 368.5 330 0 0 0 0.16334 -0.23041 -0.95929 0.031868
-0.0088445 0.1949 1.1176 5.9927e-39 370 330 0 0 0 0.15226 -0.23085 -0.961 0.033389
-0.0068831 0.1949 1.1176 6.2232e-39 371.5 330 0 0 0 0.13379 -0.24715 -0.9597 0.036105
-0.0049218 0.1949 1.1176 6.5459e-39 373 330 0 0 0 0.10121 -0.27864 -0.95505 0.036905
-0.0029605 0.1949 1.1176 6.131e-39 374.5 330 0 0 0 0.028532 -0.31125 -0.9499 0.032369
-0.0088445 0.19621 1.1176 5.9927e-39 420 330 0 0 0 0.15158 -0.1704 -0.97365 0.032464
0.026928 0.15106 1.1189 6.1771e-39 340 315 0 0 0 -0.42016 -0.40428 -0.81242 0.019973
-0.033749 0.15334 1.1196 8.3898e-39 419 315 0 0 0 0.31257 -0.15077 -0.93785 0.020238
0.025186 0.15262 1.1191 6.4076e-39 310.5 315.5 0 0 0 -0.43356 -0.35912 -0.82647 0.018085
-0.052719 0.15458 1.1191 6.131e-39 305.5 316 0 0 0 0.5648 -0.29563 -0.77046 0.057921
-0.050732 0.15582 1.1186 7.1913e-39 389 316 0 0 0 0.54351 -0.25637 -0.7993 0.055432
-0.049003 0.15499 1.1189 5.9005e-39 335.67 316 0 0 0 0.50288 -0.24233 -0.82969 0.058086
-0.046806 0.15582 1.1186 6.3615e-39 392 316 0 0 0 0.47327 -0.21628 -0.85396 0.052453
-0.044884 0.15596 1.1196 6.8686e-39 393.5 316 0 0 0 0.42648 -0.21226 -0.87924 0.047589
-0.042899 0.15523 1.1191 6.0388e-39 354 316 0 0 0 0.4032 -0.21794 -0.88878 0.044064
-0.040945 0.15527 1.1193 6.0388e-39 355.5 316 0 0 0 0.37962 -0.20617 -0.90188 0.038285
-0.037024 0.15596 1.1196 8.021e-39 399.5 316 0 0 0 0.34057 -0.17315 -0.92414 0.027426
-0.033749 0.1553 1.1196 6.7764e-39 361 316 0 0 0 0.32615 -0.14673 -0.93386 0.018978
0.021268 0.1553 1.1196 7.6983e-39 403 316 0 0 0 -0.43839 -0.30638 -0.84495 0.014976
0.023233 0.15596 1.1196 6.2232e-39 445.5 316 0 0 0 -0.4456 -0.29901 -0.84382 0.015851
-0.046806 0.15712 1.1186 6.2693e-39 235 317 0 0 0 0.47999 -0.20738 -0.85241 0.049187
-0.044843 0.15712 1.1186 5.9005e-39 236.5 317 0 0 0 0.44883 -0.20598 -0.86955 0.046355
-0.04288 0.15712 1.1186 5.7161e-39 238 317 0 0 0 0.42483 -0.19676 -0.88363 0.042251
-0.040916 0.15712 1.1186 6.0849e-39 253.5 317 0 0 0 0.4046 -0.19532 -0.89339 0.038035
-0.038989 0.15727 1.1196 5.8083e-39 256 317 0 0 0 0.35864 -0.181 -0.91576 0.029655
-0.037024 0.15727 1.1196 5.7622e-39 257.5 317 0 0 0 0.35084 -0.16925 -0.92101 0.026398
-0.033749 0.15727 1.1196 5.5317e-39 260 317 0 0 0 0.33535 -0.14531 -0.93082 0.017983
0.021249 0.15712 1.1186 5.3473e-39 309 317 0 0 0 -0.44065 -0.29123 -0.84912 0.014327
0.023222 0.1572 1.1191 5.3934e-39 310.5 317 0 0 0 -0.44688 -0.29452 -0.84472 0.015138
-0.044843 0.15843 1.1186 7.8366e-39 343.5 317 0 0 0 0.45869 -0.19663 -0.86657 0.044207
-0.04288 0.15909 1.1186 6.7764e-39 391 317 0 0 0 0.43546 -0.18968 -0.88 0.038877
-0.040916 0.15909 1.1186 6.7072e-39 392.5 317 0 0 0 0.41646 -0.18509 -0.89011 0.034893
-0.038989 0.15924 1.1196 7.1452e-39 394 317 0 0 0 0.37083 -0.18131 -0.91083 0.027774
-0.037024 0.15924 1.1196 7.6061e-39 395.5 317 0 0 0 0.36535 -0.16652 -0.91585 0.024056
0.021268 0.15924 1.1196 6.5919e-39 327.5 317.5 0 0 0 -0.44009 -0.28053 -0.85301 0.013319
0.023217 0.15912 1.1188 7.099e-39 329 317.5 0 0 0 -0.4536 -0.28643 -0.84392 0.01443
-0.04288 0.16105 1.1186 5.8083e-39 304 318 0 0 0 0.44065 -0.18986 -0.87737 0.035837
-0.040916 0.16105 1.1186 6.0849e-39 305.5 318 0 0 0 0.41424 -0.18524 -0.89112 0.032326
-0.038989 0.1612 1.1196 5.9005e-39 307 318 0 0 0 0.38623 -0.1796 -0.90475 0.02651
-0.037679 0.1612 1.1196 5.4395e-39 308 318 0 0 0 0.37648 -0.17451 -0.90984 0.023066
0.019958 0.1612 1.1196 8.1132e-39 352 318 0 0 0 -0.43393 -0.27051 -0.85937 0.012286
0.021249 0.16105 1.1186 8.021e-39 353 318 0 0 0 -0.44729 -0.26952 -0.85281 0.01317
0.023211 0.16105 1.1186 8.8969e-39 354.5 318 0 0 0 -0.45617 -0.2658 -0.84927 0.014223
-0.04288 0.16302 1.1186 7.3757e-39 335.5 318.5 0 0 0 0.44947 -0.19142 -0.87254 0.033566
-0.040916 0.16302 1.1186 7.514e-39 337 318.5 0 0 0 0.42569 -0.18997 -0.8847 0.030281
-0.038989 0.16317 1.1196 7.053e-39 338.5 318.5 0 0 0 0.39259 -0.18595 -0.90072 0.025106
-0.037024 0.16317 1.1196 6.7533e-39 340 318.5 0 0 0 0.3806 -0.17377 -0.90827 0.018992
0.017338 0.16317 1.1196 6.2693e-39 384.5 318.5 0 0 0 -0.41188 -0.25898 -0.87366 0.0086703
0.019521 0.16338 1.1196 6.6074e-39 363 318.67 0 0 0 -0.42967 -0.24944 -0.86785 0.0096456
0.021249 0.16236 1.1186 6.5459e-39 457 318 0 0 0 -0.4458 -0.24677 -0.86045 0.01064
-0.04288 0.16498 1.1186 6.9147e-39 367 319 0 0 0 0.45301 -0.19842 -0.86915 0.03084
-0.040916 0.16498 1.1186 6.592e-39 368.5 319 0 0 0 0.43158 -0.18895 -0.88206 0.028647
-0.038989 0.16513 1.1196 6.2693e-39 370 319 0 0 0 0.39228 -0.18778 -0.90047 0.023354
-0.037024 0.16513 1.1196 6.4998e-39 371.5 319 0 0 0 0.37985 -0.18666 -0.90602 0.019613
0.017338 0.16513 1.1196 7.7444e-39 415 319 0 0 0 -0.401 -0.24709 -0.88213 0.006635
0.019303 0.16513 1.1196 7.7444e-39 416.5 319 0 0 0 -0.42111 -0.24167 -0.87422 0.0081227
-0.04288 0.16694 1.1186 7.3757e-39 282 320 0 0 0 0.46657 -0.21198 -0.8587 0.029194
-0.040698 0.16672 1.1186 6.6995e-39 263.67 320 0 0 0 0.42873 -0.18673 -0.88393 0.023913
-0.038989 0.1671 1.1196 6.7764e-39 285 320 0 0 0 0.39022 -0.19021 -0.90086 0.02045
-0.037024 0.1671 1.1196 7.3987e-39 286.5 320 0 0 0 0.3694 -0.19944 -0.90762 0.020296
0.014718 0.1671 1.1196 8.0671e-39 334 320 0 0 0 -0.37874 -0.23898 -0.89412 0.0039795
0.016679 0.16706 1.1194 7.9288e-39 335.5 320 0 0 0 -0.38844 -0.23496 -0.89102 0.0044444
0.019294 0.16702 1.1191 7.8827e-39 337.5 320 0 0 0 -0.41326 -0.2247 -0.88245 0.0052957
-0.040262 0.1689 1.1186 5.9927e-39 460 320 0 0 0 0.4294 -0.19984 -0.88072 0.021112
-0.038954 0.1689 1.1186 6.1771e-39 461 320 0 0 0 0.40379 -0.19934 -0.89287 0.019359
-0.037024 0.16906 1.1196 6.4998e-39 462.5 320 0 0 0 0.36635 -0.20406 -0.90782 0.018643
0.014718 0.16906 1.1196 7.6522e-39 234 321 0 0 0 -0.36935 -0.23301 -0.8996 0.0033756
0.016675 0.16898 1.1191 7.0991e-39 241.5 321 0 0 0 -0.38382 -0.22808 -0.8948 0.0036406
0.019286 0.1689 1.1186 6.1771e-39 249.5 321 0 0 0 -0.41246 -0.22214 -0.88348 0.0046693
-0.040262 0.17086 1.1186 6.1771e-39 369 321 0 0 0 0.42439 -0.19668 -0.88386 0.019873
-0.038954 0.17086 1.1186 6.6381e-39 370 321 0 0 0 0.40836 -0.20096 -0.89043 0.019418
-0.037024 0.17103 1.1196 6.6842e-39 371.5 321 0 0 0 0.36364 -0.20641 -0.90838 0.019042
0.010789 0.17103 1.1196 6.7764e-39 274 321.5 0 0 0 -0.34509 -0.25495 -0.90328 0.0044098
0.012535 0.17124 1.1196 6.3922e-39 251.67 321.67 0 0 0 -0.3545 -0.24508 -0.90237 0.0035806
0.014705 0.17086 1.1186 7.2835e-39 279 321.5 0 0 0 -0.36337 -0.23244 -0.90218 0.0033363
0.016668 0.17086 1.1186 7.3987e-39 280.5 321.5 0 0 0 -0.38205 -0.22794 -0.89559 0.0036029
0.019067 0.17065 1.1186 7.9596e-39 308 321.33 0 0 0 -0.40716 -0.22152 -0.88609 0.0043613
-0.040916 0.17283 1.1186 8.9891e-39 283.5 322 0 0 0 0.43908 -0.21841 -0.8715 0.020926
-0.038954 0.17283 1.1186 9.404e-39 285 322 0 0 0 0.39793 -0.2189 -0.89092 0.020171
-0.037024 0.17299 1.1196 1.0049e-38 286.5 322 0 0 0 0.35282 -0.22625 -0.90793 0.021929
-0.035059 0.17299 1.1196 9.3118e-39 288 322 0 0 0 0.31711 -0.24497 -0.91621 0.023896
0.010789 0.17299 1.1196 5.7161e-39 321 322 0 0 0 -0.32946 -0.26233 -0.90699 0.0054112
0.012753 0.17299 1.1196 6.3615e-39 322.5 322 0 0 0 -0.34636 -0.24734 -0.90491 0.0035918
0.014705 0.17283 1.1186 6.1771e-39 324 322 0 0 0 -0.357 -0.24021 -0.90269 0.0034835
0.016668 0.17283 1.1186 5.7161e-39 325.5 322 0 0 0 -0.37743 -0.23668 -0.89528 0.0039742
0.018631 0.17283 1.1186 5.6239e-39 327 322 0 0 0 -0.40192 -0.2282 -0.88679 0.004552
-0.038954 0.17414 1.1186 7.9288e-39 395 322 0 0 0 0.39007 -0.22694 -0.89238 0.021266
-0.036999 0.17483 1.1188 7.6061e-39 327 322.5 0 0 0 0.34407 -0.24927 -0.90525 0.025268
-0.035059 0.17496 1.1196 7.6061e-39 328.5 322.5 0 0 0 0.30192 -0.27323 -0.91334 0.026613
-0.033094 0.17495 1.1196 7.3526e-39 330 322.5 0 0 0 0.26445 -0.29608 -0.91783 0.028245
-0.029374 0.17512 1.1193 7.0683e-39 309.67 322.67 0 0 0 0.21819 -0.35313 -0.90978 0.030024
-0.02327 0.17561 1.1196 6.7303e-39 268 323 0 0 0 0.19766 -0.41434 -0.8884 0.031123
-0.021305 0.17561 1.1196 6.3154e-39 269.5 323 0 0 0 0.19808 -0.43071 -0.88048 0.029938
-0.018685 0.17496 1.1196 7.1452e-39 341 322.5 0 0 0 0.1989 -0.44976 -0.87072 0.028263
0.010789 0.17496 1.1196 7.9288e-39 364 322.5 0 0 0 -0.31594 -0.26988 -0.90959 0.0061421
0.012753 0.17495 1.1196 8.3898e-39 365.5 322.5 0 0 0 -0.33858 -0.25641 -0.90533 0.0038559
0.014705 0.1748 1.1186 8.5742e-39 367 322.5 0 0 0 -0.35429 -0.25179 -0.9006 0.0040287
0.016668 0.17414 1.1186 6.5459e-39 436.5 322 0 0 0 -0.37484 -0.24126 -0.89515 0.0040957
0.018631 0.17414 1.1186 6.0849e-39 438 322 0 0 0 -0.39616 -0.2378 -0.88685 0.005053
-0.036991 0.17676 1.1186 7.0069e-39 375.5 323 0 0 0 0.32344 -0.27653 -0.90494 0.026365
-0.035059 0.17692 1.1196 7.1913e-39 377 323 0 0 0 0.28511 -0.30082 -0.91006 0.028354
-0.033094 0.17692 1.1196 6.8686e-39 378.5 323 0 0 0 0.24103 -0.33385 -0.91129 0.029867
-0.029151 0.17684 1.1191 7.0069e-39 381.5 323 0 0 0 0.1974 -0.37383 -0.90625 0.028509
-0.02458 0.17692 1.1196 6.0849e-39 385 323 0 0 0 0.1802 -0.4143 -0.89212 0.029688
-0.02327 0.17692 1.1196 5.9927e-39 386 323 0 0 0 0.18282 -0.42532 -0.88639 0.029534
-0.021295 0.17684 1.1191 6.3154e-39 387.5 323 0 0 0 0.18701 -0.43641 -0.8801 0.028698
-0.018014 0.17676 1.1186 7.7444e-39 390 323 0 0 0 0.17505 -0.46431 -0.8682 0.027093
0.010779 0.17676 1.1186 8.3898e-39 412 323 0 0 0 -0.30052 -0.28222 -0.91106 0.0077263
0.012741 0.17676 1.1186 7.8366e-39 413.5 323 0 0 0 -0.33426 -0.26829 -0.90349 0.004492
-0.036336 0.17806 1.1186 5.4395e-39 217 324 0 0 0 0.29324 -0.30187 -0.90713 0.028711
-0.035027 0.17871 1.1186 6.4076e-39 291.5 324 0 0 0 0.25862 -0.32992 -0.90789 0.031079
-0.033087 0.17884 1.1194 7.4909e-39 293 324 0 0 0 0.21974 -0.35854 -0.90728 0.02934
-0.031129 0.17954 1.1196 7.0069e-39 368 324 0 0 0 0.19306 -0.37413 -0.90706 0.027161
-0.028929 0.17855 1.1189 7.3449e-39 271.67 324 0 0 0 0.18286 -0.38705 -0.90375 0.027453
-0.0272 0.17954 1.1196 6.2693e-39 371 324 0 0 0 0.16312 -0.41076 -0.89703 0.027531
-0.025438 0.17855 1.1189 7.5293e-39 274.33 324 0 0 0 0.16474 -0.42078 -0.89208 0.027679
-0.023249 0.17806 1.1186 8.482e-39 227 324 0 0 0 0.16732 -0.42636 -0.88895 0.028308
-0.021286 0.17806 1.1186 8.6664e-39 228.5 324 0 0 0 0.17311 -0.44628 -0.87799 0.028149
-0.016705 0.17806 1.1186 7.9288e-39 232 324 0 0 0 0.15906 -0.47735 -0.8642 0.026871
-0.014755 0.17888 1.1196 7.6983e-39 307 324 0 0 0 0.13766 -0.48736 -0.86228 0.026723
-0.01104 0.17905 1.1193 6.6688e-39 338.33 324 0 0 0 0.10379 -0.50111 -0.85914 0.028147
-0.0088605 0.17888 1.1196 6.2693e-39 317.5 324 0 0 0 0.061919 -0.4967 -0.86571 0.030566
0.0094786 0.17954 1.1196 8.943e-39 399 324 0 0 0 -0.26456 -0.30309 -0.9155 0.010307
0.010779 0.17871 1.1186 7.3757e-39 332.5 324 0 0 0 -0.29245 -0.29191 -0.91064 0.0085757
0.012523 0.1785 1.1186 7.0991e-39 311.33 324 0 0 0 -0.32737 -0.27831 -0.90298 0.0052732
-0.035027 0.18068 1.1186 5.6239e-39 190 325 0 0 0 0.24146 -0.35717 -0.90229 0.032963
-0.033072 0.18138 1.1188 5.9927e-39 280.5 325 0 0 0 0.19488 -0.36938 -0.90861 0.028315
-0.031115 0.18142 1.1191 5.7622e-39 282 325 0 0 0 0.17851 -0.38317 -0.90627 0.026252
-0.027175 0.18068 1.1186 5.3473e-39 196 325 0 0 0 0.14985 -0.40949 -0.89992 0.026002
-0.014088 0.18068 1.1186 5.163e-39 214 325 0 0 0 0.12742 -0.49535 -0.8593 0.027607
-0.01279 0.18085 1.1196 5.163e-39 215 325 0 0 0 0.11805 -0.49819 -0.85899 0.028093
-0.010161 0.18068 1.1186 5.4395e-39 217 325 0 0 0 0.095582 -0.48978 -0.86659 0.029554
-0.0088525 0.18068 1.1186 6.1771e-39 218 325 0 0 0 0.076381 -0.47997 -0.87395 0.030872
-0.0066732 0.18117 1.1189 8.0517e-39 276.33 325 0 0 0 0.051905 -0.46347 -0.88459 0.032837
0.0068556 0.18142 1.1191 8.3437e-39 315 325 0 0 0 -0.21879 -0.3277 -0.9191 0.014032
0.0094786 0.18085 1.1196 8.2054e-39 232 325 0 0 0 -0.26095 -0.30991 -0.91425 0.010635
0.010779 0.18068 1.1186 8.5742e-39 233 325 0 0 0 -0.28303 -0.30332 -0.90988 0.0090297
0.012087 0.18068 1.1186 8.7586e-39 234 325 0 0 0 -0.30575 -0.29726 -0.90452 0.0074273
-0.033064 0.1833 1.1186 5.5317e-39 202.5 326 0 0 0 0.17777 -0.38381 -0.90614 0.028379
-0.006235 0.1833 1.1186 8.2054e-39 223 326 0 0 0 0.063729 -0.447 -0.89226 0.033552
-0.0023109 0.18346 1.1196 8.8508e-39 226 326 0 0 0 -0.0025003 -0.42376 -0.90577 0.036678
0.0011818 0.18297 1.1193 8.6664e-39 284.33 325.67 0 0 0 -0.10371 -0.38007 -0.91913 0.026629
0.0029289 0.18281 1.1196 8.8969e-39 313.5 325.5 0 0 0 -0.14865 -0.36534 -0.91893 0.019986
0.0051121 0.18303 1.1196 8.6971e-39 287.33 325.67 0 0 0 -0.18345 -0.35048 -0.91843 0.016462
0.0068525 0.1833 1.1186 8.8508e-39 233 326 0 0 0 -0.20925 -0.33638 -0.91819 0.014414
0.0088196 0.18273 1.1191 8.4359e-39 318 325.5 0 0 0 -0.24152 -0.32598 -0.91401 0.01216
-0.033064 0.18461 1.1186 6.6381e-39 377.5 326 0 0 0 0.17133 -0.38727 -0.90591 0.028422
-0.006235 0.18592 1.1186 8.3898e-39 228 327 0 0 0 0.076019 -0.43289 -0.89824 0.032949
-0.0049307 0.18477 1.1196 8.021e-39 399 326 0 0 0 0.049216 -0.43119 -0.90092 0.035496
-0.0029659 0.18477 1.1196 7.7905e-39 400.5 326 0 0 0 0.019195 -0.41708 -0.90867 0.037169
-0.0010009 0.18477 1.1196 8.021e-39 402 326 0 0 0 -0.023541 -0.40478 -0.91411 0.036251
0.00096326 0.18534 1.1191 8.2054e-39 318.5 326.5 0 0 0 -0.089115 -0.37675 -0.92202 0.025968
0.0029262 0.18527 1.1186 8.2976e-39 320 326.5 0 0 0 -0.13395 -0.35627 -0.92473 0.019242
0.0051087 0.1851 1.1189 8.2669e-39 353.67 326.33 0 0 0 -0.17282 -0.35092 -0.92032 0.016357
0.0088156 0.18527 1.1186 7.5601e-39 330 326.5 0 0 0 -0.23813 -0.33444 -0.91184 0.01207
-0.006235 0.18723 1.1186 7.56e-39 413 327 0 0 0 0.083412 -0.40061 -0.91244 0.032416
-0.0049307 0.18674 1.1196 7.3757e-39 321.5 327 0 0 0 0.065911 -0.40839 -0.91042 0.035268
-0.0029659 0.18674 1.1196 7.3757e-39 323 327 0 0 0 0.023746 -0.40776 -0.91278 0.035789
-0.0010009 0.18674 1.1196 7.8827e-39 324.5 327 0 0 0 -0.027681 -0.39929 -0.9164 0.03246
0.00074517 0.1869 1.1193 7.4371e-39 356.67 327 0 0 0 -0.078513 -0.37957 -0.92182 0.026551
0.0029262 0.18723 1.1186 6.5459e-39 420 327 0 0 0 -0.12562 -0.35602 -0.926 0.019701
0.0046738 0.1869 1.1193 6.9147e-39 359.67 327 0 0 0 -0.16235 -0.35519 -0.92059 0.016456
0.0088156 0.18723 1.1186 6.9147e-39 424.5 327 0 0 0 -0.23711 -0.33595 -0.91154 0.011092
-0.014088 0.18984 1.1186 6.8225e-39 433 328 0 0 0 0.13864 -0.37579 -0.91627 0.029563
-0.010597 0.1894 1.1186 7.4679e-39 367 328 0 0 0 0.13555 -0.37459 -0.91723 0.029268
-0.0088525 0.18918 1.1186 7.6522e-39 334 328 0 0 0 0.12954 -0.37616 -0.91746 0.030102
-0.006235 0.18918 1.1186 7.9288e-39 336 328 0 0 0 0.093645 -0.36951 -0.92449 0.032518
-0.0049285 0.18927 1.1191 7.7444e-39 337 328 0 0 0 0.085773 -0.36326 -0.92773 0.033605
-0.0029637 0.18923 1.1188 7.2604e-39 341.5 328 0 0 0 0.042977 -0.37344 -0.92666 0.035605
-0.0010004 0.18927 1.1191 7.0069e-39 346 328 0 0 0 -0.016303 -0.37213 -0.92804 0.030642
0.00030901 0.1887 1.1196 7.4678e-39 250 328 0 0 0 -0.068066 -0.37011 -0.92649 0.024717
0.0029262 0.18853 1.1186 6.2693e-39 252 328 0 0 0 -0.11949 -0.34755 -0.93002 0.019858
0.0046725 0.18902 1.1189 6.3e-39 318.33 328 0 0 0 -0.15717 -0.35467 -0.92169 0.016634
-0.014088 0.19115 1.1186 7.3757e-39 251 329 0 0 0 0.14222 -0.3267 -0.93437 0.028402
-0.010816 0.19115 1.1186 6.2232e-39 253.5 329 0 0 0 0.14748 -0.33045 -0.93223 0.029141
-0.0088525 0.19115 1.1186 6.1771e-39 255 329 0 0 0 0.13987 -0.32484 -0.93537 0.029579
-0.006235 0.19115 1.1186 5.7161e-39 257 329 0 0 0 0.10757 -0.33639 -0.93556 0.0331
-0.0049263 0.19115 1.1186 5.6239e-39 258 329 0 0 0 0.092172 -0.33338 -0.93828 0.034197
-0.0023088 0.19115 1.1186 6.4537e-39 260 329 0 0 0 0.02494 -0.35589 -0.9342 0.033616
-0.001 0.19115 1.1186 7.0069e-39 261 329 0 0 0 -0.013119 -0.35683 -0.93408 0.030622
0.00030887 0.19058 1.1191 7.514e-39 399 328.5 0 0 0 -0.061532 -0.36285 -0.92982 0.024503
-0.014088 0.19311 1.1186 6.2693e-39 314 329.5 0 0 0 0.1524 -0.26183 -0.95301 0.027584
-0.010597 0.1929 1.1186 6.6688e-39 357.67 329.33 0 0 0 0.15178 -0.28648 -0.94599 0.029679
-0.0088525 0.19311 1.1186 6.0849e-39 320 329.5 0 0 0 0.15085 -0.28781 -0.94573 0.031896
-0.014088 0.19508 1.1186 6.5459e-39 366 330 0 0 0 0.15684 -0.18731 -0.9697 0.027853
-0.042997 0.14968 1.1217 9.3118e-39 357 314 0 0 0 0.30318 -0.29141 -0.90728 0.046658
-0.03378 0.14889 1.1207 7.6522e-39 378.5 313.5 0 0 0 0.26756 -0.1959 -0.94342 0.021968
-0.031186 0.14837 1.1217 6.6381e-39 394 313 0 0 0 0.29962 -0.15897 -0.94072 0.023156
-0.042997 0.15099 1.1217 7.0991e-39 389 314 0 0 0 0.32262 -0.26659 -0.90821 0.045577
-0.041685 0.15099 1.1217 6.8225e-39 390 314 0 0 0 0.31097 -0.26829 -0.91177 0.041569
-0.03378 0.15085 1.1207 6.0849e-39 396 314 0 0 0 0.27856 -0.18035 -0.94333 0.026446
-0.029874 0.15099 1.1217 6.4537e-39 399 314 0 0 0 0.32835 -0.1233 -0.93648 0.020758
0.025221 0.15085 1.1207 5.4395e-39 313 315 0 0 0 -0.425 -0.38253 -0.82039 0.018018
-0.05612 0.15361 1.1217 7.7444e-39 402 315 0 0 0 0.5864 -0.39303 -0.70829 0.061743
-0.054758 0.15348 1.1207 7.9288e-39 403 315 0 0 0 0.5609 -0.38336 -0.73377 0.059092
-0.04888 0.15354 1.1212 9.0813e-39 407.5 315 0 0 0 0.43484 -0.27857 -0.85634 0.062335
-0.046934 0.15361 1.1217 8.6664e-39 409 315 0 0 0 0.39693 -0.25542 -0.88159 0.056874
-0.044965 0.15361 1.1217 8.2054e-39 410.5 315 0 0 0 0.37172 -0.23791 -0.89734 0.050877
-0.042958 0.15282 1.1207 7.3757e-39 370.5 315 0 0 0 0.35948 -0.24613 -0.90011 0.045293
-0.041001 0.15285 1.1209 7.0991e-39 372 315 0 0 0 0.32791 -0.22869 -0.91661 0.037186
-0.037288 0.15309 1.121 7.4986e-39 388.67 315 0 0 0 0.30682 -0.18728 -0.93316 0.028398
-0.035123 0.15361 1.1217 8.6664e-39 418 315 0 0 0 0.31097 -0.16043 -0.93678 0.025088
-0.032925 0.15269 1.1214 7.0069e-39 365 315 0 0 0 0.31671 -0.13746 -0.93851 0.02007
-0.031186 0.15361 1.1217 7.8366e-39 421 315 0 0 0 0.33519 -0.1218 -0.93424 0.018239
-0.029874 0.15295 1.1217 7.8366e-39 385 315 0 0 0 0.34404 -0.10834 -0.93268 0.018751
0.019994 0.15361 1.1217 6.1771e-39 230 316 0 0 0 -0.42653 -0.33132 -0.84161 0.015146
0.021297 0.15289 1.1212 6.0849e-39 307.5 315.5 0 0 0 -0.42946 -0.33729 -0.83773 0.016192
0.023487 0.15313 1.1214 6.0849e-39 283.67 315.67 0 0 0 -0.4318 -0.34097 -0.83504 0.016538
-0.050871 0.15493 1.1217 5.8083e-39 307 316 0 0 0 0.48929 -0.27901 -0.82628 0.062474
-0.046891 0.15479 1.1207 5.5317e-39 310 316 0 0 0 0.42371 -0.23483 -0.87483 0.055093
-0.044924 0.15479 1.1207 5.5317e-39 311.5 316 0 0 0 0.40014 -0.22363 -0.88875 0.048498
-0.03906 0.15493 1.1217 6.1771e-39 316 316 0 0 0 0.33058 -0.18561 -0.92535 0.030466
-0.037057 0.15479 1.1207 6.1771e-39 317.5 316 0 0 0 0.32256 -0.17195 -0.9308 0.026809
-0.035091 0.15479 1.1207 5.9005e-39 319 316 0 0 0 0.32315 -0.1562 -0.93337 0.024328
-0.032469 0.15479 1.1207 5.3473e-39 321 316 0 0 0 0.33118 -0.13255 -0.93421 0.018406
-0.031186 0.15493 1.1217 5.4395e-39 322 316 0 0 0 0.34479 -0.11996 -0.93098 0.017762
-0.029204 0.15486 1.1212 5.9927e-39 323.5 316 0 0 0 0.35147 -0.10842 -0.9299 0.01647
0.01737 0.15493 1.1217 8.482e-39 359 316 0 0 0 -0.4183 -0.3175 -0.85101 0.013698
0.019338 0.15493 1.1217 8.7125e-39 360.5 316 0 0 0 -0.42378 -0.31009 -0.85103 0.013963
0.023254 0.15479 1.1207 8.943e-39 363.5 316 0 0 0 -0.43751 -0.31632 -0.84174 0.016022
-0.039024 0.1561 1.1207 7.2835e-39 398 316 0 0 0 0.34545 -0.18011 -0.92099 0.029943
-0.035091 0.15676 1.1207 7.0529e-39 330 316.5 0 0 0 0.32955 -0.15533 -0.93127 0.022598
-0.032469 0.15676 1.1207 6.8224e-39 332 316.5 0 0 0 0.34133 -0.13591 -0.93007 0.01677
-0.031186 0.1569 1.1217 7.053e-39 333 316.5 0 0 0 0.35264 -0.12558 -0.92729 0.016804
-0.029211 0.15686 1.1215 7.2835e-39 334.5 316.5 0 0 0 0.36136 -0.12388 -0.92416 0.016353
0.016922 0.15702 1.121 6.1156e-39 350.67 316.67 0 0 0 -0.41752 -0.29936 -0.85794 0.012479
0.01932 0.15676 1.1207 5.8774e-39 375 316.5 0 0 0 -0.42837 -0.29524 -0.85401 0.013505
-0.035091 0.15872 1.1207 8.482e-39 351 317 0 0 0 0.34463 -0.15486 -0.92588 0.020576
-0.033124 0.15872 1.1207 8.021e-39 352.5 317 0 0 0 0.34704 -0.14671 -0.92631 0.016015
-0.031186 0.15886 1.1217 8.482e-39 354 317 0 0 0 0.35812 -0.14407 -0.92249 0.016134
-0.029874 0.15886 1.1217 8.7586e-39 355 317 0 0 0 0.35836 -0.15278 -0.921 0.017115
0.016705 0.15879 1.1212 6.6381e-39 393.5 317 0 0 0 -0.41402 -0.28997 -0.86285 0.01166
0.01932 0.15872 1.1207 6.6381e-39 395.5 317 0 0 0 -0.42743 -0.28342 -0.85847 0.012821
-0.036402 0.16134 1.1207 5.3473e-39 309 318 0 0 0 0.35931 -0.16988 -0.91763 0.021166
-0.035107 0.16076 1.1212 5.8544e-39 376.5 317.5 0 0 0 0.34138 -0.16513 -0.92531 0.018843
-0.033132 0.16072 1.1209 5.6239e-39 378 317.5 0 0 0 0.35074 -0.16006 -0.92269 0.015984
-0.031186 0.16083 1.1217 5.8544e-39 379.5 317.5 0 0 0 0.3564 -0.16749 -0.9192 0.017025
-0.029874 0.16083 1.1217 5.8544e-39 381.5 317.5 0 0 0 0.35777 -0.17518 -0.91723 0.017707
0.014745 0.16083 1.1217 7.514e-39 300 318 0 0 0 -0.39456 -0.29266 -0.87102 0.010292
0.016702 0.16072 1.1209 7.7905e-39 301.75 318 0 0 0 -0.41038 -0.28156 -0.86736 0.010925
0.019102 0.16047 1.1207 6.6073e-39 288 318 0 0 0 -0.42217 -0.27595 -0.8635 0.011901
-0.035107 0.16338 1.1212 6.7764e-39 341.5 318.5 0 0 0 0.34416 -0.17293 -0.92285 0.015694
-0.033132 0.16334 1.1209 7.2374e-39 343 318.5 0 0 0 0.34732 -0.18185 -0.91994 0.0171
-0.031186 0.1628 1.1217 8.2054e-39 411 318 0 0 0 0.35023 -0.18686 -0.91784 0.017885
-0.029874 0.1628 1.1217 8.482e-39 412 318 0 0 0 0.35373 -0.19057 -0.91573 0.018877
0.01212 0.1628 1.1217 5.9005e-39 444 318 0 0 0 -0.37571 -0.28308 -0.88244 0.0073562
0.014732 0.1633 1.1207 5.7161e-39 382.5 318.5 0 0 0 -0.39044 -0.27594 -0.8783 0.0076525
0.016043 0.1633 1.1207 5.9005e-39 383.5 318.5 0 0 0 -0.39584 -0.26744 -0.87852 0.0078939
0.018665 0.16265 1.1207 6.6381e-39 455 318 0 0 0 -0.41818 -0.26522 -0.86878 0.010905
