# .PCD v.7 - Point Cloud Data file format
VERSION .7
FIELDS x y z rgb u v vx vy vz normal_x normal_y normal_z curvature
SIZE 4 4 4 4 4 4 4 4 4 4 4 4 4
TYPE F F F F F F F F F F F F F
COUNT 1 1 1 1 1 1 1 1 1 1 1 1 1
WIDTH 552
HEIGHT 1
VIEWPOINT 0 0 0 1 0 0 0
POINTS 552
DATA ascii
0.027616 0.20289 0.97395 5.7161e-39 442 330 0 0 0 0.29353 0.35998 -0.88558 0.016338
0.028756 0.20289 0.97395 5.8083e-39 443 330 0 0 0 0.31292 0.35371 -0.88146 0.017124
-0.0094133 0.20509 0.97356 6.0388e-39 199.5 331 0 0 0 -0.21303 0.41629 -0.88393 0.0068667
-0.0071266 0.20485 0.97242 5.9927e-39 201.5 331 0 0 0 -0.18214 0.3923 -0.90162 0.0077516
-0.0054243 0.20501 0.97318 6.1771e-39 203 331 0 0 0 -0.15026 0.38613 -0.91012 0.010822
-0.0031447 0.20599 0.97242 6.0849e-39 364 331 0 0 0 -0.11697 0.38592 -0.91509 0.010869
-0.0008693 0.20599 0.97242 6.4537e-39 366 331 0 0 0 -0.080597 0.37629 -0.92299 0.01044
0.00083724 0.20542 0.97242 6.4537e-39 287.5 331 0 0 0 -0.062582 0.37211 -0.92607 0.010275
0.003114 0.2055 0.9728 6.2232e-39 289.5 331 0 0 0 -0.033161 0.36647 -0.92984 0.0086525
0.0053964 0.2046 0.97395 6.8916e-39 362 330.5 0 0 0 -0.0049807 0.35904 -0.93331 0.0075151
0.0071029 0.20452 0.97356 8.1133e-39 364 330.5 0 0 0 0.014066 0.35849 -0.93343 0.0068184
0.0088011 0.20485 0.97242 6.3154e-39 214.5 331 0 0 0 0.039901 0.35948 -0.9323 0.0060228
0.011077 0.20542 0.97242 5.9927e-39 296.5 331 0 0 0 0.066809 0.37064 -0.92637 0.0053663
0.013357 0.2055 0.9728 6.3615e-39 298.5 331 0 0 0 0.091735 0.37735 -0.92151 0.0053789
0.01507 0.20501 0.97318 7.2835e-39 220 331 0 0 0 0.10785 0.37767 -0.91964 0.0055254
0.016765 0.20542 0.97242 6.3154e-39 301.5 331 0 0 0 0.12624 0.37535 -0.91825 0.0061399
0.021325 0.20493 0.9728 6.8225e-39 225.5 331 0 0 0 0.18173 0.37487 -0.90909 0.0091007
0.023058 0.20517 0.97395 6.9147e-39 227 331 0 0 0 0.20355 0.38073 -0.902 0.01078
0.024767 0.20517 0.97395 6.6381e-39 228.5 331 0 0 0 0.23109 0.38033 -0.89552 0.011959
-0.0069442 0.20658 0.97344 7.9288e-39 385 331 0 0 0 -0.18169 0.41482 -0.89158 0.007406
-0.0046678 0.20664 0.97369 6.9147e-39 387 331 0 0 0 -0.14322 0.39686 -0.90664 0.010116
-0.0023887 0.20696 0.97344 6.3e-39 413.33 331 0 0 0 -0.11168 0.39931 -0.90999 0.010092
-0.00087067 0.20745 0.97395 6.0849e-39 439 331 0 0 0 -0.088914 0.39377 -0.9149 0.010252
0.001028 0.20696 0.97344 6.0234e-39 416.33 331 0 0 0 -0.063991 0.38457 -0.92088 0.009841
0.0031165 0.2068 0.97356 5.8544e-39 406 331 0 0 0 -0.040024 0.38127 -0.9236 0.0088439
0.0053964 0.20631 0.97395 5.9005e-39 371.5 331 0 0 0 -0.0068704 0.37085 -0.92867 0.0076651
0.0071057 0.20688 0.97395 6.0849e-39 409.5 331 0 0 0 0.010783 0.37355 -0.92755 0.0066581
0.0088114 0.2068 0.97356 6.2232e-39 411 331 0 0 0 0.037676 0.37434 -0.92653 0.005863
0.010898 0.20696 0.97344 5.8698e-39 425 331 0 0 0 0.064001 0.37924 -0.92308 0.0053242
0.013556 0.20696 0.97344 5.7161e-39 427.33 331 0 0 0 0.093242 0.38501 -0.91819 0.0051939
0.015076 0.2068 0.97356 5.7161e-39 416.5 331 0 0 0 0.10785 0.38956 -0.91467 0.005297
0.016972 0.20696 0.97344 6.0234e-39 430.33 331 0 0 0 0.12833 0.39123 -0.9113 0.0059903
0.01887 0.20658 0.97344 6.2386e-39 407.67 331 0 0 0 0.15514 0.38891 -0.90812 0.0071361
0.021349 0.20631 0.97395 5.7161e-39 385.5 331 0 0 0 0.18481 0.39205 -0.90119 0.0086167
-0.0031496 0.20916 0.97395 6.7303e-39 183 332 0 0 0 -0.12584 0.41573 -0.90074 0.0097331
-0.00087067 0.20859 0.97395 5.8083e-39 148 332 0 0 0 -0.094325 0.40572 -0.90912 0.010027
0.00083855 0.20916 0.97395 6.4998e-39 186.5 332 0 0 0 -0.074939 0.40194 -0.9126 0.0096955
0.0025478 0.20916 0.97395 6.5459e-39 188 332 0 0 0 -0.055971 0.39871 -0.91537 0.0089982
0.0093846 0.20859 0.97395 6.8225e-39 157 332 0 0 0 0.042114 0.38603 -0.92153 0.0057392
0.011664 0.20859 0.97395 6.1771e-39 159 332 0 0 0 0.073891 0.3909 -0.91746 0.0052791
0.012798 0.20908 0.97356 7.0068e-39 197 332 0 0 0 0.087347 0.39402 -0.91494 0.0052748
0.016222 0.20859 0.97395 5.8083e-39 163 332 0 0 0 0.12225 0.40168 -0.90758 0.005628
0.035621 0.19735 0.97472 6.3615e-39 447 329 0 0 0 0.47521 0.281 -0.83379 0.018794
0.012823 0.19979 0.97549 5.2552e-39 179 330 0 0 0 0.083756 0.35219 -0.93217 0.0066437
0.015094 0.19906 0.97472 5.624e-39 343 329.5 0 0 0 0.10549 0.35363 -0.92942 0.0072308
0.016234 0.19963 0.97472 5.7161e-39 182 330 0 0 0 0.1232 0.35367 -0.92722 0.0076068
0.03334 0.19963 0.97472 5.9927e-39 200 330 0 0 0 0.40855 0.31297 -0.8574 0.020744
0.035079 0.19865 0.97549 5.5778e-39 142.5 330 0 0 0 0.46668 0.29991 -0.83202 0.017262
0.013954 0.20077 0.97472 7.0991e-39 236 330 0 0 0 0.09775 0.35651 -0.92916 0.0063535
0.029919 0.20191 0.97472 5.3473e-39 387 330 0 0 0 0.33894 0.34068 -0.87696 0.018
0.031059 0.20077 0.97472 8.1132e-39 251 330 0 0 0 0.36066 0.32947 -0.87257 0.019591
0.0322 0.20077 0.97472 8.482e-39 252 330 0 0 0 0.37996 0.32428 -0.8663 0.020226
0.026498 0.20305 0.97472 5.8083e-39 441 330 0 0 0 0.27606 0.36794 -0.88793 0.014806
0.029919 0.20305 0.97472 5.6239e-39 444 330 0 0 0 0.33676 0.34932 -0.87439 0.017236
0.031084 0.20207 0.97549 5.3473e-39 388 330 0 0 0 0.36562 0.33963 -0.86659 0.018415
0.032225 0.20207 0.97549 5.4395e-39 389 330 0 0 0 0.38123 0.33298 -0.86243 0.019108
-0.014567 0.20435 0.97549 5.6239e-39 499 330 0 0 0 -0.29676 0.38048 -0.87588 0.010658
-0.012665 0.20473 0.97549 6.2693e-39 400.67 330.33 0 0 0 -0.25757 0.39637 -0.88122 0.0084037
-0.011139 0.20484 0.9751 6.3154e-39 352 330.5 0 0 0 -0.24317 0.40788 -0.88006 0.0073361
0.027079 0.20484 0.97511 6.4998e-39 192 331 0 0 0 0.28625 0.37886 -0.88007 0.014424
0.029174 0.20468 0.97523 6.7303e-39 181 331 0 0 0 0.33055 0.36905 -0.86864 0.015861
-0.010002 0.20778 0.97549 8.7586e-39 431 331 0 0 0 -0.22246 0.434 -0.87302 0.0064443
-0.0092365 0.20691 0.97498 8.4205e-39 383 331 0 0 0 -0.21302 0.4312 -0.87675 0.0064513
-0.0077136 0.20761 0.97472 8.2054e-39 433 331 0 0 0 -0.19549 0.42931 -0.88175 0.006677
-0.0054329 0.20761 0.97472 7.3757e-39 435 331 0 0 0 -0.16306 0.41631 -0.89448 0.0086171
0.0036902 0.20761 0.97472 5.7161e-39 443 331 0 0 0 -0.036148 0.38549 -0.922 0.0083221
0.0054007 0.20761 0.97472 5.7161e-39 444.5 331 0 0 0 -0.011624 0.38169 -0.92422 0.0076905
0.019655 0.20761 0.97472 6.5459e-39 457 331 0 0 0 0.16956 0.4033 -0.89922 0.0074588
0.021366 0.20761 0.97472 6.3154e-39 458.5 331 0 0 0 0.18622 0.39996 -0.89742 0.0084701
0.023086 0.20713 0.9751 5.7622e-39 424 331 0 0 0 0.2108 0.39851 -0.89261 0.010083
0.024797 0.20713 0.97511 5.9696e-39 425.5 331 0 0 0 0.23885 0.40233 -0.88379 0.011535
-0.010002 0.20892 0.97549 5.6239e-39 140 332 0 0 0 -0.21838 0.44236 -0.86985 0.0059617
-0.008861 0.20892 0.97549 5.5317e-39 141 332 0 0 0 -0.20941 0.44393 -0.87125 0.0062224
-0.0069554 0.20919 0.97498 5.9312e-39 167.33 332 0 0 0 -0.18802 0.44515 -0.8755 0.0065204
-0.0046726 0.20913 0.97472 6.5459e-39 169.33 332 0 0 0 -0.15015 0.42805 -0.8912 0.0081697
-0.0020117 0.20932 0.97472 6.3154e-39 184 332 0 0 0 -0.10827 0.41822 -0.90187 0.0097188
-0.00087136 0.20989 0.97472 6.6381e-39 222 332 0 0 0 -0.096094 0.41369 -0.90533 0.01013
0.0036902 0.20932 0.97472 6.3154e-39 189 332 0 0 0 -0.040742 0.40042 -0.91543 0.0085352
0.0054007 0.20932 0.97472 6.3615e-39 190.5 332 0 0 0 -0.017039 0.39796 -0.91725 0.0078235
0.0071113 0.20932 0.97472 6.6842e-39 192 332 0 0 0 0.005921 0.39636 -0.91808 0.0071246
0.0086318 0.20951 0.97472 7.0684e-39 205.67 332 0 0 0 0.027327 0.39291 -0.91917 0.0063416
0.011102 0.20932 0.97472 6.7764e-39 195.5 332 0 0 0 0.068531 0.40041 -0.91377 0.0054982
0.013954 0.20932 0.97472 7.1913e-39 198 332 0 0 0 0.09945 0.40147 -0.91045 0.0053476
0.015094 0.20875 0.97472 5.6239e-39 162 332 0 0 0 0.11141 0.40209 -0.9088 0.0053245
0.016804 0.20932 0.97472 7.2374e-39 200.5 332 0 0 0 0.13252 0.41099 -0.90196 0.0060819
0.018895 0.20913 0.97472 6.8225e-39 190 332 0 0 0 0.15703 0.41431 -0.89649 0.0069482
0.021383 0.20892 0.97549 6.3615e-39 167.5 332 0 0 0 0.19097 0.42021 -0.8871 0.0085825
0.023095 0.20892 0.97549 6.9147e-39 169 332 0 0 0 0.21375 0.42153 -0.88126 0.0097274
-0.008861 0.21006 0.97549 6.1771e-39 215 332 0 0 0 -0.2076 0.44835 -0.86941 0.0058963
-0.0071491 0.21063 0.97549 6.2693e-39 294.5 332 0 0 0 -0.19241 0.45432 -0.86981 0.006202
-0.0050568 0.21082 0.97549 6.2386e-39 322.33 332 0 0 0 -0.16469 0.44903 -0.87821 0.0069218
-0.0025827 0.21112 0.9751 5.5317e-39 376.5 332 0 0 0 -0.12259 0.43602 -0.89155 0.0093564
-0.00087205 0.2112 0.97549 5.4395e-39 378 332 0 0 0 -0.10577 0.43257 -0.89537 0.00929
0.00083921 0.21103 0.97472 5.4395e-39 379.5 332 0 0 0 -0.082254 0.41895 -0.90427 0.0096956
0.0031215 0.21112 0.9751 6.131e-39 381.5 332 0 0 0 -0.053273 0.41594 -0.90783 0.0091135
0.005405 0.2112 0.97549 6.2232e-39 383.5 332 0 0 0 -0.021276 0.41734 -0.9085 0.0083242
0.0071113 0.21103 0.97472 5.9005e-39 385 332 0 0 0 0.0031821 0.4128 -0.91082 0.0074469
0.0088251 0.21112 0.9751 5.3473e-39 386.5 332 0 0 0 0.033551 0.41062 -0.91119 0.0066761
0.010921 0.21082 0.97549 5.9312e-39 336.33 332 0 0 0 0.066176 0.40973 -0.9098 0.005776
0.013389 0.21112 0.9751 6.0388e-39 390.5 332 0 0 0 0.098498 0.41615 -0.90395 0.0058816
0.015106 0.21006 0.97549 8.6664e-39 236 332 0 0 0 0.11555 0.41253 -0.90359 0.0055911
0.016817 0.21063 0.97549 7.2835e-39 315.5 332 0 0 0 0.13476 0.42156 -0.89673 0.0061684
0.019101 0.21063 0.97549 7.1913e-39 317.5 332 0 0 0 0.16636 0.42622 -0.88919 0.0073856
0.020812 0.21006 0.97549 8.6664e-39 241 332 0 0 0 0.18546 0.42399 -0.88648 0.0082042
-0.0031533 0.21283 0.9751 6.7764e-39 478 332 0 0 0 -0.13784 0.45625 -0.87911 0.0070659
-0.00087205 0.21234 0.97549 5.7161e-39 444 332 0 0 0 -0.10843 0.43826 -0.89228 0.0094316
0.0010301 0.21272 0.97549 7.0068e-39 469.67 332 0 0 0 -0.084535 0.4324 -0.89771 0.0098191
0.0029322 0.21272 0.97549 7.5908e-39 471.33 332 0 0 0 -0.054195 0.42771 -0.90229 0.0095972
0.0059756 0.21291 0.97549 6.0388e-39 295 332.5 0 0 0 -0.013388 0.42664 -0.90432 0.0084269
0.0071169 0.21291 0.97549 5.9005e-39 296 332.5 0 0 0 0.0038775 0.42847 -0.90355 0.0079031
0.0090191 0.21272 0.97549 5.7776e-39 349.33 332.33 0 0 0 0.036301 0.43004 -0.90208 0.0074255
0.012823 0.21291 0.97549 6.3615e-39 301 332.5 0 0 0 0.092806 0.42697 -0.89949 0.0063297
0.036819 0.19766 0.97626 6.5459e-39 448 329 0 0 0 0.51202 0.26675 -0.8165 0.016078
0.013404 0.19938 0.97626 5.7161e-39 340.5 329.5 0 0 0 0.090882 0.35044 -0.93216 0.0067934
0.035106 0.19995 0.97626 6.0388e-39 201.5 330 0 0 0 0.46838 0.30927 -0.82763 0.015789
0.036848 0.19896 0.97703 6.0849e-39 144 330 0 0 0 0.50816 0.28116 -0.81408 0.015149
0.038022 0.19912 0.97781 6.6381e-39 145 330 0 0 0 0.52946 0.281 -0.80045 0.012876
-0.023182 0.20084 0.97781 6.3845e-39 202.5 330 0 0 0 -0.4894 0.18853 -0.85144 0.024676
-0.021466 0.20083 0.97781 6.3615e-39 204 330 0 0 0 -0.46739 0.20592 -0.85973 0.02581
0.033393 0.20109 0.97626 8.7586e-39 253 330 0 0 0 0.42235 0.3247 -0.84628 0.017645
0.035148 0.20133 0.97742 9.2196e-39 254.5 330 0 0 0 0.47138 0.3185 -0.82241 0.014972
0.036878 0.20026 0.97781 6.1771e-39 203 330 0 0 0 0.50702 0.29483 -0.80994 0.014233
-0.02261 0.20255 0.97781 6.3615e-39 366 330 0 0 0 -0.47487 0.23843 -0.84714 0.025977
-0.020894 0.20312 0.97781 7.0529e-39 394 330 0 0 0 -0.45243 0.26073 -0.85284 0.026423
0.031108 0.20337 0.97626 5.5317e-39 445 330 0 0 0 0.37075 0.35553 -0.85799 0.017411
0.03303 0.2031 0.97677 6.0234e-39 427.67 330 0 0 0 0.4096 0.34843 -0.8431 0.017065
0.03459 0.20255 0.97781 5.9927e-39 391 330 0 0 0 0.45672 0.34311 -0.82078 0.013995
-0.020322 0.20541 0.97781 5.9005e-39 341 330.5 0 0 0 -0.4261 0.31875 -0.84666 0.02552
-0.018606 0.20541 0.97781 5.8313e-39 342.5 330.5 0 0 0 -0.38654 0.35243 -0.85228 0.020976
-0.016883 0.20533 0.97742 5.8083e-39 345 330.5 0 0 0 -0.35285 0.36563 -0.86128 0.018343
-0.01534 0.20528 0.97626 5.839e-39 295.67 330.67 0 0 0 -0.30254 0.3888 -0.87023 0.011664
-0.013437 0.20566 0.97626 6.5459e-39 196 331 0 0 0 -0.27471 0.39723 -0.87564 0.010188
0.029966 0.20566 0.97626 7.56e-39 233 331 0 0 0 0.34379 0.37782 -0.85968 0.015156
0.03112 0.20516 0.97664 7.3757e-39 195.5 331 0 0 0 0.36533 0.37516 -0.85193 0.015594
0.032658 0.20506 0.97703 6.8839e-39 184 331 0 0 0 0.3972 0.37762 -0.83645 0.014084
-0.018606 0.20713 0.97781 7.053e-39 264.5 331 0 0 0 -0.37455 0.38328 -0.84428 0.019875
-0.01689 0.20713 0.97781 6.5459e-39 266 331 0 0 0 -0.34416 0.39166 -0.85332 0.01651
-0.015157 0.20688 0.97664 8.6203e-39 353.5 331 0 0 0 -0.29721 0.40921 -0.86268 0.010874
-0.012676 0.20718 0.97626 8.1132e-39 380 331 0 0 0 -0.2518 0.42735 -0.86831 0.0073795
-0.011152 0.20737 0.97626 8.2976e-39 393.5 331 0 0 0 -0.23954 0.43207 -0.86944 0.0068445
0.027111 0.2068 0.97626 6.0388e-39 390.5 331 0 0 0 0.28795 0.39976 -0.87022 0.013232
0.029407 0.20688 0.97664 5.8544e-39 392.5 331 0 0 0 0.33522 0.39343 -0.85606 0.014141
0.031158 0.20713 0.97781 5.6239e-39 394 331 0 0 0 0.37 0.39469 -0.84102 0.014467
0.032302 0.20713 0.97781 5.9005e-39 395 331 0 0 0 0.39323 0.39529 -0.83013 0.013176
-0.019178 0.20827 0.97781 8.6664e-39 423 331 0 0 0 -0.37293 0.38893 -0.84241 0.019423
-0.01689 0.20827 0.97781 8.2976e-39 425 331 0 0 0 -0.3365 0.40743 -0.84898 0.014365
-0.015168 0.20876 0.97742 8.8277e-39 471 331 0 0 0 -0.29953 0.4178 -0.85775 0.010564
-0.01307 0.20892 0.97729 7.8981e-39 361.33 331.33 0 0 0 -0.26186 0.43373 -0.86215 0.0069722
-0.011161 0.20925 0.97703 5.9005e-39 139 332 0 0 0 -0.23459 0.4394 -0.86712 0.0060686
0.024826 0.20908 0.97626 6.6381e-39 170.5 332 0 0 0 0.24471 0.42185 -0.87302 0.010932
0.027138 0.20872 0.97722 6.4537e-39 318.5 331.5 0 0 0 0.29211 0.42344 -0.85754 0.012245
0.028847 0.20868 0.97703 6.2693e-39 320 331.5 0 0 0 0.32876 0.41303 -0.84931 0.013415
0.030395 0.20865 0.97781 6.0542e-39 370 331.33 0 0 0 0.35371 0.40979 -0.84081 0.013686
0.032302 0.20827 0.97781 6.4537e-39 469 331 0 0 0 0.39011 0.40872 -0.82508 0.011884
-0.015174 0.21056 0.97781 6.8225e-39 209.5 332 0 0 0 -0.29387 0.438 -0.84959 0.0085919
-0.012692 0.21088 0.97755 6.2078e-39 263.67 332 0 0 0 -0.25339 0.44887 -0.85692 0.0059592
-0.01059 0.21096 0.97703 6.4076e-39 291.5 332 0 0 0 -0.225 0.45363 -0.86232 0.0055958
-0.008868 0.21137 0.97626 5.8083e-39 371 332 0 0 0 -0.207 0.45617 -0.86548 0.0054928
-0.0077258 0.21137 0.97626 6.0849e-39 372 332 0 0 0 -0.19617 0.45945 -0.86627 0.0056859
0.015118 0.21137 0.97626 6.0849e-39 392 332 0 0 0 0.12256 0.42492 -0.8969 0.0061472
0.017402 0.21137 0.97626 5.7161e-39 394 332 0 0 0 0.14508 0.42988 -0.89115 0.0068154
0.019687 0.21137 0.97626 6.3615e-39 396 332 0 0 0 0.1741 0.43761 -0.88215 0.007874
0.02159 0.21099 0.97626 7.4371e-39 345.67 332 0 0 0 0.19778 0.43574 -0.87807 0.0088265
0.023122 0.21088 0.97664 7.6522e-39 321 332 0 0 0 0.21702 0.44136 -0.87069 0.0095436
0.024836 0.21088 0.97664 8.3668e-39 322.5 332 0 0 0 0.24394 0.44253 -0.86294 0.010071
0.026956 0.21088 0.97755 8.8508e-39 298.33 332 0 0 0 0.28913 0.44172 -0.84929 0.011407
0.028858 0.21104 0.97742 8.4359e-39 326 332 0 0 0 0.31898 0.43762 -0.84068 0.012193
0.030014 0.21056 0.97781 8.2054e-39 249 332 0 0 0 0.34873 0.43132 -0.83208 0.011802
-0.010026 0.21285 0.97781 7.0991e-39 436 332 0 0 0 -0.21918 0.46085 -0.85999 0.0050539
-0.008882 0.21285 0.97781 6.6381e-39 437 332 0 0 0 -0.21093 0.46339 -0.86069 0.0051019
-0.0069681 0.213 0.97677 6.1464e-39 462.67 332 0 0 0 -0.18791 0.46883 -0.86307 0.0054063
-0.0048723 0.21317 0.97664 6.3154e-39 476.5 332 0 0 0 -0.16622 0.46802 -0.86795 0.006035
-0.0020149 0.21308 0.97626 7.2374e-39 479 332 0 0 0 -0.12259 0.44966 -0.88475 0.0081612
-0.00087274 0.21365 0.97626 9.4961e-39 516 332 0 0 0 -0.11254 0.45152 -0.88514 0.0084205
0.00026944 0.21365 0.97626 9.8649e-39 517 332 0 0 0 -0.096724 0.44422 -0.89068 0.0093475
0.003696 0.21365 0.97626 6.5459e-39 138 333 0 0 0 -0.04762 0.43537 -0.89899 0.0097164
0.0048382 0.21308 0.97626 6.3154e-39 294 332.5 0 0 0 -0.032513 0.43077 -0.90188 0.009215
0.0082647 0.21365 0.97626 5.7161e-39 142 333 0 0 0 0.02128 0.43947 -0.898 0.0080592
0.011123 0.21312 0.97645 6.131e-39 299.5 332.5 0 0 0 0.070484 0.43247 -0.89889 0.0068664
0.013976 0.21308 0.97626 6.3615e-39 302 332.5 0 0 0 0.10802 0.43723 -0.89284 0.006755
0.015124 0.21317 0.97664 6.2693e-39 303 332.5 0 0 0 0.12398 0.44424 -0.88729 0.0071276
0.016834 0.21312 0.97645 5.9697e-39 304.5 332.5 0 0 0 0.13866 0.44461 -0.88493 0.0073674
0.019123 0.21317 0.97664 6.108e-39 306.5 332.5 0 0 0 0.17251 0.44837 -0.87704 0.0082138
0.021232 0.21312 0.97729 6.1156e-39 360 332.33 0 0 0 0.20072 0.45614 -0.86698 0.0091365
0.022762 0.21355 0.97755 6.423e-39 258 332.67 0 0 0 0.21814 0.46241 -0.85941 0.0094079
0.02505 0.21317 0.97755 6.3308e-39 363.33 332.33 0 0 0 0.25067 0.46063 -0.85146 0.0093933
0.026582 0.21285 0.97781 6.1771e-39 468 332 0 0 0 0.27671 0.45719 -0.84522 0.010276
-0.0065941 0.21513 0.97781 5.7161e-39 190 333 0 0 0 -0.18528 0.47868 -0.85822 0.00517
-0.0048781 0.21513 0.97781 5.9466e-39 193.5 333 0 0 0 -0.16854 0.48092 -0.86041 0.0056102
-0.0025868 0.21487 0.97664 6.1771e-39 195.5 333 0 0 0 -0.13641 0.47327 -0.87029 0.0064602
-0.00087343 0.21496 0.97703 7.0069e-39 197 333 0 0 0 -0.11847 0.46783 -0.87584 0.0071714
0.00084052 0.21479 0.97626 6.9608e-39 198.5 333 0 0 0 -0.089442 0.4515 -0.88778 0.0094804
0.0031249 0.21479 0.97626 6.1771e-39 200.5 333 0 0 0 -0.056468 0.44868 -0.89191 0.0097239
0.0054111 0.21487 0.97664 6.131e-39 202.5 333 0 0 0 -0.023497 0.44508 -0.89518 0.0094775
0.0071225 0.21479 0.97626 6.1771e-39 204 333 0 0 0 0.0051014 0.45004 -0.89299 0.0087504
0.0088391 0.21487 0.97664 6.9147e-39 205.5 333 0 0 0 0.032598 0.45432 -0.89024 0.0086061
0.011133 0.21505 0.97742 7.56e-39 207.5 333 0 0 0 0.071949 0.45517 -0.88749 0.0080059
0.01341 0.21487 0.97664 7.053e-39 209.5 333 0 0 0 0.10544 0.45333 -0.88508 0.0075601
0.01513 0.21496 0.97703 6.5459e-39 211 333 0 0 0 0.1244 0.45613 -0.88117 0.0078564
0.016851 0.21505 0.97742 6.6381e-39 212.5 333 0 0 0 0.14441 0.46114 -0.8755 0.0084722
0.019139 0.21505 0.97742 6.4998e-39 214.5 333 0 0 0 0.17731 0.46365 -0.8681 0.0089495
0.020862 0.21513 0.97781 6.0849e-39 216 333 0 0 0 0.19971 0.46844 -0.86063 0.0095396
0.022006 0.21513 0.97781 6.1771e-39 217 333 0 0 0 0.21265 0.4717 -0.85573 0.0093512
-0.0027799 0.2166 0.97755 8.9429e-39 305.67 333 0 0 0 -0.14201 0.48282 -0.86413 0.006392
-0.00087412 0.21628 0.97781 9.8649e-39 257 333 0 0 0 -0.12157 0.48062 -0.86846 0.0067582
0.00084153 0.21677 0.97742 8.5281e-39 334 333 0 0 0 -0.097367 0.48086 -0.87137 0.0074239
0.0031286 0.21677 0.97742 8.4128e-39 336 333 0 0 0 -0.060312 0.4751 -0.87786 0.0090539
0.0054145 0.21672 0.97723 7.7905e-39 338.75 333 0 0 0 -0.021275 0.47571 -0.87935 0.0096952
0.007131 0.21677 0.97742 8.4359e-39 386.5 333 0 0 0 0.0032443 0.47324 -0.88093 0.0099086
0.0088444 0.21672 0.97723 8.2515e-39 388 333 0 0 0 0.032247 0.47207 -0.88097 0.0094892
0.010944 0.2166 0.97755 7.1298e-39 380.33 333 0 0 0 0.066726 0.46809 -0.88116 0.0086479
0.013421 0.21677 0.97742 6.8455e-39 392 333 0 0 0 0.10626 0.46771 -0.87747 0.0086765
0.015142 0.21628 0.97781 5.7161e-39 365 333 0 0 0 0.12845 0.46656 -0.87511 0.0085132
0.016286 0.21628 0.97781 5.9005e-39 366 333 0 0 0 0.13979 0.46826 -0.87246 0.0087255
0.018574 0.21628 0.97781 5.8083e-39 368 333 0 0 0 0.16861 0.47041 -0.86619 0.0092242
0.0031298 0.21857 0.97781 6.2693e-39 464.5 333 0 0 0 -0.062023 0.50311 -0.86199 0.0083945
0.0059898 0.21857 0.97781 5.9005e-39 467 333 0 0 0 -0.013936 0.50102 -0.86532 0.0088159
0.0071338 0.21857 0.97781 6.1771e-39 468 333 0 0 0 0.002683 0.49527 -0.86873 0.0091189
0.0094218 0.21857 0.97781 6.4537e-39 470 333 0 0 0 0.038769 0.48837 -0.87178 0.0093449
0.012854 0.21857 0.97781 5.9005e-39 473 333 0 0 0 0.099951 0.48335 -0.8697 0.0095142
0.040373 0.19714 0.97936 7.9288e-39 407 329 0 0 0 0.56486 0.25701 -0.78414 0.011225
-0.026083 0.19943 0.97936 5.7161e-39 497 329 0 0 0 -0.55272 0.16489 -0.8169 0.022785
-0.024937 0.19943 0.97936 5.3473e-39 498 329 0 0 0 -0.53812 0.168 -0.82595 0.022804
-0.023201 0.19928 0.97858 5.6239e-39 499.5 329 0 0 0 -0.49723 0.16462 -0.85186 0.024281
0.039213 0.19878 0.97897 6.4537e-39 297.5 329.5 0 0 0 0.54656 0.27649 -0.79046 0.011717
-0.026646 0.20108 0.97897 6.7995e-39 199 330 0 0 0 -0.55565 0.1917 -0.80901 0.023764
-0.024918 0.20099 0.97858 6.2693e-39 201 330 0 0 0 -0.52217 0.19403 -0.83048 0.023819
0.036936 0.20173 0.97936 9.7727e-39 256 330 0 0 0 0.50909 0.31408 -0.80136 0.012615
0.038067 0.20108 0.97897 7.6983e-39 230.5 330 0 0 0 0.5257 0.30588 -0.79377 0.011823
-0.026083 0.20287 0.97936 6.4537e-39 363 330 0 0 0 -0.53715 0.22304 -0.81347 0.024659
-0.024937 0.20287 0.97936 6.0849e-39 364 330 0 0 0 -0.52006 0.22508 -0.82394 0.024589
-0.023391 0.20348 0.97858 7.3756e-39 400.67 330 0 0 0 -0.48423 0.24763 -0.83916 0.02551
-0.021483 0.20386 0.97858 7.8366e-39 420 330 0 0 0 -0.45838 0.27873 -0.84392 0.026459
0.03538 0.20348 0.97858 6.2078e-39 429.67 330 0 0 0 0.46839 0.34424 -0.8137 0.013656
-0.026083 0.20459 0.97936 7.4679e-39 452.5 330 0 0 0 -0.53181 0.25243 -0.80837 0.02611
-0.024937 0.20459 0.97936 7.4218e-39 453.5 330 0 0 0 -0.51467 0.26258 -0.81619 0.026291
-0.023201 0.205 0.97858 6.4076e-39 491.5 330 0 0 0 -0.47609 0.28144 -0.83315 0.026799
-0.021483 0.205 0.97858 6.0849e-39 493 330 0 0 0 -0.452 0.29287 -0.84257 0.026565
0.03519 0.205 0.97858 5.8544e-39 160.5 331 0 0 0 0.46116 0.36475 -0.80888 0.012334
-0.026083 0.20631 0.97936 5.8083e-39 183 331 0 0 0 -0.51591 0.28865 -0.80655 0.027338
-0.024937 0.20689 0.97936 7.4218e-39 221.5 331 0 0 0 -0.4985 0.30327 -0.81211 0.027699
-0.023201 0.20672 0.97858 7.3296e-39 223 331 0 0 0 -0.46325 0.31531 -0.82824 0.02783
-0.021107 0.20697 0.97884 7.0991e-39 237.33 331 0 0 0 -0.43517 0.33981 -0.83376 0.026179
0.033472 0.20672 0.97858 7.3296e-39 316 331 0 0 0 0.42081 0.39237 -0.8179 0.012316
0.03521 0.20685 0.97916 7.4679e-39 317.5 331 0 0 0 0.45364 0.39125 -0.80071 0.010612
-0.023028 0.20898 0.97936 7.2527e-39 449 331 0 0 0 -0.45561 0.36298 -0.81281 0.027768
-0.020725 0.20887 0.97884 7.6522e-39 451 331 0 0 0 -0.41162 0.38245 -0.82722 0.02283
-0.01843 0.2092 0.97858 7.0683e-39 482.33 331 0 0 0 -0.35826 0.40496 -0.84122 0.017564
-0.016903 0.20958 0.97858 7.0069e-39 513 331 0 0 0 -0.3374 0.41581 -0.84455 0.014463
0.031182 0.20958 0.97858 5.5317e-39 176 332 0 0 0 0.37611 0.42308 -0.82434 0.011652
0.033108 0.20931 0.9791 5.6854e-39 275 331.67 0 0 0 0.4096 0.41382 -0.81301 0.011166
0.035217 0.2086 0.97936 6.0388e-39 472.5 331 0 0 0 0.44895 0.40083 -0.79861 0.01059
-0.020354 0.21089 0.97936 6.6381e-39 205 332 0 0 0 -0.39125 0.40236 -0.82767 0.021471
-0.018628 0.21081 0.97897 7.3757e-39 206.5 332 0 0 0 -0.35346 0.41808 -0.83682 0.016188
-0.016903 0.21073 0.97858 7.6522e-39 208 332 0 0 0 -0.32994 0.42903 -0.84088 0.012796
-0.015186 0.21187 0.97858 6.0849e-39 365.5 332 0 0 0 -0.29529 0.45063 -0.84245 0.0081921
-0.013469 0.21187 0.97858 5.9005e-39 367 332 0 0 0 -0.26411 0.4506 -0.85276 0.006261
0.027748 0.21187 0.97858 8.482e-39 403 332 0 0 0 0.30213 0.44988 -0.84043 0.011362
0.030622 0.21138 0.97897 8.021e-39 327.5 332 0 0 0 0.36251 0.44387 -0.81949 0.010484
0.032353 0.21089 0.97936 8.2054e-39 251 332 0 0 0 0.39455 0.43284 -0.81054 0.0099282
-0.018636 0.21204 0.97936 6.5459e-39 362.5 332 0 0 0 -0.34582 0.43179 -0.83305 0.014452
-0.016917 0.21204 0.97936 5.8083e-39 364 332 0 0 0 -0.32901 0.44186 -0.83457 0.012433
-0.015198 0.21318 0.97936 8.021e-39 431.5 332 0 0 0 -0.2963 0.45672 -0.83881 0.0076705
-0.012901 0.2131 0.97897 7.4218e-39 433.5 332 0 0 0 -0.25717 0.45994 -0.8499 0.0054328
-0.011188 0.21318 0.97936 7.2835e-39 435 332 0 0 0 -0.23693 0.46248 -0.85439 0.0049571
0.02777 0.21318 0.97936 6.3615e-39 469 332 0 0 0 0.30641 0.46246 -0.83201 0.0099737
0.028892 0.21302 0.97858 6.5459e-39 470 332 0 0 0 0.3263 0.46038 -0.82558 0.010093
0.030061 0.21318 0.97936 6.0849e-39 472 332 0 0 0 0.34887 0.45923 -0.81695 0.0096576
-0.010038 0.21482 0.97897 6.3154e-39 347.5 332.5 0 0 0 -0.2171 0.47299 -0.8539 0.0043225
-0.0088926 0.21482 0.97897 6.3154e-39 348.5 332.5 0 0 0 -0.20547 0.47286 -0.85685 0.0047071
-0.0077473 0.21482 0.97897 6.131e-39 349.5 332.5 0 0 0 -0.19343 0.47442 -0.85878 0.0049072
0.023168 0.21531 0.97858 6.4537e-39 218 333 0 0 0 0.22583 0.47435 -0.85088 0.0094433
0.024701 0.21498 0.97884 6.8532e-39 198.33 333 0 0 0 0.24954 0.47567 -0.84349 0.0096235
0.026613 0.21482 0.97897 6.4537e-39 189.5 333 0 0 0 0.28031 0.47472 -0.83431 0.0090874
0.028915 0.21433 0.97936 5.9927e-39 160 333 0 0 0 0.3303 0.47221 -0.81726 0.0091001
-0.0066019 0.21711 0.97897 8.2515e-39 327.5 333 0 0 0 -0.18486 0.48356 -0.85557 0.0050358
-0.004882 0.21645 0.97858 8.5742e-39 253.5 333 0 0 0 -0.16915 0.48339 -0.85891 0.0054803
-0.0020197 0.21759 0.97858 7.2835e-39 407 333 0 0 0 -0.13594 0.4895 -0.86134 0.0064747
-0.00087481 0.21759 0.97858 7.3757e-39 408 333 0 0 0 -0.1222 0.48515 -0.86585 0.0068077
0.011719 0.21759 0.97858 7.8366e-39 419 333 0 0 0 0.07926 0.47905 -0.8742 0.0094485
0.015154 0.21759 0.97858 8.3898e-39 422 333 0 0 0 0.13108 0.47625 -0.86948 0.0093398
0.017067 0.21727 0.97884 7.7444e-39 404.67 333 0 0 0 0.15206 0.47881 -0.86465 0.0094435
0.019357 0.21727 0.97884 7.4064e-39 406.67 333 0 0 0 0.18665 0.48236 -0.85586 0.0096464
0.020886 0.21711 0.97897 6.9608e-39 398.5 333 0 0 0 0.20609 0.48067 -0.85234 0.0092739
0.022411 0.21689 0.97884 6.5766e-39 390.33 333 0 0 0 0.21906 0.48129 -0.84875 0.009305
0.025478 0.21662 0.97936 6.0849e-39 374 333 0 0 0 0.26672 0.49271 -0.82831 0.0078691
-0.0025942 0.21891 0.97936 6.0388e-39 459.5 333 0 0 0 -0.14533 0.49469 -0.85683 0.0062601
-0.00087551 0.21891 0.97936 6.0849e-39 461 333 0 0 0 -0.12478 0.49916 -0.85748 0.0069916
0.0010334 0.21918 0.97884 6.2693e-39 355 333.33 0 0 0 -0.093724 0.50271 -0.85936 0.0077927
0.0025599 0.21988 0.97858 5.7161e-39 141 334 0 0 0 -0.067612 0.51256 -0.85599 0.0086881
0.0054221 0.21931 0.97858 6.0388e-39 305 333.5 0 0 0 -0.026537 0.51389 -0.85745 0.0089135
0.0088568 0.21931 0.97858 6.2693e-39 308 333.5 0 0 0 0.02896 0.502 -0.86438 0.0086135
0.011151 0.21882 0.97897 6.0849e-39 471.5 333 0 0 0 0.069015 0.49925 -0.86371 0.0095909
0.014581 0.21874 0.97858 6.2232e-39 474.5 333 0 0 0 0.11872 0.48948 -0.86389 0.009304
0.016885 0.21891 0.97936 6.8686e-39 476.5 333 0 0 0 0.15649 0.49908 -0.85231 0.0088648
0.018603 0.21891 0.97936 6.8225e-39 478 333 0 0 0 0.17984 0.50329 -0.8452 0.0083237
0.0014161 0.2212 0.97936 6.1771e-39 185 334 0 0 0 -0.085693 0.52251 -0.84832 0.0086482
0.0033258 0.22082 0.97936 6.3e-39 171.67 334 0 0 0 -0.059047 0.52336 -0.85006 0.0090313
0.0048535 0.22006 0.97936 5.8083e-39 143 334 0 0 0 -0.037555 0.52279 -0.85163 0.0091987
0.0071451 0.22006 0.97936 6.2693e-39 145 334 0 0 0 -0.0046068 0.51993 -0.8542 0.0091196
0.0088638 0.22063 0.97936 6.1771e-39 170 334 0 0 0 0.030594 0.52446 -0.85089 0.0090112
0.010583 0.22006 0.97936 5.9927e-39 148 334 0 0 0 0.058355 0.52238 -0.85072 0.0087515
0.012874 0.22006 0.97936 5.9005e-39 150 334 0 0 0 0.097639 0.51083 -0.85412 0.0085351
0.014593 0.22006 0.97936 5.8083e-39 151.5 334 0 0 0 0.11962 0.50792 -0.85306 0.0082557
0.041552 0.1973 0.98014 7.7444e-39 408 329 0 0 0 0.58864 0.25489 -0.76716 0.0098979
-0.028442 0.19991 0.98169 5.9005e-39 495 329 0 0 0 -0.60604 0.19426 -0.77134 0.020809
-0.027261 0.19909 0.98053 7.5601e-39 465 329 0 0 0 -0.58194 0.17616 -0.79392 0.022321
0.041012 0.19918 0.98091 6.0158e-39 299 329.5 0 0 0 0.57444 0.27827 -0.76979 0.010238
-0.02842 0.2009 0.98091 6.5459e-39 168 330 0 0 0 -0.59501 0.20721 -0.77655 0.022994
0.039259 0.20074 0.98014 6.6381e-39 205 330 0 0 0 0.53996 0.296 -0.78793 0.011419
0.04047 0.20106 0.98169 7.1913e-39 206 330 0 0 0 0.56343 0.29788 -0.77059 0.010402
-0.02842 0.20262 0.98091 7.4218e-39 293.5 330 0 0 0 -0.5886 0.21811 -0.77845 0.023349
-0.027251 0.20303 0.98014 7.1913e-39 362 330 0 0 0 -0.55653 0.22005 -0.80115 0.023786
0.036965 0.20303 0.98014 5.4395e-39 393 330 0 0 0 0.50257 0.33206 -0.79822 0.01249
0.038908 0.20281 0.98091 6.4844e-39 349 330 0 0 0 0.53145 0.31858 -0.7849 0.011371
-0.02842 0.20491 0.98091 7.3757e-39 446 330 0 0 0 -0.57736 0.24354 -0.77932 0.024096
-0.027261 0.20483 0.98053 7.3296e-39 451.5 330 0 0 0 -0.55039 0.25517 -0.79496 0.025141
0.036965 0.20476 0.98014 5.7622e-39 306 330.5 0 0 0 0.50173 0.35388 -0.78933 0.011726
0.038716 0.20491 0.98091 5.7622e-39 307.5 330.5 0 0 0 0.52376 0.35224 -0.77563 0.011074
-0.028442 0.2068 0.98169 5.2552e-39 181 331 0 0 0 -0.58264 0.2953 -0.75718 0.026567
-0.02689 0.2074 0.98091 7.8981e-39 232.33 331 0 0 0 -0.5392 0.31052 -0.78284 0.027332
0.036965 0.20704 0.98014 7.2374e-39 319 331 0 0 0 0.48563 0.38212 -0.78622 0.011064
0.038716 0.20721 0.98091 7.6753e-39 320.5 331 0 0 0 0.51768 0.37495 -0.76904 0.011239
-0.026104 0.20877 0.98014 8.3898e-39 417 331 0 0 0 -0.50719 0.32469 -0.79833 0.028124
-0.024977 0.20893 0.98091 8.021e-39 418 331 0 0 0 -0.49599 0.3458 -0.7965 0.028873
-0.02381 0.20991 0.98014 5.8083e-39 507 331 0 0 0 -0.4586 0.36841 -0.80867 0.0284
-0.021517 0.20991 0.98014 6.5459e-39 509 331 0 0 0 -0.42892 0.3898 -0.81491 0.024059
0.034672 0.20991 0.98014 5.2552e-39 179 332 0 0 0 0.4373 0.42633 -0.79184 0.0093579
0.036995 0.20893 0.98091 6.1771e-39 474 331 0 0 0 0.48694 0.40395 -0.77441 0.010793
0.038747 0.2091 0.98169 6.6381e-39 475.5 331 0 0 0 0.51126 0.39966 -0.76084 0.011398
-0.026125 0.21066 0.98091 5.9005e-39 352.5 331.5 0 0 0 -0.49757 0.35057 -0.79343 0.029995
-0.024997 0.21082 0.98169 5.8544e-39 353.5 331.5 0 0 0 -0.48639 0.36515 -0.79378 0.029677
-0.023247 0.21114 0.98053 6.1771e-39 202.5 332 0 0 0 -0.44284 0.38885 -0.80789 0.025263
-0.021534 0.21123 0.98091 6.2693e-39 204 332 0 0 0 -0.42284 0.39929 -0.81349 0.024186
0.033525 0.21106 0.98014 8.3898e-39 252 332 0 0 0 0.42096 0.43372 -0.79666 0.0094315
0.035464 0.21085 0.98091 7.5908e-39 229 332 0 0 0 0.45525 0.42825 -0.78061 0.0094249
0.037024 0.21025 0.98169 5.2552e-39 181 332 0 0 0 0.48506 0.4192 -0.76745 0.010217
-0.026145 0.21254 0.98169 8.1132e-39 355 332 0 0 0 -0.49953 0.38661 -0.77525 0.031949
-0.023077 0.21287 0.98143 8.4513e-39 380.67 332 0 0 0 -0.43915 0.40644 -0.80122 0.025906
-0.020775 0.21281 0.98117 7.8059e-39 382.67 332 0 0 0 -0.39568 0.42105 -0.81618 0.021255
-0.018665 0.21352 0.98091 7.8366e-39 428.5 332 0 0 0 -0.34975 0.44239 -0.82581 0.015132
-0.01693 0.21335 0.98014 8.1132e-39 430 332 0 0 0 -0.32452 0.45594 -0.82874 0.010576
0.031244 0.21286 0.98053 6.7303e-39 439.5 332 0 0 0 0.38341 0.46247 -0.79945 0.0086817
0.032978 0.21295 0.98091 6.8686e-39 441 332 0 0 0 0.40876 0.45908 -0.78877 0.0086093
0.034727 0.21254 0.98169 7.3757e-39 409 332 0 0 0 0.44221 0.44582 -0.77826 0.0087348
-0.018106 0.21484 0.98169 6.1771e-39 496 332 0 0 0 -0.33504 0.45962 -0.82249 0.011829
-0.016957 0.21484 0.98169 5.9927e-39 497 332 0 0 0 -0.32313 0.46202 -0.82591 0.010077
-0.015219 0.2152 0.98072 5.7391e-39 340.5 332.5 0 0 0 -0.29241 0.47003 -0.8328 0.0068624
-0.012922 0.21516 0.98053 5.9927e-39 343.75 332.5 0 0 0 -0.25932 0.47131 -0.84298 0.0050286
-0.011201 0.21516 0.98053 6.2693e-39 346.5 332.5 0 0 0 -0.23589 0.47283 -0.84899 0.0045033
0.027803 0.21516 0.98053 6.3615e-39 190.5 333 0 0 0 0.31592 0.48433 -0.81585 0.0083569
0.028938 0.21565 0.98014 6.8225e-39 223 333 0 0 0 0.32818 0.48663 -0.80962 0.0081259
0.030492 0.21505 0.98091 6.423e-39 182.33 333 0 0 0 0.3594 0.48133 -0.79947 0.0081717
-0.01466 0.21714 0.98169 9.1274e-39 245 333 0 0 0 -0.27997 0.48898 -0.82615 0.0056519
-0.012363 0.21714 0.98169 8.943e-39 247 333 0 0 0 -0.24586 0.48722 -0.83795 0.0041029
-0.010058 0.21697 0.98091 8.2976e-39 249 333 0 0 0 -0.22004 0.48892 -0.84412 0.0036883
-0.0089032 0.21679 0.98014 8.2976e-39 250 333 0 0 0 -0.207 0.48173 -0.85152 0.0041381
-0.0077565 0.21679 0.98014 8.021e-39 251 333 0 0 0 -0.1928 0.48591 -0.85248 0.0043139
-0.0048897 0.21794 0.98014 7.9288e-39 404.5 333 0 0 0 -0.17111 0.49165 -0.85382 0.0053874
0.023205 0.21794 0.98014 7.7444e-39 429 333 0 0 0 0.24241 0.51275 -0.8236 0.0070952
0.024351 0.21679 0.98014 6.2693e-39 373 333 0 0 0 0.25308 0.49476 -0.83136 0.0080191
0.02724 0.21697 0.98091 5.7161e-39 375.5 333 0 0 0 0.29996 0.50642 -0.80843 0.0071902
0.028961 0.21697 0.98091 5.5317e-39 377 333 0 0 0 0.32731 0.50125 -0.80101 0.0075806
0.030133 0.21714 0.98169 5.5317e-39 378 333 0 0 0 0.34963 0.50171 -0.79124 0.0080012
-0.010066 0.21829 0.98169 7.6522e-39 400 333 0 0 0 -0.21988 0.49698 -0.83944 0.0034636
-0.0089174 0.21829 0.98169 8.1132e-39 401 333 0 0 0 -0.21132 0.49317 -0.84388 0.0035986
-0.0071919 0.21878 0.9813 7.5601e-39 429 333 0 0 0 -0.19006 0.49716 -0.84659 0.0041699
-0.0048936 0.21926 0.98091 6.8686e-39 457.5 333 0 0 0 -0.1723 0.50099 -0.84813 0.0050953
0.019765 0.21909 0.98014 6.5459e-39 479 333 0 0 0 0.19929 0.51027 -0.8366 0.0073788
0.020911 0.21909 0.98014 6.5459e-39 480 333 0 0 0 0.21928 0.52248 -0.82397 0.0069175
0.022641 0.21918 0.98053 6.8225e-39 481.5 333 0 0 0 0.23471 0.52675 -0.81698 0.006632
0.02476 0.21855 0.98117 7.2527e-39 448 333 0 0 0 0.26339 0.52267 -0.81083 0.0066163
0.026666 0.21811 0.98091 7.0069e-39 432 333 0 0 0 0.2889 0.51736 -0.80553 0.006573
0.028984 0.21829 0.98169 7.1913e-39 434 333 0 0 0 0.32706 0.52022 -0.78892 0.0074146
-0.0025973 0.22089 0.98053 7.5139e-39 350 333.5 0 0 0 -0.14813 0.51366 -0.84511 0.0061532
-0.00087655 0.22089 0.98053 6.1771e-39 160.5 334 0 0 0 -0.12338 0.51811 -0.84637 0.0072628
0.00027051 0.2208 0.98014 6.0849e-39 161.5 334 0 0 0 -0.104 0.52034 -0.8476 0.0081512
0.0048574 0.22138 0.98014 6.0849e-39 188 334 0 0 0 -0.038016 0.5368 -0.84285 0.010043
0.0065774 0.22138 0.98014 6.0388e-39 189.5 334 0 0 0 -0.010865 0.5301 -0.84786 0.0098592
0.0082975 0.22138 0.98014 6.1771e-39 193 334 0 0 0 0.022468 0.53064 -0.8473 0.0093808
0.011359 0.22106 0.9804 5.9927e-39 180 334 0 0 0 0.071586 0.53416 -0.84235 0.0088209
0.012884 0.22138 0.98014 7.0069e-39 197 334 0 0 0 0.095408 0.52809 -0.84381 0.0080417
0.014611 0.22147 0.98053 6.8225e-39 198.5 334 0 0 0 0.12652 0.53377 -0.83611 0.0082883
0.016914 0.22102 0.98111 6.1771e-39 177 334 0 0 0 0.16046 0.5375 -0.82785 0.0076866
0.019211 0.22102 0.98111 6.3845e-39 179 334 0 0 0 0.20221 0.53864 -0.81791 0.0072515
0.020937 0.22107 0.9813 6.4998e-39 180.5 334 0 0 0 0.22192 0.54149 -0.81088 0.0067706
0.022476 0.22096 0.98169 6.2693e-39 174 334 0 0 0 0.23883 0.54372 -0.80457 0.0064638
-0.0026004 0.22288 0.98169 7.4218e-39 224.5 334 0 0 0 -0.15026 0.5361 -0.83067 0.0063964
-0.0008776 0.22288 0.98169 6.8225e-39 226 334 0 0 0 -0.12247 0.54355 -0.8304 0.0079934
0.001035 0.22297 0.9804 6.8532e-39 271.67 334 0 0 0 -0.09147 0.54558 -0.83305 0.0094407
0.0031386 0.22319 0.98053 6.592e-39 295.5 334 0 0 0 -0.06054 0.55526 -0.82947 0.010607
0.0048593 0.22319 0.98053 6.4537e-39 297 334 0 0 0 -0.040284 0.55202 -0.83286 0.010637
0.0065815 0.22323 0.98072 6.131e-39 298.5 334 0 0 0 -0.0090508 0.55604 -0.83111 0.010662
0.008876 0.22323 0.98072 6.4076e-39 300.5 334 0 0 0 0.034178 0.55698 -0.82982 0.0097464
0.011178 0.22279 0.9813 8.5281e-39 236.5 334 0 0 0 0.069512 0.5557 -0.82847 0.0090881
0.012895 0.2227 0.98091 9.0352e-39 238 334 0 0 0 0.099454 0.54749 -0.83088 0.0084158
0.014627 0.22288 0.98169 8.6203e-39 239.5 334 0 0 0 0.13091 0.55217 -0.82339 0.0084129
-0.0008776 0.22403 0.98169 9.0352e-39 261 334 0 0 0 -0.12587 0.55565 -0.82183 0.0081396
0.00084462 0.22451 0.9813 7.2835e-39 375 334 0 0 0 -0.10102 0.56868 -0.81633 0.0095791
0.0031423 0.22518 0.98169 6.3615e-39 392.5 334 0 0 0 -0.066957 0.58507 -0.80822 0.011253
0.0048651 0.22518 0.98169 6.5459e-39 394 334 0 0 0 -0.041026 0.57728 -0.81552 0.011418
0.0065855 0.22509 0.9813 6.6842e-39 395.5 334 0 0 0 -0.0021748 0.57571 -0.81765 0.011367
0.0088779 0.225 0.98091 7.3757e-39 397.5 334 0 0 0 0.037647 0.5726 -0.81897 0.010288
0.010608 0.22403 0.98169 5.8083e-39 368 334 0 0 0 0.061668 0.56912 -0.81994 0.0095744
0.0088849 0.22633 0.98169 8.1593e-39 414.5 334 0 0 0 0.040841 0.58742 -0.80825 0.01022
-0.028465 0.19892 0.98247 8.8508e-39 433 329 0 0 0 -0.61581 0.19694 -0.76288 0.020376
0.042835 0.19908 0.98326 5.9005e-39 452 329 0 0 0 0.60257 0.26796 -0.75174 0.0094212
0.045136 0.19908 0.98326 6.0849e-39 454 329 0 0 0 0.61896 0.26454 -0.73953 0.0089005
0.046286 0.19908 0.98326 5.8083e-39 455 329 0 0 0 0.649 0.23896 -0.72229 0.011251
-0.029626 0.20073 0.98286 5.9927e-39 330.5 329.5 0 0 0 -0.63251 0.21523 -0.74405 0.020409
0.041651 0.20122 0.98247 7.0991e-39 207 330 0 0 0 0.58014 0.29865 -0.75779 0.0099005
0.046286 0.20023 0.98326 5.9927e-39 152 330 0 0 0 0.63149 0.26407 -0.72903 0.0097044
-0.029615 0.20294 0.98247 7.2374e-39 292.5 330 0 0 0 -0.6183 0.24559 -0.74659 0.023545
0.040518 0.20302 0.98286 7.2374e-39 327.5 330 0 0 0 0.56285 0.32514 -0.75992 0.010216
-0.029626 0.20533 0.98286 7.5601e-39 445 330 0 0 0 -0.61505 0.27201 -0.74008 0.024508
0.040907 0.20554 0.983 5.839e-39 261.33 330.67 0 0 0 0.5606 0.35711 -0.74712 0.010616
-0.029638 0.20713 0.98326 5.2552e-39 180 331 0 0 0 -0.60626 0.30141 -0.73594 0.025759
0.041093 0.20705 0.98286 8.8969e-39 242.5 331 0 0 0 0.55794 0.36979 -0.74294 0.011061
-0.028477 0.20877 0.98286 9.2195e-39 335.5 331 0 0 0 -0.57645 0.32708 -0.74882 0.027953
-0.027316 0.20926 0.98247 8.482e-39 416 331 0 0 0 -0.55232 0.33181 -0.76475 0.028657
0.040907 0.20861 0.983 7.56e-39 427.33 331 0 0 0 0.54913 0.38547 -0.74153 0.011252
-0.027337 0.21058 0.98326 5.8083e-39 500 331 0 0 0 -0.5487 0.36076 -0.75417 0.030716
0.037054 0.21156 0.98247 9.5883e-39 255 332 0 0 0 0.47754 0.42771 -0.76747 0.0096208
0.038778 0.21041 0.98247 5.7622e-39 182.5 332 0 0 0 0.50972 0.41299 -0.75473 0.010693
-0.026166 0.21386 0.98247 8.5742e-39 422 332 0 0 0 -0.49345 0.41146 -0.76629 0.030674
-0.025017 0.21271 0.98247 8.021e-39 356 332 0 0 0 -0.48785 0.38734 -0.78229 0.031203
-0.021568 0.21386 0.98247 8.2976e-39 426 332 0 0 0 -0.41224 0.43976 -0.79792 0.021846
0.035329 0.21328 0.98247 7.1913e-39 443 332 0 0 0 0.44312 0.45135 -0.77455 0.0084234
0.037083 0.21288 0.98326 7.8366e-39 411 332 0 0 0 0.47745 0.43975 -0.7607 0.009079
-0.025037 0.21403 0.98326 8.8508e-39 423 332 0 0 0 -0.48035 0.41663 -0.77181 0.030276
-0.023311 0.21461 0.98326 7.3757e-39 458 332 0 0 0 -0.44273 0.43006 -0.78679 0.026633
-0.019269 0.21501 0.98247 6.0849e-39 495 332 0 0 0 -0.35768 0.45835 -0.81362 0.01515
0.033044 0.21509 0.98286 5.7622e-39 163.5 333 0 0 0 0.4094 0.47712 -0.77766 0.0083787
0.035933 0.21403 0.98326 6.8225e-39 477 332 0 0 0 0.4515 0.45859 -0.7654 0.0085429
-0.026187 0.21633 0.98326 7.0069e-39 173 333 0 0 0 -0.47961 0.43925 -0.75963 0.029018
-0.018702 0.21624 0.98286 5.3012e-39 179.5 333 0 0 0 -0.34292 0.46931 -0.81373 0.012541
-0.016978 0.21682 0.98286 6.9607e-39 212 333 0 0 0 -0.3095 0.4785 -0.82174 0.0081621
-0.015821 0.21731 0.98247 8.6664e-39 244 333 0 0 0 -0.29717 0.48394 -0.8231 0.006845
-0.013522 0.21731 0.98247 9.0352e-39 246 333 0 0 0 -0.2685 0.491 -0.82875 0.0051144
-0.011223 0.21731 0.98247 8.5742e-39 248 333 0 0 0 -0.23968 0.49168 -0.83714 0.003944
0.031319 0.21682 0.98286 6.2232e-39 302 333 0 0 0 0.37737 0.49709 -0.78134 0.0083911
0.032482 0.21633 0.98326 6.7303e-39 226 333 0 0 0 0.39698 0.49072 -0.77563 0.0083674
-0.015259 0.21863 0.98326 6.2232e-39 395.5 333 0 0 0 -0.29024 0.49619 -0.81827 0.0062513
-0.012383 0.21863 0.98326 7.1913e-39 398 333 0 0 0 -0.24837 0.50117 -0.82894 0.0037441
-0.010082 0.21978 0.98326 5.9005e-39 453 333 0 0 0 -0.22503 0.50716 -0.83196 0.0030977
-0.0089244 0.21961 0.98247 6.0849e-39 454 333 0 0 0 -0.21202 0.5015 -0.83878 0.0033297
-0.007775 0.21961 0.98247 6.3615e-39 455 333 0 0 0 -0.19735 0.5038 -0.84097 0.0037658
0.025559 0.21961 0.98247 6.3615e-39 484 333 0 0 0 0.28143 0.53585 -0.79603 0.006486
0.027284 0.21903 0.98247 6.6381e-39 459 333 0 0 0 0.30286 0.53379 -0.78952 0.0067099
-0.0066255 0.22076 0.98247 8.2976e-39 515 333 0 0 0 -0.18876 0.51001 -0.8392 0.004185
-0.0049014 0.22076 0.98247 9.5884e-39 516.5 333 0 0 0 -0.17599 0.514 -0.83954 0.0047877
0.02326 0.22191 0.98247 6.7303e-39 206 334 0 0 0 0.24943 0.55242 -0.79537 0.0063728
0.024429 0.22094 0.98326 6.3615e-39 160 334 0 0 0 0.26297 0.55082 -0.79211 0.0063566
-0.0066308 0.22209 0.98326 5.3473e-39 178 334 0 0 0 -0.19173 0.51842 -0.83335 0.004075
-0.0049053 0.22209 0.98326 5.163e-39 179.5 334 0 0 0 -0.17567 0.52409 -0.83335 0.0049223
0.016951 0.22324 0.98326 8.7586e-39 241.5 334 0 0 0 0.1771 0.56567 -0.80539 0.0077746
0.018662 0.22306 0.98247 8.5742e-39 243 334 0 0 0 0.19885 0.56331 -0.80196 0.0073001
0.020978 0.22324 0.98326 8.8508e-39 245 334 0 0 0 0.23221 0.56231 -0.79365 0.0066331
0.022128 0.22324 0.98326 9.3118e-39 246 334 0 0 0 0.24164 0.56357 -0.78994 0.0065415
-0.0024114 0.22465 0.98273 7.9288e-39 302.33 334 0 0 0 -0.15109 0.55743 -0.81636 0.0066805
-0.00087899 0.22554 0.98326 5.9005e-39 389 334 0 0 0 -0.12451 0.59359 -0.79508 0.008764
0.00027137 0.22554 0.98326 5.9927e-39 390 334 0 0 0 -0.10561 0.59867 -0.79401 0.0096578
0.011386 0.22504 0.98273 7.3142e-39 389.33 334 0 0 0 0.071447 0.58519 -0.80774 0.0096205
0.01292 0.22488 0.98286 7.0991e-39 385.5 334 0 0 0 0.10224 0.58158 -0.80704 0.0091569
0.01464 0.22421 0.98247 5.8544e-39 371.5 334 0 0 0 0.13378 0.56723 -0.81262 0.0084298
0.0071679 0.22651 0.98247 8.2054e-39 413 334 0 0 0 0.0058946 0.60247 -0.79812 0.011556
-0.028556 0.19725 0.98561 6.3615e-39 374 329 0 0 0 -0.65449 0.20539 -0.72764 0.019308
0.042903 0.19709 0.98483 5.8083e-39 376 329 0 0 0 0.62493 0.24133 -0.74245 0.010698
0.04465 0.19717 0.98522 5.4395e-39 377.5 329 0 0 0 0.66369 0.2176 -0.71566 0.012759
-0.029098 0.19874 0.98444 7.6983e-39 418 329 0 0 0 -0.64512 0.20637 -0.73569 0.01963
0.042869 0.19809 0.98404 7.8366e-39 409 329 0 0 0 0.607 0.26345 -0.74976 0.0094776
0.044404 0.19847 0.98404 7.4986e-39 424.67 329 0 0 0 0.62497 0.25903 -0.73642 0.0093414
0.04636 0.19824 0.98483 8.482e-39 412 329 0 0 0 0.66873 0.22196 -0.7096 0.01282
-0.030838 0.20112 0.98483 5.9466e-39 329.5 329.5 0 0 0 -0.66425 0.25451 -0.70285 0.021084
0.042886 0.20105 0.98444 6.592e-39 178.5 330 0 0 0 0.59516 0.29465 -0.74764 0.0097512
0.044632 0.20112 0.98483 6.6381e-39 180 330 0 0 0 0.63045 0.28048 -0.72379 0.010216
0.04636 0.2017 0.98483 6.4537e-39 211 330 0 0 0 0.64981 0.26414 -0.71273 0.011915
-0.030838 0.20342 0.98483 7.3296e-39 291.5 330 0 0 0 -0.66222 0.28028 -0.69492 0.021944
0.041735 0.20335 0.98444 7.1913e-39 328.5 330 0 0 0 0.58291 0.32679 -0.74392 0.010123
0.042937 0.20301 0.98561 7.3757e-39 261 330 0 0 0 0.59432 0.31761 -0.73886 0.0099428
0.045244 0.20301 0.98561 7.3757e-39 263 330 0 0 0 0.63039 0.30029 -0.71585 0.010774
-0.030838 0.20516 0.98483 8.3898e-39 412 330 0 0 0 -0.65503 0.29219 -0.69682 0.022227
0.041718 0.20499 0.98404 5.9005e-39 454 330 0 0 0 0.57575 0.34512 -0.74122 0.010619
0.042937 0.20532 0.98561 5.8083e-39 455 330 0 0 0 0.58857 0.34026 -0.73335 0.010262
-0.030862 0.20705 0.98561 6.0389e-39 327.5 330.5 0 0 0 -0.66562 0.33747 -0.66563 0.024382
0.042903 0.20689 0.98483 7.6983e-39 205.5 331 0 0 0 0.58299 0.35592 -0.73038 0.010655
-0.029686 0.20919 0.98483 8.989e-39 334.5 331 0 0 0 -0.62432 0.35461 -0.69604 0.027472
0.041718 0.2096 0.98404 6.5459e-39 478 331 0 0 0 0.56035 0.39507 -0.72796 0.011399
0.042886 0.20911 0.98444 7.1913e-39 446 331 0 0 0 0.5713 0.38585 -0.72439 0.011486
-0.02851 0.21075 0.98404 5.7161e-39 499 331 0 0 0 -0.59276 0.36713 -0.71683 0.030133
-0.027359 0.2119 0.98404 6.4537e-39 199 332 0 0 0 -0.55402 0.38329 -0.73902 0.032493
0.038839 0.2119 0.98404 9.9109e-39 256.5 332 0 0 0 0.51354 0.42436 -0.74579 0.010773
0.041191 0.21101 0.98522 6.1771e-39 184.5 332 0 0 0 0.55364 0.40829 -0.72579 0.0117
-0.028545 0.21273 0.98522 6.6842e-39 231.5 332 0 0 0 -0.59328 0.40694 -0.69457 0.032577
-0.027381 0.21322 0.98483 6.2693e-39 266 332 0 0 0 -0.5612 0.41189 -0.71791 0.034105
0.038902 0.21339 0.98561 8.2976e-39 412.5 332 0 0 0 0.50601 0.43651 -0.74392 0.010125
-0.028556 0.21455 0.98561 7.8366e-39 420 332 0 0 0 -0.58778 0.42373 -0.68918 0.034514
-0.026795 0.21486 0.98444 7.4218e-39 455 332 0 0 0 -0.52574 0.42927 -0.73439 0.0329
-0.025057 0.21535 0.98404 6.8225e-39 490 332 0 0 0 -0.47362 0.43307 -0.7669 0.03006
-0.023924 0.21553 0.98483 6.3615e-39 491 332 0 0 0 -0.46123 0.44477 -0.76775 0.028206
-0.021035 0.21544 0.98444 5.9927e-39 493.5 332 0 0 0 -0.3997 0.45806 -0.79399 0.021086
0.035385 0.21535 0.98404 5.9927e-39 165.5 333 0 0 0 0.44033 0.47228 -0.76359 0.0087424
0.037157 0.21503 0.98522 6.4998e-39 322.5 332.5 0 0 0 0.46857 0.46024 -0.75407 0.0085566
-0.026208 0.21766 0.98404 8.1132e-39 235 333 0 0 0 -0.47475 0.46132 -0.74953 0.02819
-0.025057 0.21709 0.98404 7.6061e-39 205 333 0 0 0 -0.44706 0.45113 -0.77241 0.024877
-0.023339 0.21717 0.98444 7.3296e-39 206.5 333 0 0 0 -0.42252 0.46971 -0.77515 0.023374
-0.021048 0.2173 0.98502 6.9838e-39 208.5 333 0 0 0 -0.38669 0.4812 -0.78672 0.018446
-0.018725 0.21766 0.98404 8.8508e-39 241.5 333 0 0 0 -0.33708 0.48931 -0.80434 0.0118
0.03331 0.2175 0.98509 5.9312e-39 329.33 333 0 0 0 0.40719 0.4996 -0.76459 0.0085817
0.035414 0.21668 0.98483 6.592e-39 228.5 333 0 0 0 0.43753 0.48851 -0.75493 0.0083642
-0.025077 0.21898 0.98483 5.3473e-39 387 333 0 0 0 -0.4382 0.49503 -0.75028 0.024445
-0.023357 0.21907 0.98522 5.5778e-39 388.5 333 0 0 0 -0.40503 0.50957 -0.75914 0.021846
-0.021061 0.21916 0.98561 6.0388e-39 390.5 333 0 0 0 -0.37177 0.51351 -0.77337 0.017535
-0.018725 0.21881 0.98404 6.0849e-39 392.5 333 0 0 0 -0.33628 0.49793 -0.79937 0.011935
-0.016998 0.21881 0.98404 5.9927e-39 394 333 0 0 0 -0.30131 0.49855 -0.81281 0.0072822
-0.013544 0.21881 0.98404 6.7303e-39 397 333 0 0 0 -0.26851 0.50261 -0.82176 0.0048055
-0.011241 0.21881 0.98404 7.4678e-39 399 333 0 0 0 -0.2411 0.5042 -0.82925 0.0034872
0.027902 0.21996 0.98404 6.5459e-39 487 333 0 0 0 0.31137 0.54229 -0.78037 0.0068647
0.029054 0.21996 0.98404 6.7303e-39 488 333 0 0 0 0.32275 0.54289 -0.77531 0.0070609
0.030806 0.21899 0.98483 7.0069e-39 435.5 333 0 0 0 0.36011 0.52792 -0.76917 0.0081608
-0.018937 0.22058 0.98509 5.8698e-39 462.67 333 0 0 0 -0.32573 0.5175 -0.79126 0.011076
-0.017011 0.22014 0.98483 6.4537e-39 447 333 0 0 0 -0.3011 0.50635 -0.80805 0.0074379
-0.015283 0.22014 0.98483 6.6842e-39 448.5 333 0 0 0 -0.28679 0.51007 -0.81091 0.0060927
-0.012978 0.22014 0.98483 6.131e-39 450.5 333 0 0 0 -0.26088 0.51194 -0.81845 0.0043938
-0.010678 0.2208 0.98522 6.0388e-39 482 333 0 0 0 -0.23194 0.51296 -0.82648 0.0030632
-0.0089387 0.22111 0.98404 6.1771e-39 513 333 0 0 0 -0.2159 0.51041 -0.83238 0.0030717
-0.0077874 0.22111 0.98404 6.9147e-39 514 333 0 0 0 -0.20177 0.51505 -0.83308 0.0035563
0.0256 0.22111 0.98404 6.3615e-39 161 334 0 0 0 0.28308 0.55575 -0.78167 0.0063482
0.027349 0.22129 0.98483 5.9927e-39 162.5 334 0 0 0 0.30488 0.55965 -0.77061 0.006293
0.0291 0.22146 0.98561 5.9005e-39 164 334 0 0 0 0.325 0.56288 -0.75996 0.0066325
0.030253 0.22031 0.98561 6.8225e-39 489 333 0 0 0 0.34492 0.55054 -0.76022 0.0074127
-0.0072206 0.2231 0.98522 5.9466e-39 199 334 0 0 0 -0.20419 0.53377 -0.82061 0.0035712
-0.0049091 0.22341 0.98404 6.6842e-39 222.5 334 0 0 0 -0.17976 0.53913 -0.82281 0.0047091
0.019843 0.22341 0.98404 8.6664e-39 244 334 0 0 0 0.21679 0.56758 -0.79427 0.0067182
0.023297 0.22341 0.98404 9.1274e-39 247 334 0 0 0 0.25339 0.56832 -0.78282 0.0063662
0.024859 0.22288 0.98509 7.7445e-39 221 334 0 0 0 0.2754 0.57186 -0.77274 0.0061271
0.026794 0.22262 0.98561 7.2835e-39 209 334 0 0 0 0.29686 0.5708 -0.76555 0.0062975
-0.0066467 0.22492 0.98561 9.7727e-39 256 334 0 0 0 -0.20322 0.55382 -0.80745 0.0038791
-0.0049153 0.22483 0.98522 9.404e-39 257.5 334 0 0 0 -0.17841 0.56822 -0.80331 0.0052995
0.014669 0.22581 0.98444 8.2976e-39 402.5 334 0 0 0 0.14318 0.58864 -0.79562 0.0087852
0.016979 0.22474 0.98483 6.131e-39 373.5 334 0 0 0 0.18602 0.58721 -0.78777 0.0078026
0.018707 0.22474 0.98483 5.9005e-39 375 334 0 0 0 0.20465 0.58514 -0.78469 0.0071981
0.021028 0.22492 0.98561 5.7161e-39 377 334 0 0 0 0.24041 0.58904 -0.77152 0.0064026
0.011214 0.22696 0.98444 8.021e-39 416.5 334 0 0 0 0.07443 0.61352 -0.78616 0.0098559
0.012946 0.22705 0.98483 7.8366e-39 418 334 0 0 0 0.1135 0.60937 -0.78472 0.009594
-0.036716 0.1931 0.98798 7.1913e-39 209 329 0 0 0 -0.72981 0.20958 -0.65073 0.022776
-0.036701 0.19475 0.98759 6.9608e-39 232 329 0 0 0 -0.73122 0.21032 -0.6489 0.020194
-0.03556 0.19541 0.98798 7.0991e-39 242 329 0 0 0 -0.73559 0.25025 -0.62952 0.020844
-0.033248 0.19541 0.98798 7.3757e-39 244 329 0 0 0 -0.72273 0.22106 -0.65483 0.018782
-0.036672 0.19691 0.9868 6.3615e-39 314.5 329 0 0 0 -0.73703 0.24338 -0.63052 0.019968
-0.034946 0.19695 0.98699 6.4537e-39 316 329 0 0 0 -0.72951 0.23893 -0.64088 0.019248
-0.032845 0.19723 0.98745 6.2693e-39 335.33 329 0 0 0 -0.72077 0.23913 -0.65062 0.018788
