# .PCD v.7 - Point Cloud Data file format
VERSION .7
FIELDS x y z rgb u v vx vy vz normal_x normal_y normal_z curvature
SIZE 4 4 4 4 4 4 4 4 4 4 4 4 4
TYPE F F F F F F F F F F F F F
COUNT 1 1 1 1 1 1 1 1 1 1 1 1 1
WIDTH 562
HEIGHT 1
VIEWPOINT 0 0 0 1 0 0 0
POINTS 562
DATA ascii
0.24179 0.074786 1.1403 6.6381e-39 415 318 0 0 0 -0.79279 -0.21619 -0.56986 0.031605
0.234 0.077526 1.1414 9.1274e-39 333 319 0 0 0 -0.8452 -0.13779 -0.51639 0.03383
0.23534 0.077526 1.1414 8.6664e-39 334 319 0 0 0 -0.84512 -0.14132 -0.51556 0.031848
0.23723 0.076824 1.1409 6.9607e-39 284 319 0 0 0 -0.83403 -0.15196 -0.53037 0.030209
0.23912 0.076121 1.1403 5.9927e-39 234 319 0 0 0 -0.82081 -0.18301 -0.54109 0.028958
0.24098 0.076589 1.1407 6.7303e-39 269.67 319 0 0 0 -0.82022 -0.18156 -0.54247 0.03054
0.234 0.078862 1.1414 5.6239e-39 440 319 0 0 0 -0.8629 -0.096339 -0.49611 0.032674
0.23667 0.078862 1.1414 6.0849e-39 442 319 0 0 0 -0.85993 -0.11814 -0.49655 0.02998
0.24046 0.078789 1.1403 5.4395e-39 445 319 0 0 0 -0.8523 -0.15599 -0.49926 0.028228
0.23779 0.08079 1.1403 6.5459e-39 320.5 320 0 0 0 -0.87835 -0.10761 -0.46574 0.02707
0.23912 0.081457 1.1403 6.6381e-39 374 320 0 0 0 -0.87344 -0.11124 -0.47405 0.027708
0.24046 0.08079 1.1403 6.9147e-39 322.5 320 0 0 0 -0.87224 -0.12607 -0.47255 0.028272
0.23779 0.082791 1.1403 5.9005e-39 191 321 0 0 0 -0.89634 -0.069899 -0.43782 0.025869
0.23912 0.082791 1.1403 5.6239e-39 192 321 0 0 0 -0.89388 -0.082032 -0.44073 0.02607
0.24046 0.082791 1.1403 5.6239e-39 193 321 0 0 0 -0.88792 -0.096251 -0.44982 0.027437
0.23779 0.084792 1.1403 7.5601e-39 355 321 0 0 0 -0.90997 -0.036252 -0.41308 0.025016
0.23912 0.084792 1.1403 7.3757e-39 356 321 0 0 0 -0.90848 -0.046294 -0.41536 0.024434
0.24046 0.084792 1.1403 7.3757e-39 357 321 0 0 0 -0.90877 -0.056678 -0.41343 0.02408
0.23779 0.086794 1.1403 6.0849e-39 226 322 0 0 0 -0.92284 0.0068769 -0.38513 0.020982
0.23912 0.086794 1.1403 6.7303e-39 227 322 0 0 0 -0.92159 -0.0072768 -0.3881 0.02212
0.24046 0.086794 1.1403 6.9147e-39 228 322 0 0 0 -0.92005 -0.012042 -0.39161 0.022433
0.23867 0.088209 1.1414 9.3578e-39 341.5 322 0 0 0 -0.92585 0.025856 -0.37701 0.018798
0.24123 0.088169 1.1409 8.0671e-39 343.5 322 0 0 0 -0.9259 0.011403 -0.37758 0.019596
0.24202 0.089544 1.1414 6.0849e-39 454 322 0 0 0 -0.92937 0.028627 -0.36804 0.017723
0.24202 0.09088 1.1414 9.5883e-39 275 323 0 0 0 -0.93476 0.041502 -0.35285 0.01604
0.24179 0.093464 1.1403 5.9005e-39 203 324 0 0 0 -0.94124 0.061131 -0.33215 0.0137
0.24202 0.092215 1.1414 7.4678e-39 387 323 0 0 0 -0.93829 0.055141 -0.34142 0.014561
0.24179 0.094798 1.1403 1.0418e-38 326 324 0 0 0 -0.9445 0.069624 -0.32106 0.012061
0.24179 0.096132 1.1403 5.8083e-39 438 324 0 0 0 -0.94851 0.070494 -0.3088 0.0099213
0.24179 0.1008 1.1403 5.9927e-39 314.5 325.5 0 0 0 -0.95677 0.059854 -0.28461 0.0052161
0.24202 0.1029 1.1414 9.4961e-39 325 326 0 0 0 -0.95703 0.056915 -0.28435 0.0049775
0.24202 0.1049 1.1414 5.9005e-39 304 326.5 0 0 0 -0.95865 0.051044 -0.27997 0.0046607
0.24313 0.10947 1.1403 5.9005e-39 245 328 0 0 0 -0.96005 0.038913 -0.27712 0.003892
0.24335 0.11091 1.1414 5.9005e-39 415 328 0 0 0 -0.95662 0.031719 -0.28962 0.0044564
0.24335 0.11892 1.1414 7.0069e-39 463 331 0 0 0 -0.94549 -0.0081542 -0.32556 0.0050586
0.24268 0.12093 1.1414 6.7303e-39 290.5 332.5 0 0 0 -0.94291 -0.0125 -0.33281 0.0049263
0.24268 0.12293 1.1414 6.4998e-39 434.5 333 0 0 0 -0.93976 -0.013253 -0.34158 0.0053136
0.24268 0.12493 1.1414 6.4306e-39 269 334.5 0 0 0 -0.93474 -0.0070426 -0.35525 0.0065981
0.24257 0.12687 1.1409 5.4856e-39 439.5 335 0 0 0 -0.93469 0.00044036 -0.35547 0.0071284
0.24123 0.12955 1.1409 5.9005e-39 200.5 337 0 0 0 -0.93114 0.019388 -0.36414 0.0086979
0.24257 0.12821 1.1409 7.9749e-39 379.5 336 0 0 0 -0.93491 0.012132 -0.35468 0.0079406
0.24123 0.13088 1.1409 6.131e-39 449.5 337 0 0 0 -0.92865 0.034606 -0.36934 0.010025
0.24068 0.13228 1.1414 7.0069e-39 395 338 0 0 0 -0.92577 0.049819 -0.37479 0.010268
0.24202 0.13295 1.1414 6.4076e-39 306.5 338.5 0 0 0 -0.92735 0.06584 -0.36836 0.01058
0.24324 0.14089 1.1409 6.4537e-39 432 342.5 0 0 0 -0.91796 0.17894 -0.35402 0.0084077
0.24446 0.14416 1.1403 6.0849e-39 144 345 0 0 0 -0.92251 0.19096 -0.33541 0.0059073
0.24602 0.14696 1.1414 7.56e-39 237 346 0 0 0 -0.92061 0.18201 -0.34548 0.0055746
0.24713 0.1495 1.1403 6.3615e-39 457 347 0 0 0 -0.928 0.16696 -0.33308 0.0066009
0.24736 0.15097 1.1414 6.4537e-39 391 348 0 0 0 -0.92738 0.15053 -0.3425 0.0075355
0.24736 0.15231 1.1414 7.3757e-39 170 349 0 0 0 -0.93085 0.13174 -0.34082 0.0085128
0.24846 0.1575 1.1403 7.56e-39 459 351 0 0 0 -0.94841 0.049524 -0.31316 0.0093279
0.24846 0.15884 1.1403 6.4537e-39 239 352 0 0 0 -0.94882 0.029313 -0.31446 0.0087394
0.24846 0.16083 1.1403 7.2835e-39 318 353 0 0 0 -0.95081 0.0019651 -0.30978 0.0070802
0.24725 0.16491 1.1409 7.0991e-39 348.5 355 0 0 0 -0.94647 -0.03296 -0.3211 0.0051854
0.24657 0.16692 1.1409 5.8544e-39 448.5 356 0 0 0 -0.94548 -0.04537 -0.32251 0.0047588
0.24524 0.16959 1.1409 5.4395e-39 160.5 358 0 0 0 -0.94307 -0.057012 -0.32766 0.0048462
0.24602 0.16833 1.1414 5.9005e-39 239 357 0 0 0 -0.94316 -0.05158 -0.32831 0.0047804
0.24469 0.171 1.1414 6.3615e-39 461 358 0 0 0 -0.94169 -0.067191 -0.32971 0.004857
0.24446 0.17285 1.1403 7.4218e-39 423 359 0 0 0 -0.94182 -0.067508 -0.32927 0.0050537
0.24446 0.17485 1.1403 6.8225e-39 418 360 0 0 0 -0.9402 -0.070701 -0.33321 0.0053273
0.29731 0.05894 1.1435 7.0991e-39 350 314 0 0 0 0.02924 -0.88696 -0.46092 0.014552
0.33847 0.058886 1.1424 8.3898e-39 395 314 0 0 0 -0.16244 -0.89068 -0.42462 0.031071
0.2438 0.061616 1.1435 5.3473e-39 201 315 0 0 0 -0.69803 -0.41295 -0.585 0.023403
0.29196 0.061616 1.1435 6.5459e-39 261 315 0 0 0 -0.034831 -0.88316 -0.46778 0.010175
0.2933 0.061616 1.1435 5.9005e-39 265 315 0 0 0 -0.023737 -0.88335 -0.4681 0.010742
0.29437 0.061559 1.1424 6.5459e-39 304 315 0 0 0 -0.014816 -0.88149 -0.47198 0.010974
0.29704 0.060222 1.1424 7.6522e-39 416 314 0 0 0 0.025822 -0.88263 -0.46937 0.013454
0.304 0.060278 1.1435 5.9005e-39 421 314 0 0 0 0.12814 -0.88867 -0.44028 0.011833
0.30668 0.061616 1.1435 6.1771e-39 313 315 0 0 0 0.15221 -0.89058 -0.4286 0.0096656
0.30907 0.061559 1.1424 6.9147e-39 316 315 0 0 0 0.16232 -0.89268 -0.42044 0.007678
0.33729 0.060919 1.143 7.6983e-39 394 314.5 0 0 0 -0.16033 -0.89194 -0.42277 0.027901
0.33879 0.060278 1.1435 6.3615e-39 447 314 0 0 0 -0.16272 -0.89068 -0.4245 0.030246
0.34013 0.061616 1.1435 7.6522e-39 344 315 0 0 0 -0.15987 -0.88986 -0.4273 0.03063
0.34248 0.061559 1.1424 6.0849e-39 346 315 0 0 0 -0.14164 -0.89256 -0.42811 0.033315
0.34681 0.060947 1.1435 6.2232e-39 272.5 315 0 0 0 -0.0778 -0.90174 -0.42522 0.039661
0.24358 0.062895 1.1424 6.5459e-39 355 315 0 0 0 -0.68373 -0.40291 -0.60842 0.025407
0.28902 0.062895 1.1424 7.1913e-39 382 315 0 0 0 -0.050437 -0.88222 -0.46812 0.0091667
0.29036 0.062895 1.1424 7.1913e-39 383 315 0 0 0 -0.047791 -0.88271 -0.46748 0.008739
0.31041 0.062895 1.1424 7.56e-39 398 315 0 0 0 0.16101 -0.89111 -0.42426 0.0069017
0.31337 0.062954 1.1435 7.6522e-39 400 315 0 0 0 0.16372 -0.88594 -0.43394 0.0080605
0.34146 0.062954 1.1435 5.9005e-39 428 315 0 0 0 -0.15338 -0.89129 -0.42671 0.032693
0.3428 0.062954 1.1435 5.9005e-39 429 315 0 0 0 -0.14138 -0.89372 -0.42575 0.033314
0.34815 0.062954 1.1435 5.9927e-39 433 315 0 0 0 -0.066535 -0.90207 -0.42644 0.041117
0.3505 0.062895 1.1424 6.7303e-39 435 315 0 0 0 -0.039723 -0.90899 -0.41491 0.045856
0.24358 0.064232 1.1424 5.8083e-39 438 315 0 0 0 -0.6901 -0.37422 -0.61946 0.025463
0.24625 0.064232 1.1424 5.9005e-39 440 315 0 0 0 -0.636 -0.4291 -0.64138 0.036872
0.31174 0.064232 1.1424 6.2693e-39 260 316 0 0 0 0.163 -0.89074 -0.42429 0.0071643
0.31442 0.064232 1.1424 7.0069e-39 262 316 0 0 0 0.16285 -0.887 -0.4321 0.0087603
0.31657 0.065599 1.143 6.7764e-39 375.5 316 0 0 0 0.13301 -0.89588 -0.42392 0.010428
0.31872 0.065629 1.1435 6.7303e-39 377 316 0 0 0 0.047295 -0.91093 -0.40985 0.019857
0.33678 0.06496 1.1435 7.8827e-39 347.5 316 0 0 0 -0.1497 -0.89769 -0.41443 0.026382
0.33981 0.064232 1.1424 6.5459e-39 308 316 0 0 0 -0.15268 -0.89572 -0.41758 0.02846
0.34732 0.064262 1.143 6.2693e-39 313.5 316 0 0 0 -0.064064 -0.90478 -0.42103 0.03714
0.31976 0.066905 1.1424 5.2552e-39 202 317 0 0 0 0.034121 -0.91327 -0.40593 0.018426
0.3211 0.066905 1.1424 5.6239e-39 203 317 0 0 0 -0.00053146 -0.92062 -0.39045 0.020943
0.32377 0.066905 1.1424 5.7161e-39 205 317 0 0 0 -0.050404 -0.92758 -0.37021 0.026375
0.32644 0.066905 1.1424 5.4395e-39 207 317 0 0 0 -0.076291 -0.92611 -0.36946 0.024914
0.24246 0.069643 1.1435 9.6805e-39 324 317 0 0 0 -0.7376 -0.28493 -0.61218 0.02416
0.24224 0.070915 1.1424 8.2976e-39 412 317 0 0 0 -0.75361 -0.2609 -0.60333 0.026563
0.23901 0.073622 1.143 6.6381e-39 314.5 318 0 0 0 -0.79446 -0.18991 -0.57686 0.029561
0.24113 0.074994 1.1435 7.3757e-39 414 318 0 0 0 -0.80472 -0.18017 -0.56565 0.029923
0.23556 0.076261 1.1424 5.8083e-39 231 319 0 0 0 -0.82719 -0.15314 -0.54065 0.031998
0.23711 0.076332 1.1435 5.6239e-39 232 319 0 0 0 -0.83345 -0.14162 -0.53414 0.031796
0.23556 0.078935 1.1424 5.9005e-39 441 319 0 0 0 -0.86639 -0.11315 -0.48638 0.03251
0.23577 0.080345 1.1435 6.0849e-39 266 320 0 0 0 -0.87882 -0.076717 -0.47095 0.031535
0.237 0.080977 1.143 6.3615e-39 319.5 320 0 0 0 -0.88577 -0.075275 -0.45797 0.030032
0.23711 0.083021 1.1435 6.0849e-39 190 321 0 0 0 -0.89912 -0.043171 -0.43557 0.028931
0.2389 0.089627 1.1424 6.2232e-39 451.5 322 0 0 0 -0.93097 0.050229 -0.36162 0.017831
0.2409 0.089627 1.1424 6.5459e-39 453 322 0 0 0 -0.93006 0.046666 -0.36443 0.017415
0.23979 0.091048 1.1435 7.0069e-39 273 323 0 0 0 -0.93296 0.065307 -0.35402 0.0159
0.2409 0.090964 1.1424 8.5742e-39 274 323 0 0 0 -0.9342 0.057249 -0.35214 0.016043
0.2409 0.092969 1.1424 6.5458e-39 294 323.5 0 0 0 -0.938 0.072047 -0.33908 0.013676
0.2409 0.094974 1.1424 1.0234e-38 325 324 0 0 0 -0.94254 0.082464 -0.32377 0.011892
0.2409 0.096979 1.1424 5.8083e-39 338.5 324.5 0 0 0 -0.94902 0.079164 -0.30512 0.008896
0.24113 0.10041 1.1435 7.0069e-39 426 325 0 0 0 -0.95328 0.07092 -0.29365 0.00569
0.24235 0.10906 1.143 5.9466e-39 343 327.5 0 0 0 -0.95227 0.037027 -0.303 0.0046191
0.24246 0.11112 1.1435 5.7161e-39 414 328 0 0 0 -0.94744 0.024045 -0.31903 0.0048151
0.24369 0.11307 1.143 7.0991e-39 326 329 0 0 0 -0.94921 0.019013 -0.31408 0.0051821
0.2438 0.11513 1.1435 7.8366e-39 237 330 0 0 0 -0.94255 0.0043987 -0.33403 0.0056313
0.24302 0.11709 1.143 6.3615e-39 346 330.5 0 0 0 -0.94019 -0.0068322 -0.34058 0.0054383
0.24224 0.11903 1.1424 6.8225e-39 462 331 0 0 0 -0.93957 -0.010019 -0.34222 0.0050507
0.24113 0.12516 1.1435 6.3154e-39 267.5 334.5 0 0 0 -0.92263 -0.017564 -0.38528 0.0060299
0.2409 0.12705 1.1424 5.6239e-39 438 335 0 0 0 -0.92323 -0.0063529 -0.38419 0.0070394
0.2409 0.12839 1.1424 8.021e-39 378 336 0 0 0 -0.92465 0.0052129 -0.38079 0.0081539
0.2409 0.13373 1.1424 6.0849e-39 216 339 0 0 0 -0.92053 0.074496 -0.38349 0.010506
0.2409 0.13507 1.1424 6.3615e-39 477 339 0 0 0 -0.92069 0.10474 -0.37598 0.010514
0.24224 0.13507 1.1424 5.9927e-39 478 339 0 0 0 -0.9223 0.10322 -0.37244 0.010881
0.2409 0.13708 1.1424 7.1913e-39 335.5 340.5 0 0 0 -0.91729 0.13069 -0.37617 0.010095
0.24224 0.13708 1.1424 6.9608e-39 336.5 340.5 0 0 0 -0.91855 0.13354 -0.37206 0.010231
0.2409 0.13908 1.1424 5.9005e-39 192 342 0 0 0 -0.91375 0.15512 -0.3755 0.0093216
0.24224 0.13908 1.1424 5.9005e-39 193 342 0 0 0 -0.91457 0.15807 -0.37225 0.0092827
0.24113 0.14055 1.1435 6.3615e-39 455 342 0 0 0 -0.90704 0.17357 -0.3836 0.0082433
0.24246 0.14055 1.1435 5.9005e-39 456 342 0 0 0 -0.90852 0.17448 -0.37967 0.008295
0.24358 0.14309 1.1424 5.7161e-39 217 344 0 0 0 -0.91012 0.1908 -0.36779 0.0068962
0.2438 0.14456 1.1435 5.8083e-39 143 345 0 0 0 -0.90569 0.19336 -0.37727 0.0059463
0.24491 0.14576 1.1424 5.8083e-39 433 345 0 0 0 -0.91329 0.18747 -0.36161 0.0052543
0.24514 0.14724 1.1435 7.56e-39 236 346 0 0 0 -0.911 0.18153 -0.37031 0.0051946
0.24637 0.14918 1.143 6.592e-39 314 347 0 0 0 -0.91793 0.16757 -0.35962 0.0063258
0.24759 0.15378 1.1424 7.2835e-39 459 349 0 0 0 -0.93101 0.10927 -0.34824 0.0094397
0.24759 0.15512 1.1424 7.9288e-39 242 350 0 0 0 -0.93509 0.096082 -0.34114 0.0096376
0.24781 0.15727 1.1435 7.514e-39 312 351 0 0 0 -0.93686 0.058742 -0.34474 0.0098778
0.24781 0.15928 1.1435 6.2693e-39 238 352 0 0 0 -0.94012 0.027825 -0.3397 0.0088829
0.2477 0.16121 1.143 7.4679e-39 317 353 0 0 0 -0.94363 0.0026406 -0.331 0.0077234
0.24759 0.16314 1.1424 7.2835e-39 407 354 0 0 0 -0.94524 -0.017293 -0.3259 0.0064901
0.24514 0.16597 1.1435 6.4537e-39 487 355 0 0 0 -0.94233 -0.042852 -0.33193 0.0059729
0.24637 0.16522 1.143 7.0991e-39 347.5 355 0 0 0 -0.94282 -0.035726 -0.33139 0.0057713
0.24514 0.1673 1.1435 5.9005e-39 447 356 0 0 0 -0.94124 -0.051607 -0.33377 0.0053975
0.24491 0.16849 1.1424 5.8083e-39 238 357 0 0 0 -0.94177 -0.056305 -0.3315 0.0049252
0.2438 0.17132 1.1435 6.7303e-39 460 358 0 0 0 -0.93783 -0.070599 -0.33983 0.0052324
0.2438 0.17333 1.1435 7.514e-39 422 359 0 0 0 -0.93718 -0.072305 -0.34126 0.0055557
0.2438 0.17533 1.1435 7.1913e-39 417 360 0 0 0 -0.93782 -0.073974 -0.33914 0.0058236
0.2438 0.17667 1.1435 5.7161e-39 169 361 0 0 0 -0.93735 -0.073523 -0.34055 0.0058094
0.33642 0.057656 1.1446 9.0352e-39 331 314 0 0 0 -0.1738 -0.87803 -0.44593 0.030297
0.33674 0.05905 1.1456 8.6664e-39 393 314 0 0 0 -0.17302 -0.88004 -0.44225 0.028881
0.28982 0.06173 1.1456 6.1771e-39 259 315 0 0 0 -0.062688 -0.88542 -0.46055 0.0089248
0.29089 0.061673 1.1446 6.1771e-39 260 315 0 0 0 -0.051936 -0.88442 -0.46379 0.0092551
0.29519 0.06039 1.1456 7.6522e-39 414 314 0 0 0 0.0028854 -0.89041 -0.45515 0.014011
0.29653 0.06039 1.1456 7.6522e-39 415 314 0 0 0 0.018857 -0.89095 -0.4537 0.014374
0.30859 0.06039 1.1456 6.5459e-39 424 314 0 0 0 0.17317 -0.89038 -0.421 0.0074916
0.33674 0.06106 1.1456 7.4218e-39 393 314.5 0 0 0 -0.16691 -0.88146 -0.44177 0.027461
0.3391 0.061673 1.1446 9.0352e-39 343 315 0 0 0 -0.17039 -0.88104 -0.44128 0.030403
0.34501 0.060799 1.1449 5.5625e-39 245.33 315 0 0 0 -0.13453 -0.88459 -0.44655 0.041609
0.34612 0.06173 1.1456 6.0849e-39 348 315 0 0 0 -0.12561 -0.88537 -0.4476 0.044326
0.24671 0.063012 1.1446 7.1913e-39 357 315 0 0 0 -0.63785 -0.4551 -0.62132 0.036824
0.31232 0.063012 1.1446 7.6522e-39 399 315 0 0 0 0.16483 -0.88929 -0.42661 0.0074793
0.31529 0.06307 1.1456 7.4678e-39 401 315 0 0 0 0.13861 -0.88951 -0.43539 0.011659
0.33725 0.063041 1.1451 6.8225e-39 424.5 315 0 0 0 -0.16797 -0.88113 -0.44204 0.028905
0.33942 0.06307 1.1456 6.8225e-39 426 315 0 0 0 -0.17265 -0.87766 -0.44711 0.031066
0.34044 0.063012 1.1446 6.1771e-39 427 315 0 0 0 -0.16388 -0.88481 -0.43619 0.030391
0.34714 0.063012 1.1446 5.7161e-39 432 315 0 0 0 -0.080238 -0.89888 -0.43078 0.041916
0.24269 0.06569 1.1446 7.2835e-39 320 316 0 0 0 -0.73389 -0.33489 -0.59098 0.021541
0.31716 0.064381 1.1451 6.6381e-39 263.5 316 0 0 0 0.095565 -0.89917 -0.42703 0.015078
0.32132 0.065751 1.1456 6.592e-39 378.5 316 0 0 0 -0.0052567 -0.92218 -0.38673 0.023498
0.32705 0.06569 1.1446 7.3757e-39 383 316 0 0 0 -0.077869 -0.92316 -0.37645 0.026279
0.32906 0.064351 1.1446 6.7764e-39 296.5 316 0 0 0 -0.10072 -0.91722 -0.38545 0.023791
0.33137 0.064411 1.1456 6.7303e-39 298 316 0 0 0 -0.12046 -0.91051 -0.39555 0.02403
0.33323 0.06572 1.1451 6.8225e-39 386.5 316 0 0 0 -0.14057 -0.90294 -0.40613 0.025505
0.33508 0.06569 1.1446 7.6522e-39 388 316 0 0 0 -0.14495 -0.89877 -0.41377 0.025581
0.33674 0.064411 1.1456 7.0991e-39 305 316 0 0 0 -0.16261 -0.88514 -0.43599 0.028741
0.3391 0.064351 1.1446 7.0069e-39 307 316 0 0 0 -0.16197 -0.88945 -0.42737 0.028953
0.34446 0.064351 1.1446 6.3615e-39 311 316 0 0 0 -0.13525 -0.88987 -0.43569 0.036492
0.34612 0.064411 1.1456 6.3615e-39 312 316 0 0 0 -0.1224 -0.88731 -0.44463 0.040863
0.24023 0.067091 1.1456 7.56e-39 405 316 0 0 0 -0.74921 -0.3296 -0.57449 0.022819
0.24269 0.067029 1.1446 8.2054e-39 413 316 0 0 0 -0.72885 -0.32887 -0.60052 0.02142
0.32303 0.067029 1.1446 5.9927e-39 204 317 0 0 0 -0.032779 -0.92526 -0.3779 0.025249
0.32601 0.067091 1.1456 5.4395e-39 206 317 0 0 0 -0.076172 -0.92422 -0.37419 0.027434
0.24269 0.068368 1.1446 6.1771e-39 234 317 0 0 0 -0.73112 -0.3026 -0.61147 0.022453
0.23621 0.073793 1.1456 6.4537e-39 312 318 0 0 0 -0.80342 -0.17819 -0.56812 0.034572
0.23867 0.072386 1.1446 6.5459e-39 222 318 0 0 0 -0.77923 -0.21498 -0.58872 0.029485
0.24105 0.072877 1.1453 6.5459e-39 254.33 318 0 0 0 -0.78067 -0.20057 -0.59188 0.029556
0.23599 0.075064 1.1446 7.3757e-39 410 318 0 0 0 -0.81364 -0.16404 -0.55774 0.033475
0.23733 0.075064 1.1446 7.7444e-39 411 318 0 0 0 -0.81841 -0.15961 -0.55202 0.032586
0.23733 0.084437 1.1446 7.4678e-39 299 321 0 0 0 -0.91018 -0.0063785 -0.41416 0.02685
0.23867 0.091133 1.1446 6.1771e-39 272 323 0 0 0 -0.92854 0.087323 -0.36082 0.015396
0.23889 0.092557 1.1456 8.1132e-39 384 323 0 0 0 -0.93018 0.097381 -0.35395 0.013188
0.24023 0.093227 1.1456 6.7303e-39 293 323.5 0 0 0 -0.93145 0.099318 -0.35006 0.012893
0.24135 0.10185 1.1446 5.5317e-39 201 326 0 0 0 -0.95255 0.065847 -0.29717 0.0056013
0.24157 0.10328 1.1456 1.0142e-38 324 326 0 0 0 -0.95138 0.057155 -0.30266 0.005633
0.24157 0.10529 1.1456 6.131e-39 303 326.5 0 0 0 -0.94907 0.045419 -0.31177 0.005139
0.24157 0.1073 1.1456 9.3118e-39 336 327 0 0 0 -0.94631 0.03604 -0.32124 0.0049241
0.24269 0.11323 1.1446 7.2374e-39 325 329 0 0 0 -0.94072 0.012952 -0.33893 0.0054521
0.24269 0.11524 1.1446 8.2054e-39 236 330 0 0 0 -0.93709 0.00054619 -0.3491 0.0054472
0.24157 0.11936 1.1456 6.3615e-39 461 331 0 0 0 -0.92559 -0.027003 -0.37756 0.0050494
0.24135 0.12126 1.1446 6.7303e-39 289 332.5 0 0 0 -0.92527 -0.025639 -0.37845 0.0051759
0.24135 0.12327 1.1446 6.0849e-39 433 333 0 0 0 -0.92124 -0.024031 -0.38826 0.0054903
0.24012 0.1307 1.1451 6.3154e-39 323.5 337 0 0 0 -0.91566 0.034195 -0.4005 0.0090497
0.24001 0.13331 1.1446 6.9146e-39 304.5 338.5 0 0 0 -0.91616 0.070595 -0.39455 0.0097762
0.24001 0.13532 1.1446 6.1771e-39 476 339 0 0 0 -0.91341 0.10192 -0.39407 0.0099451
0.24001 0.13733 1.1446 7.514e-39 334.5 340.5 0 0 0 -0.91025 0.13034 -0.39301 0.0095124
0.24001 0.13934 1.1446 6.2693e-39 191 342 0 0 0 -0.90592 0.1567 -0.39339 0.008485
0.24001 0.14068 1.1446 6.4537e-39 454 342 0 0 0 -0.90387 0.16984 -0.39265 0.0080579
0.24105 0.14255 1.1453 6.8225e-39 341.33 343.33 0 0 0 -0.90258 0.18195 -0.39019 0.0069774
0.2428 0.14276 1.1451 6.592e-39 311 343.5 0 0 0 -0.90204 0.18517 -0.38993 0.0066362
0.24414 0.14677 1.1451 6.8685e-39 333.5 345.5 0 0 0 -0.90321 0.18814 -0.38576 0.0055384
0.24537 0.14871 1.1446 7.4678e-39 171 347 0 0 0 -0.91012 0.17434 -0.37588 0.0056539
0.24559 0.15086 1.1456 6.8224e-39 348 347.5 0 0 0 -0.91096 0.15394 -0.3827 0.0069271
0.24671 0.15139 1.1446 7.56e-39 242 348 0 0 0 -0.91554 0.14619 -0.37473 0.0074505
0.24693 0.15287 1.1456 7.3757e-39 169 349 0 0 0 -0.91626 0.1293 -0.37914 0.0083744
0.24693 0.15488 1.1456 7.3757e-39 349.5 349.5 0 0 0 -0.92022 0.10648 -0.37663 0.0092875
0.24693 0.15957 1.1456 6.4537e-39 237 352 0 0 0 -0.93119 0.036115 -0.36273 0.0092312
0.24559 0.16091 1.1456 8.1132e-39 168 353 0 0 0 -0.93345 0.01878 -0.35822 0.0089962
0.24693 0.16091 1.1456 8.2976e-39 169 353 0 0 0 -0.93419 0.016141 -0.35642 0.0088449
0.24548 0.16285 1.1451 6.7764e-39 433 353.5 0 0 0 -0.9375 -0.0069957 -0.34791 0.0080382
0.24671 0.16277 1.1446 6.7764e-39 434.5 353.5 0 0 0 -0.94179 -0.01097 -0.33603 0.0073817
0.24537 0.16478 1.1446 7.7444e-39 206 355 0 0 0 -0.9407 -0.033062 -0.33761 0.0066371
0.24425 0.16761 1.1456 6.3615e-39 446 356 0 0 0 -0.93796 -0.060528 -0.34143 0.0060897
0.24403 0.1688 1.1446 5.8083e-39 237 357 0 0 0 -0.93747 -0.066595 -0.34163 0.0054639
0.24403 0.17014 1.1446 5.8083e-39 159 358 0 0 0 -0.93682 -0.071797 -0.34237 0.0051446
0.2968 0.057763 1.1467 6.7303e-39 427 313 0 0 0 0.024959 -0.8999 -0.43538 0.015739
0.30916 0.057816 1.1477 5.9927e-39 430 313 0 0 0 0.1837 -0.89158 -0.41393 0.0071767
0.33468 0.056474 1.1477 6.3615e-39 424 313 0 0 0 -0.17797 -0.87879 -0.44279 0.03007
0.33602 0.057816 1.1477 9.0352e-39 330 314 0 0 0 -0.17907 -0.88021 -0.43951 0.02919
0.2968 0.059104 1.1467 6.1771e-39 348 314 0 0 0 0.020902 -0.8945 -0.44658 0.015793
0.30916 0.059159 1.1477 7.2835e-39 357 314 0 0 0 0.17802 -0.89225 -0.41497 0.0071924
0.3352 0.059131 1.1472 7.514e-39 391.5 314 0 0 0 -0.17254 -0.88353 -0.43544 0.027583
0.29143 0.060446 1.1467 7.56e-39 411 314 0 0 0 -0.052967 -0.88922 -0.45439 0.010453
0.29278 0.060446 1.1467 7.56e-39 412 314 0 0 0 -0.037788 -0.88833 -0.45765 0.011872
0.29412 0.060446 1.1467 7.7444e-39 413 314 0 0 0 -0.014978 -0.89381 -0.4482 0.013828
0.307 0.060474 1.1472 5.9005e-39 422.5 314 0 0 0 0.16965 -0.8925 -0.41793 0.0088666
0.31117 0.061173 1.1477 7.9288e-39 373.5 314.5 0 0 0 0.16526 -0.89332 -0.41793 0.0077937
0.31453 0.061845 1.1477 9.5883e-39 324 315 0 0 0 0.13957 -0.8894 -0.4353 0.012159
0.3293 0.061845 1.1477 9.5883e-39 335 315 0 0 0 -0.11193 -0.91543 -0.38661 0.025512
0.33065 0.061845 1.1477 1.0049e-38 336 315 0 0 0 -0.11904 -0.91138 -0.39397 0.024752
0.33333 0.061845 1.1477 9.3118e-39 338 315 0 0 0 -0.14494 -0.89845 -0.41447 0.025056
0.33504 0.061117 1.1467 7.3757e-39 391.5 314.5 0 0 0 -0.15843 -0.89052 -0.42647 0.025726
0.24336 0.063188 1.1477 6.3615e-39 354 315 0 0 0 -0.73789 -0.39612 -0.54646 0.023887
0.31722 0.063188 1.1477 7.2835e-39 402 315 0 0 0 0.086354 -0.90425 -0.41818 0.01773
0.31827 0.063129 1.1467 7.4678e-39 403 315 0 0 0 0.057553 -0.9128 -0.40433 0.020291
0.329 0.063129 1.1467 7.4678e-39 418 315 0 0 0 -0.10749 -0.91583 -0.38691 0.024564
0.33117 0.063158 1.1472 6.4076e-39 419.5 315 0 0 0 -0.12602 -0.90791 -0.39977 0.023992
0.3352 0.063158 1.1472 5.9005e-39 422.5 315 0 0 0 -0.15586 -0.89272 -0.42279 0.02517
0.3451 0.063129 1.1467 5.9005e-39 430 315 0 0 0 -0.15311 -0.87306 -0.46295 0.042925
0.34644 0.063129 1.1467 5.8083e-39 431 315 0 0 0 -0.1307 -0.87977 -0.45709 0.044758
0.24258 0.065172 1.1472 6.592e-39 378 315.5 0 0 0 -0.74543 -0.36549 -0.55745 0.023292
0.31961 0.064471 1.1467 6.2693e-39 265 316 0 0 0 0.021849 -0.91948 -0.39253 0.020481
0.32125 0.064531 1.1477 6.3615e-39 266 316 0 0 0 -0.0057139 -0.92344 -0.38369 0.023198
0.32296 0.065141 1.1467 6.8686e-39 323.5 316 0 0 0 -0.027736 -0.926 -0.3765 0.024411
0.32513 0.065171 1.1472 7.2374e-39 325 316 0 0 0 -0.057798 -0.9242 -0.37751 0.026294
0.32714 0.065172 1.1472 8.1132e-39 338 316 0 0 0 -0.084657 -0.92215 -0.37745 0.027119
0.33333 0.064531 1.1477 7.0069e-39 302 316 0 0 0 -0.14784 -0.89798 -0.41445 0.02517
0.33503 0.064471 1.1467 6.592e-39 303.5 316 0 0 0 -0.15432 -0.89013 -0.42879 0.026338
0.24202 0.067216 1.1477 8.3898e-39 412 316 0 0 0 -0.74721 -0.33339 -0.57491 0.024602
0.23732 0.069902 1.1477 7.1913e-39 319.5 317 0 0 0 -0.76127 -0.29236 -0.57879 0.027505
0.23934 0.069902 1.1477 8.2976e-39 321 317 0 0 0 -0.76082 -0.29293 -0.57909 0.025905
0.24057 0.069199 1.1472 7.3296e-39 277 317 0 0 0 -0.7538 -0.29754 -0.58588 0.024767
0.24202 0.06923 1.1477 7.514e-39 278 317 0 0 0 -0.75078 -0.30236 -0.58729 0.024524
0.23531 0.071245 1.1477 7.4678e-39 404 317 0 0 0 -0.76034 -0.27999 -0.58607 0.031708
0.23732 0.071245 1.1477 7.6983e-39 405.5 317 0 0 0 -0.76593 -0.26525 -0.58566 0.030556
0.23911 0.071178 1.1467 7.9288e-39 407 317 0 0 0 -0.75673 -0.2547 -0.60207 0.028716
0.24113 0.071178 1.1467 7.8827e-39 409.5 317 0 0 0 -0.75993 -0.25595 -0.5975 0.027082
0.23747 0.073012 1.1474 6.0849e-39 251.33 318 0 0 0 -0.79726 -0.19876 -0.56997 0.035314
0.23799 0.091387 1.1477 6.3615e-39 271 323 0 0 0 -0.92323 0.10919 -0.36842 0.014326
0.23911 0.093985 1.1467 5.5317e-39 200 324 0 0 0 -0.92875 0.1118 -0.35344 0.012016
0.23934 0.095415 1.1477 1.0695e-38 323 324 0 0 0 -0.93098 0.1176 -0.3456 0.010959
0.24046 0.095326 1.1467 1.0326e-38 324 324 0 0 0 -0.93451 0.10714 -0.33943 0.01136
0.23934 0.096758 1.1477 6.5459e-39 435 324 0 0 0 -0.93797 0.10467 -0.33054 0.0095167
0.24046 0.096668 1.1467 5.9927e-39 436 324 0 0 0 -0.94142 0.095163 -0.32352 0.0094119
0.24046 0.09868 1.1467 7.0529e-39 291 325 0 0 0 -0.94858 0.080051 -0.30625 0.0071917
0.24068 0.10079 1.1477 7.1913e-39 425 325 0 0 0 -0.9495 0.069667 -0.30593 0.0064255
0.24068 0.1028 1.1477 7.8366e-39 248 326 0 0 0 -0.94999 0.056794 -0.30709 0.0061151
0.24068 0.10481 1.1477 6.9147e-39 411 326 0 0 0 -0.94805 0.045774 -0.31481 0.0056446
0.24068 0.10683 1.1477 7.1913e-39 264 327 0 0 0 -0.94434 0.0343 -0.32717 0.0055104
0.24124 0.10879 1.1472 6.2693e-39 440.5 327 0 0 0 -0.94086 0.028953 -0.33757 0.005429
0.24124 0.11081 1.1472 6.0388e-39 327.5 328 0 0 0 -0.93651 0.017036 -0.35022 0.0055118
0.24202 0.11287 1.1477 8.943e-39 233 329 0 0 0 -0.93382 0.006494 -0.35769 0.0055571
0.24202 0.11489 1.1477 7.0991e-39 325 329.5 0 0 0 -0.93002 -0.006987 -0.36744 0.0052613
0.2418 0.11679 1.1467 6.2693e-39 433 330 0 0 0 -0.92915 -0.016117 -0.36936 0.0051451
0.24124 0.11886 1.1472 6.592e-39 358 331 0 0 0 -0.92243 -0.030872 -0.38492 0.0049365
0.24068 0.12093 1.1477 8.7586e-39 374 332 0 0 0 -0.91623 -0.038219 -0.39883 0.0049066
0.24068 0.12294 1.1477 5.5779e-39 317 333 0 0 0 -0.91326 -0.035241 -0.40586 0.0047476
0.24068 0.12496 1.1477 6.6381e-39 364 334 0 0 0 -0.91174 -0.025147 -0.40999 0.0052189
0.24068 0.12697 1.1477 5.9466e-39 303 335 0 0 0 -0.9114 -0.0056044 -0.41147 0.0063045
0.24046 0.12887 1.1467 8.2976e-39 377 336 0 0 0 -0.91269 0.012193 -0.40846 0.007195
0.24046 0.14362 1.1467 6.6381e-39 214 344 0 0 0 -0.89692 0.18679 -0.4008 0.0064587
0.24124 0.14503 1.1472 4.702e-39 483.5 344 0 0 0 -0.89631 0.1939 -0.39879 0.0057399
0.24314 0.14496 1.1467 7.56e-39 485 344 0 0 0 -0.89784 0.1902 -0.39711 0.005733
0.24269 0.14644 1.1477 5.9005e-39 430.5 345 0 0 0 -0.89638 0.18848 -0.40123 0.0056643
0.24471 0.14913 1.1477 7.56e-39 170 347 0 0 0 -0.90036 0.17654 -0.39772 0.0060207
0.24471 0.15114 1.1477 6.9607e-39 347 347.5 0 0 0 -0.90493 0.15426 -0.39661 0.0066819
0.24582 0.15301 1.1467 7.2835e-39 168 349 0 0 0 -0.91217 0.13036 -0.38852 0.0078574
0.24582 0.15503 1.1467 7.053e-39 348.5 349.5 0 0 0 -0.91617 0.1057 -0.3866 0.0091481
0.24582 0.15704 1.1467 7.7444e-39 164 351 0 0 0 -0.92136 0.076341 -0.38114 0.0097718
0.24716 0.15704 1.1467 8.021e-39 165 351 0 0 0 -0.92237 0.07412 -0.37913 0.0099015
0.24582 0.15905 1.1467 6.592e-39 346 351.5 0 0 0 -0.92731 0.049225 -0.37105 0.0095719
0.24716 0.15838 1.1467 6.6381e-39 457 351 0 0 0 -0.92607 0.051473 -0.37383 0.0095379
0.24471 0.16121 1.1477 7.8366e-39 167 353 0 0 0 -0.92611 0.025042 -0.37642 0.0095199
0.24471 0.16323 1.1477 6.7303e-39 432 353.5 0 0 0 -0.93254 0.00038881 -0.36108 0.0092803
0.24448 0.16509 1.1467 7.9288e-39 205 355 0 0 0 -0.93623 -0.02626 -0.35039 0.008235
0.24448 0.16643 1.1467 6.5459e-39 486 355 0 0 0 -0.93896 -0.043184 -0.3413 0.0073993
0.24336 0.16927 1.1477 5.8083e-39 236 357 0 0 0 -0.93628 -0.073972 -0.34339 0.0072971
0.24336 0.17128 1.1477 6.5459e-39 308.5 358 0 0 0 -0.93562 -0.083675 -0.34295 0.006804
0.24336 0.1733 1.1477 7.9288e-39 229 359 0 0 0 -0.93571 -0.088119 -0.34158 0.006586
0.24336 0.17531 1.1477 7.4218e-39 514.5 359.5 0 0 0 -0.9364 -0.091883 -0.33869 0.0066052
0.24336 0.17733 1.1477 5.4395e-39 168 361 0 0 0 -0.93942 -0.075886 -0.33428 0.006667
0.29628 0.057924 1.1499 6.7303e-39 426 313 0 0 0 0.0083728 -0.91513 -0.40308 0.017073
0.33395 0.057924 1.1499 5.2552e-39 194 314 0 0 0 -0.16206 -0.89201 -0.42197 0.027239
0.33499 0.05787 1.1488 5.5317e-39 195 314 0 0 0 -0.17598 -0.88483 -0.4314 0.027646
0.29467 0.059214 1.1488 8.8508e-39 339 314 0 0 0 -0.013423 -0.90013 -0.43542 0.016029
0.29601 0.059214 1.1488 5.9005e-39 347 314 0 0 0 0.012665 -0.9077 -0.41944 0.01582
0.30542 0.059214 1.1488 6.2693e-39 354 314 0 0 0 0.16749 -0.89337 -0.41694 0.01035
0.30705 0.059269 1.1499 6.6381e-39 355 314 0 0 0 0.17871 -0.89682 -0.40469 0.0085467
0.30839 0.059269 1.1499 7.0991e-39 356 314 0 0 0 0.18217 -0.89251 -0.4126 0.0078438
0.31108 0.059269 1.1499 7.0069e-39 358 314 0 0 0 0.16603 -0.89029 -0.42405 0.0086746
0.33126 0.059269 1.1499 7.7444e-39 388 314 0 0 0 -0.14293 -0.90506 -0.40054 0.027361
0.33364 0.059214 1.1488 7.3757e-39 390 314 0 0 0 -0.15969 -0.89209 -0.4227 0.027063
0.24359 0.061902 1.1488 5.3473e-39 200 315 0 0 0 -0.74408 -0.41986 -0.51967 0.025579
0.31348 0.061902 1.1488 9.3118e-39 323 315 0 0 0 0.15036 -0.89122 -0.42792 0.01046
0.31646 0.06196 1.1499 9.9571e-39 325 315 0 0 0 0.09719 -0.90432 -0.41563 0.017169
0.32909 0.061259 1.1493 7.6983e-39 386.5 314.5 0 0 0 -0.11279 -0.91641 -0.38401 0.026492
0.33095 0.060558 1.1488 6.1771e-39 440 314 0 0 0 -0.12885 -0.90748 -0.39984 0.027279
0.33275 0.061006 1.1488 7.8059e-39 406.67 314.33 0 0 0 -0.14677 -0.9003 -0.40979 0.02484
0.32103 0.063276 1.1493 7.9288e-39 408 315 0 0 0 -0.0073259 -0.92316 -0.38435 0.023933
0.32289 0.063246 1.1488 8.1132e-39 413 315 0 0 0 -0.026308 -0.92523 -0.3785 0.024503
0.32506 0.063276 1.1493 7.4679e-39 414.5 315 0 0 0 -0.065507 -0.92679 -0.36983 0.028201
0.32723 0.063305 1.1499 7.4678e-39 416 315 0 0 0 -0.078025 -0.92167 -0.38004 0.027218
0.32827 0.063246 1.1488 7.56e-39 417 315 0 0 0 -0.099047 -0.91747 -0.38529 0.028156
0.33364 0.063246 1.1488 5.8083e-39 421 315 0 0 0 -0.15202 -0.89665 -0.41583 0.025248
0.24247 0.064651 1.1499 6.0849e-39 436 315 0 0 0 -0.74189 -0.4078 -0.53225 0.024974
0.32423 0.064591 1.1488 6.8225e-39 268 316 0 0 0 -0.050303 -0.92509 -0.37641 0.025701
0.32692 0.064591 1.1488 7.8366e-39 270 316 0 0 0 -0.076468 -0.91995 -0.38451 0.026407
0.23821 0.092816 1.1488 8.482e-39 383 323 0 0 0 -0.92168 0.12662 -0.36671 0.012871
0.23844 0.094247 1.1499 5.7161e-39 199 324 0 0 0 -0.91827 0.13982 -0.37044 0.011494
0.23956 0.098192 1.1488 5.8083e-39 238 325 0 0 0 -0.94437 0.085853 -0.31749 0.0077439
0.23978 0.10366 1.1499 8.8508e-39 286 326 0 0 0 -0.94734 0.044386 -0.31713 0.0064076
0.23978 0.10501 1.1499 6.3615e-39 410 326 0 0 0 -0.94337 0.032694 -0.33013 0.0063069
0.23978 0.10703 1.1499 7.3757e-39 263 327 0 0 0 -0.93761 0.022913 -0.34694 0.0061651
0.23956 0.10894 1.1488 6.3615e-39 439 327 0 0 0 -0.93472 0.020274 -0.35482 0.0058338
0.23919 0.11122 1.1492 6.1464e-39 354 328 0 0 0 -0.92894 0.0096161 -0.37011 0.0056563
0.23978 0.11308 1.1499 8.8508e-39 231 329 0 0 0 -0.92418 -0.0031246 -0.38194 0.0054036
0.2409 0.11298 1.1488 9.2196e-39 232 329 0 0 0 -0.92871 -0.0010756 -0.37081 0.0055898
0.23978 0.1151 1.1499 7.514e-39 323 329.5 0 0 0 -0.91838 -0.018906 -0.39524 0.0053231
0.2409 0.11499 1.1488 7.2835e-39 324 329.5 0 0 0 -0.92557 -0.014874 -0.37829 0.0052791
0.23978 0.11712 1.1499 6.3615e-39 431 330 0 0 0 -0.91613 -0.031498 -0.39964 0.0052185
0.2409 0.11701 1.1488 6.0849e-39 432 330 0 0 0 -0.92032 -0.026502 -0.39026 0.0053327
0.23956 0.11902 1.1488 6.2693e-39 356.5 331 0 0 0 -0.91563 -0.036862 -0.40032 0.0049888
0.2409 0.11835 1.1488 6.3615e-39 255 331 0 0 0 -0.91745 -0.032966 -0.39647 0.0051502
0.23956 0.12104 1.1488 8.943e-39 373 332 0 0 0 -0.9137 -0.042666 -0.40413 0.0045859
0.23978 0.12317 1.1499 5.7161e-39 316 333 0 0 0 -0.90996 -0.039549 -0.41281 0.0046453
0.23978 0.12519 1.1499 7.56e-39 360 334 0 0 0 -0.90969 -0.02616 -0.41446 0.0049185
0.23978 0.12721 1.1499 5.9466e-39 302 335 0 0 0 -0.90901 -0.0079357 -0.4167 0.0058798
0.23978 0.12923 1.1499 8.7586e-39 376 336 0 0 0 -0.91037 0.015843 -0.41349 0.0070087
0.23978 0.13124 1.1499 6.0388e-39 322.5 337 0 0 0 -0.91084 0.041605 -0.41067 0.0083609
0.23956 0.13314 1.1488 7.56e-39 393 338 0 0 0 -0.90992 0.069382 -0.40893 0.0085554
0.23956 0.13515 1.1488 6.2232e-39 344.5 339 0 0 0 -0.90706 0.10363 -0.40806 0.0086819
0.23956 0.13717 1.1488 6.8225e-39 424 340 0 0 0 -0.90448 0.13206 -0.40556 0.0082596
0.23956 0.13919 1.1488 7.0991e-39 216.5 341.5 0 0 0 -0.90068 0.15438 -0.40613 0.0078759
0.23956 0.1412 1.1488 6.5459e-39 453 342 0 0 0 -0.89703 0.17405 -0.40626 0.0071496
0.23978 0.14268 1.1499 6.2693e-39 403 343 0 0 0 -0.89604 0.18217 -0.40487 0.0067433
0.23978 0.14402 1.1499 5.9927e-39 213 344 0 0 0 -0.89466 0.18613 -0.40613 0.0061785
0.2409 0.14725 1.1488 6.6842e-39 330.5 345.5 0 0 0 -0.89282 0.18946 -0.40862 0.0057898
0.24292 0.14792 1.1488 8.5742e-39 233.5 346 0 0 0 -0.89455 0.18282 -0.40787 0.0061552
0.24113 0.1494 1.1499 7.0991e-39 167 347 0 0 0 -0.89125 0.17827 -0.41701 0.0062914
0.24303 0.14933 1.1493 7.1913e-39 168.5 347 0 0 0 -0.8948 0.17534 -0.4106 0.006256
0.24113 0.15075 1.1499 6.3615e-39 451 347 0 0 0 -0.89439 0.16699 -0.41495 0.0069864
0.24314 0.15075 1.1499 6.8225e-39 452.5 347 0 0 0 -0.89656 0.1638 -0.41153 0.0068877
0.24382 0.15277 1.1499 7.7444e-39 202.5 348.5 0 0 0 -0.90073 0.14105 -0.41083 0.0078236
0.24494 0.1533 1.1488 7.3757e-39 167 349 0 0 0 -0.90857 0.13066 -0.39676 0.0077889
0.24494 0.15532 1.1488 6.9146e-39 347.5 349.5 0 0 0 -0.91126 0.10791 -0.39745 0.0088012
0.24494 0.15733 1.1488 7.2835e-39 163 351 0 0 0 -0.91671 0.080449 -0.39136 0.0093703
0.24494 0.15867 1.1488 6.0849e-39 455 351 0 0 0 -0.91832 0.059417 -0.39135 0.0096295
0.24382 0.16151 1.1499 7.8366e-39 166 353 0 0 0 -0.92095 0.035552 -0.38805 0.010493
0.24494 0.16002 1.1488 6.9147e-39 235 352 0 0 0 -0.9218 0.043231 -0.38524 0.010099
0.24382 0.16286 1.1499 7.56e-39 459 353 0 0 0 -0.92385 0.01158 -0.38257 0.010458
0.24371 0.16479 1.1493 7.0991e-39 303.5 354.5 0 0 0 -0.92801 -0.014559 -0.37228 0.0097637
0.24359 0.16674 1.1488 6.8225e-39 485 355 0 0 0 -0.93172 -0.040494 -0.36091 0.0093077
0.24359 0.16808 1.1488 6.7303e-39 445 356 0 0 0 -0.93455 -0.055969 -0.3514 0.0087182
0.29521 0.057978 1.151 6.6381e-39 425 313 0 0 0 -0.011076 -0.92734 -0.37406 0.016109
0.30868 0.057978 1.151 5.9927e-39 429 313 0 0 0 0.17936 -0.897 -0.404 0.0078777
0.33323 0.056684 1.152 5.9005e-39 423 313 0 0 0 -0.17352 -0.89441 -0.41222 0.03034
0.30762 0.058032 1.152 6.3615e-39 428 313 0 0 0 0.17885 -0.90171 -0.39361 0.0082363
0.31301 0.05938 1.152 6.6381e-39 359 314 0 0 0 0.15575 -0.89445 -0.41917 0.011433
0.33088 0.058463 1.1517 6.6688e-39 423.33 313.33 0 0 0 -0.13584 -0.90973 -0.39234 0.029674
0.33307 0.058679 1.1515 7.053e-39 416 313.5 0 0 0 -0.1688 -0.89671 -0.40917 0.028158
0.31272 0.060671 1.151 6.9147e-39 426 314 0 0 0 0.15536 -0.89317 -0.42202 0.010795
0.31503 0.060728 1.152 6.3615e-39 427.5 314 0 0 0 0.12872 -0.89865 -0.41936 0.014657
0.32888 0.060671 1.151 5.9927e-39 438 314 0 0 0 -0.12522 -0.91466 -0.38433 0.028505
0.24281 0.06272 1.1515 5.8544e-39 276 315 0 0 0 -0.7505 -0.44377 -0.48972 0.027262
0.31878 0.062018 1.151 1.0142e-38 326.5 315 0 0 0 0.041652 -0.91406 -0.40343 0.021091
0.3211 0.062076 1.152 1.0234e-38 328 315 0 0 0 -0.0017539 -0.92188 -0.38747 0.025471
0.32297 0.062047 1.1515 9.3579e-39 329.5 315 0 0 0 -0.033357 -0.9231 -0.38312 0.026494
0.32514 0.062076 1.152 9.2196e-39 331 315 0 0 0 -0.062781 -0.92087 -0.38478 0.027081
0.32686 0.062018 1.151 9.45e-39 332.5 315 0 0 0 -0.086017 -0.92185 -0.37788 0.028664
0.23866 0.095682 1.151 1.0418e-38 322 324 0 0 0 -0.92731 0.12068 -0.35431 0.01022
0.23866 0.097028 1.151 7.2835e-39 434 324 0 0 0 -0.93684 0.10071 -0.33496 0.0087194
0.23866 0.099048 1.151 7.2835e-39 289.5 325 0 0 0 -0.94163 0.088269 -0.32487 0.0077892
0.23888 0.10116 1.152 7.1913e-39 424 325 0 0 0 -0.94562 0.063162 -0.31909 0.0072937
0.23877 0.10313 1.1515 7.3757e-39 242 326 0 0 0 -0.94228 0.049705 -0.33111 0.0072268
0.23866 0.10511 1.151 5.7161e-39 409 326 0 0 0 -0.94161 0.028623 -0.33547 0.0066888
0.23866 0.10712 1.151 7.7444e-39 262 327 0 0 0 -0.93324 0.020376 -0.35868 0.0066302
0.23866 0.10915 1.151 6.0849e-39 438 327 0 0 0 -0.92865 0.013982 -0.3707 0.0062885
0.23753 0.11127 1.152 5.8544e-39 324 328 0 0 0 -0.91803 -0.0038203 -0.3965 0.0058022
0.23866 0.11049 1.151 6.2693e-39 240 328 0 0 0 -0.92374 0.0044635 -0.383 0.0057954
0.23753 0.11329 1.152 8.2054e-39 229 329 0 0 0 -0.91617 -0.015142 -0.40049 0.0052171
0.23866 0.11319 1.151 8.3898e-39 230 329 0 0 0 -0.91938 -0.010426 -0.39322 0.0054044
0.23753 0.11531 1.152 7.5601e-39 321 329.5 0 0 0 -0.9112 -0.032338 -0.41069 0.0049282
0.23866 0.1152 1.151 7.7905e-39 322 329.5 0 0 0 -0.91614 -0.02672 -0.39997 0.0050217
0.23753 0.11734 1.152 5.7161e-39 429 330 0 0 0 -0.9096 -0.040721 -0.41349 0.0050693
0.23866 0.11723 1.151 6.0849e-39 430 330 0 0 0 -0.9133 -0.036024 -0.40569 0.0052001
0.23731 0.11925 1.151 6.4076e-39 354.5 331 0 0 0 -0.91078 -0.044317 -0.4105 0.0049815
0.23866 0.11925 1.151 6.4076e-39 355.5 331 0 0 0 -0.91094 -0.044151 -0.41017 0.0049478
0.23731 0.12127 1.151 7.8366e-39 371 332 0 0 0 -0.90989 -0.04736 -0.41214 0.0047924
0.23866 0.12127 1.151 8.6664e-39 372 332 0 0 0 -0.91075 -0.047078 -0.41027 0.0046967
0.23753 0.12273 1.152 5.9927e-39 199 333 0 0 0 -0.90946 -0.045219 -0.41333 0.0047663
0.23866 0.12329 1.151 5.67e-39 315 333 0 0 0 -0.91097 -0.040624 -0.41047 0.0046462
0.23753 0.12475 1.152 6.0849e-39 342.5 333.5 0 0 0 -0.91136 -0.029865 -0.41053 0.0052722
0.23866 0.12531 1.151 8.5742e-39 359 334 0 0 0 -0.91068 -0.024994 -0.41235 0.0051393
0.23753 0.12677 1.152 5.4395e-39 166 335 0 0 0 -0.91174 -0.014432 -0.41051 0.006157
0.23888 0.12677 1.152 5.6239e-39 167 335 0 0 0 -0.91223 -0.014265 -0.40944 0.005867
0.23753 0.12812 1.152 5.5317e-39 434 335 0 0 0 -0.91237 0.0033259 -0.40935 0.0066785
0.23888 0.12879 1.152 7.2374e-39 405 335.5 0 0 0 -0.91182 0.0097879 -0.41048 0.0070086
0.23888 0.13081 1.152 5.6239e-39 197 337 0 0 0 -0.91374 0.039299 -0.4044 0.0080472
0.23753 0.13351 1.152 8.021e-39 391 338 0 0 0 -0.91425 0.072104 -0.39868 0.0083066
0.23888 0.13284 1.152 6.9608e-39 419 337.5 0 0 0 -0.91361 0.063728 -0.40156 0.008198
0.23888 0.13486 1.152 6.0849e-39 213 339 0 0 0 -0.91089 0.095975 -0.40133 0.0084078
0.23888 0.13688 1.152 6.3615e-39 448.5 339.5 0 0 0 -0.90818 0.12197 -0.40041 0.0083442
0.23888 0.1389 1.152 7.0991e-39 241 341 0 0 0 -0.90436 0.14949 -0.39973 0.0077178
0.23888 0.14092 1.152 6.3154e-39 320.5 342 0 0 0 -0.9016 0.16931 -0.39806 0.0074321
0.23888 0.14294 1.152 6.3615e-39 402 343 0 0 0 -0.89832 0.18407 -0.39891 0.0069106
0.24001 0.1455 1.151 4.8864e-39 482 344 0 0 0 -0.8951 0.1914 -0.40268 0.0063492
0.24001 0.14685 1.151 5.5317e-39 428 345 0 0 0 -0.895 0.19374 -0.4018 0.0062416
0.24023 0.14901 1.152 7.1913e-39 198.5 346.5 0 0 0 -0.89442 0.18183 -0.40859 0.006879
0.24135 0.15291 1.151 7.7444e-39 200.5 348.5 0 0 0 -0.8962 0.14512 -0.41924 0.0076926
0.2427 0.15291 1.151 7.8827e-39 201.5 348.5 0 0 0 -0.89583 0.14281 -0.42083 0.0080418
0.24135 0.15493 1.151 6.0849e-39 453 349 0 0 0 -0.89832 0.12627 -0.4208 0.0084291
0.2427 0.15493 1.151 6.0849e-39 454 349 0 0 0 -0.90133 0.11752 -0.41688 0.0087741
0.24405 0.15493 1.151 5.9927e-39 455 349 0 0 0 -0.9025 0.1142 -0.41527 0.0086219
0.24158 0.1571 1.152 7.1452e-39 198 350.5 0 0 0 -0.90243 0.097244 -0.41973 0.0092896
0.24281 0.15702 1.1515 7.2835e-39 199 350.5 0 0 0 -0.90582 0.094051 -0.41309 0.0092339
0.24405 0.15695 1.151 7.3757e-39 200 350.5 0 0 0 -0.90888 0.090285 -0.40717 0.0092317
0.24158 0.15912 1.152 6.5459e-39 452 351 0 0 0 -0.90696 0.063614 -0.41639 0.010151
0.24292 0.15912 1.152 6.3615e-39 453 351 0 0 0 -0.90702 0.05932 -0.4169 0.010043
0.24405 0.15897 1.151 6.2693e-39 454 351 0 0 0 -0.91223 0.060758 -0.40515 0.0098923
0.24158 0.16114 1.152 7.0991e-39 198 352.5 0 0 0 -0.90813 0.042973 -0.41648 0.010468
0.24292 0.16114 1.152 7.0991e-39 199 352.5 0 0 0 -0.91136 0.0385 -0.4098 0.010745
0.24405 0.16032 1.151 6.5459e-39 234 352 0 0 0 -0.91526 0.046128 -0.40021 0.010206
0.24158 0.16316 1.152 6.5459e-39 457 353 0 0 0 -0.91176 0.015802 -0.41043 0.010955
0.2427 0.16301 1.151 7.0069e-39 458 353 0 0 0 -0.91881 0.019512 -0.39423 0.010784
0.24158 0.16519 1.152 7.3296e-39 222 354.5 0 0 0 -0.91784 -0.0071977 -0.39688 0.011418
0.2427 0.16503 1.151 7.6061e-39 223 354.5 0 0 0 -0.9219 -0.0086384 -0.38734 0.01064
0.24158 0.16721 1.152 7.2835e-39 483 355 0 0 0 -0.92224 -0.032568 -0.38524 0.011342
0.2427 0.16705 1.151 7.1913e-39 484 355 0 0 0 -0.92795 -0.039464 -0.37061 0.010198
0.2427 0.16907 1.151 6.2693e-39 339.5 356.5 0 0 0 -0.93091 -0.05511 -0.36107 0.010106
0.2427 0.17109 1.151 5.8083e-39 157 358 0 0 0 -0.93423 -0.08369 -0.34672 0.0092775
0.24292 0.17327 1.152 7.4679e-39 343 358.5 0 0 0 -0.9371 -0.091141 -0.33696 0.0095554
0.24292 0.17529 1.152 7.6522e-39 612 359 0 0 0 -0.93999 -0.10061 -0.32604 0.009333
0.24292 0.17664 1.152 6.4537e-39 415 360 0 0 0 -0.94305 -0.10145 -0.3168 0.0088581
0.33219 0.056737 1.1531 5.9005e-39 422 313 0 0 0 -0.14957 -0.90156 -0.40598 0.02739
0.31465 0.059435 1.1531 6.5459e-39 360 314 0 0 0 0.12568 -0.9013 -0.41456 0.015041
0.32949 0.059435 1.1531 6.6381e-39 386 314 0 0 0 -0.13082 -0.91174 -0.38939 0.027345
0.3241 0.060785 1.1531 6.9147e-39 434 314 0 0 0 -0.043982 -0.92273 -0.38293 0.027108
0.32679 0.060785 1.1531 6.2693e-39 436 314 0 0 0 -0.082304 -0.92198 -0.37839 0.028744
0.32814 0.060785 1.1531 6.0849e-39 437 314 0 0 0 -0.10577 -0.91843 -0.38117 0.029902
0.23776 0.094511 1.1531 6.2693e-39 197 324 0 0 0 -0.91694 0.14058 -0.37345 0.011287
0.23776 0.10935 1.1531 6.1771e-39 437 327 0 0 0 -0.91696 0.0046923 -0.39895 0.0062526
0.23641 0.1134 1.1531 8.2976e-39 228 329 0 0 0 -0.90966 -0.023672 -0.41469 0.0048079
0.23641 0.12082 1.1531 7.0529e-39 413 331.5 0 0 0 -0.90948 -0.050613 -0.41265 0.0049772
0.23641 0.12284 1.1531 6.1771e-39 198 333 0 0 0 -0.91066 -0.044272 -0.41077 0.0051056
0.23641 0.12487 1.1531 5.7622e-39 341.5 333.5 0 0 0 -0.9125 -0.029629 -0.408 0.005672
0.23776 0.12959 1.1531 8.5742e-39 374 336 0 0 0 -0.91683 0.02335 -0.39859 0.0076807
0.23776 0.13094 1.1531 5.9005e-39 196 337 0 0 0 -0.91644 0.038182 -0.39835 0.007852
0.23776 0.13229 1.1531 5.6239e-39 445 337 0 0 0 -0.91581 0.06068 -0.39701 0.0081335
0.23776 0.13498 1.1531 5.7161e-39 212 339 0 0 0 -0.91449 0.094491 -0.39342 0.0082395
0.23776 0.13701 1.1531 5.9927e-39 447.5 339.5 0 0 0 -0.91134 0.12248 -0.39302 0.0082653
0.23776 0.13903 1.1531 7.56e-39 236 341 0 0 0 -0.90723 0.1498 -0.39306 0.0079645
0.23776 0.14038 1.1531 6.4537e-39 188 342 0 0 0 -0.90486 0.15965 -0.39464 0.0076058
0.2391 0.14511 1.1531 5.4856e-39 346.5 344 0 0 0 -0.89485 0.1912 -0.40335 0.0068034
0.24045 0.15117 1.1531 6.6381e-39 450 347 0 0 0 -0.89484 0.16489 -0.41481 0.0076373
0.24045 0.15319 1.1531 7.4218e-39 199.5 348.5 0 0 0 -0.8961 0.14645 -0.419 0.0081283
0.24045 0.15522 1.1531 6.1771e-39 452 349 0 0 0 -0.89711 0.12686 -0.42321 0.0086505
0.24045 0.15657 1.1531 6.5459e-39 235 350 0 0 0 -0.89869 0.10566 -0.42566 0.0089917
0.2418 0.16871 1.1531 6.1771e-39 443 356 0 0 0 -0.92706 -0.042271 -0.37252 0.011857
0.2418 0.17074 1.1531 5.7161e-39 195 357.5 0 0 0 -0.93295 -0.070044 -0.35312 0.01136
0.33115 0.05679 1.1542 6.2693e-39 421 313 0 0 0 -0.15969 -0.90517 -0.39391 0.028954
0.3163 0.059491 1.1542 6.5459e-39 361 314 0 0 0 0.069574 -0.91222 -0.40376 0.021132
0.3244 0.059491 1.1542 7.0991e-39 382 314 0 0 0 -0.04879 -0.92501 -0.37679 0.028936
0.32658 0.059519 1.1547 6.8686e-39 383.5 314 0 0 0 -0.092024 -0.91943 -0.38233 0.029907
0.32928 0.058844 1.1547 6.3154e-39 412.5 313.5 0 0 0 -0.13562 -0.9122 -0.38666 0.028813
0.31765 0.060841 1.1542 5.8083e-39 429 314 0 0 0 0.048091 -0.91499 -0.40061 0.022135
0.319 0.060841 1.1542 5.9005e-39 430 314 0 0 0 0.034888 -0.91624 -0.3991 0.022703
0.32117 0.06087 1.1547 5.7622e-39 431.5 314 0 0 0 0.0032265 -0.91871 -0.39492 0.024165
0.32335 0.060898 1.1553 6.1771e-39 433 314 0 0 0 -0.028891 -0.92248 -0.38495 0.027065
0.32575 0.060841 1.1542 6.9147e-39 435 314 0 0 0 -0.070074 -0.92302 -0.37831 0.029197
0.23798 0.09595 1.1542 9.5883e-39 321 324 0 0 0 -0.93077 0.11053 -0.3485 0.0097699
0.2382 0.097391 1.1553 7.1913e-39 433 324 0 0 0 -0.93846 0.095888 -0.3318 0.0087302
0.2382 0.1055 1.1553 5.8083e-39 408 326 0 0 0 -0.91128 0.020692 -0.41128 0.0074472
0.23798 0.10675 1.1542 5.8083e-39 190 327 0 0 0 -0.91991 0.017309 -0.39174 0.0070102
0.23798 0.1081 1.1542 9.8649e-39 332 327 0 0 0 -0.91377 0.010405 -0.40609 0.0068991
0.2355 0.12105 1.1553 6.7303e-39 412 331.5 0 0 0 -0.91519 -0.051774 -0.39968 0.0061684
0.2355 0.12307 1.1553 6.0849e-39 197 333 0 0 0 -0.91767 -0.042367 -0.39507 0.0066482
0.2355 0.1251 1.1553 5.5318e-39 340.5 333.5 0 0 0 -0.91945 -0.027463 -0.39225 0.0072307
0.23663 0.12701 1.1542 5.5317e-39 165 335 0 0 0 -0.91658 -0.0076487 -0.39978 0.0071979
0.23663 0.12903 1.1542 5.6239e-39 343.5 335.5 0 0 0 -0.91659 0.016946 -0.39946 0.0078846
0.23663 0.13106 1.1542 5.8083e-39 195 337 0 0 0 -0.91816 0.044851 -0.39365 0.0081519
0.23279 0.13388 1.1553 9.2196e-39 387 338 0 0 0 -0.92443 0.080783 -0.37269 0.0092207
0.23663 0.13309 1.1542 6.6842e-39 417 337.5 0 0 0 -0.91978 0.074213 -0.38535 0.0086229
0.23279 0.13524 1.1553 6.1771e-39 208 339 0 0 0 -0.92382 0.10105 -0.36926 0.0089787
0.2355 0.13524 1.1553 5.8083e-39 210 339 0 0 0 -0.92044 0.10252 -0.3772 0.0089551
0.23663 0.13511 1.1542 5.7161e-39 211 339 0 0 0 -0.91872 0.10005 -0.38204 0.0086
0.23663 0.13713 1.1542 6.0388e-39 446 339.5 0 0 0 -0.91578 0.13023 -0.37999 0.0082166
0.23663 0.13916 1.1542 7.56e-39 235 341 0 0 0 -0.91263 0.14668 -0.38156 0.0081596
0.23723 0.1415 1.1549 6.0849e-39 362.67 342 0 0 0 -0.90819 0.1714 -0.38184 0.0081456
0.23798 0.14321 1.1542 6.6381e-39 401 343 0 0 0 -0.90047 0.1856 -0.39334 0.0077685
0.2382 0.1447 1.1553 5.7161e-39 211 344 0 0 0 -0.90187 0.19293 -0.38652 0.00792
0.23877 0.14665 1.1547 5.8544e-39 453.5 344.5 0 0 0 -0.89812 0.19742 -0.39295 0.0073081
0.23955 0.14875 1.1553 6.2693e-39 230 346 0 0 0 -0.89816 0.19097 -0.39604 0.007784
0.23955 0.1501 1.1553 7.56e-39 165 347 0 0 0 -0.89516 0.18031 -0.40766 0.007923
0.24068 0.15874 1.1542 6.0849e-39 303.5 351 0 0 0 -0.89773 0.077896 -0.43361 0.0092411
0.24068 0.16077 1.1542 6.9147e-39 231 352 0 0 0 -0.90092 0.051852 -0.43087 0.0098017
0.24068 0.1628 1.1542 6.9607e-39 309.5 353 0 0 0 -0.90482 0.028901 -0.42482 0.010622
0.24068 0.16482 1.1542 6.0849e-39 241 354 0 0 0 -0.9104 0.0051978 -0.4137 0.011593
0.24068 0.16684 1.1542 7.7905e-39 341.5 355 0 0 0 -0.91601 -0.019466 -0.40068 0.012067
0.2409 0.16903 1.1553 5.9927e-39 442 356 0 0 0 -0.9245 -0.03709 -0.37938 0.013147
0.2409 0.17038 1.1553 5.9927e-39 233 357 0 0 0 -0.93128 -0.052483 -0.3605 0.012876
0.24203 0.17292 1.1542 6.6381e-39 457 358 0 0 0 -0.93769 -0.077008 -0.33883 0.01161
0.24203 0.17494 1.1542 7.4678e-39 419 359 0 0 0 -0.94263 -0.081736 -0.32368 0.010617
0.33042 0.056897 1.1563 6.9147e-39 420 313 0 0 0 -0.15498 -0.90418 -0.39804 0.025932
0.31907 0.05963 1.1568 6.8686e-39 362.5 314 0 0 0 0.025775 -0.92053 -0.38981 0.024785
0.32125 0.059658 1.1574 7.0991e-39 365 314 0 0 0 -0.0050802 -0.9218 -0.38762 0.027412
0.3234 0.059188 1.157 7.1606e-39 394 313.67 0 0 0 -0.012803 -0.92057 -0.39038 0.027088
0.32501 0.05825 1.1563 6.8225e-39 436 313 0 0 0 -0.066382 -0.92386 -0.37694 0.032259
0.32719 0.058277 1.1568 6.2693e-39 437.5 313 0 0 0 -0.13172 -0.91299 -0.38613 0.02981
0.32937 0.058304 1.1574 6.0849e-39 439 313 0 0 0 -0.15211 -0.90411 -0.39931 0.02745
0.23842 0.10289 1.1563 5.9005e-39 198 326 0 0 0 -0.92712 0.041478 -0.37246 0.0082657
0.23842 0.10425 1.1563 9.8649e-39 284 326 0 0 0 -0.91711 0.027058 -0.39772 0.0083811
0.23323 0.12195 1.1574 6.9147e-39 367 332 0 0 0 -0.92012 -0.049219 -0.38853 0.0081079
0.23458 0.12127 1.1574 6.4998e-39 411 331.5 0 0 0 -0.91894 -0.050117 -0.3912 0.007677
0.23323 0.1233 1.1574 5.4395e-39 195 333 0 0 0 -0.92143 -0.043957 -0.38606 0.0085105
0.23458 0.1233 1.1574 5.7161e-39 196 333 0 0 0 -0.92146 -0.041377 -0.38625 0.0081885
0.23323 0.12466 1.1574 5.3473e-39 425 333 0 0 0 -0.92503 -0.029663 -0.37872 0.0090255
0.23458 0.12466 1.1574 5.163e-39 426 333 0 0 0 -0.92477 -0.029633 -0.37938 0.0087619
0.23323 0.12668 1.1574 5.8083e-39 207 334.5 0 0 0 -0.92932 -0.0064669 -0.36921 0.0097778
0.23496 0.12687 1.157 5.7161e-39 193.33 334.67 0 0 0 -0.92871 -0.0092072 -0.3707 0.0093819
0.23323 0.12872 1.1574 5.4395e-39 430 335 0 0 0 -0.93176 0.015937 -0.36273 0.0099914
0.23515 0.12866 1.1568 5.9005e-39 431.5 335 0 0 0 -0.92868 0.013022 -0.37065 0.0091764
0.23323 0.13075 1.1574 6.0388e-39 210 336.5 0 0 0 -0.93222 0.040498 -0.35963 0.0097788
0.23549 0.13098 1.1574 5.8083e-39 213.33 336.67 0 0 0 -0.92976 0.044552 -0.36546 0.0095766
0.23301 0.13266 1.1563 5.3473e-39 441 337 0 0 0 -0.92855 0.066023 -0.36529 0.009384
0.23515 0.13272 1.1568 5.2551e-39 442.5 337 0 0 0 -0.92676 0.071608 -0.36876 0.0091159
0.23481 0.13446 1.1563 7.8366e-39 328.67 338.33 0 0 0 -0.92372 0.091125 -0.37207 0.0091981
0.23301 0.13672 1.1563 6.1771e-39 468 339 0 0 0 -0.92742 0.1184 -0.35479 0.0090982
0.23504 0.13672 1.1563 6.7764e-39 469.5 339 0 0 0 -0.92337 0.12334 -0.36357 0.0089846
0.23323 0.1382 1.1574 6.2693e-39 418 340 0 0 0 -0.9299 0.13534 -0.34201 0.0094778
