# .PCD v.7 - Point Cloud Data file format
VERSION .7
FIELDS x y z rgb u v vx vy vz normal_x normal_y normal_z curvature
SIZE 4 4 4 4 4 4 4 4 4 4 4 4 4
TYPE F F F F F F F F F F F F F
COUNT 1 1 1 1 1 1 1 1 1 1 1 1 1
WIDTH 555
HEIGHT 1
VIEWPOINT 0 0 0 1 0 0 0
POINTS 555
DATA ascii
0.24693 0.17696 0.93914 8.2054e-39 383.5 339 0 0 0 -0.47769 0.29828 -0.82634 0.010251
0.24839 0.17792 0.93843 7.8366e-39 480 339 0 0 0 -0.4476 0.30172 -0.84179 0.010051
0.24547 0.1782 0.93986 8.3898e-39 477 339 0 0 0 -0.50797 0.29686 -0.80861 0.010411
0.24724 0.17852 0.93962 7.3756e-39 393 339.33 0 0 0 -0.47105 0.30617 -0.82727 0.01044
0.24839 0.17902 0.93843 5.7161e-39 223 340 0 0 0 -0.44652 0.3079 -0.84013 0.010119
0.24767 0.18039 0.93986 7.0991e-39 432 340 0 0 0 -0.46703 0.31986 -0.82436 0.011356
0.24913 0.18081 0.93914 6.4767e-39 301 340.5 0 0 0 -0.43547 0.32539 -0.83934 0.010559
0.25058 0.18067 0.93843 6.3615e-39 302.5 340.5 0 0 0 -0.40703 0.32202 -0.85477 0.0094145
0.24944 0.18291 0.93962 6.5459e-39 313.67 341.33 0 0 0 -0.43464 0.33267 -0.83691 0.011718
0.25132 0.183 0.93914 6.1541e-39 272 341.5 0 0 0 -0.39676 0.32682 -0.85777 0.0097178
0.25321 0.18273 0.93867 6.9761e-39 317.33 341.33 0 0 0 -0.36592 0.32855 -0.87072 0.0084264
0.25453 0.18348 0.93879 6.0388e-39 144.5 342 0 0 0 -0.35286 0.33112 -0.87513 0.0079739
0.24987 0.18534 0.93986 8.3898e-39 366 342 0 0 0 -0.43238 0.33465 -0.83729 0.012449
0.25157 0.18506 0.93938 8.6049e-39 369 342 0 0 0 -0.40038 0.33301 -0.8537 0.010969
0.25306 0.18527 0.9395 8.3898e-39 427.5 342 0 0 0 -0.37368 0.33169 -0.86622 0.0096297
0.25471 0.18527 0.9395 8.2976e-39 429 342 0 0 0 -0.35011 0.33221 -0.87582 0.0084985
0.25672 0.18513 0.93879 8.2054e-39 431 342 0 0 0 -0.32156 0.33312 -0.88636 0.0066096
0.25262 0.18699 0.93986 5.9005e-39 225.5 343 0 0 0 -0.382 0.33159 -0.86263 0.010771
0.25536 0.18699 0.93986 5.5317e-39 228 343 0 0 0 -0.34044 0.33116 -0.88002 0.0081896
0.25682 0.18685 0.93914 5.9005e-39 229.5 343 0 0 0 -0.32439 0.33449 -0.88481 0.0072891
0.25864 0.18744 0.93843 7.8981e-39 380 343 0 0 0 -0.29434 0.33172 -0.89628 0.0053768
0.26101 0.18781 0.93843 8.7586e-39 459.5 343 0 0 0 -0.26681 0.32989 -0.90553 0.0041292
0.26376 0.18781 0.93843 8.8508e-39 467 343 0 0 0 -0.24812 0.33171 -0.91017 0.0030959
0.25207 0.18809 0.93986 8.6664e-39 448 343 0 0 0 -0.39448 0.32857 -0.85815 0.011996
0.25701 0.18864 0.93986 7.4448e-39 325.5 343.5 0 0 0 -0.32503 0.32455 -0.88827 0.0078275
0.25901 0.18905 0.93914 6.2693e-39 200.5 344 0 0 0 -0.28972 0.32695 -0.89954 0.0052885
0.26121 0.18905 0.93914 6.6381e-39 202.5 344 0 0 0 -0.26742 0.32779 -0.90611 0.0043056
0.26303 0.18927 0.93843 6.3308e-39 279 344 0 0 0 -0.24985 0.32801 -0.91104 0.0033297
0.26486 0.18945 0.93843 6.3154e-39 318 344 0 0 0 -0.24125 0.33091 -0.9123 0.0029364
0.25756 0.19029 0.93986 6.8225e-39 423 344 0 0 0 -0.30755 0.32233 -0.89528 0.0063392
0.25906 0.19073 0.93932 7.1221e-39 295 344.5 0 0 0 -0.28997 0.31905 -0.90229 0.0055137
0.26121 0.1907 0.93914 6.7073e-39 297 344.5 0 0 0 -0.26649 0.32077 -0.90889 0.0043638
0.26359 0.19088 0.93914 6.2693e-39 256.33 344.67 0 0 0 -0.24552 0.32367 -0.91376 0.0033906
0.26486 0.1911 0.93843 5.9927e-39 172 345 0 0 0 -0.23825 0.32682 -0.91456 0.003046
0.25921 0.19249 0.93986 7.9288e-39 388.5 345 0 0 0 -0.2896 0.31321 -0.90445 0.0056414
0.26116 0.19281 0.93962 7.4678e-39 430 345 0 0 0 -0.26704 0.31474 -0.91084 0.0047348
0.26306 0.19304 0.93986 7.3757e-39 451.5 345 0 0 0 -0.24547 0.31507 -0.91678 0.0036089
0.26511 0.19265 0.93932 6.7533e-39 330 345.25 0 0 0 -0.23513 0.31942 -0.91798 0.0032145
0.26616 0.19344 0.93914 6.3615e-39 139 346 0 0 0 -0.23224 0.31906 -0.91884 0.0031395
0.26526 0.19469 0.93986 5.9927e-39 242 346 0 0 0 -0.23239 0.30918 -0.92217 0.0034504
0.26676 0.19513 0.93932 7.9288e-39 360.5 346 0 0 0 -0.22443 0.31137 -0.92341 0.003151
0.2688 0.19501 0.93879 7.8827e-39 362.5 346 0 0 0 -0.22519 0.31804 -0.92094 0.0030118
0.27144 0.19494 0.93843 7.3296e-39 365.5 346 0 0 0 -0.22592 0.32919 -0.91684 0.0027553
0.27254 0.19549 0.93843 6.4537e-39 484 346 0 0 0 -0.22372 0.32965 -0.91721 0.0027777
0.26746 0.19744 0.93986 7.8366e-39 322.5 347 0 0 0 -0.2159 0.30491 -0.92759 0.0031971
0.26901 0.19737 0.9395 7.514e-39 324 347 0 0 0 -0.21516 0.31103 -0.92572 0.0032629
0.27095 0.19718 0.93861 7.3987e-39 326 347 0 0 0 -0.21755 0.31964 -0.92222 0.0032751
0.27314 0.19718 0.93861 7.9288e-39 328 347 0 0 0 -0.21728 0.32874 -0.91909 0.003128
0.27529 0.19769 0.93843 8.5281e-39 443.5 347 0 0 0 -0.218 0.33536 -0.91652 0.0031821
0.26746 0.19909 0.93986 6.4537e-39 169 348 0 0 0 -0.21299 0.30019 -0.9298 0.0030176
0.26911 0.19909 0.93986 6.6381e-39 170.5 348 0 0 0 -0.20955 0.30386 -0.92939 0.0031225
0.2711 0.19894 0.93914 6.2232e-39 172.5 348 0 0 0 -0.21037 0.31343 -0.92602 0.0034031
0.2733 0.19894 0.93914 6.4537e-39 174.5 348 0 0 0 -0.20982 0.32272 -0.92295 0.0034541
0.27511 0.19915 0.93843 6.6996e-39 252 348 0 0 0 -0.21039 0.32918 -0.92053 0.0034767
0.27693 0.19988 0.93843 6.7303e-39 404 348 0 0 0 -0.21008 0.33246 -0.91942 0.0035752
0.27913 0.19988 0.93843 6.2693e-39 406 348 0 0 0 -0.21077 0.34264 -0.91552 0.00329
0.26966 0.20019 0.93986 5.8083e-39 397 348 0 0 0 -0.20499 0.3013 -0.93123 0.0030569
0.27121 0.20066 0.9395 6.0619e-39 269 348.5 0 0 0 -0.20431 0.30639 -0.92972 0.003215
0.27326 0.2005 0.93962 6.3922e-39 314 348.33 0 0 0 -0.20199 0.31398 -0.92769 0.0035173
0.27451 0.20121 0.9395 6.2232e-39 142.5 349 0 0 0 -0.2033 0.31647 -0.92656 0.0035823
0.27634 0.20071 0.9389 6.9147e-39 230.67 348.67 0 0 0 -0.20689 0.3275 -0.92192 0.0036506
0.27913 0.20098 0.93843 6.9147e-39 147 349 0 0 0 -0.20506 0.33926 -0.91807 0.0034625
0.27113 0.20276 0.93986 6.0849e-39 319 349 0 0 0 -0.19826 0.3002 -0.93304 0.0030122
0.27456 0.2029 0.93968 6.8225e-39 361 349 0 0 0 -0.19462 0.30956 -0.93075 0.0035336
0.27659 0.20278 0.93914 6.615e-39 363 349 0 0 0 -0.19834 0.31866 -0.92688 0.0038694
0.27863 0.20267 0.93861 6.9838e-39 365 349 0 0 0 -0.19977 0.32849 -0.92314 0.0038424
0.2806 0.20281 0.93843 6.2386e-39 447.67 349 0 0 0 -0.20477 0.33523 -0.91961 0.0036383
0.28297 0.20318 0.93843 6.592e-39 485.5 349 0 0 0 -0.20896 0.33683 -0.91808 0.0036183
0.28517 0.20318 0.93843 6.4998e-39 487.5 349 0 0 0 -0.21367 0.33877 -0.91629 0.0035083
0.27516 0.20459 0.93986 6.4537e-39 217 350 0 0 0 -0.18888 0.30438 -0.93364 0.003497
0.27675 0.2051 0.93968 7.1682e-39 335.5 350 0 0 0 -0.18996 0.30804 -0.93222 0.003706
0.27884 0.20502 0.93932 6.9607e-39 337.5 350 0 0 0 -0.19288 0.31601 -0.92894 0.0039535
0.28094 0.20494 0.93896 7.3296e-39 340 350 0 0 0 -0.19902 0.32316 -0.92518 0.0038743
0.28308 0.2049 0.93879 7.6522e-39 342 350 0 0 0 -0.20677 0.32753 -0.92194 0.0038889
0.28539 0.20498 0.93914 7.1913e-39 344 350 0 0 0 -0.21264 0.33065 -0.91949 0.0037608
0.28718 0.20464 0.93843 6.8225e-39 306.67 350 0 0 0 -0.2194 0.33349 -0.91687 0.0038512
0.28872 0.20506 0.93867 7.6215e-39 386.33 350 0 0 0 -0.22188 0.33288 -0.91649 0.0039056
0.29121 0.20537 0.93843 8.2976e-39 467 350 0 0 0 -0.22903 0.33472 -0.91406 0.003825
0.2923 0.20537 0.93843 7.8366e-39 468 350 0 0 0 -0.23214 0.33412 -0.91349 0.0038661
0.27736 0.20678 0.93986 7.8366e-39 196 351 0 0 0 -0.18567 0.302 -0.93505 0.003593
0.27846 0.20733 0.93986 8.2976e-39 314.5 351 0 0 0 -0.18517 0.30351 -0.93466 0.0037202
0.28115 0.20729 0.93968 8.8968e-39 317 351 0 0 0 -0.19409 0.30943 -0.9309 0.0038455
0.2833 0.20726 0.9395 8.8047e-39 319 351 0 0 0 -0.20195 0.3143 -0.9276 0.0039904
0.28505 0.20678 0.93986 8.1132e-39 203 351 0 0 0 -0.208 0.31818 -0.92493 0.0041494
0.28681 0.2071 0.93962 8.2669e-39 283 351 0 0 0 -0.21439 0.31987 -0.92289 0.0042225
0.28885 0.20729 0.93968 8.7586e-39 324 351 0 0 0 -0.21996 0.32268 -0.92059 0.0043369
0.29088 0.20718 0.93914 8.7125e-39 326.25 351 0 0 0 -0.22569 0.32664 -0.91781 0.0040765
0.29289 0.20736 0.93914 8.5127e-39 367.33 351 0 0 0 -0.23148 0.32744 -0.91608 0.0040945
0.2945 0.20757 0.93843 8.3898e-39 447 351 0 0 0 -0.23249 0.32911 -0.91522 0.0039421
0.28175 0.20898 0.93986 7.0991e-39 182 352 0 0 0 -0.19335 0.30633 -0.93208 0.0038036
0.2834 0.20898 0.93986 6.8686e-39 183.5 352 0 0 0 -0.19933 0.30779 -0.93034 0.0038896
0.28945 0.20898 0.93986 7.1913e-39 189 352 0 0 0 -0.218 0.31603 -0.92337 0.0044774
0.29099 0.2089 0.9395 7.6061e-39 190.5 352 0 0 0 -0.22274 0.32013 -0.92082 0.004371
0.29319 0.2089 0.9395 8.021e-39 192.5 352 0 0 0 -0.22986 0.32363 -0.91784 0.0043179
0.29522 0.20933 0.93896 8.5972e-39 312 352 0 0 0 -0.23251 0.3284 -0.91547 0.0042327
0.29714 0.20945 0.93867 8.5742e-39 353 352 0 0 0 -0.23005 0.32945 -0.91572 0.0040983
0.29092 0.21045 0.93986 8.4513e-39 340.33 352.33 0 0 0 -0.21971 0.31274 -0.92408 0.0044515
0.29385 0.21063 0.93986 7.7444e-39 300.5 352.5 0 0 0 -0.22679 0.31974 -0.91996 0.0045171
0.29495 0.21118 0.93986 6.3615e-39 174 353 0 0 0 -0.22576 0.32075 -0.91987 0.0046298
0.29692 0.21139 0.93914 6.6073e-39 253.67 353 0 0 0 -0.22518 0.32621 -0.91808 0.0044637
0.2986 0.21128 0.93867 6.9147e-39 255.33 353 0 0 0 -0.22605 0.33051 -0.91633 0.0042595
0.29385 0.21228 0.93986 7.0991e-39 406 353 0 0 0 -0.22216 0.31493 -0.92275 0.0045159
0.29495 0.21283 0.93986 6.7764e-39 281.5 353.5 0 0 0 -0.22269 0.315 -0.9226 0.0046881
0.29649 0.21275 0.9395 6.7764e-39 283.5 353.5 0 0 0 -0.22205 0.31976 -0.92111 0.0046577
0.29904 0.21317 0.9389 6.6688e-39 162 354 0 0 0 -0.22165 0.32646 -0.91886 0.0045205
0.29495 0.21503 0.93986 6.1771e-39 266 354.5 0 0 0 -0.2171 0.30823 -0.92621 0.0045377
0.2966 0.21503 0.93986 6.3154e-39 267.5 354.5 0 0 0 -0.21507 0.31164 -0.92554 0.0046912
0.2989 0.21476 0.93914 6.214e-39 295 354.4 0 0 0 -0.2177 0.31999 -0.92207 0.0047042
0.30022 0.21542 0.93914 6.0849e-39 145 355 0 0 0 -0.21211 0.32217 -0.92262 0.004889
0.29495 0.21668 0.93986 5.7161e-39 250 355 0 0 0 -0.21372 0.306 -0.92773 0.004375
0.2966 0.21723 0.93986 6.6842e-39 403.25 355 0 0 0 -0.21132 0.30807 -0.9276 0.0044648
0.2988 0.21723 0.93986 6.4076e-39 437.5 355 0 0 0 -0.209 0.30942 -0.92767 0.0047917
0.30051 0.21719 0.9389 6.1771e-39 457.33 355 0 0 0 -0.20854 0.31705 -0.9252 0.0049254
0.30255 0.21708 0.93843 6.4844e-39 460.67 355 0 0 0 -0.19774 0.32654 -0.92427 0.0050951
0.29715 0.21888 0.93986 5.4395e-39 249 356 0 0 0 -0.20936 0.30681 -0.92846 0.0043467
0.29825 0.21888 0.93986 5.9927e-39 250 356 0 0 0 -0.20589 0.30809 -0.92881 0.0044508
0.30103 0.21913 0.93938 6.0849e-39 375.67 356 0 0 0 -0.19737 0.31599 -0.928 0.0047803
0.30296 0.21926 0.93914 6.0618e-39 439 356 0 0 0 -0.18931 0.321 -0.92797 0.0049526
0.30548 0.21965 0.93843 6.4537e-39 496 356 0 0 0 -0.17514 0.32947 -0.92778 0.0047791
0.30658 0.21965 0.93843 6.5459e-39 497 356 0 0 0 -0.1688 0.33396 -0.92735 0.0045716
0.30155 0.22108 0.93986 6.1771e-39 251 357 0 0 0 -0.18837 0.31249 -0.93106 0.0044144
0.30308 0.221 0.9395 5.7622e-39 384.5 357 0 0 0 -0.1844 0.31661 -0.93046 0.0046882
0.30475 0.22111 0.93843 6.6073e-39 421.33 357 0 0 0 -0.17422 0.3251 -0.92949 0.0046228
0.30713 0.22129 0.93843 6.6842e-39 441 357 0 0 0 -0.16431 0.3306 -0.92936 0.0042073
0.30914 0.22147 0.93843 6.5152e-39 460.33 357 0 0 0 -0.15593 0.33443 -0.92943 0.0037229
0.31097 0.22184 0.93843 6.6381e-39 497 357 0 0 0 -0.14811 0.33763 -0.92955 0.0031679
0.31207 0.22184 0.93843 6.2693e-39 498 357 0 0 0 -0.14623 0.34018 -0.92892 0.0028523
0.32195 0.22129 0.93843 7.1913e-39 277 357.5 0 0 0 -0.13489 0.3423 -0.92986 0.0020264
0.30155 0.22218 0.93986 6.4537e-39 488 357 0 0 0 -0.18689 0.30865 -0.93263 0.0042792
0.30375 0.22273 0.93986 6.4998e-39 370 357.5 0 0 0 -0.17261 0.31719 -0.93252 0.0042133
0.30534 0.22274 0.93914 6.7918e-39 333.67 357.67 0 0 0 -0.16703 0.32165 -0.93201 0.004174
0.30718 0.22274 0.93914 6.0542e-39 420.67 357.67 0 0 0 -0.15954 0.32717 -0.9314 0.0039351
0.30901 0.22311 0.93914 5.7161e-39 386 358 0 0 0 -0.15338 0.3288 -0.93186 0.0033758
0.31054 0.22302 0.93879 6.592e-39 387.5 358 0 0 0 -0.14842 0.3334 -0.93103 0.0030871
0.31273 0.22302 0.93879 6.6381e-39 389.5 358 0 0 0 -0.14158 0.33847 -0.93026 0.002472
0.31481 0.22294 0.93843 6.2693e-39 391.5 358 0 0 0 -0.1448 0.34034 -0.92909 0.0023031
0.31701 0.22294 0.93843 6.7303e-39 393.5 358 0 0 0 -0.14842 0.33982 -0.92871 0.0021642
0.31975 0.22294 0.93843 7.8366e-39 396 358 0 0 0 -0.14258 0.34025 -0.92946 0.0019292
0.32085 0.22294 0.93843 7.7444e-39 397 358 0 0 0 -0.13908 0.33979 -0.93016 0.0019529
0.32219 0.22311 0.93914 7.56e-39 398 358 0 0 0 -0.13474 0.33842 -0.9313 0.0020236
0.30375 0.22493 0.93986 6.0388e-39 365 358.5 0 0 0 -0.16582 0.31803 -0.93347 0.003681
0.30534 0.22489 0.93968 5.8314e-39 367.25 358.5 0 0 0 -0.16142 0.3211 -0.93319 0.0035099
0.30748 0.22484 0.9395 6.4076e-39 370 358.5 0 0 0 -0.15362 0.32461 -0.93329 0.003234
0.30913 0.22484 0.9395 6.6842e-39 371.5 358.5 0 0 0 -0.14919 0.32635 -0.9334 0.0029363
0.31072 0.2248 0.93932 5.9697e-39 375 358.5 0 0 0 -0.14246 0.32993 -0.93319 0.0026324
0.31291 0.2248 0.93932 6.5459e-39 377 358.5 0 0 0 -0.14092 0.33236 -0.93257 0.0022359
0.31493 0.22467 0.93879 6.131e-39 441.5 358.5 0 0 0 -0.14334 0.33454 -0.93142 0.0021613
0.31713 0.22467 0.93879 6.2002e-39 265 359 0 0 0 -0.14833 0.33422 -0.93075 0.0021224
0.31939 0.22472 0.93896 6.592e-39 267 359 0 0 0 -0.14415 0.33275 -0.93193 0.0019468
0.32097 0.22467 0.93879 6.7764e-39 268.5 359 0 0 0 -0.13857 0.33345 -0.93253 0.0019732
0.32268 0.22472 0.93897 6.9377e-39 271.5 359 0 0 0 -0.13454 0.33412 -0.93288 0.0020317
0.3054 0.22658 0.93986 5.9005e-39 480.5 359 0 0 0 -0.15817 0.31964 -0.93424 0.0030807
0.30851 0.22695 0.93986 6.0849e-39 404.67 359.33 0 0 0 -0.14797 0.32392 -0.93444 0.0025583
0.31107 0.22695 0.93986 6.761e-39 410.33 359.33 0 0 0 -0.13949 0.3244 -0.93558 0.0020466
0.31309 0.22713 0.93986 6.592e-39 372 359.5 0 0 0 -0.13972 0.32499 -0.93534 0.001933
0.31523 0.22708 0.93968 6.0157e-39 374 359.5 0 0 0 -0.14457 0.32546 -0.93444 0.0018707
0.31715 0.22683 0.93938 6.1464e-39 416 359.33 0 0 0 -0.14737 0.32722 -0.93339 0.0019402
0.31869 0.22725 0.93962 5.5625e-39 337 359.67 0 0 0 -0.14698 0.32622 -0.9338 0.0018826
0.32073 0.22708 0.93968 5.9927e-39 200.5 360 0 0 0 -0.1396 0.327 -0.93465 0.0019597
0.32301 0.22683 0.93938 6.7918e-39 183.33 360 0 0 0 -0.13133 0.32666 -0.93597 0.0021495
0.32475 0.22682 0.93861 6.4537e-39 267 360 0 0 0 -0.13007 0.32877 -0.93541 0.0023177
0.32689 0.22733 0.93843 7.3296e-39 388.5 360 0 0 0 -0.13038 0.32622 -0.93626 0.0024755
0.32854 0.22733 0.93843 7.6522e-39 390 360 0 0 0 -0.13253 0.32795 -0.93535 0.0026124
0.31529 0.22933 0.93986 6.592e-39 361.5 360.5 0 0 0 -0.14266 0.32207 -0.93591 0.0017634
0.31694 0.22933 0.93986 6.6381e-39 363 360.5 0 0 0 -0.14747 0.32288 -0.93488 0.0018025
0.31859 0.22933 0.93986 6.3615e-39 364.5 360.5 0 0 0 -0.1466 0.3213 -0.93556 0.001789
0.32134 0.22933 0.93986 6.4537e-39 368 360.5 0 0 0 -0.13823 0.31923 -0.93754 0.0019675
0.32354 0.22933 0.93986 6.4076e-39 370 360.5 0 0 0 -0.13202 0.31936 -0.93839 0.0021725
0.32494 0.22915 0.93914 6.1541e-39 371.5 360.5 0 0 0 -0.1301 0.31884 -0.93884 0.0022796
0.32701 0.22907 0.93879 6.2232e-39 373.5 360.5 0 0 0 -0.13025 0.31959 -0.93856 0.0024817
0.32915 0.22902 0.93861 6.0849e-39 375.5 360.5 0 0 0 -0.13019 0.32217 -0.93769 0.0025867
0.32354 0.23098 0.93986 6.4537e-39 479 361 0 0 0 -0.13178 0.31406 -0.94022 0.0021134
0.32507 0.23089 0.9395 5.9466e-39 482.5 361 0 0 0 -0.13139 0.31449 -0.94012 0.0022662
0.32732 0.23117 0.93914 6.0849e-39 404.67 361.33 0 0 0 -0.12787 0.31376 -0.94085 0.0024369
0.32943 0.23111 0.9389 6.6074e-39 406.67 361.33 0 0 0 -0.12665 0.31543 -0.94046 0.0026888
0.3311 0.23135 0.93843 6.8532e-39 326.33 361.67 0 0 0 -0.12359 0.31673 -0.94043 0.0029067
0.33293 0.23172 0.93843 6.8225e-39 246 362 0 0 0 -0.12527 0.31743 -0.93997 0.003181
0.33924 0.23141 0.93867 6.0542e-39 333.67 361.67 0 0 0 -0.12261 0.33178 -0.93536 0.0036998
0.34122 0.23122 0.93861 5.8775e-39 197.5 362 0 0 0 -0.11285 0.33805 -0.93434 0.003614
0.32519 0.23263 0.93986 6.3845e-39 352.5 362 0 0 0 -0.1319 0.31143 -0.94107 0.0021797
0.32712 0.23275 0.93962 5.8083e-39 392.33 362 0 0 0 -0.1281 0.31006 -0.94205 0.0023042
0.32932 0.23275 0.93962 5.8698e-39 394.33 362 0 0 0 -0.12468 0.31279 -0.9416 0.0026266
0.33073 0.23337 0.93843 6.8224e-39 345.5 362.5 0 0 0 -0.12094 0.31273 -0.94211 0.0027812
0.3325 0.23291 0.93879 5.7161e-39 473.5 362 0 0 0 -0.11989 0.31569 -0.94126 0.0030482
0.33476 0.23355 0.93843 7.0376e-39 307 362.67 0 0 0 -0.11778 0.31787 -0.94079 0.0034013
0.33677 0.23337 0.93843 6.9607e-39 352 362.5 0 0 0 -0.11876 0.32176 -0.93934 0.0036362
0.33922 0.233 0.93914 5.67e-39 484 362 0 0 0 -0.11271 0.32718 -0.93822 0.003721
0.34142 0.233 0.93914 5.9927e-39 487.5 362 0 0 0 -0.10195 0.33331 -0.93729 0.0036364
0.32501 0.23464 0.93986 8.3591e-39 285.67 363 0 0 0 -0.13263 0.31007 -0.94142 0.0022535
0.32757 0.23464 0.93986 7.8366e-39 288 363 0 0 0 -0.12599 0.30936 -0.94256 0.0023648
0.32946 0.23419 0.9395 8.7125e-39 217.5 363 0 0 0 -0.12182 0.30976 -0.94298 0.0025935
0.33056 0.23528 0.9395 6.3154e-39 435.5 363 0 0 0 -0.11826 0.30947 -0.94353 0.0026952
0.33263 0.23465 0.93914 6.8224e-39 329 363 0 0 0 -0.1142 0.31188 -0.94324 0.0031034
0.33483 0.23519 0.93914 5.9466e-39 439.5 363 0 0 0 -0.11306 0.31347 -0.94284 0.0033919
0.3373 0.23489 0.93938 6.3922e-39 369.33 363 0 0 0 -0.10723 0.31832 -0.9419 0.0036479
0.33893 0.23482 0.93986 6.6842e-39 334.5 363 0 0 0 -0.10326 0.32165 -0.94121 0.0037201
0.34076 0.23464 0.93986 6.761e-39 300 363 0 0 0 -0.095578 0.32622 -0.94045 0.0036995
0.34223 0.23482 0.93986 6.8224e-39 337.5 363 0 0 0 -0.081657 0.33142 -0.93994 0.0033685
0.33124 0.23647 0.93986 6.6381e-39 172 364 0 0 0 -0.11594 0.30983 -0.9437 0.002848
0.33288 0.23647 0.93986 6.4537e-39 173.5 364 0 0 0 -0.1116 0.31001 -0.94416 0.0031619
0.33526 0.23684 0.93986 6.2078e-39 203 364 0 0 0 -0.10661 0.31454 -0.94324 0.0033815
0.33673 0.23702 0.93986 6.3615e-39 218 364 0 0 0 -0.10069 0.31643 -0.94326 0.0033513
0.34113 0.23702 0.93986 7.514e-39 285.5 364 0 0 0 -0.075309 0.32745 -0.94186 0.0034296
0.34223 0.23702 0.93986 7.3757e-39 286.5 364 0 0 0 -0.070618 0.33036 -0.94121 0.0033399
0.33563 0.23867 0.93986 6.0849e-39 463 364 0 0 0 -0.10069 0.31596 -0.94342 0.0034178
0.33673 0.23867 0.93986 6.5459e-39 464 364 0 0 0 -0.098865 0.31679 -0.94333 0.0035534
0.34068 0.23898 0.93962 6.0234e-39 372.67 364.33 0 0 0 -0.074699 0.32587 -0.94246 0.0034596
0.34223 0.23922 0.93986 5.9466e-39 326.5 364.5 0 0 0 -0.058628 0.32979 -0.94223 0.003281
0.27492 0.12941 0.94093 7.0991e-39 337.5 322.5 0 0 0 0.023471 -0.93555 -0.35241 0.0061052
0.27668 0.12891 0.94129 6.2693e-39 454 322 0 0 0 0.046639 -0.93723 -0.34559 0.0060716
0.24364 0.13111 0.94129 6.3615e-39 267 323 0 0 0 -0.09606 -0.89268 -0.44034 0.040254
0.2452 0.13106 0.94093 6.6381e-39 268.5 323 0 0 0 -0.1041 -0.8899 -0.44411 0.038071
0.26126 0.13111 0.94129 9.1274e-39 283 323 0 0 0 -0.088969 -0.92257 -0.37542 0.0076881
0.26291 0.13111 0.94129 9.0352e-39 284.5 323 0 0 0 -0.089897 -0.92606 -0.3665 0.0064711
0.26511 0.13111 0.94129 9.5883e-39 286.5 323 0 0 0 -0.090762 -0.92853 -0.35998 0.0053434
0.26876 0.13101 0.94057 9.4961e-39 291 323 0 0 0 -0.064081 -0.92941 -0.36343 0.0047027
0.27337 0.13001 0.94129 8.021e-39 230 323 0 0 0 0.0039182 -0.93514 -0.35425 0.0062574
0.30178 0.13101 0.94057 6.5459e-39 313 323 0 0 0 -0.012881 -0.92577 -0.37786 0.0042167
0.30354 0.13051 0.94093 6.3615e-39 283 323 0 0 0 -0.024129 -0.92354 -0.38275 0.0035385
0.30531 0.13001 0.94129 6.5459e-39 253 323 0 0 0 -0.031511 -0.92197 -0.38598 0.0030024
0.30685 0.13051 0.94093 6.2232e-39 286 323 0 0 0 -0.032221 -0.92126 -0.3876 0.0030787
0.30861 0.13001 0.94129 6.7303e-39 256 323 0 0 0 -0.028537 -0.91809 -0.39534 0.0029399
0.31125 0.13051 0.94093 6.5459e-39 290 323 0 0 0 -0.015726 -0.91552 -0.40197 0.0029864
0.31388 0.13101 0.94057 6.0849e-39 324 323 0 0 0 -0.003178 -0.91197 -0.41023 0.003239
0.24694 0.13221 0.94129 6.0849e-39 337 323 0 0 0 -0.14302 -0.87468 -0.46312 0.04414
0.25135 0.13221 0.94129 9.1274e-39 341 323 0 0 0 -0.10889 -0.88346 -0.45567 0.031566
0.25556 0.13211 0.94057 9.0352e-39 345 323 0 0 0 -0.089567 -0.88814 -0.45077 0.025689
0.25796 0.13221 0.94129 9.0352e-39 347 323 0 0 0 -0.091598 -0.90362 -0.41843 0.016961
0.25941 0.13211 0.94057 9.0352e-39 348.5 323 0 0 0 -0.096608 -0.90024 -0.42453 0.01778
0.26656 0.13211 0.94057 9.404e-39 355 323 0 0 0 -0.084673 -0.92467 -0.37122 0.0055848
0.27117 0.13221 0.94129 8.7586e-39 359 323 0 0 0 -0.033855 -0.93155 -0.36204 0.0052529
0.28879 0.13221 0.94129 6.5459e-39 374 323 0 0 0 0.064932 -0.93385 -0.35171 0.0054988
0.29121 0.13288 0.94081 6.5459e-39 430.33 323 0 0 0 0.056051 -0.93039 -0.36226 0.0061719
0.29253 0.13216 0.94093 7.1452e-39 377.5 323 0 0 0 0.048844 -0.92984 -0.3647 0.0065353
0.29474 0.13272 0.94093 6.2232e-39 419.5 323 0 0 0 0.03231 -0.92934 -0.3678 0.0062066
0.29705 0.13276 0.94129 6.5459e-39 421.5 323 0 0 0 0.0035598 -0.92961 -0.36854 0.0055166
0.29892 0.13251 0.94081 6.5459e-39 410 323 0 0 0 -0.0027329 -0.92832 -0.37178 0.0048884
0.30068 0.13211 0.94057 6.0849e-39 385 323 0 0 0 -0.010293 -0.92682 -0.37535 0.0046403
0.31498 0.13211 0.94057 9.0352e-39 398 323 0 0 0 0.004483 -0.91165 -0.41095 0.0033849
0.31663 0.13266 0.94057 7.4679e-39 295.5 323.5 0 0 0 0.019657 -0.9074 -0.4198 0.0033907
0.31883 0.13211 0.94057 8.3898e-39 401.5 323 0 0 0 0.044033 -0.90431 -0.4246 0.0028015
0.32158 0.13211 0.94057 8.2976e-39 404 323 0 0 0 0.0624 -0.90225 -0.42667 0.002503
0.23914 0.15693 0.94093 7.6522e-39 332.5 331 0 0 0 -0.6193 0.19997 -0.75926 0.0072771
0.24058 0.15709 0.94081 7.4371e-39 366.33 331 0 0 0 -0.59861 0.20083 -0.77546 0.007924
0.24084 0.15916 0.94111 6.9147e-39 307.5 332 0 0 0 -0.59286 0.20479 -0.77883 0.0076676
0.24107 0.16122 0.94129 7.3449e-39 233.67 333 0 0 0 -0.59092 0.20723 -0.77966 0.0065975
0.23703 0.16305 0.94129 8.482e-39 477 333 0 0 0 -0.64841 0.19637 -0.73553 0.004418
0.23813 0.16305 0.94129 8.2976e-39 478 333 0 0 0 -0.63505 0.20087 -0.74589 0.0045644
0.24144 0.16305 0.94129 8.5742e-39 481 333 0 0 0 -0.58948 0.21034 -0.77992 0.0062274
0.23813 0.16415 0.94129 8.482e-39 257 334 0 0 0 -0.63656 0.20026 -0.74477 0.0043404
0.24144 0.1647 0.94129 7.4679e-39 405.5 334 0 0 0 -0.58444 0.21634 -0.78206 0.006136
0.24144 0.16635 0.94129 5.5317e-39 227 335 0 0 0 -0.58118 0.2227 -0.78271 0.0059395
0.24235 0.16678 0.94057 5.8083e-39 330.5 335 0 0 0 -0.55958 0.22867 -0.79661 0.0067139
0.23813 0.16966 0.94129 7.6522e-39 403 336 0 0 0 -0.62993 0.22277 -0.74402 0.005343
0.24144 0.16911 0.94129 6.7303e-39 302.5 336 0 0 0 -0.58297 0.23569 -0.77756 0.0063388
0.24235 0.16898 0.94057 6.4076e-39 303.5 336 0 0 0 -0.55891 0.23984 -0.79379 0.0071438
0.23813 0.17076 0.94129 3.6878e-39 501 336 0 0 0 -0.63364 0.22606 -0.73986 0.0059077
0.24144 0.17076 0.94129 5.6239e-39 140 337 0 0 0 -0.58611 0.24541 -0.77217 0.0071064
0.24254 0.17131 0.94129 5.9466e-39 254 337 0 0 0 -0.56017 0.2544 -0.78835 0.0079584
0.24299 0.17345 0.94093 6.638e-39 340.5 337.5 0 0 0 -0.55096 0.27072 -0.7894 0.0086586
0.24345 0.17503 0.94057 7.0991e-39 423 338 0 0 0 -0.54033 0.28046 -0.79334 0.0092401
0.24354 0.17675 0.94093 6.8224e-39 269 339 0 0 0 -0.54225 0.28871 -0.78906 0.0095147
0.24364 0.17902 0.94129 7.1913e-39 346.5 339.5 0 0 0 -0.54015 0.30315 -0.78507 0.0099387
0.24492 0.17906 0.94057 6.8839e-39 305 339.67 0 0 0 -0.51123 0.30593 -0.80315 0.010702
0.24675 0.17943 0.94057 5.9927e-39 221 340 0 0 0 -0.48713 0.31332 -0.81519 0.010963
0.24524 0.18118 0.94111 6.8225e-39 297 340.5 0 0 0 -0.50652 0.31573 -0.80234 0.011325
0.24718 0.18131 0.94081 6.9454e-39 254.67 340.67 0 0 0 -0.47876 0.32291 -0.8164 0.011791
0.24584 0.18287 0.94129 7.56e-39 397 341 0 0 0 -0.49279 0.32232 -0.80825 0.012153
0.24755 0.18314 0.94081 6.761e-39 311.67 341.33 0 0 0 -0.47161 0.32504 -0.81971 0.012509
0.24896 0.18383 0.94057 6.0849e-39 139 342 0 0 0 -0.44907 0.33344 -0.82895 0.012586
0.2485 0.185 0.94093 8.021e-39 251.5 342 0 0 0 -0.45652 0.33025 -0.82615 0.013259
0.24855 0.18669 0.94111 7.1221e-39 349.5 342.5 0 0 0 -0.45692 0.33039 -0.82587 0.013981
0.25079 0.18676 0.94057 6.6073e-39 309 342.67 0 0 0 -0.42702 0.33162 -0.84123 0.013098
0.25446 0.18713 0.94057 5.6239e-39 227 343 0 0 0 -0.36509 0.33053 -0.87032 0.010046
0.24915 0.18893 0.94129 7.1913e-39 318 343.5 0 0 0 -0.457 0.31799 -0.83068 0.015065
0.25075 0.18889 0.94111 7.6061e-39 319.5 343.5 0 0 0 -0.43355 0.31909 -0.84274 0.013988
0.25299 0.18897 0.94057 7.5293e-39 279.33 343.67 0 0 0 -0.38383 0.32325 -0.86497 0.011635
0.25506 0.18882 0.94075 7.514e-39 323.5 343.5 0 0 0 -0.35663 0.31805 -0.87844 0.01001
0.2508 0.19113 0.94129 6.7072e-39 286 344.5 0 0 0 -0.4377 0.31053 -0.8438 0.014791
0.25286 0.19103 0.94075 6.4537e-39 288.5 344.5 0 0 0 -0.38748 0.31755 -0.86546 0.012275
0.25511 0.19106 0.94093 6.2693e-39 291 344.5 0 0 0 -0.35526 0.31591 -0.87977 0.010111
0.25703 0.19117 0.94057 6.4844e-39 249.67 344.67 0 0 0 -0.32239 0.31539 -0.89252 0.0075088
0.253 0.19333 0.94129 6.7764e-39 441 345 0 0 0 -0.38338 0.30587 -0.87147 0.011435
0.2552 0.19333 0.94129 7.6061e-39 443 345 0 0 0 -0.35574 0.30644 -0.88292 0.010246
0.25731 0.19326 0.94093 7.3526e-39 446 345 0 0 0 -0.32124 0.30819 -0.89545 0.0075985
0.25941 0.19374 0.94057 6.3615e-39 507.5 345 0 0 0 -0.28912 0.30689 -0.90677 0.0056963
0.26216 0.19374 0.94057 6.5459e-39 510 345 0 0 0 -0.25774 0.30864 -0.9156 0.0045571
0.26436 0.19374 0.94057 6.3615e-39 513 345 0 0 0 -0.2389 0.31073 -0.91999 0.0035976
0.253 0.19499 0.94129 5.7161e-39 230.5 346 0 0 0 -0.38177 0.29785 -0.87495 0.011183
0.2552 0.19499 0.94129 6.2232e-39 232.5 346 0 0 0 -0.3528 0.29974 -0.88639 0.0094814
0.2574 0.19499 0.94129 6.131e-39 234.5 346 0 0 0 -0.31696 0.30312 -0.8987 0.007299
0.25951 0.19491 0.94093 5.67e-39 236.5 346 0 0 0 -0.2892 0.30456 -0.90753 0.0059367
0.26106 0.19539 0.94057 7.3296e-39 353.5 346 0 0 0 -0.26996 0.30297 -0.91396 0.0052035
0.26281 0.19491 0.94093 6.2232e-39 239.5 346 0 0 0 -0.25153 0.30568 -0.91831 0.0042435
0.26473 0.19557 0.94057 7.4371e-39 397 346 0 0 0 -0.23526 0.3038 -0.92323 0.0035792
0.253 0.19609 0.94129 8.6664e-39 458.5 346 0 0 0 -0.3789 0.29088 -0.87853 0.01078
0.25575 0.19609 0.94129 8.2976e-39 461 346 0 0 0 -0.33646 0.29645 -0.89382 0.008465
0.25906 0.19609 0.94129 8.943e-39 467 346 0 0 0 -0.29714 0.29907 -0.90679 0.0063483
0.26053 0.19682 0.94129 8.2669e-39 291 346.67 0 0 0 -0.27833 0.29743 -0.91327 0.0056695
0.26346 0.19664 0.94129 7.8827e-39 339 346.5 0 0 0 -0.24588 0.29935 -0.92192 0.0040271
0.26501 0.19712 0.94093 7.2374e-39 206.5 347 0 0 0 -0.23165 0.30024 -0.92531 0.0034497
0.26656 0.19704 0.94057 6.8225e-39 208 347 0 0 0 -0.22229 0.30343 -0.92656 0.003198
0.26126 0.19884 0.94129 7.2835e-39 296.5 347.5 0 0 0 -0.26825 0.29423 -0.91732 0.0053294
0.26501 0.19877 0.94093 7.8366e-39 300 347.5 0 0 0 -0.23135 0.29521 -0.927 0.0036321
0.26656 0.19869 0.94057 7.9288e-39 301.5 347.5 0 0 0 -0.21965 0.29895 -0.92864 0.0031042
0.26126 0.20049 0.94129 6.9147e-39 389 348 0 0 0 -0.26542 0.29275 -0.91861 0.0054325
0.26523 0.20081 0.94105 6.5152e-39 431.67 348 0 0 0 -0.23041 0.29427 -0.92753 0.0036928
0.26722 0.20096 0.94093 6.2463e-39 453 348 0 0 0 -0.21328 0.297 -0.93075 0.0030607
0.26913 0.20107 0.94057 6.0234e-39 474.33 348 0 0 0 -0.20334 0.29849 -0.9325 0.0028916
0.26566 0.20324 0.94129 7.2835e-39 352 349 0 0 0 -0.22272 0.29748 -0.92839 0.0036866
0.2675 0.20343 0.94129 7.3142e-39 392.33 349 0 0 0 -0.20705 0.29831 -0.93174 0.0031281
0.26927 0.20301 0.94105 6.2385e-39 316.67 349 0 0 0 -0.201 0.29766 -0.93327 0.0028601
0.27007 0.2038 0.94129 6.9147e-39 473 349 0 0 0 -0.19816 0.29629 -0.93431 0.0028578
0.2728 0.20327 0.94057 6.6688e-39 398 349 0 0 0 -0.19156 0.29932 -0.93472 0.0030884
0.26566 0.2049 0.94129 8.6664e-39 207 350 0 0 0 -0.22298 0.29878 -0.92791 0.0040075
0.26787 0.2049 0.94129 7.7444e-39 210 350 0 0 0 -0.20647 0.29705 -0.93227 0.0030943
0.26897 0.2049 0.94129 7.6522e-39 211 350 0 0 0 -0.20318 0.29587 -0.93337 0.0029977
0.27051 0.20537 0.94093 7.9749e-39 329.5 350 0 0 0 -0.19551 0.29499 -0.93529 0.0028399
0.27267 0.20533 0.94075 8.2515e-39 331.5 350 0 0 0 -0.19042 0.29655 -0.93584 0.0030384
0.27464 0.20547 0.94057 8.144e-39 372.33 350 0 0 0 -0.18598 0.29878 -0.93603 0.0032838
0.27117 0.2071 0.94129 6.9147e-39 190 351 0 0 0 -0.1945 0.29637 -0.93506 0.0031472
0.27282 0.2071 0.94129 7.3296e-39 191.5 351 0 0 0 -0.18851 0.29538 -0.9366 0.0030367
0.27503 0.2071 0.94129 7.9749e-39 193.5 351 0 0 0 -0.18373 0.29539 -0.93754 0.0031631
0.27647 0.20694 0.94057 8.3898e-39 195 351 0 0 0 -0.18258 0.29848 -0.93679 0.0033509
0.27977 0.20694 0.94057 7.6522e-39 198 351 0 0 0 -0.18564 0.30584 -0.93381 0.0037118
0.27117 0.2082 0.94129 9.4961e-39 425 351 0 0 0 -0.19304 0.29522 -0.93573 0.0031873
0.27227 0.20875 0.94129 7.9288e-39 299.5 351.5 0 0 0 -0.19105 0.29405 -0.9365 0.0031863
0.27503 0.20875 0.94129 7.6292e-39 302 351.5 0 0 0 -0.18449 0.29252 -0.93829 0.0032688
0.27707 0.20863 0.94075 7.9058e-39 304 351.5 0 0 0 -0.18214 0.29364 -0.9384 0.0033548
0.27947 0.20883 0.94081 7.3449e-39 264 351.67 0 0 0 -0.18171 0.29751 -0.93727 0.0035766
0.28087 0.20914 0.94057 6.9147e-39 181 352 0 0 0 -0.18497 0.29734 -0.93668 0.0036652
0.28527 0.20859 0.94057 7.5601e-39 311.5 351.5 0 0 0 -0.20567 0.3111 -0.92786 0.0041459
0.28674 0.20877 0.94057 7.0683e-39 270.67 351.67 0 0 0 -0.20987 0.31178 -0.92669 0.0042321
0.28857 0.20914 0.94057 6.9147e-39 188 352 0 0 0 -0.21488 0.31318 -0.92506 0.0045274
0.27723 0.2104 0.94129 6.7303e-39 409.5 352 0 0 0 -0.18053 0.29028 -0.93976 0.0033021
0.27938 0.21091 0.94111 6.7995e-39 285 352.5 0 0 0 -0.17822 0.29123 -0.93991 0.0034104
0.28147 0.21083 0.94075 6.8917e-39 287.5 352.5 0 0 0 -0.18434 0.29538 -0.93743 0.0036863
0.28307 0.21079 0.94057 7.2374e-39 289 352.5 0 0 0 -0.19213 0.29991 -0.93442 0.0038532
0.28478 0.21083 0.94075 7.514e-39 292 352.5 0 0 0 -0.20027 0.30173 -0.93212 0.0040113
0.28703 0.21087 0.94093 7.4448e-39 294 352.5 0 0 0 -0.20893 0.3052 -0.92909 0.0041547
0.28912 0.21079 0.94057 7.8597e-39 296 352.5 0 0 0 -0.2149 0.30816 -0.92674 0.0044466
0.29187 0.21134 0.94057 6.9147e-39 171 353 0 0 0 -0.21885 0.3107 -0.92497 0.0045965
0.29297 0.21079 0.94057 7.8366e-39 299.5 352.5 0 0 0 -0.22407 0.31483 -0.92232 0.0045193
0.27961 0.21298 0.94129 6.1771e-39 309 353.33 0 0 0 -0.17876 0.29378 -0.93901 0.0036321
0.28108 0.21261 0.94129 6.5459e-39 394 353 0 0 0 -0.18001 0.29511 -0.93835 0.0036969
0.28268 0.21312 0.94111 6.4306e-39 270 353.5 0 0 0 -0.18523 0.29507 -0.93735 0.0036789
0.28494 0.21316 0.94129 6.6612e-39 272 353.5 0 0 0 -0.19713 0.29715 -0.93426 0.0038002
0.28714 0.21316 0.94129 6.6612e-39 274 353.5 0 0 0 -0.20579 0.29696 -0.93245 0.0039389
0.28917 0.21303 0.94075 6.7534e-39 276 353.5 0 0 0 -0.21293 0.30271 -0.92899 0.004133
0.29132 0.21299 0.94057 6.569e-39 278 353.5 0 0 0 -0.21543 0.30442 -0.92786 0.0044499
0.29297 0.21299 0.94057 6.7303e-39 279.5 353.5 0 0 0 -0.21819 0.30701 -0.92636 0.0045398
0.29407 0.21354 0.94057 6.4537e-39 155 354 0 0 0 -0.21842 0.30937 -0.92552 0.0046811
0.28291 0.21518 0.94129 7.4064e-39 416 354 0 0 0 -0.18671 0.29827 -0.93604 0.0039945
0.28439 0.21536 0.94129 6.8686e-39 435 354 0 0 0 -0.19401 0.29959 -0.93413 0.0039895
0.28714 0.21481 0.94129 6.3615e-39 384.5 354 0 0 0 -0.20541 0.2982 -0.93214 0.0039511
0.28923 0.21528 0.94093 6.592e-39 439.5 354 0 0 0 -0.21036 0.29985 -0.93051 0.0039726
0.29137 0.21524 0.94075 6.3154e-39 443 354 0 0 0 -0.21303 0.30018 -0.92979 0.0042039
0.29297 0.2152 0.94057 6.1771e-39 445.5 354 0 0 0 -0.21403 0.30301 -0.92864 0.0042679
0.29407 0.2152 0.94057 5.9005e-39 450 354 0 0 0 -0.21556 0.3055 -0.92747 0.0043683
0.28439 0.21701 0.94129 5.163e-39 240 355 0 0 0 -0.19149 0.30074 -0.93428 0.0042035
0.28934 0.21701 0.94129 5.5317e-39 244.5 355 0 0 0 -0.21025 0.29855 -0.93095 0.0039232
0.29158 0.21727 0.94081 5.5932e-39 326 355 0 0 0 -0.21018 0.29888 -0.93086 0.0039851
0.29297 0.2174 0.94057 5.7162e-39 367 355 0 0 0 -0.20899 0.30024 -0.93069 0.0041071
0.29444 0.21758 0.94057 6.0849e-39 408 355 0 0 0 -0.2108 0.30185 -0.92976 0.004204
0.28934 0.21866 0.94129 6.2232e-39 362 355.5 0 0 0 -0.21018 0.29834 -0.93103 0.0039596
0.29128 0.21879 0.94105 6.0849e-39 323.67 355.67 0 0 0 -0.21136 0.29988 -0.93027 0.0039896
0.29297 0.21905 0.94057 5.2552e-39 245 356 0 0 0 -0.20794 0.29902 -0.93131 0.0039352
0.29462 0.21905 0.94057 5.0247e-39 246.5 356 0 0 0 -0.2106 0.30037 -0.93028 0.0041151
0.29627 0.21905 0.94057 5.0708e-39 248 356 0 0 0 -0.20779 0.30356 -0.92988 0.0041689
0.29958 0.21905 0.94057 5.8083e-39 251 356 0 0 0 -0.2021 0.30924 -0.92926 0.0044872
0.28934 0.22087 0.94129 5.6009e-39 360 356.5 0 0 0 -0.21311 0.3003 -0.92973 0.0041007
0.29128 0.22063 0.94105 6.1464e-39 402 356.33 0 0 0 -0.21109 0.29893 -0.93064 0.0039699
0.29275 0.221 0.94105 6.1156e-39 323 356.67 0 0 0 -0.20891 0.29823 -0.93135 0.0039457
0.29479 0.22083 0.94111 6.0157e-39 365 356.5 0 0 0 -0.20822 0.29745 -0.93175 0.0038613
0.29688 0.22074 0.94075 5.6931e-39 367 356.5 0 0 0 -0.20334 0.29965 -0.93213 0.0039113
0.29908 0.22074 0.94075 6.108e-39 369 356.5 0 0 0 -0.19968 0.30594 -0.93088 0.004091
0.30068 0.2207 0.94057 6.6381e-39 370.5 356.5 0 0 0 -0.19624 0.30951 -0.93043 0.0043586
0.28879 0.22252 0.94129 6.5459e-39 476 357 0 0 0 -0.2135 0.30304 -0.92875 0.0042086
0.29264 0.22307 0.94129 5.5778e-39 359.5 357.5 0 0 0 -0.21031 0.30343 -0.92935 0.0038946
0.29485 0.22307 0.94129 5.8544e-39 361.5 357.5 0 0 0 -0.20538 0.30233 -0.93081 0.0037726
0.29705 0.22307 0.94129 6.3154e-39 363.5 357.5 0 0 0 -0.20149 0.30264 -0.93156 0.0036882
0.29919 0.22303 0.94111 5.8314e-39 365.5 357.5 0 0 0 -0.19407 0.30551 -0.9322 0.0037202
0.30112 0.22314 0.94081 5.501e-39 327.33 357.67 0 0 0 -0.18821 0.3114 -0.93146 0.0037889
0.30288 0.2229 0.94057 6.0849e-39 369 357.5 0 0 0 -0.17788 0.31359 -0.93275 0.0041149
0.2932 0.22472 0.94129 5.9005e-39 474 358 0 0 0 -0.20857 0.30629 -0.92881 0.0038981
0.2954 0.22472 0.94129 6.6381e-39 476 358 0 0 0 -0.20444 0.30723 -0.92942 0.0038217
0.29705 0.22527 0.94129 6.1771e-39 358.5 358.5 0 0 0 -0.20073 0.31054 -0.92913 0.0037562
0.2987 0.22527 0.94129 5.67e-39 360 358.5 0 0 0 -0.19253 0.3132 -0.92997 0.0036683
0.30149 0.22497 0.94081 5.9927e-39 402.33 358.33 0 0 0 -0.18018 0.3142 -0.9321 0.0035383
0.30311 0.22527 0.94129 6.0388e-39 364 358.5 0 0 0 -0.16921 0.31598 -0.93355 0.0035956
0.2987 0.22692 0.94129 5.9005e-39 474 359 0 0 0 -0.19196 0.31955 -0.92792 0.003527
0.30178 0.22675 0.94057 6.3615e-39 477 359 0 0 0 -0.17871 0.31909 -0.93072 0.003371
0.30354 0.22683 0.94093 6.0388e-39 478.5 359 0 0 0 -0.16662 0.32041 -0.93251 0.0034051
0.30508 0.22785 0.94057 5.9005e-39 244 360 0 0 0 -0.15983 0.32446 -0.9323 0.0028889
0.30673 0.2273 0.94057 5.7161e-39 363.5 359.5 0 0 0 -0.1545 0.32334 -0.93359 0.0027398
0.30948 0.22785 0.94057 5.2552e-39 248 360 0 0 0 -0.14555 0.32263 -0.93527 0.0022557
0.31058 0.22785 0.94057 5.4395e-39 249 360 0 0 0 -0.14057 0.32493 -0.93523 0.0020785
0.32268 0.22785 0.94057 6.9147e-39 260 360 0 0 0 -0.13259 0.32334 -0.93695 0.0021591
0.30201 0.22802 0.94129 6.5459e-39 241 360 0 0 0 -0.17838 0.32677 -0.92812 0.0031491
0.30458 0.22876 0.94129 5.9927e-39 394.67 360 0 0 0 -0.16281 0.32859 -0.93033 0.0028596
0.30714 0.22876 0.94129 5.5624e-39 397 360 0 0 0 -0.1516 0.32795 -0.93245 0.0024784
0.30893 0.22895 0.94057 6.0388e-39 474.5 360 0 0 0 -0.14595 0.32722 -0.93361 0.0022176
0.31113 0.22895 0.94057 6.4998e-39 477.5 360 0 0 0 -0.13966 0.32387 -0.93574 0.0020427
0.31333 0.22895 0.94057 6.3154e-39 480.5 360 0 0 0 -0.13976 0.324 -0.93568 0.0018506
0.32048 0.22895 0.94057 6.5459e-39 489 360 0 0 0 -0.14075 0.32158 -0.93636 0.0018927
0.32268 0.22895 0.94057 7.2835e-39 491 360 0 0 0 -0.13488 0.31873 -0.9382 0.0020978
0.30531 0.23023 0.94129 7.56e-39 231 361 0 0 0 -0.15828 0.33427 -0.92909 0.0026198
0.30641 0.23023 0.94129 7.6522e-39 232 361 0 0 0 -0.15583 0.33397 -0.92962 0.0025015
0.30905 0.23069 0.94093 6.6612e-39 349 361 0 0 0 -0.14769 0.3291 -0.93268 0.0021906
0.31125 0.23069 0.94093 6.5689e-39 351 361 0 0 0 -0.14313 0.32674 -0.93421 0.0020729
0.31333 0.2306 0.94057 6.2232e-39 353 361 0 0 0 -0.14177 0.32291 -0.93575 0.0018492
0.31498 0.23115 0.94057 5.5317e-39 469 361 0 0 0 -0.1431 0.32029 -0.93645 0.0017988
0.31663 0.23115 0.94057 5.5778e-39 470.5 361 0 0 0 -0.14692 0.32018 -0.93589 0.0017954
0.31883 0.23115 0.94057 5.5778e-39 472.5 361 0 0 0 -0.14913 0.31841 -0.93615 0.0017645
0.32085 0.23078 0.94057 5.9005e-39 398 361 0 0 0 -0.14269 0.3164 -0.93783 0.0018766
0.32268 0.2306 0.94057 5.9005e-39 361.5 361 0 0 0 -0.13502 0.3157 -0.9392 0.002054
0.30861 0.23243 0.94129 7.0991e-39 223 362 0 0 0 -0.15345 0.33396 -0.93001 0.0023694
0.31192 0.23243 0.94129 7.0991e-39 226 362 0 0 0 -0.14527 0.32557 -0.93429 0.0021159
0.31302 0.23298 0.94129 6.5459e-39 341 362 0 0 0 -0.14588 0.32319 -0.93502 0.0020915
0.31461 0.23293 0.94111 6.9608e-39 342.5 362 0 0 0 -0.14582 0.31842 -0.93667 0.0019541
0.31669 0.23284 0.94075 7.3987e-39 344.5 362 0 0 0 -0.14924 0.31678 -0.93668 0.0018068
0.31889 0.23284 0.94075 7.3757e-39 346.5 362 0 0 0 -0.15073 0.31517 -0.93699 0.0018368
0.32103 0.2328 0.94057 6.9146e-39 348.5 362 0 0 0 -0.14252 0.31379 -0.93873 0.0019838
0.32323 0.2328 0.94057 7.0991e-39 350.5 362 0 0 0 -0.13415 0.31204 -0.94055 0.002139
0.31302 0.23463 0.94129 6.6381e-39 202 363 0 0 0 -0.15114 0.32277 -0.93433 0.0022674
0.31467 0.23463 0.94129 7.4218e-39 203.5 363 0 0 0 -0.14887 0.31823 -0.93625 0.0021059
0.31687 0.23518 0.94129 8.1823e-39 314 363 0 0 0 -0.1504 0.31504 -0.93709 0.0019111
0.31908 0.23518 0.94129 8.0441e-39 316 363 0 0 0 -0.14879 0.3131 -0.93799 0.0018976
0.32116 0.23509 0.94093 7.9519e-39 318 363 0 0 0 -0.14529 0.31273 -0.93866 0.0020996
0.32336 0.23509 0.94093 8.2285e-39 320 363 0 0 0 -0.13607 0.31069 -0.94072 0.0022108
0.32599 0.23555 0.94057 6.9147e-39 431 363 0 0 0 -0.13076 0.31061 -0.9415 0.0023974
0.32709 0.23555 0.94057 6.9147e-39 432 363 0 0 0 -0.12759 0.3099 -0.94217 0.0024528
0.32929 0.23555 0.94057 6.2693e-39 434 363 0 0 0 -0.12254 0.30964 -0.94292 0.0026382
0.34029 0.23555 0.94057 6.4537e-39 444 363 0 0 0 -0.092157 0.32238 -0.94211 0.0037122
0.32128 0.23683 0.94129 6.9147e-39 162.5 364 0 0 0 -0.14503 0.3119 -0.93898 0.0021029
0.32293 0.23683 0.94129 7.0991e-39 164 364 0 0 0 -0.13791 0.3115 -0.94018 0.0022888
0.32481 0.2372 0.941 6.8225e-39 198.6 364 0 0 0 -0.13359 0.31177 -0.94072 0.002527
0.32697 0.23757 0.94129 6.761e-39 222.33 364 0 0 0 -0.1272 0.31014 -0.94214 0.0026558
0.32886 0.2373 0.94093 6.7995e-39 210.5 364 0 0 0 -0.12397 0.31059 -0.94242 0.0027499
0.33084 0.23745 0.94081 6.4537e-39 226 364 0 0 0 -0.11571 0.3092 -0.94393 0.0028958
0.33314 0.23775 0.94057 5.3934e-39 255.5 364 0 0 0 -0.10717 0.31207 -0.94399 0.0031104
0.33479 0.23775 0.94057 5.2552e-39 257 364 0 0 0 -0.10405 0.313 -0.94404 0.0032758
0.33864 0.2372 0.94057 6.2232e-39 219.75 364 0 0 0 -0.094474 0.31831 -0.94327 0.0036732
0.34029 0.2372 0.94057 7.7444e-39 284.5 364 0 0 0 -0.084392 0.32248 -0.94281 0.0037334
0.32513 0.23904 0.94129 6.1771e-39 453 364 0 0 0 -0.1317 0.31214 -0.94086 0.0026766
0.32623 0.23904 0.94129 6.7303e-39 454 364 0 0 0 -0.13009 0.3133 -0.9407 0.0027813
0.33119 0.23904 0.94129 6.4998e-39 458.5 364 0 0 0 -0.1145 0.31172 -0.94325 0.0030477
0.33327 0.23895 0.94093 6.5459e-39 460.5 364 0 0 0 -0.10585 0.31336 -0.94372 0.0031856
0.33534 0.2394 0.94057 6.8685e-39 320 364.5 0 0 0 -0.099582 0.31749 -0.94302 0.003412
0.33699 0.23995 0.94057 7.56e-39 179 365 0 0 0 -0.094056 0.31711 -0.94371 0.0034399
0.33846 0.23922 0.94057 6.6996e-39 370.33 364.33 0 0 0 -0.091118 0.31823 -0.94363 0.003558
0.34029 0.23995 0.94057 6.6381e-39 182 365 0 0 0 -0.073282 0.32427 -0.94312 0.0033829
0.32513 0.24014 0.94129 6.1771e-39 168 365 0 0 0 -0.13198 0.31178 -0.94094 0.0026608
0.33357 0.24051 0.94129 6.8532e-39 196.33 365 0 0 0 -0.10102 0.31366 -0.94415 0.0030943
0.33532 0.24081 0.94105 6.7303e-39 218.67 365 0 0 0 -0.095598 0.31674 -0.94368 0.0033612
0.33699 0.24106 0.94057 6.7303e-39 241 365 0 0 0 -0.092344 0.3182 -0.94352 0.0035362
0.33908 0.24087 0.94129 6.9147e-39 222 365 0 0 0 -0.07678 0.32057 -0.94411 0.0032117
0.34097 0.24115 0.94093 7.0069e-39 244.5 365 0 0 0 -0.060976 0.32263 -0.94456 0.0031515
0.34249 0.24106 0.94057 7.2835e-39 246 365 0 0 0 -0.049053 0.32569 -0.9442 0.0031248
0.33394 0.24234 0.94129 6.7303e-39 424 365 0 0 0 -0.095841 0.31125 -0.94548 0.0030422
0.33688 0.24271 0.94129 6.0234e-39 448 365 0 0 0 -0.083812 0.31636 -0.94493 0.0032253
0.33835 0.24234 0.94129 6.5459e-39 428 365 0 0 0 -0.079365 0.3194 -0.94429 0.0031466
0.34165 0.24234 0.94129 6.2693e-39 431 365 0 0 0 -0.05359 0.32112 -0.94552 0.0029458
0.34275 0.24234 0.94129 6.4537e-39 432 365 0 0 0 -0.043992 0.32283 -0.94544 0.0029897
0.26186 0.12921 0.94345 6.5459e-39 431 322 0 0 0 -0.076718 -0.9371 -0.34052 0.0052133
0.26296 0.12921 0.94345 7.0069e-39 432 322 0 0 0 -0.081821 -0.93522 -0.34449 0.0051455
0.26462 0.12921 0.94345 7.4218e-39 433.5 322 0 0 0 -0.079422 -0.93706 -0.34003 0.004691
0.26938 0.12911 0.94273 6.0849e-39 438 322 0 0 0 -0.05883 -0.93738 -0.34331 0.0047156
0.27069 0.12921 0.94345 6.0849e-39 439 322 0 0 0 -0.043204 -0.93892 -0.34142 0.0051853
0.27369 0.12851 0.94237 6.4998e-39 416 322 0 0 0 0.010122 -0.93849 -0.34515 0.0064701
0.27519 0.12834 0.94249 7.0069e-39 408.67 322 0 0 0 0.029052 -0.93891 -0.34292 0.0062302
0.2771 0.128 0.94273 7.8366e-39 393 322 0 0 0 0.052055 -0.93922 -0.33935 0.0061572
0.30314 0.12916 0.94309 6.0849e-39 457.5 322 0 0 0 -0.037652 -0.92353 -0.38168 0.0033508
0.30601 0.12921 0.94345 5.8083e-39 460 322 0 0 0 -0.041119 -0.92102 -0.38735 0.0029092
0.30877 0.12921 0.94345 6.3154e-39 462.5 322 0 0 0 -0.036527 -0.91873 -0.39318 0.002777
0.31153 0.12921 0.94345 6.6381e-39 465 322 0 0 0 -0.028012 -0.91672 -0.39854 0.002761
0.24272 0.13121 0.94201 6.1771e-39 266 323 0 0 0 -0.099669 -0.90065 -0.42297 0.041853
0.25283 0.13131 0.94273 6.2693e-39 275 323 0 0 0 -0.06411 -0.91715 -0.39336 0.013653
0.2567 0.13131 0.94273 7.6061e-39 278.5 323 0 0 0 -0.065482 -0.92452 -0.37546 0.0090162
0.259 0.13136 0.94309 9.1274e-39 280.5 323 0 0 0 -0.074937 -0.93135 -0.35632 0.0067471
0.26092 0.13058 0.94273 7.5908e-39 239.67 323 0 0 0 -0.082576 -0.93069 -0.35637 0.0060266
0.26321 0.13016 0.94237 7.2835e-39 220.5 323 0 0 0 -0.083942 -0.93218 -0.35213 0.0050159
0.26497 0.13021 0.94273 7.7444e-39 222 323 0 0 0 -0.081521 -0.93475 -0.34584 0.0044871
0.26681 0.13058 0.94273 8.3283e-39 245 323 0 0 0 -0.082086 -0.93485 -0.34541 0.0045523
0.26851 0.13051 0.94225 8.2976e-39 247 323 0 0 0 -0.068764 -0.93422 -0.35 0.0044772
0.27103 0.13076 0.94273 8.7125e-39 260.25 323 0 0 0 -0.039783 -0.93638 -0.34872 0.0051311
0.27269 0.13076 0.94273 8.4359e-39 262 323 0 0 0 -0.0098827 -0.93721 -0.34862 0.006057
0.29144 0.13131 0.94273 8.1132e-39 303 323 0 0 0 0.049872 -0.93462 -0.35215 0.006132
0.29298 0.13126 0.94237 6.9147e-39 304.5 323 0 0 0 0.043871 -0.93222 -0.35922 0.0066718
0.29452 0.13121 0.94201 6.4537e-39 306 323 0 0 0 0.029092 -0.93055 -0.365 0.0064
0.2975 0.13131 0.94273 6.3615e-39 308.5 323 0 0 0 -0.0081929 -0.93031 -0.36669 0.0052522
0.29894 0.13064 0.94321 6.5766e-39 269 323 0 0 0 -0.016132 -0.92855 -0.37087 0.0046011
0.30058 0.13121 0.94201 6.9147e-39 311.5 323 0 0 0 -0.012984 -0.9259 -0.37754 0.0046108
0.30224 0.13011 0.94201 5.9927e-39 250 323 0 0 0 -0.0237 -0.92433 -0.38087 0.0038039
0.30467 0.13021 0.94273 6.5459e-39 252 323 0 0 0 -0.03697 -0.92123 -0.38726 0.0030527
0.30665 0.13011 0.94201 6.4537e-39 254 323 0 0 0 -0.036472 -0.91891 -0.39277 0.0029231
0.30995 0.13011 0.94201 6.8225e-39 257 323 0 0 0 -0.026752 -0.91698 -0.39804 0.002848
0.31282 0.13016 0.94237 6.1771e-39 259.5 323 0 0 0 -0.020424 -0.91437 -0.40437 0.0028023
0.31503 0.13071 0.94237 5.9927e-39 293 323 0 0 0 -0.0048889 -0.91116 -0.41203 0.0029637
0.31681 0.13131 0.94273 5.8083e-39 327 323 0 0 0 0.013099 -0.90977 -0.41492 0.0028859
0.31901 0.13104 0.94273 5.9466e-39 314.5 323 0 0 0 0.037414 -0.90728 -0.41885 0.0027524
0.24898 0.13242 0.94273 8.1132e-39 338.5 323 0 0 0 -0.10161 -0.89242 -0.43962 0.030335
0.25044 0.13231 0.94201 9.3118e-39 340 323 0 0 0 -0.10412 -0.89008 -0.44376 0.028708
0.25485 0.13231 0.94201 8.8508e-39 344 323 0 0 0 -0.081015 -0.90432 -0.4191 0.018517
0.29585 0.13242 0.94273 6.7303e-39 380 323 0 0 0 0.0097692 -0.93077 -0.36547 0.0057652
0.29673 0.13231 0.94201 7.0069e-39 381 323 0 0 0 0.004369 -0.92866 -0.37091 0.0055937
0.31767 0.13231 0.94201 8.482e-39 400 323 0 0 0 0.027496 -0.90727 -0.41966 0.0028833
0.23942 0.15932 0.94201 7.3296e-39 306 332 0 0 0 -0.63398 0.1955 -0.74823 0.005524
0.23886 0.16097 0.94201 7.2374e-39 156.5 333 0 0 0 -0.63541 0.19902 -0.74609 0.0051798
0.23905 0.16244 0.94201 8.8201e-39 414 333 0 0 0 -0.62909 0.20061 -0.751 0.0049932
0.24052 0.16262 0.94201 8.943e-39 431.5 333 0 0 0 -0.60921 0.20594 -0.7658 0.0056931
0.23721 0.16483 0.94201 7.6522e-39 353 334 0 0 0 -0.64833 0.19976 -0.73469 0.0041843
0.23905 0.16501 0.94201 6.9454e-39 387 334 0 0 0 -0.62568 0.2075 -0.75197 0.0047553
0.24052 0.16483 0.94201 7.3296e-39 404.5 334 0 0 0 -0.60388 0.21179 -0.76842 0.0057011
0.23721 0.16703 0.94201 5.7161e-39 325.5 335 0 0 0 -0.64451 0.20772 -0.73584 0.0042585
0.23891 0.16706 0.94219 6.0849e-39 327 335 0 0 0 -0.62665 0.21481 -0.74911 0.004617
0.24089 0.16721 0.94201 6.3922e-39 363 335 0 0 0 -0.59468 0.22307 -0.7724 0.0057813
0.23721 0.16923 0.94201 6.8686e-39 298.5 336 0 0 0 -0.64883 0.2152 -0.72987 0.0051408
0.23905 0.16905 0.94201 6.3615e-39 265.67 336 0 0 0 -0.62589 0.22433 -0.74695 0.0054271
0.24052 0.16923 0.94201 6.6381e-39 301.5 336 0 0 0 -0.60928 0.22968 -0.75897 0.0059944
0.23905 0.17162 0.94201 6.0542e-39 288.33 337 0 0 0 -0.62426 0.23722 -0.74433 0.0066828
0.24089 0.17162 0.94201 6.2386e-39 290 337 0 0 0 -0.59542 0.24866 -0.76397 0.007189
0.2396 0.17322 0.94273 6.7303e-39 458 337 0 0 0 -0.62338 0.25191 -0.74023 0.007194
0.24107 0.17309 0.94201 7.053e-39 459.5 337 0 0 0 -0.59425 0.25976 -0.76118 0.007662
0.2396 0.17488 0.94273 5.8544e-39 317.5 338 0 0 0 -0.61965 0.25925 -0.74083 0.0074762
0.24116 0.17481 0.94237 5.7852e-39 319 338 0 0 0 -0.59291 0.2696 -0.7588 0.0083569
0.24272 0.17474 0.94201 6.0388e-39 320.5 338 0 0 0 -0.56599 0.27539 -0.77705 0.0087399
0.23978 0.17722 0.94345 7.9749e-39 265 339 0 0 0 -0.60988 0.27595 -0.7429 0.0084463
0.24125 0.17709 0.94273 7.7905e-39 266.5 339 0 0 0 -0.58381 0.28592 -0.75988 0.0091003
0.24291 0.17709 0.94273 7.0069e-39 268 339 0 0 0 -0.56269 0.29095 -0.77378 0.0094594
0.24139 0.17939 0.94327 6.9607e-39 344 339.5 0 0 0 -0.57808 0.29935 -0.75909 0.0094731
0.24309 0.17943 0.94345 7.1452e-39 345.5 339.5 0 0 0 -0.55873 0.30417 -0.77156 0.0101
0.24135 0.18101 0.94309 7.0069e-39 425.5 340 0 0 0 -0.57746 0.29993 -0.75933 0.0097583
0.24358 0.18127 0.94249 6.5152e-39 339.33 340.33 0 0 0 -0.54235 0.30972 -0.78098 0.010389
0.24162 0.18256 0.94345 7.4064e-39 238 341 0 0 0 -0.57286 0.30087 -0.76243 0.0098521
0.24309 0.18219 0.94345 6.5459e-39 162 341 0 0 0 -0.55385 0.30478 -0.77483 0.010913
0.24447 0.18308 0.94237 8.482e-39 395.5 341 0 0 0 -0.5242 0.31974 -0.78929 0.011858
0.24461 0.18484 0.94291 7.1221e-39 376.5 341.5 0 0 0 -0.51884 0.31893 -0.79315 0.013047
0.24658 0.18466 0.94201 6.592e-39 379 341.5 0 0 0 -0.49036 0.32502 -0.80864 0.013508
0.24461 0.18705 0.94291 7.0069e-39 345.5 342.5 0 0 0 -0.51457 0.31714 -0.79665 0.01367
0.24663 0.18691 0.94219 7.1913e-39 347.5 342.5 0 0 0 -0.48585 0.32374 -0.81187 0.014705
0.24475 0.18881 0.94345 6.8686e-39 440.5 343 0 0 0 -0.51876 0.30264 -0.79956 0.015372
0.24687 0.18929 0.94309 6.9147e-39 315.5 343.5 0 0 0 -0.48565 0.31057 -0.81713 0.015589
0.24823 0.18907 0.94201 6.9608e-39 317 343.5 0 0 0 -0.46917 0.31542 -0.82486 0.015341
0.24751 0.19102 0.94345 6.8225e-39 411 344 0 0 0 -0.4776 0.29659 -0.827 0.016223
0.24883 0.19131 0.94219 6.592e-39 284 344.5 0 0 0 -0.46103 0.3049 -0.83336 0.015464
0.24888 0.193 0.94237 6.4998e-39 378.5 345 0 0 0 -0.4617 0.29169 -0.83771 0.016185
0.25099 0.19293 0.94201 7.2835e-39 380.5 345 0 0 0 -0.43653 0.29857 -0.8487 0.014717
0.24893 0.19469 0.94255 6.1541e-39 361 345.5 0 0 0 -0.45489 0.27734 -0.84626 0.016446
0.25099 0.19458 0.94201 5.7161e-39 363 345.5 0 0 0 -0.42894 0.28955 -0.85567 0.014677
0.24898 0.19694 0.94273 7.2374e-39 323 346.5 0 0 0 -0.44293 0.25556 -0.85936 0.017979
0.25108 0.19686 0.94237 7.4679e-39 325 346.5 0 0 0 -0.4112 0.27726 -0.86836 0.013493
0.25319 0.19734 0.94201 6.9608e-39 195.5 347 0 0 0 -0.37911 0.28521 -0.8803 0.010779
0.25522 0.19697 0.94201 7.3449e-39 285 346.67 0 0 0 -0.35125 0.28954 -0.89039 0.0090904
0.25705 0.19679 0.94201 7.8827e-39 332 346.5 0 0 0 -0.32162 0.29412 -0.90003 0.0074461
