# .PCD v.7 - Point Cloud Data file format
VERSION .7
FIELDS x y z rgb u v vx vy vz normal_x normal_y normal_z curvature
SIZE 4 4 4 4 4 4 4 4 4 4 4 4 4
TYPE F F F F F F F F F F F F F
COUNT 1 1 1 1 1 1 1 1 1 1 1 1 1
WIDTH 563
HEIGHT 1
VIEWPOINT 0 0 0 1 0 0 0
POINTS 563
DATA ascii
-0.1542 0.059131 1.2462 7.0069e-39 342 322 0 0 0 0.11045 0.19726 -0.97411 0.022521
-0.15274 0.059131 1.2462 6.8686e-39 343 322 0 0 0 0.15097 0.20143 -0.9678 0.020364
-0.15129 0.059131 1.2462 6.6381e-39 344 322 0 0 0 0.21299 0.2037 -0.95559 0.018609
-0.14921 0.059175 1.2471 6.6612e-39 345.5 322 0 0 0 0.27296 0.21117 -0.93856 0.018147
-0.1456 0.059191 1.2474 6.3615e-39 348 322 0 0 0 0.38027 0.21552 -0.89941 0.01454
-0.16603 0.061379 1.2474 6.3615e-39 149 323 0 0 0 -0.32088 0.24517 -0.91484 0.027202
-0.16457 0.061379 1.2474 5.9005e-39 150 323 0 0 0 -0.28033 0.24644 -0.92773 0.028602
-0.16311 0.061379 1.2474 5.9927e-39 151 323 0 0 0 -0.21375 0.23839 -0.94735 0.026181
-0.16085 0.061348 1.2468 6.1771e-39 152.5 323 0 0 0 -0.12285 0.23531 -0.96412 0.026233
-0.15858 0.061318 1.2462 6.3615e-39 154 323 0 0 0 -0.038273 0.23347 -0.97161 0.026227
-0.15712 0.061318 1.2462 6.0849e-39 155 323 0 0 0 0.0078849 0.22975 -0.97322 0.024712
-0.1542 0.061318 1.2462 5.7161e-39 157 323 0 0 0 0.11634 0.23404 -0.96524 0.023582
-0.15274 0.061318 1.2462 5.7161e-39 158 323 0 0 0 0.1647 0.23578 -0.95775 0.021153
-0.15129 0.061318 1.2462 5.6239e-39 159 323 0 0 0 0.21488 0.23822 -0.94714 0.019611
-0.14925 0.061379 1.2474 5.8083e-39 160.5 323 0 0 0 0.28377 0.2518 -0.92524 0.016883
-0.1456 0.061379 1.2474 5.7161e-39 163 323 0 0 0 0.38279 0.25106 -0.88907 0.013095
-0.16457 0.062839 1.2474 8.2976e-39 226 323 0 0 0 -0.27288 0.26587 -0.92458 0.027906
-0.16311 0.062839 1.2474 8.6664e-39 227 323 0 0 0 -0.22389 0.26213 -0.9387 0.027703
-0.16085 0.062808 1.2468 8.943e-39 228.5 323 0 0 0 -0.11888 0.25734 -0.95898 0.026312
-0.15858 0.062776 1.2462 8.7586e-39 230 323 0 0 0 -0.032391 0.25052 -0.96757 0.026078
-0.15712 0.062776 1.2462 8.6664e-39 231 323 0 0 0 0.012784 0.25006 -0.96815 0.025976
-0.15493 0.062776 1.2462 8.2976e-39 232.5 323 0 0 0 0.083326 0.24951 -0.96478 0.025315
-0.15274 0.062776 1.2462 8.482e-39 234 323 0 0 0 0.16598 0.25247 -0.95326 0.02185
-0.15129 0.062776 1.2462 8.943e-39 235 323 0 0 0 0.21562 0.2571 -0.94202 0.020559
-0.14925 0.062839 1.2474 8.3437e-39 236.5 323 0 0 0 0.28987 0.26376 -0.92 0.016806
-0.16457 0.064298 1.2474 6.2693e-39 397 323 0 0 0 -0.28445 0.28538 -0.91523 0.028627
-0.16311 0.065028 1.2474 6.131e-39 447 323 0 0 0 -0.22583 0.29538 -0.92831 0.028386
-0.16093 0.065028 1.2474 5.7162e-39 448.5 323 0 0 0 -0.12352 0.28722 -0.94987 0.029406
-0.15858 0.064962 1.2462 5.6701e-39 450 323 0 0 0 -0.057455 0.28059 -0.95811 0.029682
-0.15728 0.065028 1.2474 5.7622e-39 451 323 0 0 0 0.0041273 0.28812 -0.95759 0.031446
-0.15497 0.064979 1.2465 5.8544e-39 452.5 323 0 0 0 0.097347 0.27522 -0.95644 0.026553
-0.1529 0.064298 1.2474 5.7161e-39 405 323 0 0 0 0.16957 0.2782 -0.94544 0.024581
-0.15144 0.065028 1.2474 5.7622e-39 455 323 0 0 0 0.23006 0.28775 -0.92966 0.022318
-0.14852 0.064298 1.2474 6.0849e-39 408 323 0 0 0 0.30355 0.28091 -0.91046 0.0168
-0.16093 0.067217 1.2474 7.4218e-39 212.5 324 0 0 0 -0.14829 0.3207 -0.9355 0.033577
-0.15858 0.067149 1.2462 7.3757e-39 214 324 0 0 0 -0.050912 0.30529 -0.9509 0.031494
-0.15728 0.067217 1.2474 7.4678e-39 215 324 0 0 0 -0.001047 0.31092 -0.95044 0.034
-0.15509 0.067217 1.2474 7.6061e-39 216.5 324 0 0 0 0.088804 0.31064 -0.94637 0.03229
-0.1602 0.068677 1.2474 5.0708e-39 386 324 0 0 0 -0.12288 0.32795 -0.93667 0.035529
-0.15874 0.068677 1.2474 5.0708e-39 387 324 0 0 0 -0.056536 0.32648 -0.94351 0.035682
-0.15728 0.068677 1.2474 5.4395e-39 388 324 0 0 0 -0.012385 0.32855 -0.94441 0.0371
-0.15509 0.068677 1.2474 5.8544e-39 389.5 324 0 0 0 0.078807 0.31667 -0.94525 0.034303
-0.15874 0.070136 1.2474 6.8225e-39 458 324 0 0 0 -0.064454 0.33645 -0.93949 0.036598
-0.1662 0.036606 1.2487 7.3757e-39 257 317 0 0 0 -0.29206 -0.64838 -0.70307 0.067867
-0.16328 0.036606 1.2487 7.0069e-39 259 317 0 0 0 -0.19309 -0.68504 -0.70245 0.063925
-0.16125 0.036643 1.25 7.0991e-39 260.5 317 0 0 0 -0.14257 -0.70001 -0.69976 0.062266
-0.15906 0.036643 1.25 7.4678e-39 262 317 0 0 0 -0.072913 -0.70824 -0.70219 0.056848
-0.17076 0.039568 1.25 4.8864e-39 185 318 0 0 0 -0.52118 -0.50674 -0.68672 0.068072
-0.16912 0.038067 1.2487 5.4395e-39 366 317 0 0 0 -0.44123 -0.56427 -0.6978 0.067543
-0.15524 0.038067 1.2487 5.6239e-39 393.5 317 0 0 0 0.047662 -0.63351 -0.77226 0.054202
-0.15305 0.038067 1.2487 5.6239e-39 395 317 0 0 0 0.11794 -0.62187 -0.77419 0.049607
-0.15086 0.039528 1.2487 4.3793e-39 198.5 318 0 0 0 0.17902 -0.56659 -0.80432 0.051349
-0.14882 0.039568 1.25 4.0566e-39 200 318 0 0 0 0.23005 -0.57561 -0.7847 0.051659
-0.14736 0.039568 1.25 3.8722e-39 201 318 0 0 0 0.26715 -0.55678 -0.78653 0.053249
-0.1459 0.039568 1.25 3.2268e-39 202 318 0 0 0 0.29227 -0.55534 -0.77858 0.053301
-0.14297 0.039568 1.25 5.2552e-39 204 318 0 0 0 0.35272 -0.51392 -0.78197 0.05203
-0.17058 0.040989 1.2487 7.0069e-39 260 318 0 0 0 -0.50456 -0.45759 -0.73214 0.070352
-0.14867 0.040989 1.2487 5.9005e-39 275 318 0 0 0 0.2419 -0.47674 -0.8451 0.054408
-0.14429 0.040989 1.2487 6.4537e-39 278 318 0 0 0 0.33918 -0.4442 -0.82924 0.053772
-0.14283 0.040989 1.2487 6.6381e-39 279 318 0 0 0 0.36711 -0.43367 -0.8229 0.055681
-0.14137 0.040989 1.2487 6.8225e-39 280 318 0 0 0 0.38973 -0.40681 -0.82621 0.053569
-0.13924 0.04101 1.2494 7.0069e-39 281.5 318 0 0 0 0.42207 -0.41431 -0.80635 0.054665
-0.13566 0.04103 1.25 6.6381e-39 284 318 0 0 0 0.44796 -0.36589 -0.81575 0.051391
-0.17058 0.04318 1.2487 5.3473e-39 296.5 318.5 0 0 0 -0.54782 -0.33517 -0.76652 0.068757
-0.13902 0.042965 1.2496 5.5625e-39 356.67 318.33 0 0 0 0.4413 -0.32256 -0.83738 0.053208
-0.13712 0.043224 1.25 5.2551e-39 320.5 318.5 0 0 0 0.4749 -0.28432 -0.83285 0.05117
-0.13566 0.043224 1.25 5.209e-39 321.5 318.5 0 0 0 0.48197 -0.26 -0.83672 0.049358
-0.17058 0.045371 1.2487 7.0069e-39 260 319 0 0 0 -0.55613 -0.25241 -0.79184 0.065962
-0.13844 0.045371 1.2487 6.8225e-39 282 319 0 0 0 0.4765 -0.18743 -0.85896 0.046865
-0.13712 0.045417 1.25 6.6381e-39 283 319 0 0 0 0.50001 -0.18394 -0.84626 0.046763
-0.13566 0.045417 1.25 6.7303e-39 284 319 0 0 0 0.5041 -0.1692 -0.84691 0.045983
-0.17058 0.046832 1.2487 6.8225e-39 419 319 0 0 0 -0.54832 -0.17177 -0.81844 0.060493
-0.13844 0.046832 1.2487 6.9147e-39 443 319 0 0 0 0.48841 -0.12486 -0.86364 0.043011
-0.13712 0.04688 1.25 6.5459e-39 444 319 0 0 0 0.51133 -0.11071 -0.85222 0.043883
-0.13566 0.04688 1.25 6.4537e-39 445 319 0 0 0 0.52232 -0.084236 -0.84858 0.039928
-0.17076 0.049073 1.25 6.0849e-39 226.5 320 0 0 0 -0.58556 -0.099005 -0.80456 0.055453
-0.14137 0.049754 1.2487 6.5459e-39 284 320 0 0 0 0.47286 -0.032716 -0.88053 0.041509
-0.13902 0.0493 1.2496 5.962e-39 260.67 320 0 0 0 0.50344 -0.030326 -0.8635 0.037473
-0.13566 0.048342 1.25 5.3473e-39 213 320 0 0 0 0.53083 -0.048471 -0.84609 0.037952
-0.17076 0.051267 1.25 6.1771e-39 437 320 0 0 0 -0.57658 -0.0060882 -0.81702 0.042998
-0.14137 0.051215 1.2487 6.9147e-39 457 320 0 0 0 0.47367 0.032914 -0.88009 0.033728
-0.1399 0.051215 1.2487 6.5459e-39 458 320 0 0 0 0.4937 0.04498 -0.86847 0.03029
-0.17076 0.052729 1.25 5.4395e-39 196 321 0 0 0 -0.58414 0.041051 -0.81061 0.038086
-0.14283 0.052676 1.2487 6.7303e-39 215 321 0 0 0 0.44628 0.079591 -0.89135 0.029677
-0.14071 0.052703 1.2494 7.2374e-39 216.5 321 0 0 0 0.49278 0.089475 -0.86554 0.026947
-0.14429 0.055598 1.2487 6.2693e-39 451 321 0 0 0 0.4212 0.15768 -0.89316 0.019517
-0.14283 0.054867 1.2487 6.7303e-39 368 321 0 0 0 0.44723 0.14707 -0.88224 0.020195
-0.14098 0.054661 1.2496 6.5152e-39 367.33 321 0 0 0 0.48688 0.14256 -0.86176 0.020401
-0.14721 0.057059 1.2487 5.4395e-39 196 322 0 0 0 0.35233 0.17223 -0.91989 0.019651
-0.14429 0.057059 1.2487 5.2552e-39 198 322 0 0 0 0.42352 0.18412 -0.88698 0.01652
-0.14297 0.057116 1.25 4.8864e-39 199 322 0 0 0 0.45746 0.18807 -0.86912 0.015005
-0.14151 0.057116 1.25 4.702e-39 200 322 0 0 0 0.48345 0.18749 -0.85506 0.014492
-0.16912 0.059251 1.2487 7.1913e-39 331 322 0 0 0 -0.46278 0.21601 -0.85975 0.028819
-0.16766 0.059981 1.2487 6.5459e-39 414 322 0 0 0 -0.40366 0.22685 -0.88634 0.02792
-0.14721 0.059251 1.2487 6.4998e-39 347 322 0 0 0 0.35113 0.21826 -0.91054 0.015625
-0.14429 0.059251 1.2487 6.4998e-39 349 322 0 0 0 0.42186 0.21856 -0.87992 0.013347
-0.14297 0.058579 1.25 6.5459e-39 267 322 0 0 0 0.45929 0.21443 -0.86202 0.012123
-0.14151 0.058579 1.25 6.7303e-39 268 322 0 0 0 0.48544 0.2162 -0.84711 0.01062
-0.16929 0.061504 1.25 7.8366e-39 147 323 0 0 0 -0.48698 0.2598 -0.83388 0.028942
-0.16783 0.061504 1.25 7.1913e-39 148 323 0 0 0 -0.42095 0.26088 -0.86876 0.028565
-0.14721 0.061442 1.2487 5.8083e-39 162 323 0 0 0 0.35148 0.25692 -0.90025 0.01491
-0.14429 0.061442 1.2487 5.5317e-39 164 323 0 0 0 0.4285 0.25574 -0.86659 0.011915
-0.14297 0.060773 1.25 6.1772e-39 299 322.5 0 0 0 0.46375 0.24979 -0.85002 0.0097764
-0.14151 0.060041 1.25 7.1913e-39 434 322 0 0 0 0.48204 0.24509 -0.84117 0.0086917
-0.16702 0.062934 1.2494 8.3437e-39 224.5 323 0 0 0 -0.38495 0.28071 -0.87921 0.030387
-0.14721 0.062902 1.2487 8.2054e-39 238 323 0 0 0 0.34928 0.27205 -0.89666 0.014822
-0.14502 0.062902 1.2487 8.2054e-39 239.5 323 0 0 0 0.40396 0.26927 -0.87425 0.012846
-0.14297 0.062966 1.25 7.9288e-39 241 323 0 0 0 0.46481 0.27292 -0.8423 0.0091842
-0.1662 0.065094 1.2487 5.9927e-39 445 323 0 0 0 -0.36121 0.30157 -0.88238 0.030404
-0.16474 0.065824 1.2487 6.0849e-39 495 323 0 0 0 -0.31764 0.31003 -0.89609 0.031203
-0.15305 0.065824 1.2487 5.5317e-39 503 323 0 0 0 0.17991 0.30316 -0.9358 0.027592
-0.15013 0.065094 1.2487 5.9005e-39 456 323 0 0 0 0.26591 0.29821 -0.91671 0.021882
-0.14867 0.065824 1.2487 6.1771e-39 506 323 0 0 0 0.31105 0.30122 -0.9014 0.01849
-0.14728 0.065127 1.2494 7.1452e-39 277.5 323.5 0 0 0 0.35292 0.29884 -0.88665 0.015454
-0.14536 0.064894 1.2496 7.2527e-39 322.67 323.33 0 0 0 0.40849 0.28933 -0.8657 0.013188
-0.1662 0.067285 1.2487 5.9005e-39 209 324 0 0 0 -0.35505 0.32279 -0.87735 0.031263
-0.16474 0.067285 1.2487 6.2693e-39 210 324 0 0 0 -0.31521 0.32501 -0.89163 0.031229
-0.16328 0.067285 1.2487 7.0991e-39 211 324 0 0 0 -0.26174 0.3275 -0.90787 0.035146
-0.15305 0.067285 1.2487 8.3898e-39 218 324 0 0 0 0.19586 0.323 -0.92591 0.027185
-0.15093 0.067319 1.2494 8.7586e-39 219.5 324 0 0 0 0.24756 0.31956 -0.91466 0.024164
-0.14882 0.067353 1.25 8.3898e-39 221 324 0 0 0 0.31305 0.321 -0.89384 0.020056
-0.16637 0.068816 1.25 5.6239e-39 370 324 0 0 0 -0.37805 0.34728 -0.85818 0.0328
-0.16474 0.068746 1.2487 5.5317e-39 371 324 0 0 0 -0.32099 0.3394 -0.88418 0.034076
-0.16328 0.068746 1.2487 5.7161e-39 372 324 0 0 0 -0.26367 0.33642 -0.90405 0.036455
-0.16182 0.068746 1.2487 5.7161e-39 373 324 0 0 0 -0.19825 0.34089 -0.91896 0.037557
-0.15321 0.068816 1.25 5.5317e-39 391 324 0 0 0 0.19161 0.34387 -0.91926 0.03003
-0.15093 0.068781 1.2494 5.5778e-39 392.5 324 0 0 0 0.24662 0.33444 -0.90958 0.025405
-0.14882 0.068816 1.25 5.8083e-39 394 324 0 0 0 0.3174 0.33468 -0.88727 0.020113
-0.16491 0.070278 1.25 7.2835e-39 454 324 0 0 0 -0.34649 0.35111 -0.86987 0.03376
-0.16344 0.070278 1.25 7.3757e-39 455 324 0 0 0 -0.27921 0.35947 -0.89041 0.039897
-0.16117 0.070974 1.2494 6.5689e-39 324.5 324.5 0 0 0 -0.1715 0.3573 -0.91811 0.042248
-0.1589 0.071668 1.2487 5.3473e-39 194 325 0 0 0 -0.079971 0.35201 -0.93258 0.041668
-0.15744 0.070937 1.2487 5.8544e-39 327 324.5 0 0 0 -0.013319 0.34892 -0.93706 0.042661
-0.15524 0.070937 1.2487 6.108e-39 328.5 324.5 0 0 0 0.073449 0.34914 -0.93419 0.041369
-0.15321 0.07101 1.25 6.131e-39 330 324.5 0 0 0 0.19644 0.35154 -0.91533 0.031592
-0.15097 0.070992 1.2497 6.0388e-39 331.5 324.5 0 0 0 0.25868 0.35116 -0.89987 0.025683
-0.14882 0.07101 1.25 6.0388e-39 333 324.5 0 0 0 0.31728 0.34496 -0.88337 0.020775
-0.16052 0.073203 1.25 6.3615e-39 265 325 0 0 0 -0.15423 0.36867 -0.91668 0.047529
-0.1589 0.073129 1.2487 6.4537e-39 266 325 0 0 0 -0.090733 0.36193 -0.92778 0.045992
-0.15687 0.073203 1.25 6.5459e-39 267.5 325 0 0 0 0.018458 0.36006 -0.93275 0.047139
-0.15451 0.073129 1.2487 6.5459e-39 269 325 0 0 0 0.13422 0.36324 -0.92198 0.037122
-0.15321 0.073203 1.25 6.2693e-39 270 325 0 0 0 0.19266 0.36312 -0.9116 0.033993
-0.15175 0.073203 1.25 6.1771e-39 271 325 0 0 0 0.24284 0.36221 -0.89991 0.028639
-0.1589 0.07459 1.2487 6.9147e-39 441 325 0 0 0 -0.098193 0.3661 -0.92538 0.047635
-0.15687 0.074665 1.25 6.8686e-39 444 325 0 0 0 0.02448 0.37093 -0.92834 0.047839
-0.15451 0.07459 1.2487 6.9147e-39 447 325 0 0 0 0.13913 0.36676 -0.91985 0.036145
-0.15321 0.074665 1.25 6.4537e-39 448 325 0 0 0 0.18799 0.3726 -0.90875 0.035279
-0.15175 0.074665 1.25 6.2693e-39 449 325 0 0 0 0.25095 0.36808 -0.89529 0.028249
-0.15906 0.076859 1.25 7.0069e-39 209.5 326 0 0 0 -0.10158 0.37616 -0.92097 0.053056
-0.15687 0.076128 1.25 5.9005e-39 177 326 0 0 0 0.030761 0.38063 -0.92422 0.048874
-0.15467 0.076128 1.25 5.7161e-39 184 326 0 0 0 0.13545 0.37721 -0.91617 0.039833
-0.15321 0.076128 1.25 6.1771e-39 185 326 0 0 0 0.19518 0.37812 -0.90495 0.036561
-0.16727 0.035216 1.2512 4.9325e-39 175.5 317 0 0 0 -0.34098 -0.72276 -0.60113 0.058859
-0.16507 0.035216 1.2512 5.2552e-39 179 317 0 0 0 -0.25378 -0.74563 -0.61615 0.058338
-0.16947 0.03668 1.2512 7.6522e-39 255 317 0 0 0 -0.44017 -0.65261 -0.61673 0.061631
-0.15775 0.03668 1.2512 7.2835e-39 263 317 0 0 0 -0.029088 -0.7298 -0.68304 0.050593
-0.15336 0.03668 1.2512 6.2693e-39 266 317 0 0 0 0.112 -0.71708 -0.68793 0.03833
-0.17093 0.038144 1.2512 5.3473e-39 365 317 0 0 0 -0.5093 -0.59053 -0.62601 0.062813
-0.15117 0.038144 1.2512 5.6239e-39 396.5 317 0 0 0 0.165 -0.67106 -0.72281 0.043312
-0.14458 0.039608 1.2512 3.2268e-39 203 318 0 0 0 0.32032 -0.55167 -0.77011 0.053748
-0.14092 0.039608 1.2512 5.209e-39 205.5 318 0 0 0 0.3695 -0.50773 -0.77825 0.053409
-0.13726 0.041072 1.2512 7.0069e-39 283 318 0 0 0 0.42584 -0.4104 -0.80637 0.054126
-0.13433 0.043999 1.2512 3.78e-39 210 319 0 0 0 0.4911 -0.22667 -0.8411 0.051373
-0.13433 0.045463 1.2512 7.0069e-39 285 319 0 0 0 0.51741 -0.14203 -0.84387 0.044386
-0.13726 0.049123 1.2512 5.9005e-39 249.5 320 0 0 0 0.52328 -0.034651 -0.85145 0.038602
-0.1358 0.049855 1.2512 5.7161e-39 364 320 0 0 0 0.53012 0.01077 -0.84785 0.033304
-0.13872 0.051319 1.2512 6.2693e-39 459 320 0 0 0 0.52529 0.035042 -0.8502 0.03265
-0.17239 0.054247 1.2512 6.7303e-39 264 321 0 0 0 -0.65594 0.10449 -0.74755 0.031131
-0.17093 0.054978 1.2512 6.6842e-39 349 321 0 0 0 -0.60029 0.12682 -0.78967 0.033364
-0.14019 0.05571 1.2512 7.0069e-39 454 321 0 0 0 0.508 0.16879 -0.84466 0.015817
-0.17093 0.057174 1.2512 5.4395e-39 170 322 0 0 0 -0.58263 0.17311 -0.79409 0.030231
-0.14019 0.057174 1.2512 4.702e-39 201 322 0 0 0 0.50827 0.19352 -0.83917 0.012259
-0.14019 0.058638 1.2512 6.5459e-39 269 322 0 0 0 0.50655 0.22192 -0.83316 0.0088575
-0.14165 0.061566 1.2512 5.163e-39 166 323 0 0 0 0.48286 0.26334 -0.83517 0.0081425
-0.16947 0.06303 1.2512 8.6664e-39 223 323 0 0 0 -0.51551 0.27748 -0.81071 0.028794
-0.14165 0.06303 1.2512 7.9288e-39 242 323 0 0 0 0.48743 0.2722 -0.82965 0.0077783
-0.168 0.065226 1.2512 5.9005e-39 431.5 323 0 0 0 -0.44564 0.31132 -0.83934 0.02902
-0.14458 0.065958 1.2512 6.8225e-39 148 324 0 0 0 0.43794 0.30182 -0.84683 0.011093
-0.14312 0.064494 1.2512 7.0991e-39 412 323 0 0 0 0.46896 0.2851 -0.83594 0.008578
-0.14678 0.067422 1.2512 8.2976e-39 222.5 324 0 0 0 0.37443 0.31934 -0.87053 0.015724
-0.14678 0.068885 1.2512 5.9466e-39 395.5 324 0 0 0 0.37481 0.32691 -0.86755 0.01565
-0.16654 0.070349 1.2512 7.3757e-39 453 324 0 0 0 -0.39214 0.36091 -0.84615 0.033594
-0.16507 0.071813 1.2512 5.9005e-39 190 325 0 0 0 -0.36656 0.3634 -0.85649 0.036259
-0.16361 0.071813 1.2512 5.9005e-39 191 325 0 0 0 -0.27735 0.36512 -0.88869 0.043254
-0.14678 0.070349 1.2512 6.131e-39 466.5 324 0 0 0 0.37123 0.33922 -0.86436 0.015871
-0.16215 0.073277 1.2512 6.6381e-39 264 325 0 0 0 -0.23031 0.37231 -0.89908 0.049589
-0.15044 0.073277 1.2512 5.9927e-39 272 325 0 0 0 0.27381 0.36195 -0.89108 0.02478
-0.14897 0.073277 1.2512 6.1771e-39 273 325 0 0 0 0.31779 0.35876 -0.87767 0.019824
-0.16215 0.074741 1.2512 6.5459e-39 439 325 0 0 0 -0.23992 0.36963 -0.89767 0.050281
-0.16068 0.074741 1.2512 6.7303e-39 440 325 0 0 0 -0.1582 0.37704 -0.91259 0.051611
-0.15044 0.074741 1.2512 6.3615e-39 450 325 0 0 0 0.28049 0.36596 -0.88736 0.02499
-0.14897 0.074741 1.2512 6.6381e-39 451 325 0 0 0 0.30936 0.36665 -0.87742 0.021658
-0.16068 0.076205 1.2512 5.9005e-39 169 326 0 0 0 -0.15322 0.37343 -0.91492 0.054874
-0.15702 0.077669 1.2512 7.9288e-39 250.5 326 0 0 0 0.030484 0.38149 -0.92387 0.052298
-0.15483 0.077669 1.2512 7.6522e-39 252 326 0 0 0 0.12865 0.3871 -0.91302 0.044905
-0.15336 0.077669 1.2512 7.2835e-39 253 326 0 0 0 0.19492 0.37846 -0.90486 0.037624
-0.15117 0.076205 1.2512 6.7303e-39 186.5 326 0 0 0 0.26635 0.37121 -0.88953 0.028002
-0.14897 0.076205 1.2512 6.5459e-39 188 326 0 0 0 0.31093 0.37075 -0.87514 0.021594
-0.15922 0.079133 1.2512 6.1771e-39 429 326 0 0 0 -0.089856 0.37759 -0.9216 0.055576
-0.15775 0.079133 1.2512 6.2693e-39 430 326 0 0 0 -0.0094251 0.38034 -0.9248 0.054581
-0.15336 0.079133 1.2512 7.0069e-39 433 326 0 0 0 0.20467 0.37533 -0.90401 0.037231
-0.16321 0.035288 1.2538 4.7481e-39 183.5 317 0 0 0 -0.21779 -0.79393 -0.56766 0.049556
-0.16101 0.035288 1.2538 4.702e-39 185 317 0 0 0 -0.12764 -0.79936 -0.58714 0.04512
-0.15645 0.036717 1.2525 6.8225e-39 264 317 0 0 0 0.011416 -0.76111 -0.64852 0.041064
-0.15498 0.036717 1.2525 6.5459e-39 265 317 0 0 0 0.048646 -0.7501 -0.65953 0.040212
-0.14927 0.038221 1.2538 5.9005e-39 398 317 0 0 0 0.21613 -0.69977 -0.68089 0.041663
-0.147 0.038202 1.2531 6.2232e-39 405 317 0 0 0 0.24822 -0.66899 -0.70059 0.044813
-0.14487 0.038221 1.2538 6.6381e-39 412 317 0 0 0 0.27617 -0.66407 -0.6948 0.045895
-0.14341 0.038221 1.2538 6.6381e-39 413 317 0 0 0 0.29879 -0.63961 -0.70825 0.04836
-0.1412 0.038221 1.2538 5.9005e-39 414.5 317 0 0 0 0.32892 -0.60907 -0.72169 0.050452
-0.13886 0.039648 1.2525 4.702e-39 207 318 0 0 0 0.3945 -0.49856 -0.77189 0.054227
-0.13754 0.039688 1.2538 4.6098e-39 208 318 0 0 0 0.39454 -0.49042 -0.77706 0.056667
-0.13593 0.039648 1.2525 4.702e-39 209 318 0 0 0 0.40624 -0.44623 -0.7974 0.054618
-0.13447 0.041113 1.2525 6.9147e-39 285 318 0 0 0 0.43793 -0.37485 -0.81713 0.054362
-0.13314 0.041155 1.2538 7.1913e-39 286 318 0 0 0 0.44625 -0.34338 -0.82641 0.057714
-0.13447 0.042579 1.2525 7.0069e-39 435 318 0 0 0 0.46806 -0.29151 -0.83423 0.055503
-0.13314 0.042622 1.2538 6.4537e-39 436 318 0 0 0 0.4674 -0.27343 -0.8407 0.058763
-0.17274 0.045556 1.2538 7.0069e-39 259 319 0 0 0 -0.71144 -0.24938 -0.65701 0.058271
-0.133 0.044776 1.2525 5.9466e-39 248.5 319 0 0 0 0.49619 -0.16404 -0.85257 0.049548
-0.17257 0.046975 1.2525 6.8225e-39 418 319 0 0 0 -0.69027 -0.19578 -0.69657 0.057733
-0.13447 0.046975 1.2525 6.6381e-39 446 319 0 0 0 0.52087 -0.095228 -0.84831 0.044094
-0.13314 0.047022 1.2538 6.8225e-39 447 319 0 0 0 0.52066 -0.087955 -0.84922 0.045039
-0.17257 0.049172 1.2525 6.2232e-39 225.5 320 0 0 0 -0.68941 -0.097291 -0.7178 0.048997
-0.13454 0.049198 1.2531 5.6239e-39 289.5 320 0 0 0 0.53155 -0.016249 -0.84687 0.038684
-0.13314 0.048489 1.2538 6.1771e-39 215 320 0 0 0 0.52191 -0.045951 -0.85176 0.042414
-0.17421 0.051423 1.2538 6.8225e-39 435 320 0 0 0 -0.77111 0.0079675 -0.63665 0.03087
-0.17257 0.051371 1.2525 6.3615e-39 436 320 0 0 0 -0.70288 -0.0017647 -0.7113 0.038183
-0.1374 0.051371 1.2525 6.2693e-39 460 320 0 0 0 0.53516 0.04266 -0.84367 0.031327
-0.13527 0.051397 1.2531 5.9466e-39 461.5 320 0 0 0 0.53693 0.059617 -0.84152 0.030258
-0.17257 0.052836 1.2525 5.163e-39 195 321 0 0 0 -0.68578 0.054284 -0.72578 0.033885
-0.13886 0.052836 1.2525 7.2835e-39 218 321 0 0 0 0.52872 0.091067 -0.8439 0.025571
-0.1368 0.05289 1.2538 7.4678e-39 219.5 321 0 0 0 0.53756 0.0959 -0.83775 0.024577
-0.13893 0.055063 1.2531 6.1311e-39 410 321 0 0 0 0.52809 0.14647 -0.83646 0.017559
-0.13754 0.054357 1.2538 5.4395e-39 366 321 0 0 0 0.535 0.13733 -0.83362 0.018462
-0.13901 0.05729 1.2538 4.8864e-39 202 322 0 0 0 0.5289 0.19256 -0.82655 0.010331
-0.1711 0.058698 1.2525 7.56e-39 248 322 0 0 0 -0.60869 0.20288 -0.76703 0.030373
-0.13901 0.058757 1.2538 6.2693e-39 270 322 0 0 0 0.52737 0.22833 -0.81838 0.0065878
-0.17128 0.060224 1.2538 7.0991e-39 412 322 0 0 0 -0.63899 0.2306 -0.73384 0.027461
-0.14033 0.060895 1.2525 6.1311e-39 301 322.5 0 0 0 0.50582 0.25445 -0.82426 0.0067775
-0.13901 0.060957 1.2538 6.2693e-39 302 322.5 0 0 0 0.51796 0.25771 -0.81566 0.0057063
-0.14033 0.063094 1.2525 8.1132e-39 243 323 0 0 0 0.50372 0.27238 -0.8198 0.0064156
-0.13901 0.063158 1.2538 7.7444e-39 244 323 0 0 0 0.51501 0.27144 -0.81307 0.0056075
-0.16964 0.064559 1.2525 5.9005e-39 394 323 0 0 0 -0.52305 0.29986 -0.79781 0.027351
-0.1418 0.064559 1.2525 6.8225e-39 413 323 0 0 0 0.48869 0.2844 -0.8248 0.0072188
-0.16921 0.067024 1.2529 5.9312e-39 294 323.67 0 0 0 -0.5064 0.33278 -0.7955 0.025768
-0.14473 0.06749 1.2525 8.2054e-39 224 324 0 0 0 0.43712 0.31366 -0.84294 0.010685
-0.14333 0.066791 1.2531 7.0991e-39 187 324 0 0 0 0.46763 0.30252 -0.83055 0.0084515
-0.14194 0.066092 1.2538 5.6239e-39 150 324 0 0 0 0.49226 0.29235 -0.81988 0.0067598
-0.16834 0.069025 1.2538 6.1771e-39 368 324 0 0 0 -0.47501 0.35184 -0.80658 0.027859
-0.14473 0.068955 1.2525 6.5459e-39 397 324 0 0 0 0.43445 0.32116 -0.8415 0.010486
-0.16671 0.071886 1.2525 6.0849e-39 189 325 0 0 0 -0.42009 0.36466 -0.83099 0.033503
-0.14693 0.071886 1.2525 5.4856e-39 202.5 325 0 0 0 0.36758 0.34477 -0.86372 0.016252
-0.14487 0.070492 1.2538 5.7161e-39 468 324 0 0 0 0.42891 0.329 -0.8413 0.010823
-0.16688 0.073426 1.2538 7.2835e-39 255 325 0 0 0 -0.43255 0.37567 -0.81962 0.03615
-0.16541 0.073426 1.2538 7.56e-39 256 325 0 0 0 -0.37759 0.3782 -0.84522 0.04143
-0.16378 0.073351 1.2525 7.6522e-39 257 325 0 0 0 -0.29638 0.37639 -0.87777 0.046735
-0.14693 0.073351 1.2525 5.9927e-39 322 325 0 0 0 0.35868 0.35707 -0.86247 0.01678
-0.16394 0.074893 1.2538 6.4537e-39 438 325 0 0 0 -0.31241 0.38337 -0.86915 0.051373
-0.14693 0.074817 1.2525 7.1452e-39 452.5 325 0 0 0 0.3669 0.36018 -0.8577 0.015538
-0.1624 0.077055 1.2531 6.4998e-39 207 326 0 0 0 -0.26213 0.37639 -0.8886 0.056484
-0.16085 0.077748 1.2525 7.8366e-39 248 326 0 0 0 -0.17816 0.38533 -0.90542 0.058252
-0.15205 0.077748 1.2525 7.0991e-39 254 326 0 0 0 0.24375 0.37412 -0.89477 0.032972
-0.15059 0.077748 1.2525 7.1913e-39 255 326 0 0 0 0.28478 0.37352 -0.88283 0.025652
-0.14927 0.077827 1.2538 7.3757e-39 256 326 0 0 0 0.30877 0.36856 -0.87683 0.022893
-0.14766 0.076282 1.2525 5.9927e-39 189 326 0 0 0 0.34223 0.36146 -0.86731 0.01802
-0.16101 0.079293 1.2538 6.1771e-39 428 326 0 0 0 -0.17646 0.37669 -0.90938 0.060093
-0.15645 0.079213 1.2525 6.5459e-39 431 326 0 0 0 0.074092 0.3858 -0.9196 0.053253
-0.15498 0.079213 1.2525 6.7303e-39 432 326 0 0 0 0.12979 0.37865 -0.91639 0.046352
-0.15221 0.079293 1.2538 7.2835e-39 434 326 0 0 0 0.23927 0.36759 -0.89868 0.034592
-0.15074 0.079293 1.2538 7.1913e-39 435 326 0 0 0 0.29182 0.36453 -0.88428 0.023788
-0.15938 0.080678 1.2525 5.3473e-39 159 327 0 0 0 -0.08963 0.36704 -0.92588 0.056612
-0.15718 0.080678 1.2525 5.5778e-39 160.5 327 0 0 0 0.044919 0.37925 -0.9242 0.053299
-0.15498 0.080678 1.2525 5.0708e-39 162 327 0 0 0 0.15581 0.37144 -0.91529 0.042457
-0.15352 0.080678 1.2525 5.163e-39 164 327 0 0 0 0.19299 0.36919 -0.9091 0.041116
-0.15881 0.082961 1.2538 7.1221e-39 328.5 327 0 0 0 0.016249 0.37064 -0.92864 0.053474
-0.15661 0.082961 1.2538 6.8686e-39 330 327 0 0 0 0.074127 0.36344 -0.92866 0.054103
-0.15514 0.082961 1.2538 6.8225e-39 331 327 0 0 0 0.15459 0.36694 -0.91731 0.040938
-0.15367 0.082961 1.2538 6.9147e-39 332 327 0 0 0 0.19045 0.35869 -0.91382 0.040581
-0.15881 0.085161 1.2538 6.0849e-39 145.5 328 0 0 0 -0.0078064 0.36776 -0.92989 0.052969
-0.15661 0.085161 1.2538 5.9005e-39 147 328 0 0 0 0.10824 0.36807 -0.92348 0.045051
-0.15514 0.085161 1.2538 5.8083e-39 148 328 0 0 0 0.1562 0.35914 -0.92012 0.04078
-0.15367 0.085161 1.2538 5.9927e-39 149 328 0 0 0 0.2037 0.35327 -0.91307 0.035827
-0.15808 0.086628 1.2538 7.4678e-39 237 328 0 0 0 0.048632 0.36321 -0.93044 0.04801
-0.15808 0.088095 1.2538 6.8225e-39 419 328 0 0 0 0.049248 0.36093 -0.93129 0.042463
-0.15661 0.088828 1.2538 6.3154e-39 281 328.5 0 0 0 0.10814 0.36224 -0.92579 0.0385
-0.16998 0.035323 1.2551 4.9786e-39 174 317 0 0 0 -0.45052 -0.73115 -0.5123 0.054102
-0.1597 0.035323 1.2551 5.163e-39 186 317 0 0 0 -0.091549 -0.82073 -0.56394 0.037549
-0.15383 0.035323 1.2551 4.5176e-39 190 317 0 0 0 0.086377 -0.82055 -0.56502 0.02233
-0.17145 0.036792 1.2551 8.021e-39 254 317 0 0 0 -0.51224 -0.6761 -0.52962 0.053098
-0.15236 0.036792 1.2551 6.2693e-39 267 317 0 0 0 0.12626 -0.78362 -0.60828 0.027626
-0.15089 0.036792 1.2551 6.3615e-39 268 317 0 0 0 0.15968 -0.77491 -0.61157 0.028158
-0.13474 0.039728 1.2551 5.7161e-39 210 318 0 0 0 0.39117 -0.46227 -0.79579 0.060581
-0.13107 0.041197 1.2551 6.9608e-39 287.5 318 0 0 0 0.43293 -0.3398 -0.83493 0.061781
-0.13107 0.042665 1.2551 6.3615e-39 437.5 318 0 0 0 0.46058 -0.25094 -0.85141 0.059345
-0.17292 0.044134 1.2551 5.0708e-39 184 319 0 0 0 -0.70752 -0.36322 -0.60621 0.059771
-0.13132 0.044623 1.2551 6.2386e-39 237.33 319 0 0 0 0.48555 -0.17957 -0.85557 0.054932
-0.13181 0.04707 1.2551 6.9147e-39 448 319 0 0 0 0.50536 -0.080893 -0.85911 0.046701
-0.17439 0.048539 1.2551 5.4395e-39 187 320 0 0 0 -0.79974 -0.1142 -0.58938 0.040516
-0.13181 0.048539 1.2551 6.0849e-39 216 320 0 0 0 0.52079 -0.024072 -0.85334 0.040476
-0.17439 0.050007 1.2551 7.0069e-39 262 320 0 0 0 -0.80855 -0.057967 -0.58557 0.03472
-0.13327 0.050007 1.2551 5.3473e-39 366 320 0 0 0 0.5294 0.015613 -0.84823 0.036018
-0.13474 0.052944 1.2551 7.6522e-39 221 321 0 0 0 0.5388 0.10759 -0.83554 0.023083
-0.1367 0.055391 1.2551 6.5152e-39 426.67 321 0 0 0 0.53553 0.15566 -0.83005 0.015145
-0.13474 0.054412 1.2551 5.4395e-39 368 321 0 0 0 0.53638 0.14777 -0.83094 0.016586
-0.13694 0.057349 1.2551 5.4856e-39 203.5 322 0 0 0 0.5334 0.20147 -0.82152 0.0089336
-0.13694 0.058817 1.2551 5.8083e-39 271.5 322 0 0 0 0.53186 0.22774 -0.81563 0.0064918
-0.17145 0.061754 1.2551 7.9288e-39 146 323 0 0 0 -0.6562 0.24622 -0.71329 0.025741
-0.13694 0.061019 1.2551 6.1771e-39 303.5 322.5 0 0 0 0.52717 0.2544 -0.81078 0.0058342
-0.14062 0.06469 1.2551 6.5459e-39 414 323 0 0 0 0.50812 0.2848 -0.81284 0.0061791
-0.14208 0.067627 1.2551 8.1132e-39 226 324 0 0 0 0.48545 0.29809 -0.82188 0.0068337
-0.14281 0.069095 1.2551 6.4998e-39 398.5 324 0 0 0 0.47298 0.30903 -0.8251 0.0070632
-0.14355 0.070564 1.2551 5.8083e-39 494 324 0 0 0 0.45793 0.31912 -0.82974 0.0078831
-0.14502 0.072032 1.2551 6.1771e-39 204 325 0 0 0 0.41951 0.33714 -0.84282 0.011095
-0.16705 0.074969 1.2551 6.6381e-39 436 325 0 0 0 -0.47673 0.38554 -0.78999 0.042121
-0.16558 0.074969 1.2551 6.7303e-39 437 325 0 0 0 -0.39351 0.38164 -0.83636 0.044987
-0.14502 0.074969 1.2551 7.0069e-39 454 325 0 0 0 0.41009 0.34253 -0.84528 0.011029
-0.16411 0.076437 1.2551 5.163e-39 167 326 0 0 0 -0.32415 0.37654 -0.86784 0.054055
-0.14722 0.077171 1.2551 6.592e-39 223.5 326 0 0 0 0.35457 0.35811 -0.86374 0.017567
-0.16264 0.079374 1.2551 6.4537e-39 427 326 0 0 0 -0.26731 0.37486 -0.88771 0.059944
-0.14943 0.079374 1.2551 6.8225e-39 436 326 0 0 0 0.30772 0.35622 -0.88228 0.023128
-0.16264 0.080842 1.2551 5.163e-39 157 327 0 0 0 -0.2401 0.36894 -0.89791 0.058057
-0.16117 0.080842 1.2551 4.9786e-39 158 327 0 0 0 -0.16362 0.37094 -0.91413 0.063736
-0.15236 0.080842 1.2551 5.0708e-39 165 327 0 0 0 0.22592 0.35617 -0.9067 0.037988
-0.16264 0.082311 1.2551 7.9288e-39 235 327 0 0 0 -0.23976 0.36602 -0.89919 0.059428
-0.16117 0.083045 1.2551 7.2835e-39 327 327 0 0 0 -0.17177 0.36572 -0.91474 0.063468
-0.15236 0.085247 1.2551 6.4537e-39 150 328 0 0 0 0.24591 0.3446 -0.90597 0.02861
-0.15677 0.086716 1.2551 7.4678e-39 238 328 0 0 0 0.10345 0.36166 -0.92655 0.043881
-0.1553 0.086716 1.2551 7.56e-39 239 328 0 0 0 0.14 0.35601 -0.92394 0.040124
-0.15383 0.086716 1.2551 7.56e-39 240 328 0 0 0 0.18838 0.34711 -0.91871 0.03583
-0.15824 0.089652 1.2551 6.7303e-39 141 329 0 0 0 0.047905 0.36307 -0.93053 0.041685
-0.1553 0.088918 1.2551 5.9927e-39 282 328.5 0 0 0 0.13602 0.35382 -0.92537 0.037883
-0.15383 0.088184 1.2551 6.6381e-39 422 328 0 0 0 0.18567 0.34835 -0.91879 0.033547
-0.15824 0.091121 1.2551 7.6522e-39 235 329 0 0 0 0.048939 0.36359 -0.93027 0.03962
-0.15677 0.091121 1.2551 7.3757e-39 236 329 0 0 0 0.097164 0.3566 -0.92919 0.036945
-0.15677 0.092589 1.2551 6.5459e-39 417 329 0 0 0 0.089605 0.35809 -0.92938 0.036205
-0.16869 0.033889 1.2563 6.3615e-39 287 316 0 0 0 -0.38096 -0.7938 -0.47407 0.047435
-0.16722 0.033889 1.2563 7.0069e-39 296 316 0 0 0 -0.31889 -0.81718 -0.48013 0.046417
-0.16575 0.033889 1.2563 6.6381e-39 297 316 0 0 0 -0.26786 -0.83229 -0.48533 0.042455
-0.15414 0.033924 1.2576 6.9147e-39 309 316 0 0 0 0.070992 -0.87056 -0.48691 0.011364
-0.1584 0.035359 1.2563 5.5317e-39 187 317 0 0 0 -0.055404 -0.84262 -0.53566 0.030269
-0.15693 0.035359 1.2563 5.163e-39 188 317 0 0 0 -0.014122 -0.84227 -0.53888 0.027261
-0.15546 0.035359 1.2563 4.8864e-39 189 317 0 0 0 0.036061 -0.83724 -0.54565 0.023862
-0.15267 0.035395 1.2576 4.4254e-39 191 317 0 0 0 0.098106 -0.85207 -0.51416 0.014143
-0.1512 0.035395 1.2576 4.4254e-39 192 317 0 0 0 0.12456 -0.84272 -0.52375 0.014769
-0.14885 0.036829 1.2563 6.8225e-39 269.5 317 0 0 0 0.18401 -0.78337 -0.59369 0.026148
-0.14679 0.036867 1.2576 7.0991e-39 271 317 0 0 0 0.19604 -0.78344 -0.58974 0.027063
-0.14517 0.036829 1.2563 6.7303e-39 272 317 0 0 0 0.24342 -0.74111 -0.6257 0.035053
-0.14311 0.036867 1.2576 6.2693e-39 273.5 317 0 0 0 0.25574 -0.73112 -0.6325 0.039976
-0.1409 0.036867 1.2576 5.9927e-39 275 317 0 0 0 0.27733 -0.70461 -0.65315 0.045736
-0.17327 0.039809 1.2576 4.9786e-39 184 318 0 0 0 -0.63128 -0.58186 -0.51276 0.053276
-0.13929 0.038299 1.2563 5.9927e-39 416 317 0 0 0 0.32447 -0.62191 -0.7127 0.053325
-0.13709 0.038299 1.2563 6.7764e-39 417.5 317 0 0 0 0.35063 -0.56824 -0.74442 0.057387
-0.13502 0.038338 1.2576 6.9147e-39 419 317 0 0 0 0.34179 -0.55662 -0.7572 0.063738
-0.13341 0.039769 1.2563 8.1132e-39 211 318 0 0 0 0.38416 -0.45171 -0.80522 0.06477
-0.1312 0.039769 1.2563 1.0279e-38 212.5 318 0 0 0 0.39234 -0.41338 -0.8217 0.065278
-0.12913 0.039809 1.2576 1.1985e-38 214 318 0 0 0 0.38439 -0.371 -0.84534 0.066613
-0.1731 0.041239 1.2563 6.9147e-39 259 318 0 0 0 -0.65972 -0.50172 -0.55951 0.0549
-0.129 0.041239 1.2563 1.2262e-38 304 318 0 0 0 0.42454 -0.29295 -0.8567 0.063411
-0.12766 0.041281 1.2576 1.4567e-38 305 318 0 0 0 0.41091 -0.26321 -0.87286 0.064337
-0.1731 0.042709 1.2563 6.5459e-39 399 318 0 0 0 -0.68182 -0.45287 -0.57449 0.057504
-0.129 0.042709 1.2563 6.4537e-39 439 318 0 0 0 0.45032 -0.21541 -0.86649 0.06104
-0.17465 0.044936 1.2569 6.085e-39 220.5 319 0 0 0 -0.7854 -0.30083 -0.54097 0.046571
-0.13047 0.045648 1.2563 7.0991e-39 288 319 0 0 0 0.48772 -0.13449 -0.86258 0.054217
-0.12907 0.044937 1.2569 1.323e-38 259.5 319 0 0 0 0.47049 -0.15907 -0.86795 0.057099
-0.17456 0.047118 1.2563 6.5459e-39 417 319 0 0 0 -0.80926 -0.18236 -0.55843 0.043523
-0.13047 0.047118 1.2563 6.6381e-39 449 319 0 0 0 0.50257 -0.080725 -0.86076 0.047542
-0.12913 0.047166 1.2576 6.3615e-39 450 319 0 0 0 0.49236 -0.078004 -0.86689 0.048659
-0.13047 0.048588 1.2563 5.9927e-39 217 320 0 0 0 0.51395 -0.019496 -0.8576 0.041167
-0.12913 0.048637 1.2576 6.0849e-39 218 320 0 0 0 0.49476 -0.020973 -0.86877 0.041889
-0.13274 0.051554 1.2569 5.9927e-39 463.5 320 0 0 0 0.52706 0.056754 -0.84793 0.031727
-0.13127 0.050083 1.2569 5.3473e-39 367.5 320 0 0 0 0.52465 0.017032 -0.85115 0.037869
-0.13355 0.053051 1.2576 8.2976e-39 222 321 0 0 0 0.53353 0.10212 -0.83959 0.024488
-0.13488 0.055937 1.2563 6.5459e-39 458 321 0 0 0 0.53473 0.1737 -0.82698 0.013203
-0.13355 0.055258 1.2576 5.624e-39 414 321 0 0 0 0.53258 0.16175 -0.83078 0.015062
-0.13488 0.057407 1.2563 6.1771e-39 205 322 0 0 0 0.53426 0.20223 -0.82077 0.0091592
-0.13488 0.058877 1.2563 5.9005e-39 273 322 0 0 0 0.53101 0.22613 -0.81664 0.0071364
-0.13488 0.061082 1.2563 5.7622e-39 305 322.5 0 0 0 0.526 0.24663 -0.81394 0.0069524
-0.17163 0.063286 1.2563 8.6664e-39 222 323 0 0 0 -0.68052 0.27519 -0.67909 0.01878
-0.13709 0.063286 1.2563 7.2835e-39 245.5 323 0 0 0 0.51884 0.2674 -0.81198 0.0065504
-0.13502 0.063351 1.2576 7.4678e-39 247 323 0 0 0 0.51117 0.25265 -0.82151 0.0078701
-0.1718 0.064822 1.2576 5.6239e-39 393 323 0 0 0 -0.70911 0.29197 -0.64181 0.018127
-0.13929 0.064756 1.2563 6.3615e-39 415 323 0 0 0 0.51274 0.27912 -0.81191 0.0064534
-0.13723 0.064822 1.2576 6.7303e-39 416.5 323 0 0 0 0.50695 0.26983 -0.81865 0.0075113
-0.13502 0.064822 1.2576 7.0991e-39 418 323 0 0 0 0.50065 0.25406 -0.82753 0.0084712
-0.1718 0.066294 1.2576 6.2693e-39 466 323 0 0 0 -0.69523 0.30381 -0.65142 0.017618
-0.14083 0.066996 1.2569 7.0068e-39 189 324 0 0 0 0.49773 0.28937 -0.81763 0.006935
-0.13943 0.067029 1.2576 7.2835e-39 190 324 0 0 0 0.50281 0.28501 -0.81606 0.0071625
-0.13649 0.066294 1.2576 6.3615e-39 154 324 0 0 0 0.49566 0.26615 -0.82673 0.0082121
-0.17016 0.069166 1.2563 6.2693e-39 367 324 0 0 0 -0.60266 0.35301 -0.71567 0.022669
-0.1409 0.069236 1.2576 6.0849e-39 400 324 0 0 0 0.48846 0.29532 -0.82109 0.0072687
-0.13943 0.069236 1.2576 6.1771e-39 401 324 0 0 0 0.49319 0.28589 -0.8216 0.0080193
-0.16869 0.070636 1.2563 7.0069e-39 452 324 0 0 0 -0.53873 0.37203 -0.75588 0.029941
-0.14223 0.070636 1.2563 5.8083e-39 495 324 0 0 0 0.47619 0.31201 -0.82213 0.0066852
-0.1409 0.070708 1.2576 5.6239e-39 496 324 0 0 0 0.48011 0.30136 -0.82382 0.007338
-0.13943 0.070708 1.2576 5.2552e-39 497 324 0 0 0 0.48078 0.2906 -0.82728 0.0082524
-0.13796 0.070708 1.2576 5.163e-39 498 324 0 0 0 0.47763 0.28184 -0.83213 0.0089116
-0.14517 0.073575 1.2563 5.4395e-39 371 325 0 0 0 0.41787 0.34278 -0.84136 0.011073
-0.14303 0.072877 1.2569 5.9005e-39 289 325 0 0 0 0.45008 0.32495 -0.83177 0.0075454
-0.14303 0.075083 1.2569 7.3296e-39 455.5 325 0 0 0 0.43556 0.32474 -0.83954 0.0080166
-0.16739 0.076593 1.2576 5.0708e-39 165 326 0 0 0 -0.52182 0.36716 -0.76999 0.041539
-0.16501 0.07725 1.2563 6.4076e-39 205.5 326 0 0 0 -0.3797 0.37868 -0.84406 0.053705
-0.14664 0.077985 1.2563 7.1913e-39 258 326 0 0 0 0.36253 0.34712 -0.86492 0.016556
-0.14517 0.076515 1.2563 5.8083e-39 191 326 0 0 0 0.39455 0.34339 -0.8523 0.012684
-0.14384 0.076593 1.2576 5.7161e-39 192 326 0 0 0 0.41771 0.32527 -0.84836 0.0092253
-0.16739 0.078064 1.2576 8.021e-39 243 326 0 0 0 -0.52368 0.36136 -0.77148 0.042216
-0.16537 0.079018 1.2572 7.1605e-39 365 326 0 0 0 -0.42015 0.36664 -0.83009 0.052934
-0.14811 0.079455 1.2563 6.7303e-39 437 326 0 0 0 0.32808 0.34733 -0.87848 0.021156
-0.14679 0.079536 1.2576 6.6381e-39 438 326 0 0 0 0.35244 0.33605 -0.87342 0.017254
-0.14532 0.078064 1.2576 6.3615e-39 264 326 0 0 0 0.38444 0.33542 -0.86006 0.013487
-0.16444 0.081007 1.2576 5.4395e-39 156 327 0 0 0 -0.36175 0.36213 -0.85907 0.05851
-0.15105 0.080925 1.2563 4.9786e-39 166 327 0 0 0 0.26784 0.34648 -0.89901 0.03084
-0.14892 0.080966 1.2569 5.3473e-39 167.5 327 0 0 0 0.31404 0.33779 -0.88729 0.022319
-0.16444 0.083214 1.2576 7.4679e-39 325 327 0 0 0 -0.34313 0.35782 -0.86846 0.056568
-0.16281 0.083864 1.2563 6.8225e-39 417 327 0 0 0 -0.25878 0.36535 -0.89418 0.060258
-0.15252 0.083129 1.2563 7.3296e-39 333 327 0 0 0 0.22378 0.34264 -0.91243 0.03653
-0.15112 0.083171 1.2569 7.514e-39 334 327 0 0 0 0.25878 0.33796 -0.90488 0.029328
-0.16281 0.085334 1.2563 6.1771e-39 143 328 0 0 0 -0.26477 0.36428 -0.89286 0.057449
-0.16134 0.085334 1.2563 5.9005e-39 144 328 0 0 0 -0.17147 0.36062 -0.91682 0.061837
-0.15105 0.085334 1.2563 6.4537e-39 151 328 0 0 0 0.26425 0.33499 -0.90441 0.025043
-0.16297 0.086892 1.2576 8.1132e-39 234 328 0 0 0 -0.30326 0.34631 -0.88775 0.055494
-0.1615 0.086892 1.2576 7.6522e-39 235 328 0 0 0 -0.19488 0.35441 -0.91456 0.061476
-0.15987 0.086804 1.2563 7.3757e-39 236 328 0 0 0 -0.079027 0.35431 -0.93178 0.058272
-0.15252 0.086804 1.2563 7.4678e-39 241 328 0 0 0 0.23074 0.34079 -0.91138 0.029106
-0.1512 0.086892 1.2576 7.3757e-39 242 328 0 0 0 0.25364 0.33249 -0.90836 0.02479
-0.1615 0.089099 1.2576 6.8225e-39 460.5 328 0 0 0 -0.20556 0.3559 -0.91164 0.059702
-0.15987 0.089009 1.2563 6.9608e-39 461.5 328 0 0 0 -0.053188 0.35992 -0.93147 0.049372
-0.15311 0.089314 1.2572 6.3308e-39 237.33 328.67 0 0 0 0.20512 0.33892 -0.91818 0.029802
-0.16003 0.091306 1.2576 8.1132e-39 234 329 0 0 0 -0.08443 0.35836 -0.92976 0.050392
-0.15546 0.091213 1.2563 7.56e-39 237 329 0 0 0 0.13666 0.35211 -0.92593 0.034527
-0.15333 0.09126 1.2569 7.7444e-39 238.5 329 0 0 0 0.19221 0.34086 -0.92026 0.028036
-0.1584 0.092683 1.2563 6.2693e-39 416 329 0 0 0 0.022804 0.35013 -0.93642 0.041372
-0.15488 0.092778 1.2576 6.5459e-39 418.5 329 0 0 0 0.13735 0.33389 -0.93255 0.033847
-0.15856 0.094249 1.2576 5.6239e-39 142 330 0 0 0 -0.016437 0.34639 -0.93795 0.044386
-0.15701 0.094937 1.2569 6.7764e-39 194.5 330 0 0 0 0.048912 0.33375 -0.94139 0.036855
-0.15488 0.094249 1.2576 6.1771e-39 144.5 330 0 0 0 0.12931 0.33038 -0.93495 0.032394
-0.15709 0.097192 1.2576 7.0991e-39 431 330 0 0 0 0.031249 0.33133 -0.943 0.038064
-0.15562 0.097192 1.2576 7.0069e-39 432 330 0 0 0 0.082138 0.32219 -0.9431 0.035126
-0.1705 0.033959 1.2589 6.2693e-39 286 316 0 0 0 -0.41526 -0.80466 -0.42435 0.043328
-0.16461 0.033959 1.2589 6.7303e-39 302 316 0 0 0 -0.22583 -0.86916 -0.43997 0.032141
-0.16314 0.033959 1.2589 6.5459e-39 303 316 0 0 0 -0.19408 -0.87517 -0.44317 0.029236
-0.16167 0.033959 1.2589 6.6381e-39 304 316 0 0 0 -0.15745 -0.88297 -0.44225 0.026339
-0.15872 0.033959 1.2589 7.4678e-39 306 316 0 0 0 -0.055198 -0.88913 -0.45431 0.017434
-0.15577 0.033959 1.2589 6.9147e-39 308 316 0 0 0 0.02836 -0.88765 -0.45965 0.011601
-0.17198 0.035431 1.2589 5.0708e-39 173 317 0 0 0 -0.47868 -0.75694 -0.44487 0.045027
-0.14915 0.035431 1.2589 4.3332e-39 193.5 317 0 0 0 0.14307 -0.84282 -0.51883 0.013602
-0.14694 0.035431 1.2589 4.3332e-39 195 317 0 0 0 0.16852 -0.81699 -0.55147 0.019153
-0.14546 0.035431 1.2589 4.702e-39 196 317 0 0 0 0.1805 -0.80384 -0.5668 0.022914
-0.14399 0.035431 1.2589 4.7942e-39 197 317 0 0 0 0.20438 -0.78493 -0.58491 0.026641
-0.14105 0.035431 1.2589 4.1488e-39 199 317 0 0 0 0.23521 -0.74956 -0.61874 0.036953
-0.13883 0.036904 1.2589 5.8083e-39 276.5 317 0 0 0 0.27914 -0.68094 -0.67706 0.051803
-0.13663 0.036904 1.2589 5.9927e-39 278 317 0 0 0 0.28617 -0.65463 -0.69969 0.055522
-0.17345 0.038377 1.2589 5.7161e-39 364 317 0 0 0 -0.57428 -0.66851 -0.47255 0.047757
-0.13295 0.038377 1.2589 6.1771e-39 420.5 317 0 0 0 0.33259 -0.53413 -0.77723 0.068216
-0.13074 0.038377 1.2589 5.6239e-39 422 317 0 0 0 0.33815 -0.48862 -0.8043 0.0686
-0.12779 0.039113 1.2589 8.9889e-39 322 317.5 0 0 0 0.3442 -0.40674 -0.84622 0.066749
-0.12484 0.03985 1.2589 6.5459e-39 217 318 0 0 0 0.35152 -0.30346 -0.88563 0.061549
-0.12632 0.041323 1.2589 1.6226e-38 306 318 0 0 0 0.38946 -0.25355 -0.88545 0.064584
-0.12484 0.041323 1.2589 1.5858e-38 307 318 0 0 0 0.37252 -0.23157 -0.89867 0.058364
-0.12337 0.041323 1.2589 1.5304e-38 308 318 0 0 0 0.37121 -0.20193 -0.90633 0.053813
-0.17492 0.042796 1.2589 6.5459e-39 398 318 0 0 0 -0.75075 -0.43864 -0.49392 0.050955
-0.12779 0.042796 1.2589 6.5459e-39 440 318 0 0 0 0.41656 -0.21902 -0.88233 0.062547
-0.12779 0.045005 1.2589 1.3322e-38 263 319 0 0 0 0.45521 -0.14005 -0.8793 0.055873
-0.12779 0.047214 1.2589 6.0849e-39 451 319 0 0 0 0.47243 -0.058542 -0.87942 0.047281
-0.12779 0.048687 1.2589 6.3615e-39 219 320 0 0 0 0.48177 -0.0089044 -0.87625 0.040986
-0.13074 0.051633 1.2589 5.9927e-39 465 320 0 0 0 0.50938 0.076871 -0.8571 0.028647
-0.12926 0.050896 1.2589 5.5779e-39 417.5 320 0 0 0 0.50102 0.048422 -0.86408 0.032834
-0.13221 0.053106 1.2589 8.3898e-39 223 321 0 0 0 0.52498 0.10181 -0.845 0.024848
-0.13074 0.053106 1.2589 8.021e-39 224 321 0 0 0 0.5107 0.1126 -0.85236 0.023235
-0.13221 0.054578 1.2589 5.163e-39 370 321 0 0 0 0.52558 0.14564 -0.83819 0.018355
-0.1327 0.057033 1.2589 5.5932e-39 291 321.67 0 0 0 0.52002 0.1995 -0.83053 0.010111
-0.13295 0.058997 1.2589 6.2693e-39 274.5 322 0 0 0 0.5122 0.22168 -0.82976 0.008398
-0.13368 0.06047 1.2589 6.0849e-39 440 322 0 0 0 0.51424 0.23321 -0.82533 0.0077931
-0.17198 0.067834 1.2589 6.2693e-39 206 324 0 0 0 -0.71137 0.32929 -0.62091 0.014197
-0.1381 0.067097 1.2589 7.5601e-39 191 324 0 0 0 0.49534 0.27299 -0.82469 0.0084565
-0.13663 0.067834 1.2589 9.0352e-39 230 324 0 0 0 0.48196 0.26484 -0.83521 0.0095515
-0.13515 0.067097 1.2589 7.3757e-39 193 324 0 0 0 0.48258 0.25749 -0.83715 0.0093396
-0.1381 0.069307 1.2589 6.2693e-39 402 324 0 0 0 0.4836 0.27366 -0.83141 0.0092752
-0.13663 0.069307 1.2589 5.9927e-39 403 324 0 0 0 0.4722 0.26604 -0.84039 0.0097403
-0.13515 0.069307 1.2589 5.7161e-39 404 324 0 0 0 0.46795 0.2582 -0.8452 0.010327
-0.13663 0.07078 1.2589 5.2552e-39 499 324 0 0 0 0.46385 0.26765 -0.84452 0.010257
-0.13515 0.07078 1.2589 5.5317e-39 500 324 0 0 0 0.4609 0.25724 -0.84935 0.010665
-0.16903 0.072252 1.2589 6.4537e-39 188 325 0 0 0 -0.59608 0.38871 -0.70256 0.027602
-0.14105 0.072988 1.2589 5.624e-39 296.5 325 0 0 0 0.46199 0.30101 -0.83424 0.0080687
-0.13883 0.072988 1.2589 5.6239e-39 298 325 0 0 0 0.45929 0.28623 -0.84091 0.0089711
-0.13663 0.072252 1.2589 6.4537e-39 210 325 0 0 0 0.45634 0.26996 -0.84786 0.010158
-0.13515 0.072252 1.2589 7.1913e-39 211 325 0 0 0 0.44761 0.25786 -0.85624 0.010636
-0.14105 0.075198 1.2589 7.4678e-39 457 325 0 0 0 0.44804 0.29793 -0.84291 0.0083075
-0.13883 0.075198 1.2589 6.8225e-39 458.5 325 0 0 0 0.44335 0.28596 -0.84951 0.0093937
-0.14252 0.076671 1.2589 5.4395e-39 193 326 0 0 0 0.43211 0.30813 -0.84755 0.0081945
-0.1381 0.076671 1.2589 5.7161e-39 196 326 0 0 0 0.43123 0.2769 -0.8587 0.0096066
-0.16756 0.079617 1.2589 7.0069e-39 424 326 0 0 0 -0.53117 0.35116 -0.77107 0.043508
-0.14546 0.079617 1.2589 6.6381e-39 439 326 0 0 0 0.37411 0.32245 -0.86952 0.013742
-0.14399 0.078144 1.2589 6.2693e-39 265 326 0 0 0 0.40513 0.3182 -0.8571 0.0097621
-0.16608 0.08109 1.2589 5.5317e-39 155 327 0 0 0 -0.46605 0.35191 -0.81176 0.054902
-0.14694 0.08109 1.2589 6.0849e-39 169 327 0 0 0 0.34713 0.32007 -0.88151 0.016667
-0.14915 0.082562 1.2589 7.9288e-39 244.5 327 0 0 0 0.30531 0.3214 -0.89638 0.021961
-0.16461 0.085508 1.2589 6.4537e-39 142 328 0 0 0 -0.36655 0.356 -0.85959 0.054311
-0.14915 0.084771 1.2589 6.3384e-39 289.5 327.5 0 0 0 0.30032 0.31614 -0.89992 0.020625
-0.16461 0.086981 1.2589 8.482e-39 233 328 0 0 0 -0.3736 0.34736 -0.8601 0.05334
-0.14915 0.086981 1.2589 7.7444e-39 243.5 328 0 0 0 0.28905 0.31278 -0.90477 0.020418
-0.16461 0.08919 1.2589 6.3615e-39 458.5 328 0 0 0 -0.38558 0.34685 -0.855 0.052503
-0.16314 0.08919 1.2589 6.592e-39 459.5 328 0 0 0 -0.31844 0.34957 -0.88113 0.056879
-0.15136 0.08919 1.2589 6.8225e-39 285 328.5 0 0 0 0.23514 0.32471 -0.91612 0.025339
-0.16314 0.091399 1.2589 8.6664e-39 232 329 0 0 0 -0.32156 0.34867 -0.88036 0.054506
-0.16167 0.091399 1.2589 8.482e-39 233 329 0 0 0 -0.23105 0.35981 -0.90396 0.058795
-0.15136 0.091399 1.2589 7.56e-39 240 329 0 0 0 0.21612 0.32196 -0.92175 0.025445
-0.16093 0.092872 1.2589 6.2693e-39 414.5 329 0 0 0 -0.16644 0.35646 -0.91937 0.053396
-0.15283 0.092872 1.2589 6.2693e-39 421 329 0 0 0 0.1811 0.31362 -0.93212 0.028078
-0.15136 0.092872 1.2589 7.3757e-39 424 329 0 0 0 0.2115 0.30956 -0.92706 0.024453
-0.16019 0.094345 1.2589 6.0849e-39 141 330 0 0 0 -0.11799 0.35948 -0.92566 0.047365
-0.15872 0.095818 1.2589 7.8366e-39 245 330 0 0 0 -0.059452 0.34948 -0.93506 0.047958
-0.15504 0.095818 1.2589 6.9147e-39 248.5 330 0 0 0 0.094789 0.32972 -0.93931 0.034585
-0.15283 0.094345 1.2589 6.4537e-39 146 330 0 0 0 0.17084 0.30293 -0.93757 0.027017
-0.15872 0.097291 1.2589 6.9147e-39 430 330 0 0 0 -0.077837 0.35003 -0.9335 0.046706
-0.1543 0.097291 1.2589 7.0991e-39 433 330 0 0 0 0.10673 0.30715 -0.94566 0.032142
-0.15725 0.098764 1.2589 5.9927e-39 144 331 0 0 0 -0.015045 0.32826 -0.94447 0.043461
-0.15504 0.098764 1.2589 6.3615e-39 145.5 331 0 0 0 0.075676 0.29921 -0.95118 0.034974
-0.15725 0.10024 1.2589 7.9288e-39 246 331 0 0 0 -0.041431 0.32257 -0.94564 0.045096
-0.15504 0.10097 1.2589 7.0069e-39 340.5 331 0 0 0 0.042265 0.28921 -0.95633 0.037016
-0.16937 0.032552 1.2615 4.0566e-39 206 316 0 0 0 -0.34318 -0.85761 -0.38306 0.033741
-0.16708 0.032536 1.2608 4.5637e-39 207.5 316 0 0 0 -0.28806 -0.87534 -0.38832 0.032815
-0.16118 0.033272 1.2608 9.2659e-39 262.5 316 0 0 0 -0.12933 -0.90941 -0.39528 0.020032
-0.15741 0.033993 1.2602 7.1913e-39 307 316 0 0 0 -0.02694 -0.90625 -0.42189 0.01204
-0.15462 0.032552 1.2615 7.2835e-39 225 316 0 0 0 0.033912 -0.91711 -0.3972 0.0050639
-0.15298 0.033993 1.2602 7.0991e-39 310 316 0 0 0 0.077052 -0.89065 -0.44811 0.0071211
-0.15078 0.033993 1.2602 7.5601e-39 311.5 316 0 0 0 0.098556 -0.88028 -0.4641 0.0073514
-0.14856 0.033993 1.2602 8.2054e-39 313 316 0 0 0 0.10685 -0.87261 -0.47659 0.0077611
-0.14488 0.033993 1.2602 5.9466e-39 343.5 316 0 0 0 0.15242 -0.83648 -0.52638 0.015194
-0.14119 0.033993 1.2602 5.8083e-39 354 316 0 0 0 0.18592 -0.79774 -0.57362 0.026686
-0.17233 0.034028 1.2615 6.3615e-39 285 316 0 0 0 -0.46162 -0.79124 -0.40106 0.042616
-0.14724 0.034028 1.2615 8.3898e-39 314 316 0 0 0 0.10795 -0.87028 -0.48058 0.0078769
-0.14274 0.034748 1.2608 5.0707e-39 275.5 316.5 0 0 0 0.1865 -0.80638 -0.56122 0.02444
-0.13878 0.034988 1.2606 4.4254e-39 252.33 316.67 0 0 0 0.22151 -0.74919 -0.62422 0.04085
-0.13684 0.034748 1.2608 4.5637e-39 279.5 316.5 0 0 0 0.21136 -0.73979 -0.63878 0.042445
-0.13321 0.035504 1.2615 5.3012e-39 204.5 317 0 0 0 0.24259 -0.66944 -0.70214 0.05844
-0.12805 0.035504 1.2615 4.6098e-39 208 317 0 0 0 0.23757 -0.56461 -0.79043 0.065339
-0.1738 0.03698 1.2615 8.1132e-39 253 317 0 0 0 -0.55931 -0.71519 -0.41914 0.044329
-0.13529 0.036942 1.2602 6.1771e-39 279 317 0 0 0 0.27706 -0.64538 -0.71185 0.060008
-0.13308 0.036942 1.2602 6.8225e-39 280.5 317 0 0 0 0.28865 -0.60151 -0.74489 0.063672
-0.131 0.03698 1.2615 6.9147e-39 282 317 0 0 0 0.27789 -0.58556 -0.76151 0.067191
-0.12953 0.03698 1.2615 6.8225e-39 283 317 0 0 0 0.27159 -0.55863 -0.78369 0.06876
-0.12725 0.036961 1.2608 6.5459e-39 284.5 317 0 0 0 0.27173 -0.49067 -0.82789 0.065835
-0.1251 0.03698 1.2615 6.9147e-39 286 317 0 0 0 0.27357 -0.46354 -0.84278 0.06414
-0.12289 0.03698 1.2615 6.7764e-39 291 317 0 0 0 0.26408 -0.41389 -0.87118 0.061076
-0.12067 0.03698 1.2615 7.0069e-39 296 317 0 0 0 0.27124 -0.3528 -0.89552 0.053697
-0.1192 0.03698 1.2615 7.0991e-39 298 317 0 0 0 0.25564 -0.32885 -0.90912 0.048721
-0.12939 0.038416 1.2602 5.8083e-39 423 317 0 0 0 0.32525 -0.47242 -0.81916 0.069879
-0.12645 0.039154 1.2602 7.4679e-39 323.5 317.5 0 0 0 0.33194 -0.39504 -0.8566 0.065155
-0.12497 0.038416 1.2602 6.0849e-39 432 317 0 0 0 0.31366 -0.36679 -0.87583 0.062309
-0.12282 0.039173 1.2608 5.7853e-39 329 317.5 0 0 0 0.31199 -0.31251 -0.89722 0.057416
-0.12067 0.039193 1.2615 5.5318e-39 330.5 317.5 0 0 0 0.29841 -0.275 -0.91396 0.05374
-0.1192 0.039193 1.2615 6.0388e-39 331.5 317.5 0 0 0 0.28869 -0.2454 -0.92544 0.048845
-0.11624 0.039193 1.2615 6.1771e-39 333.5 317.5 0 0 0 0.26981 -0.20677 -0.94045 0.039922
-0.1751 0.041365 1.2602 7.1913e-39 258 318 0 0 0 -0.71768 -0.52665 -0.4556 0.047488
-0.12215 0.041407 1.2615 1.5304e-38 309 318 0 0 0 0.33194 -0.21402 -0.9187 0.057182
-0.12067 0.041407 1.2615 1.6411e-38 310 318 0 0 0 0.3257 -0.1844 -0.92731 0.051653
-0.1192 0.041407 1.2615 1.7517e-38 311 318 0 0 0 0.30321 -0.16386 -0.93873 0.045731
-0.11698 0.041407 1.2615 2.0329e-38 312.5 318 0 0 0 0.29117 -0.14514 -0.9456 0.038548
-0.12645 0.042839 1.2602 6.7303e-39 441 318 0 0 0 0.40214 -0.21715 -0.88945 0.064541
-0.12497 0.042839 1.2602 7.2835e-39 442 318 0 0 0 0.37661 -0.18538 -0.90763 0.058273
-0.12282 0.042861 1.2608 6.8686e-39 443.5 318 0 0 0 0.35715 -0.16995 -0.91846 0.053968
-0.12067 0.042883 1.2615 6.5459e-39 445 318 0 0 0 0.33314 -0.14248 -0.93205 0.048579
-0.1192 0.042883 1.2615 6.7303e-39 446 318 0 0 0 0.31118 -0.11501 -0.94337 0.040771
