# .PCD v.7 - Point Cloud Data file format
VERSION .7
FIELDS x y z rgb u v vx vy vz normal_x normal_y normal_z curvature
SIZE 4 4 4 4 4 4 4 4 4 4 4 4 4
TYPE F F F F F F F F F F F F F
COUNT 1 1 1 1 1 1 1 1 1 1 1 1 1
WIDTH 564
HEIGHT 1
VIEWPOINT 0 0 0 1 0 0 0
POINTS 564
DATA ascii
-0.17705 0.050866 1.2227 5.7622e-39 449 322.5 0 0 0 0.57849 -0.36486 -0.72954 0.068589
-0.17507 0.050916 1.224 5.3704e-39 450.75 322.5 0 0 0 0.58631 -0.2913 -0.7559 0.064662
-0.24572 0.053011 1.2227 7.3757e-39 425 323 0 0 0 -0.62172 -0.39606 -0.67572 0.061729
-0.17705 0.053011 1.2227 6.5459e-39 528 323 0 0 0 0.61975 -0.25806 -0.74115 0.061419
-0.17507 0.053064 1.224 5.9005e-39 529.5 323 0 0 0 0.61167 -0.22238 -0.75921 0.062017
-0.24572 0.055157 1.2227 6.592e-39 316.5 324 0 0 0 -0.659 -0.27093 -0.70165 0.056474
-0.17705 0.055157 1.2227 6.1771e-39 379 324 0 0 0 0.65947 -0.15653 -0.73525 0.052663
-0.17579 0.055212 1.224 6.131e-39 380 324 0 0 0 0.65012 -0.14603 -0.74567 0.056668
-0.24572 0.057303 1.2227 5.3473e-39 203 325 0 0 0 -0.68674 -0.1829 -0.70351 0.043707
-0.1792 0.057303 1.2227 7.0991e-39 249.5 325 0 0 0 0.67743 -0.13857 -0.72242 0.050454
-0.17705 0.057303 1.2227 7.0991e-39 251 325 0 0 0 0.68138 -0.10218 -0.72476 0.046187
-0.24572 0.058733 1.2227 6.6381e-39 403 325 0 0 0 -0.69767 -0.14569 -0.70145 0.040377
-0.17848 0.058733 1.2227 6.3615e-39 461 325 0 0 0 0.7001 -0.085168 -0.70895 0.042582
-0.17705 0.058733 1.2227 6.9147e-39 462 325 0 0 0 0.6996 -0.054989 -0.71242 0.038246
-0.24584 0.06091 1.2234 5.1629e-39 255.5 326 0 0 0 -0.71133 -0.065236 -0.69982 0.02901
-0.1792 0.060879 1.2227 6.9607e-39 322 326 0 0 0 0.71257 -0.014077 -0.70146 0.03236
-0.17714 0.06091 1.2234 6.9608e-39 323.5 326 0 0 0 0.71374 0.0065545 -0.70038 0.030322
-0.24596 0.063088 1.224 6.2693e-39 496 326 0 0 0 -0.72527 -0.0073035 -0.68843 0.021388
-0.1792 0.063025 1.2227 8.7585e-39 190.5 327 0 0 0 0.72561 0.039756 -0.68696 0.02293
-0.17723 0.063088 1.224 6.0849e-39 192 327 0 0 0 0.72512 0.054909 -0.68643 0.022276
-0.24429 0.065171 1.2227 6.2232e-39 349 327 0 0 0 -0.73574 0.047546 -0.6756 0.010637
-0.1792 0.065171 1.2227 5.7622e-39 266.5 327.5 0 0 0 0.73012 0.10439 -0.6753 0.012885
-0.17705 0.065171 1.2227 6.0388e-39 268 327.5 0 0 0 0.73102 0.11672 -0.6723 0.012138
-0.24453 0.067384 1.224 6.6381e-39 212 328 0 0 0 -0.74203 0.10064 -0.66276 0.0059268
-0.24286 0.067317 1.2227 6.9147e-39 213 328 0 0 0 -0.74725 0.085683 -0.65899 0.0057908
-0.1792 0.067317 1.2227 6.2232e-39 257.5 328 0 0 0 0.72787 0.15733 -0.66742 0.0070251
-0.17723 0.067384 1.224 6.1771e-39 259 328 0 0 0 0.73083 0.16179 -0.66311 0.0067088
-0.24453 0.068815 1.224 8.2054e-39 416 328 0 0 0 -0.74799 0.12568 -0.6517 0.0042784
-0.24286 0.068747 1.2227 8.482e-39 417 328 0 0 0 -0.75211 0.11599 -0.64875 0.0041995
-0.1792 0.068747 1.2227 6.1771e-39 470.5 328 0 0 0 0.72639 0.18118 -0.66297 0.0047695
-0.17723 0.068815 1.224 6.3615e-39 472 328 0 0 0 0.72987 0.18462 -0.65819 0.004848
-0.24453 0.070963 1.224 7.514e-39 283.5 329 0 0 0 -0.75469 0.14591 -0.63965 0.0036302
-0.18134 0.070893 1.2227 7.0991e-39 330 329 0 0 0 0.72089 0.19737 -0.66435 0.0040193
-0.17929 0.070928 1.2234 7.0529e-39 331.5 329 0 0 0 0.7251 0.19752 -0.65971 0.0040287
-0.17723 0.070963 1.224 7.1913e-39 335 329 0 0 0 0.72954 0.19778 -0.65472 0.00433
-0.24453 0.073111 1.224 5.8083e-39 532 329 0 0 0 -0.75539 0.16316 -0.63464 0.0035198
-0.18071 0.073075 1.2234 5.8544e-39 189.5 330 0 0 0 0.7203 0.2063 -0.66228 0.0036577
-0.17866 0.073111 1.224 6.2693e-39 191 330 0 0 0 0.72491 0.20484 -0.65769 0.0038951
-0.24453 0.075259 1.224 6.2232e-39 347.5 330 0 0 0 -0.75916 0.17593 -0.62668 0.0032713
-0.18076 0.075241 1.2237 6.592e-39 462 330 0 0 0 0.72076 0.2078 -0.6613 0.0036183
-0.17866 0.074543 1.224 6.5459e-39 394 330 0 0 0 0.72255 0.20546 -0.66008 0.0037743
-0.1808 0.077407 1.224 6.592e-39 242.5 331 0 0 0 0.71942 0.20711 -0.66298 0.0034917
-0.24286 0.078761 1.2227 7.4678e-39 402 331 0 0 0 -0.75984 0.18727 -0.62255 0.0028487
-0.18152 0.078839 1.224 5.8083e-39 449 331 0 0 0 0.71702 0.20595 -0.66594 0.0034556
-0.24298 0.080948 1.2234 5.9927e-39 377 331.5 0 0 0 -0.76306 0.19172 -0.61724 0.0028327
-0.24143 0.081622 1.2227 5.9005e-39 223 332 0 0 0 -0.7553 0.19368 -0.62611 0.0029284
-0.18277 0.081622 1.2227 6.1771e-39 387 332 0 0 0 0.71695 0.19281 -0.66993 0.0034149
-0.2431 0.083135 1.224 7.2835e-39 439 332 0 0 0 -0.76072 0.19476 -0.61917 0.0028766
-0.24143 0.083053 1.2227 6.7303e-39 440 332 0 0 0 -0.75232 0.19843 -0.6282 0.0030143
-0.1842 0.083053 1.2227 6.1771e-39 491 332 0 0 0 0.71722 0.18938 -0.67062 0.0034585
-0.18277 0.083053 1.2227 5.9005e-39 492 332 0 0 0 0.71717 0.19018 -0.67045 0.0035277
-0.2431 0.085283 1.224 4.6098e-39 269 333 0 0 0 -0.75741 0.19746 -0.62237 0.0028571
-0.24143 0.085198 1.2227 4.702e-39 270 333 0 0 0 -0.74701 0.20329 -0.63297 0.0028815
-0.18707 0.085914 1.2227 9.404e-39 415 333 0 0 0 0.71678 0.17257 -0.67561 0.0033272
-0.18491 0.085199 1.2227 8.0441e-39 309.5 333 0 0 0 0.71836 0.17464 -0.6734 0.003413
-0.18286 0.085241 1.2234 7.7444e-39 311 333 0 0 0 0.71763 0.1747 -0.67416 0.0036055
-0.24167 0.087431 1.224 5.5317e-39 471 333 0 0 0 -0.74276 0.20324 -0.63796 0.0025686
-0.24 0.087345 1.2227 5.6239e-39 472 333 0 0 0 -0.74023 0.21228 -0.63796 0.0026049
-0.18501 0.087388 1.2234 4.8864e-39 142.5 334 0 0 0 0.71915 0.16479 -0.67503 0.0034318
-0.18295 0.087431 1.224 4.9786e-39 144 334 0 0 0 0.7185 0.16428 -0.67584 0.0035477
-0.24023 0.088863 1.224 8.1132e-39 197 334 0 0 0 -0.7386 0.20981 -0.64066 0.0023819
-0.23856 0.088775 1.2227 8.2054e-39 198 334 0 0 0 -0.73198 0.21651 -0.64601 0.0023912
-0.18501 0.088819 1.2234 6.2232e-39 240 334 0 0 0 0.71808 0.15668 -0.67809 0.0034198
-0.18295 0.088863 1.224 6.9147e-39 246 334 0 0 0 0.71624 0.1564 -0.68011 0.0035493
-0.24023 0.090295 1.224 8.021e-39 411 334 0 0 0 -0.73515 0.21161 -0.64403 0.0022999
-0.2388 0.091011 1.224 4.9785e-39 476 334 0 0 0 -0.72913 0.21653 -0.64921 0.0020801
-0.23713 0.091636 1.2227 1.9361e-39 541 334 0 0 0 -0.72058 0.22326 -0.65644 0.0018889
-0.18707 0.091636 1.2227 5.0708e-39 176 335 0 0 0 0.71009 0.15432 -0.68699 0.0033206
-0.1851 0.091011 1.224 5.6239e-39 313.5 334.5 0 0 0 0.7138 0.15013 -0.68407 0.0035812
-0.18295 0.090295 1.224 5.6239e-39 451 334 0 0 0 0.7159 0.151 -0.68168 0.003482
-0.2388 0.093159 1.224 6.2693e-39 233 335 0 0 0 -0.72267 0.22233 -0.65446 0.0018676
-0.23713 0.093067 1.2227 6.5459e-39 234 335 0 0 0 -0.71718 0.2269 -0.65891 0.0018297
-0.18707 0.093067 1.2227 7.56e-39 392 335 0 0 0 0.70635 0.14981 -0.69183 0.0034553
-0.1851 0.093159 1.224 7.6061e-39 393.5 335 0 0 0 0.7122 0.14223 -0.68741 0.0036518
-0.23737 0.094591 1.224 5.5317e-39 450 335 0 0 0 -0.71698 0.22438 -0.66 0.001696
-0.18707 0.095213 1.2227 6.4076e-39 354 335.5 0 0 0 0.7002 0.14082 -0.69992 0.003492
-0.1851 0.094591 1.224 6.2693e-39 503.5 335 0 0 0 0.71057 0.13616 -0.69032 0.0036418
-0.23737 0.096739 1.224 5.7162e-39 280.5 336 0 0 0 -0.71493 0.22445 -0.66219 0.0015625
-0.2357 0.097358 1.2227 7.2835e-39 391 336 0 0 0 -0.70579 0.22908 -0.67036 0.0014742
-0.18707 0.097358 1.2227 8.2976e-39 425 336 0 0 0 0.69502 0.13959 -0.70531 0.0036441
-0.18439 0.097455 1.224 8.1132e-39 427 336 0 0 0 0.70489 0.12844 -0.69759 0.0037424
-0.23737 0.098887 1.224 6.0849e-39 494 336 0 0 0 -0.71117 0.22516 -0.66598 0.001472
-0.2357 0.098789 1.2227 6.3615e-39 495 336 0 0 0 -0.70296 0.23207 -0.67231 0.0015588
-0.18707 0.098789 1.2227 5.8083e-39 534 336 0 0 0 0.69089 0.13923 -0.70942 0.0037266
-0.1851 0.098887 1.224 5.2551e-39 535.5 336 0 0 0 0.69971 0.12926 -0.70264 0.0038249
-0.23737 0.10103 1.224 7.8366e-39 307.5 337 0 0 0 -0.70784 0.22773 -0.66866 0.0014744
-0.2357 0.10093 1.2227 7.6983e-39 308.5 337 0 0 0 -0.70123 0.23025 -0.67473 0.0014239
-0.1885 0.10093 1.2227 5.8544e-39 341.5 337 0 0 0 0.68345 0.13885 -0.71667 0.0037393
-0.18707 0.10093 1.2227 5.8544e-39 342.5 337 0 0 0 0.68481 0.13575 -0.71596 0.0036216
-0.18582 0.10103 1.224 5.7622e-39 343.5 337 0 0 0 0.69017 0.13056 -0.71177 0.003627
-0.23737 0.10318 1.224 5.9927e-39 514 337 0 0 0 -0.704 0.2248 -0.67368 0.0015318
-0.23594 0.10318 1.224 6.1771e-39 515 337 0 0 0 -0.70305 0.22522 -0.67453 0.0015076
-0.1885 0.10308 1.2227 4.7942e-39 158 338 0 0 0 0.67731 0.1416 -0.72194 0.0036531
-0.18707 0.10308 1.2227 4.6098e-39 159 338 0 0 0 0.67942 0.13875 -0.72052 0.0036018
-0.18582 0.10318 1.224 4.9786e-39 160 338 0 0 0 0.68378 0.12978 -0.71805 0.0035012
-0.23427 0.10522 1.2227 6.1771e-39 326.5 338 0 0 0 -0.69766 0.22179 -0.68124 0.00142
-0.1885 0.10522 1.2227 6.3154e-39 419.5 338 0 0 0 0.67162 0.14329 -0.72691 0.0034895
-0.18707 0.10451 1.2227 6.9147e-39 374 338 0 0 0 0.67562 0.1385 -0.72412 0.003447
-0.18582 0.10461 1.224 7.2835e-39 375 338 0 0 0 0.67881 0.12963 -0.72278 0.0033421
-0.1885 0.10737 1.2227 6.5459e-39 175 339 0 0 0 0.66758 0.14909 -0.72946 0.0031178
-0.18725 0.10677 1.224 6.1771e-39 321.5 338.5 0 0 0 0.67144 0.14 -0.72772 0.0031835
-0.18582 0.10605 1.224 5.9005e-39 468 338 0 0 0 0.67707 0.13478 -0.72347 0.0033135
-0.18868 0.10891 1.224 7.0991e-39 386 339 0 0 0 0.66558 0.15162 -0.73077 0.003082
-0.23296 0.111 1.2234 5.9005e-39 309.5 339.5 0 0 0 -0.69918 0.20382 -0.68527 0.0020556
-0.23141 0.11166 1.2227 6.2693e-39 170 340 0 0 0 -0.69567 0.20178 -0.68944 0.0020431
-0.1891 0.11078 1.2236 6.2386e-39 387 339.33 0 0 0 0.66125 0.15442 -0.7341 0.0029551
-0.23307 0.11321 1.224 6.2693e-39 383 340 0 0 0 -0.70192 0.2021 -0.68299 0.0023796
-0.23141 0.11309 1.2227 6.2693e-39 384 340 0 0 0 -0.69418 0.20012 -0.69142 0.00215
-0.18868 0.11321 1.224 8.2054e-39 414 340 0 0 0 0.66195 0.16298 -0.73162 0.0029655
-0.18582 0.11321 1.224 8.1132e-39 416 340 0 0 0 0.66617 0.16116 -0.72818 0.0030887
-0.23164 0.11464 1.224 5.8083e-39 481 340 0 0 0 -0.7004 0.19968 -0.68525 0.0023473
-0.18931 0.1153 1.2234 5.0246e-39 389 340.5 0 0 0 0.65912 0.16691 -0.73328 0.0028674
-0.18725 0.11464 1.224 2.3971e-39 540 340 0 0 0 0.66376 0.16425 -0.72969 0.0031059
-0.18582 0.11464 1.224 2.1205e-39 541 340 0 0 0 0.6648 0.16524 -0.72852 0.0030766
-0.23164 0.11679 1.224 6.9147e-39 316.5 341 0 0 0 -0.70146 0.19589 -0.68526 0.0024423
-0.19136 0.11739 1.2227 5.9927e-39 451 341 0 0 0 0.6515 0.16907 -0.73957 0.0027172
-0.1891 0.11699 1.2236 6.3922e-39 381.67 341 0 0 0 0.66126 0.16871 -0.73094 0.0029078
-0.18725 0.11607 1.224 6.3615e-39 242 341 0 0 0 0.66359 0.16829 -0.72892 0.0031078
-0.18582 0.11607 1.224 6.6381e-39 243 341 0 0 0 0.66532 0.16863 -0.72726 0.0031764
-0.23164 0.11893 1.224 5.9927e-39 164 342 0 0 0 -0.70258 0.19191 -0.68524 0.002529
-0.22998 0.11882 1.2227 6.3615e-39 165 342 0 0 0 -0.68493 0.19355 -0.70243 0.0024035
-0.19136 0.11882 1.2227 7.1913e-39 192 342 0 0 0 0.65101 0.17149 -0.73944 0.0027615
-0.18931 0.11887 1.2234 7.2835e-39 193.5 342 0 0 0 0.65979 0.17271 -0.73133 0.002981
-0.23021 0.1218 1.224 5.8083e-39 475 342 0 0 0 -0.68905 0.19201 -0.69881 0.0028804
-0.22998 0.12025 1.2227 6.8225e-39 377 342 0 0 0 -0.68392 0.19354 -0.70342 0.0026057
-0.19279 0.12168 1.2227 5.5317e-39 534 342 0 0 0 0.64425 0.18352 -0.74247 0.0029293
-0.19094 0.12124 1.2231 6.6073e-39 491.67 342 0 0 0 0.65881 0.18239 -0.72987 0.0030132
-0.18993 0.12025 1.2227 9.1274e-39 405 342 0 0 0 0.65957 0.17445 -0.73112 0.002915
-0.23021 0.12323 1.224 6.3615e-39 208 343 0 0 0 -0.68674 0.18996 -0.70164 0.0031893
-0.19279 0.12311 1.2227 6.5459e-39 234 343 0 0 0 0.6448 0.19026 -0.7403 0.0033022
-0.19073 0.12317 1.2234 6.2232e-39 235.5 343 0 0 0 0.65545 0.1897 -0.73103 0.0030328
-0.23021 0.12466 1.224 7.0069e-39 420 343 0 0 0 -0.68726 0.19234 -0.70048 0.0034135
-0.19279 0.12526 1.2227 6.4537e-39 309.5 343.5 0 0 0 0.64659 0.19867 -0.73651 0.0035024
-0.19073 0.1246 1.2234 6.5459e-39 447.5 343 0 0 0 0.65509 0.19617 -0.72964 0.0032754
-0.23021 0.12681 1.224 6.0388e-39 194 344 0 0 0 -0.68287 0.195 -0.70404 0.0038759
-0.19422 0.1274 1.2227 7.9288e-39 383 344 0 0 0 0.63556 0.21057 -0.74278 0.0041365
-0.19298 0.12753 1.224 8.2054e-39 384 344 0 0 0 0.65064 0.21139 -0.72937 0.0039408
-0.19155 0.12681 1.224 7.6061e-39 279.5 344 0 0 0 0.65556 0.20639 -0.72639 0.0037155
-0.22855 0.12883 1.2227 6.2693e-39 452 344 0 0 0 -0.64685 0.20923 -0.73335 0.0041424
-0.19422 0.12883 1.2227 6.0849e-39 476 344 0 0 0 0.63188 0.21939 -0.74337 0.0045464
-0.19298 0.12896 1.224 6.2693e-39 477 344 0 0 0 0.65021 0.21729 -0.72802 0.0041342
-0.19155 0.12896 1.224 6.3615e-39 478 344 0 0 0 0.6572 0.21757 -0.72163 0.0042162
-0.22866 0.13104 1.2234 7.2835e-39 276.5 345 0 0 0 -0.6455 0.21377 -0.73323 0.0045044
-0.19482 0.1313 1.2236 7.683e-39 334.67 345 0 0 0 0.63125 0.22214 -0.74309 0.0055009
-0.19298 0.13039 1.224 6.3615e-39 198 345 0 0 0 0.64849 0.22271 -0.72792 0.0047129
-0.22878 0.13325 1.224 6.4537e-39 468 345 0 0 0 -0.64875 0.21619 -0.72965 0.0049059
-0.19503 0.13318 1.2234 6.131e-39 507.5 345 0 0 0 0.62817 0.22768 -0.74402 0.0060398
-0.22712 0.13526 1.2227 7.9288e-39 289 346 0 0 0 -0.61031 0.22714 -0.7589 0.0064445
-0.19524 0.13507 1.2231 6.8532e-39 277 346 0 0 0 0.62195 0.2244 -0.75022 0.0079207
-0.22712 0.13741 1.2227 6.6381e-39 478 346 0 0 0 -0.6036 0.22748 -0.76414 0.0074168
-0.22569 0.13741 1.2227 6.3615e-39 479 346 0 0 0 -0.58713 0.22877 -0.77649 0.008497
-0.19565 0.13741 1.2227 4.4254e-39 541 346 0 0 0 0.61963 0.22416 -0.7522 0.0090618
-0.22735 0.13898 1.224 6.3615e-39 199 347 0 0 0 -0.61943 0.22521 -0.75205 0.0069643
-0.22508 0.13891 1.2234 6.4537e-39 200.5 347 0 0 0 -0.57848 0.22794 -0.7832 0.0098625
-0.19851 0.13884 1.2227 6.3615e-39 219 347 0 0 0 0.55944 0.23353 -0.79529 0.017274
-0.19708 0.13884 1.2227 5.9005e-39 220 347 0 0 0 0.58551 0.22601 -0.77853 0.013565
-0.19565 0.13884 1.2227 5.6239e-39 221 347 0 0 0 0.61273 0.2233 -0.75809 0.010578
-0.22735 0.14041 1.224 8.3898e-39 399 347 0 0 0 -0.62057 0.22161 -0.75218 0.0074895
-0.22514 0.1411 1.2237 7.3526e-39 441.5 347 0 0 0 -0.58454 0.21785 -0.78157 0.010309
-0.22294 0.14107 1.2234 7.2835e-39 443 347 0 0 0 -0.53205 0.22208 -0.81707 0.01695
-0.2214 0.14171 1.2227 6.0849e-39 485 347 0 0 0 -0.47233 0.22404 -0.85248 0.024136
-0.19899 0.14123 1.2227 3.5034e-39 502 347 0 0 0 0.55034 0.22716 -0.80345 0.018183
-0.19708 0.14099 1.2227 4.1488e-39 482.5 347 0 0 0 0.58385 0.22297 -0.78064 0.015077
-0.19584 0.14113 1.224 4.0566e-39 483.5 347 0 0 0 0.62246 0.22108 -0.75077 0.011992
-0.22448 0.14328 1.224 7.0991e-39 194 348 0 0 0 -0.55921 0.21117 -0.80168 0.016036
-0.22305 0.14328 1.224 7.2835e-39 195 348 0 0 0 -0.52933 0.21401 -0.82098 0.018395
-0.2214 0.14314 1.2227 6.5459e-39 196 348 0 0 0 -0.47043 0.22346 -0.85368 0.024887
-0.19923 0.14314 1.2227 6.131e-39 211.5 348 0 0 0 0.53181 0.22179 -0.8173 0.023401
-0.19708 0.14314 1.2227 6.1771e-39 213 348 0 0 0 0.58291 0.22081 -0.78195 0.016021
-0.19584 0.14328 1.224 6.9147e-39 214 348 0 0 0 0.62234 0.22089 -0.75094 0.013313
-0.22448 0.14471 1.224 5.6239e-39 254 348 0 0 0 -0.55704 0.21473 -0.80224 0.016356
-0.22305 0.14471 1.224 8.2054e-39 372 348 0 0 0 -0.53142 0.21342 -0.81979 0.019232
-0.2214 0.14528 1.2227 7.4218e-39 395.5 348 0 0 0 -0.4684 0.21631 -0.85663 0.025888
-0.19922 0.14528 1.2227 6.7764e-39 411 348 0 0 0 0.53949 0.2302 -0.80991 0.022751
-0.19708 0.14528 1.2227 7.1913e-39 412.5 348 0 0 0 0.57809 0.22637 -0.78395 0.017251
-0.19584 0.14471 1.224 8.021e-39 391 348 0 0 0 0.62184 0.22255 -0.75086 0.013813
-0.22448 0.14685 1.224 5.9927e-39 435.5 348 0 0 0 -0.56261 0.20989 -0.79963 0.016581
-0.22305 0.14685 1.224 5.9005e-39 436.5 348 0 0 0 -0.53007 0.20999 -0.82154 0.020662
-0.2214 0.14743 1.2227 5.4395e-39 457 348 0 0 0 -0.46631 0.21297 -0.8586 0.027668
-0.19994 0.14743 1.2227 5.5317e-39 472 348 0 0 0 0.51421 0.24108 -0.82309 0.026225
-0.19708 0.14743 1.2227 5.5317e-39 474 348 0 0 0 0.57763 0.22634 -0.78429 0.018143
-0.19584 0.14685 1.224 6.0849e-39 455.5 348 0 0 0 0.61831 0.22184 -0.75397 0.014779
-0.22448 0.14901 1.224 6.6381e-39 536 348 0 0 0 -0.55138 0.2068 -0.80822 0.017555
-0.22305 0.14901 1.224 6.5459e-39 537 348 0 0 0 -0.52679 0.21036 -0.82355 0.021356
-0.22162 0.14901 1.224 6.3615e-39 538 348 0 0 0 -0.47778 0.2223 -0.84989 0.028253
-0.19923 0.14886 1.2227 6.6842e-39 144.5 349 0 0 0 0.52719 0.23283 -0.81723 0.025224
-0.19727 0.14901 1.224 6.8225e-39 146 349 0 0 0 0.5849 0.22346 -0.77972 0.01982
-0.19584 0.14901 1.224 6.2693e-39 147 349 0 0 0 0.61876 0.21939 -0.75432 0.015665
-0.22305 0.15115 1.224 6.592e-39 189 349 0 0 0 -0.52321 0.22007 -0.8233 0.02257
-0.22162 0.15115 1.224 6.4076e-39 190 349 0 0 0 -0.48521 0.22553 -0.84481 0.027887
-0.21997 0.15172 1.2227 6.2693e-39 210 349 0 0 0 -0.3981 0.2337 -0.88708 0.037756
-0.20014 0.15187 1.224 6.3615e-39 224 349 0 0 0 0.5069 0.24242 -0.82722 0.032068
-0.19899 0.15077 1.2227 7.1605e-39 199.33 349 0 0 0 0.53266 0.23494 -0.81306 0.025808
-0.19727 0.15044 1.224 7.4678e-39 188 349 0 0 0 0.58715 0.22308 -0.77814 0.020068
-0.21997 0.15315 1.2227 5.6239e-39 254 349 0 0 0 -0.40329 0.23233 -0.88509 0.038794
-0.20076 0.15323 1.2234 7.2374e-39 384.5 349 0 0 0 0.48741 0.25869 -0.83397 0.036162
-0.19871 0.1533 1.224 6.3615e-39 386 349 0 0 0 0.55313 0.23984 -0.79783 0.026336
-0.22019 0.15473 1.224 8.5742e-39 403 349 0 0 0 -0.42982 0.24074 -0.87023 0.036706
-0.20076 0.15466 1.2234 6.4076e-39 416.5 349 0 0 0 0.48226 0.26628 -0.83458 0.038414
-0.19871 0.15473 1.224 6.3615e-39 418 349 0 0 0 0.54819 0.24149 -0.80073 0.027604
-0.22019 0.15688 1.224 6.131e-39 447 349 0 0 0 -0.43317 0.25622 -0.86412 0.039063
-0.20096 0.15654 1.2231 5.8083e-39 455.67 349 0 0 0 0.47654 0.27837 -0.83392 0.039947
-0.19871 0.15617 1.224 6.2693e-39 448 349 0 0 0 0.55287 0.25615 -0.79292 0.027311
-0.22019 0.15903 1.224 6.7303e-39 503 349 0 0 0 -0.41918 0.29785 -0.85766 0.043863
-0.2028 0.15887 1.2227 2.9503e-39 543 349 0 0 0 0.38279 0.33032 -0.86276 0.053542
-0.20137 0.15887 1.2227 2.2127e-39 544 349 0 0 0 0.44527 0.31973 -0.83637 0.046575
-0.21854 0.16173 1.2227 6.4537e-39 170 350 0 0 0 -0.32887 0.35357 -0.87569 0.052728
-0.20471 0.16125 1.2227 6.5766e-39 171.67 350 0 0 0 0.30088 0.40628 -0.86279 0.059235
-0.2028 0.16102 1.2227 6.4998e-39 169 350 0 0 0 0.38758 0.37557 -0.84186 0.051806
-0.20157 0.16117 1.224 6.9607e-39 173.5 350 0 0 0 0.46581 0.3981 -0.79028 0.045481
-0.20894 0.043083 1.2252 5.9005e-39 365 320 0 0 0 -0.0046598 -0.93373 -0.35794 0.0051521
-0.2333 0.045949 1.2252 7.0991e-39 255 321 0 0 0 -0.25966 -0.84928 -0.45968 0.020681
-0.23116 0.045949 1.2252 7.053e-39 256.5 321 0 0 0 -0.21252 -0.86594 -0.45276 0.015263
-0.229 0.045949 1.2252 6.7303e-39 258 321 0 0 0 -0.17154 -0.88105 -0.44081 0.0097665
-0.22686 0.045949 1.2252 6.131e-39 259.5 321 0 0 0 -0.13467 -0.89171 -0.4321 0.0055054
-0.2247 0.045949 1.2252 5.9927e-39 261 321 0 0 0 -0.10549 -0.90055 -0.42176 0.0032271
-0.22327 0.045949 1.2252 6.4537e-39 262 321 0 0 0 -0.096039 -0.90401 -0.41658 0.0029553
-0.22184 0.045949 1.2252 6.6381e-39 263 321 0 0 0 -0.087804 -0.90598 -0.41411 0.0025277
-0.21324 0.044516 1.2252 6.2693e-39 494 320 0 0 0 -0.035704 -0.92505 -0.37817 0.0043972
-0.21037 0.044516 1.2252 6.6381e-39 496 320 0 0 0 -0.01834 -0.93111 -0.36428 0.0048391
-0.19747 0.044516 1.2252 4.5176e-39 530 320 0 0 0 0.1035 -0.93308 -0.34445 0.0044643
-0.186 0.045949 1.2252 6.3615e-39 368 321 0 0 0 0.26935 -0.83684 -0.4766 0.048165
-0.1817 0.045949 1.2252 6.2693e-39 371 321 0 0 0 0.3304 -0.7446 -0.58 0.069854
-0.24047 0.047383 1.2252 8.2976e-39 433 321 0 0 0 -0.40897 -0.7451 -0.52685 0.044261
-0.17884 0.047383 1.2252 3.78e-39 533 321 0 0 0 0.42055 -0.62288 -0.65967 0.075432
-0.1774 0.047383 1.2252 3.78e-39 534 321 0 0 0 0.44134 -0.57121 -0.69205 0.075585
-0.17526 0.048816 1.2252 6.7764e-39 371.5 322 0 0 0 0.51912 -0.43779 -0.73407 0.073262
-0.24764 0.051683 1.2252 6.0849e-39 225 323 0 0 0 -0.61502 -0.44508 -0.65089 0.0678
-0.1731 0.050967 1.2252 5.3934e-39 453 322.5 0 0 0 0.5932 -0.25723 -0.76285 0.063926
-0.24764 0.053116 1.2252 7.0069e-39 424 323 0 0 0 -0.63589 -0.38527 -0.66874 0.064632
-0.1731 0.053116 1.2252 4.7942e-39 531 323 0 0 0 0.62051 -0.18915 -0.76104 0.061105
-0.24764 0.055266 1.2252 6.592e-39 315.5 324 0 0 0 -0.67033 -0.2708 -0.69089 0.059353
-0.17454 0.055266 1.2252 6.2693e-39 428.5 324 0 0 0 0.64867 -0.1165 -0.7521 0.054934
-0.1731 0.055266 1.2252 6.0849e-39 429.5 324 0 0 0 0.65356 -0.093389 -0.75109 0.05187
-0.24907 0.057417 1.2252 4.5176e-39 201 325 0 0 0 -0.70027 -0.14309 -0.69939 0.045697
-0.24764 0.057417 1.2252 4.8864e-39 202 325 0 0 0 -0.69314 -0.15747 -0.70339 0.046538
-0.17526 0.057417 1.2252 6.7764e-39 252.5 325 0 0 0 0.6601 -0.065643 -0.74831 0.045108
-0.24907 0.05885 1.2252 7.0069e-39 401 325 0 0 0 -0.70555 -0.067384 -0.70545 0.032175
-0.24764 0.05885 1.2252 7.0991e-39 402 325 0 0 0 -0.69839 -0.10144 -0.70849 0.039539
-0.17526 0.05885 1.2252 7.0069e-39 463.5 325 0 0 0 0.68476 -0.015344 -0.72861 0.036855
-0.24764 0.061 1.2252 4.8403e-39 254.5 326 0 0 0 -0.71062 -0.033979 -0.70275 0.027599
-0.17549 0.060761 1.2252 6.6073e-39 291.33 326 0 0 0 0.70268 0.026947 -0.71099 0.029751
-0.17597 0.06315 1.2252 4.9786e-39 193 327 0 0 0 0.72029 0.074346 -0.68968 0.019774
-0.24621 0.064584 1.2252 5.9927e-39 239 327 0 0 0 -0.72884 0.060301 -0.68203 0.010726
-0.17597 0.064584 1.2252 7.56e-39 397 327 0 0 0 0.72989 0.12093 -0.67278 0.012463
-0.24621 0.066017 1.2252 6.0849e-39 457 327 0 0 0 -0.7364 0.082404 -0.67151 0.008413
-0.17597 0.066734 1.2252 5.3934e-39 200.5 328 0 0 0 0.73556 0.15962 -0.65839 0.0071563
-0.1774 0.073184 1.2252 6.5459e-39 192 330 0 0 0 0.73017 0.20148 -0.65288 0.0042094
-0.1774 0.074617 1.2252 6.6381e-39 395 330 0 0 0 0.72736 0.20045 -0.65633 0.0040655
-0.24477 0.077484 1.2252 6.4537e-39 187 331 0 0 0 -0.76137 0.18618 -0.62101 0.0030819
-0.17884 0.076767 1.2252 5.9928e-39 388.5 330.5 0 0 0 0.7192 0.20288 -0.66452 0.0037289
-0.1774 0.076051 1.2252 3.78e-39 534 330 0 0 0 0.72603 0.20174 -0.65741 0.0040887
-0.24477 0.078918 1.2252 7.1913e-39 401 331 0 0 0 -0.76232 0.19266 -0.61785 0.0029416
-0.18027 0.078918 1.2252 5.5317e-39 450 331 0 0 0 0.71899 0.203 -0.66472 0.0036437
-0.18099 0.081068 1.2252 1.0142e-38 280 332 0 0 0 0.7167 0.19626 -0.66919 0.0035232
-0.18099 0.083218 1.2252 6.0388e-39 493.5 332 0 0 0 0.7171 0.18533 -0.67187 0.0035001
-0.18099 0.084651 1.2252 6.9608e-39 205.5 333 0 0 0 0.71704 0.17672 -0.67426 0.0036224
-0.24334 0.087518 1.2252 5.9927e-39 470 333 0 0 0 -0.75642 0.19769 -0.62349 0.0026651
-0.18027 0.086084 1.2252 7.9288e-39 420 333 0 0 0 0.71539 0.16793 -0.67824 0.0034468
-0.24191 0.088951 1.2252 7.4678e-39 196 334 0 0 0 -0.74642 0.20335 -0.63365 0.0025157
-0.24047 0.091818 1.2252 1.9361e-39 539 334 0 0 0 -0.73487 0.21214 -0.64418 0.0021825
-0.18314 0.091818 1.2252 6.4537e-39 179 335 0 0 0 0.71377 0.14321 -0.68559 0.0035476
-0.24047 0.093251 1.2252 6.2693e-39 232 335 0 0 0 -0.7308 0.21176 -0.64891 0.0020979
-0.18314 0.093251 1.2252 7.1913e-39 395 335 0 0 0 0.7124 0.13791 -0.68809 0.0035288
-0.24047 0.094685 1.2252 6.2693e-39 448 335 0 0 0 -0.72792 0.2127 -0.65184 0.0018561
-0.23904 0.094685 1.2252 5.7161e-39 449 335 0 0 0 -0.72122 0.21905 -0.65716 0.0018067
-0.18314 0.094685 1.2252 6.5459e-39 505 335 0 0 0 0.7104 0.12946 -0.69179 0.0036202
-0.23904 0.096835 1.2252 5.6701e-39 279.5 336 0 0 0 -0.71545 0.22276 -0.6622 0.0015477
-0.18552 0.096596 1.2252 7.5601e-39 280.33 336 0 0 0 0.70493 0.1293 -0.69739 0.0037225
-0.18314 0.096835 1.2252 7.8366e-39 318.5 336 0 0 0 0.7079 0.12399 -0.69535 0.0036636
-0.23904 0.098985 1.2252 5.9927e-39 493 336 0 0 0 -0.71393 0.22202 -0.66409 0.0014761
-0.18314 0.098985 1.2252 3.319e-39 537 336 0 0 0 0.70402 0.12111 -0.69978 0.0037457
-0.23904 0.10114 1.2252 7.6522e-39 306.5 337 0 0 0 -0.7128 0.22313 -0.66492 0.0014685
-0.18457 0.10114 1.2252 5.7161e-39 344.5 337 0 0 0 0.69522 0.12346 -0.70811 0.0037956
-0.18457 0.10329 1.2252 5.0708e-39 161 338 0 0 0 0.68977 0.12328 -0.71345 0.0036262
-0.2376 0.10472 1.2252 6.3615e-39 218 338 0 0 0 -0.70664 0.22052 -0.67234 0.0016063
-0.18457 0.10472 1.2252 7.1913e-39 376 338 0 0 0 0.68721 0.12782 -0.71513 0.0034862
-0.2376 0.10615 1.2252 6.0849e-39 433 338 0 0 0 -0.70574 0.21635 -0.67463 0.0016968
-0.18529 0.10687 1.2252 6.4076e-39 323 338.5 0 0 0 0.68349 0.13453 -0.71745 0.00341
-0.23474 0.10902 1.2252 5.9005e-39 236 339 0 0 0 -0.70449 0.21 -0.67793 0.0021352
-0.18744 0.10902 1.2252 7.0991e-39 387 339 0 0 0 0.66876 0.14833 -0.72854 0.0031233
-0.186 0.10902 1.2252 6.9147e-39 388 339 0 0 0 0.67524 0.14329 -0.72354 0.0033222
-0.23474 0.11045 1.2252 5.7161e-39 449 339 0 0 0 -0.70689 0.20677 -0.67643 0.0024667
-0.18744 0.11117 1.2252 6.7303e-39 341.5 339.5 0 0 0 0.66536 0.15433 -0.7304 0.0030074
-0.186 0.11117 1.2252 6.7764e-39 342.5 339.5 0 0 0 0.67313 0.15334 -0.72345 0.0032532
-0.18744 0.11332 1.2252 8.1132e-39 415 340 0 0 0 0.6646 0.16324 -0.72915 0.0030212
-0.2333 0.11475 1.2252 5.8083e-39 480 340 0 0 0 -0.70499 0.20017 -0.68038 0.0027776
-0.2333 0.11691 1.2252 6.8686e-39 315.5 341 0 0 0 -0.70539 0.1975 -0.68074 0.0027549
-0.18744 0.11762 1.2252 6.2693e-39 454 341 0 0 0 0.66798 0.17522 -0.72326 0.003228
-0.186 0.11762 1.2252 5.9005e-39 455 341 0 0 0 0.6688 0.1766 -0.72216 0.0033472
-0.18744 0.11905 1.2252 7.56e-39 195 342 0 0 0 0.67021 0.17978 -0.72006 0.0034702
-0.186 0.11905 1.2252 7.6522e-39 196 342 0 0 0 0.67044 0.18101 -0.71954 0.003575
-0.23187 0.12121 1.2252 6.131e-39 425 342 0 0 0 -0.70723 0.18749 -0.68167 0.002793
-0.18887 0.12121 1.2252 7.4679e-39 471.5 342 0 0 0 0.6708 0.18428 -0.71838 0.0034683
-0.18744 0.12121 1.2252 7.2835e-39 472.5 342 0 0 0 0.6732 0.18587 -0.71572 0.0036495
-0.186 0.12049 1.2252 8.2054e-39 408 342 0 0 0 0.67183 0.18527 -0.71716 0.0036775
-0.23187 0.12335 1.2252 6.5459e-39 207 343 0 0 0 -0.70312 0.18755 -0.68589 0.0031002
-0.18887 0.12335 1.2252 6.0849e-39 237 343 0 0 0 0.67296 0.19316 -0.71401 0.0036787
-0.23187 0.12479 1.2252 7.8366e-39 419 343 0 0 0 -0.70268 0.18861 -0.68605 0.0035338
-0.23187 0.12694 1.2252 6.2232e-39 193 344 0 0 0 -0.69756 0.19225 -0.69025 0.0039114
-0.1903 0.12694 1.2252 7.6983e-39 280.5 344 0 0 0 0.66769 0.21362 -0.71313 0.0039999
-0.23044 0.12909 1.2252 5.9005e-39 451 344 0 0 0 -0.68566 0.19523 -0.70125 0.0041575
-0.1903 0.12909 1.2252 6.0849e-39 479 344 0 0 0 0.66713 0.21989 -0.71175 0.0042423
-0.19317 0.13195 1.2252 8.8508e-39 405 345 0 0 0 0.65196 0.22413 -0.72437 0.0053629
-0.19174 0.13124 1.2252 7.514e-39 302.5 345 0 0 0 0.66072 0.22458 -0.71625 0.004845
-0.19317 0.13339 1.2252 6.3615e-39 509 345 0 0 0 0.65283 0.22377 -0.7237 0.0054353
-0.19174 0.13339 1.2252 6.3615e-39 510 345 0 0 0 0.66087 0.22757 -0.71516 0.0054338
-0.229 0.13482 1.2252 7.1913e-39 185 346 0 0 0 -0.65183 0.21964 -0.72586 0.0051989
-0.19317 0.13482 1.2252 6.4537e-39 210 346 0 0 0 0.6536 0.22289 -0.72328 0.0057309
-0.229 0.13625 1.2252 8.021e-39 391 346 0 0 0 -0.65083 0.22039 -0.72653 0.0057956
-0.1946 0.13697 1.2252 4.9786e-39 478.5 346 0 0 0 0.64602 0.22308 -0.73 0.0069867
-0.19317 0.13625 1.2252 6.7303e-39 416 346 0 0 0 0.65713 0.22314 -0.72 0.0059391
-0.1946 0.13912 1.2252 5.6239e-39 222 347 0 0 0 0.65057 0.22287 -0.72601 0.0070632
-0.22757 0.14199 1.2252 6.1771e-39 480 347 0 0 0 -0.63311 0.21577 -0.74338 0.0072554
-0.1946 0.14127 1.2252 4.1027e-39 484.5 347 0 0 0 0.6488 0.22134 -0.72806 0.0085116
-0.22686 0.14342 1.2252 6.4537e-39 192.5 348 0 0 0 -0.62395 0.21186 -0.7522 0.0089408
-0.1946 0.14342 1.2252 7.0069e-39 215 348 0 0 0 0.65139 0.22037 -0.72603 0.0092629
-0.22686 0.14485 1.2252 5.5778e-39 252.5 348 0 0 0 -0.62741 0.20625 -0.75088 0.0084168
-0.1946 0.14485 1.2252 8.2976e-39 392 348 0 0 0 0.6534 0.21959 -0.72446 0.0089789
-0.22614 0.147 1.2252 6.1771e-39 434.5 348 0 0 0 -0.61714 0.19933 -0.76119 0.010237
-0.1946 0.147 1.2252 6.0849e-39 456.5 348 0 0 0 0.65435 0.21696 -0.7244 0.0097674
-0.2247 0.15059 1.2252 5.9927e-39 169 349 0 0 0 -0.58125 0.2111 -0.78587 0.014376
-0.19604 0.15059 1.2252 6.9147e-39 189 349 0 0 0 0.63036 0.22148 -0.74404 0.014595
-0.2247 0.15273 1.2252 6.8225e-39 226 349 0 0 0 -0.57785 0.21027 -0.78859 0.014525
-0.22327 0.15345 1.2252 5.6239e-39 252 349 0 0 0 -0.5347 0.22005 -0.81589 0.022088
-0.22184 0.15345 1.2252 5.4395e-39 253 349 0 0 0 -0.50307 0.23203 -0.83252 0.027193
-0.19747 0.15273 1.2252 5.9466e-39 306.5 349 0 0 0 0.59382 0.22763 -0.77173 0.020866
-0.22327 0.15489 1.2252 8.943e-39 401 349 0 0 0 -0.54084 0.23102 -0.80878 0.021967
-0.22184 0.15489 1.2252 8.482e-39 402 349 0 0 0 -0.50081 0.23693 -0.8325 0.028586
-0.22327 0.15703 1.2252 6.0849e-39 445 349 0 0 0 -0.53947 0.23428 -0.80876 0.024806
-0.22184 0.15703 1.2252 5.9466e-39 446 349 0 0 0 -0.50057 0.24495 -0.83032 0.029263
-0.20034 0.15775 1.2252 5.6239e-39 475 349 0 0 0 0.52052 0.29772 -0.80027 0.034832
-0.1989 0.15775 1.2252 5.9005e-39 476 349 0 0 0 0.55773 0.27945 -0.78157 0.028481
-0.22327 0.15919 1.2252 6.0849e-39 485 349 0 0 0 -0.53582 0.2391 -0.80977 0.026422
-0.22184 0.15919 1.2252 6.7303e-39 502 349 0 0 0 -0.50561 0.25834 -0.82318 0.032263
-0.20034 0.15919 1.2252 2.0283e-39 545 349 0 0 0 0.52538 0.31785 -0.78927 0.034994
-0.1989 0.15919 1.2252 2.0283e-39 546 349 0 0 0 0.55413 0.30902 -0.77295 0.030069
-0.22327 0.16062 1.2252 5.8083e-39 143 350 0 0 0 -0.5439 0.24717 -0.80192 0.026407
-0.22112 0.16062 1.2252 6.4998e-39 144.5 350 0 0 0 -0.48338 0.28313 -0.82836 0.036836
-0.20034 0.16062 1.2252 6.3615e-39 166 350 0 0 0 0.525 0.35333 -0.7743 0.036652
-0.1989 0.16062 1.2252 5.9927e-39 167 350 0 0 0 0.56486 0.33661 -0.75341 0.029306
-0.2204 0.16205 1.2252 6.1771e-39 169 350 0 0 0 -0.45695 0.29242 -0.84005 0.040387
-0.20034 0.16205 1.2252 7.56e-39 183 350 0 0 0 0.52451 0.36793 -0.7678 0.035029
-0.20935 0.041732 1.2276 3.8722e-39 534 319 0 0 0 0.0079989 -0.93062 -0.3659 0.0054326
-0.21294 0.043168 1.2276 6.6842e-39 362.5 320 0 0 0 -0.019104 -0.92161 -0.38765 0.0050661
-0.21058 0.043125 1.2264 6.1771e-39 364 320 0 0 0 -0.010474 -0.92911 -0.36966 0.0052894
-0.20709 0.043146 1.227 6.2693e-39 366.5 320 0 0 0 0.016701 -0.93636 -0.35064 0.004994
-0.20484 0.043125 1.2264 6.2693e-39 368 320 0 0 0 0.033464 -0.94023 -0.3389 0.0045033
-0.20341 0.043125 1.2264 6.2693e-39 369 320 0 0 0 0.044035 -0.94174 -0.33345 0.0039359
-0.23641 0.045995 1.2264 7.1913e-39 253 321 0 0 0 -0.30691 -0.81925 -0.48439 0.025426
-0.2309 0.044605 1.2276 5.7161e-39 471 320 0 0 0 -0.18135 -0.87536 -0.44818 0.0099639
-0.22874 0.044605 1.2276 5.8083e-39 472.5 320 0 0 0 -0.1403 -0.88747 -0.43898 0.0058002
-0.22659 0.044605 1.2276 5.8083e-39 474 320 0 0 0 -0.11958 -0.89493 -0.42988 0.0039826
-0.22515 0.044605 1.2276 5.7161e-39 475 320 0 0 0 -0.1048 -0.89817 -0.42697 0.0037191
-0.22299 0.044605 1.2276 6.2232e-39 487.5 320 0 0 0 -0.086417 -0.89959 -0.4281 0.0030431
-0.22062 0.04456 1.2264 6.5459e-39 489 320 0 0 0 -0.069818 -0.90527 -0.41906 0.0029676
-0.21919 0.04456 1.2264 6.2693e-39 490 320 0 0 0 -0.062183 -0.90707 -0.41637 0.0030859
-0.21703 0.04456 1.2264 5.8544e-39 491.5 320 0 0 0 -0.053194 -0.91244 -0.40573 0.0034768
-0.21488 0.04456 1.2264 5.9927e-39 493 320 0 0 0 -0.039498 -0.91884 -0.39265 0.0042611
-0.20125 0.04456 1.2264 6.3154e-39 527.5 320 0 0 0 0.063116 -0.94098 -0.33252 0.0033055
-0.1993 0.044605 1.2276 5.4395e-39 529 320 0 0 0 0.07607 -0.94151 -0.32828 0.0030203
-0.19499 0.044605 1.2276 3.9644e-39 532 320 0 0 0 0.12378 -0.93186 -0.34104 0.0050141
-0.19212 0.044605 1.2276 3.78e-39 534 320 0 0 0 0.16247 -0.91826 -0.36111 0.012036
-0.19068 0.044605 1.2276 3.78e-39 535 320 0 0 0 0.17687 -0.90561 -0.38547 0.018222
-0.18925 0.044605 1.2276 3.9644e-39 536 320 0 0 0 0.19429 -0.89446 -0.40274 0.024794
-0.18781 0.044605 1.2276 3.2268e-39 138 321 0 0 0 0.19672 -0.88328 -0.42559 0.031173
-0.18475 0.045995 1.2264 6.3615e-39 369 321 0 0 0 0.26215 -0.82269 -0.50445 0.054985
-0.1835 0.044605 1.2276 2.8581e-39 141 321 0 0 0 0.21993 -0.83123 -0.51058 0.051113
-0.18045 0.045995 1.2264 6.5459e-39 372 321 0 0 0 0.32095 -0.73366 -0.59895 0.071531
-0.17901 0.045995 1.2264 6.6381e-39 373 321 0 0 0 0.35513 -0.6875 -0.63342 0.073814
-0.24645 0.04743 1.2264 6.9147e-39 429 321 0 0 0 -0.49039 -0.66422 -0.56421 0.049394
-0.24526 0.047477 1.2276 7.3757e-39 430 321 0 0 0 -0.46607 -0.68378 -0.56145 0.046843
-0.24286 0.04743 1.2264 7.7905e-39 431.5 321 0 0 0 -0.43809 -0.71603 -0.5435 0.044776
-0.23808 0.046041 1.2276 6.8225e-39 252 321 0 0 0 -0.32863 -0.80921 -0.48702 0.025547
-0.2352 0.046041 1.2276 7.3757e-39 254 321 0 0 0 -0.27847 -0.83577 -0.47322 0.020624
-0.17674 0.046504 1.2272 5.6854e-39 428 321 0 0 0 0.38846 -0.61737 -0.68407 0.079295
-0.1748 0.046736 1.227 4.9785e-39 460.5 321 0 0 0 0.43551 -0.54245 -0.71838 0.076875
-0.17264 0.047454 1.227 3.9183e-39 337.5 321.5 0 0 0 0.50453 -0.41493 -0.75715 0.071562
-0.17057 0.047477 1.2276 3.4112e-39 139 322 0 0 0 0.514 -0.38975 -0.76413 0.069044
-0.24885 0.048913 1.2276 6.6842e-39 230.5 322 0 0 0 -0.53426 -0.59975 -0.59571 0.059349
-0.17327 0.048865 1.2264 6.7303e-39 373 322 0 0 0 0.53328 -0.37678 -0.7574 0.072267
-0.17112 0.048865 1.2264 6.3154e-39 379.5 322 0 0 0 0.55539 -0.30922 -0.77196 0.068773
-0.16914 0.048913 1.2276 5.9927e-39 386 322 0 0 0 0.56499 -0.27088 -0.77937 0.064646
-0.1677 0.048913 1.2276 6.1771e-39 387 322 0 0 0 0.58261 -0.23708 -0.7774 0.060938
-0.251 0.051786 1.2276 6.8225e-39 223 323 0 0 0 -0.66196 -0.39641 -0.63613 0.067949
-0.24932 0.051017 1.2264 6.4537e-39 324 322.5 0 0 0 -0.6029 -0.48322 -0.63483 0.069225
-0.24788 0.0503 1.2264 6.7303e-39 425 322 0 0 0 -0.57039 -0.52912 -0.62825 0.064732
-0.17112 0.051017 1.2264 5.3012e-39 454.5 322.5 0 0 0 0.58827 -0.22043 -0.77804 0.062445
-0.16914 0.051068 1.2276 4.9785e-39 461 322.5 0 0 0 0.60426 -0.17597 -0.77711 0.059895
-0.251 0.053222 1.2276 5.9927e-39 422 323 0 0 0 -0.67873 -0.33383 -0.65412 0.065721
-0.24932 0.053169 1.2264 6.3615e-39 423 323 0 0 0 -0.65786 -0.35621 -0.66358 0.064602
-0.17112 0.053169 1.2264 3.9644e-39 532.5 323 0 0 0 0.62002 -0.1379 -0.77237 0.056025
-0.16914 0.053222 1.2276 3.78e-39 534 323 0 0 0 0.62376 -0.10955 -0.7739 0.052009
-0.251 0.054658 1.2276 6.3615e-39 213 324 0 0 0 -0.70456 -0.27059 -0.65603 0.059915
-0.24932 0.054604 1.2264 6.1771e-39 214 324 0 0 0 -0.68386 -0.29466 -0.66746 0.063377
-0.17112 0.054604 1.2264 5.8083e-39 363.5 324 0 0 0 0.63996 -0.085303 -0.76366 0.050801
-0.16914 0.054658 1.2276 5.9005e-39 365 324 0 0 0 0.64641 -0.047991 -0.76148 0.043371
-0.25244 0.056813 1.2276 5.8083e-39 306 324.5 0 0 0 -0.73624 -0.15158 -0.65953 0.04794
-0.251 0.056813 1.2276 5.5317e-39 307 324.5 0 0 0 -0.7178 -0.17073 -0.67499 0.049627
-0.24932 0.056039 1.2264 6.7303e-39 415 324 0 0 0 -0.69057 -0.21399 -0.69088 0.055251
-0.17327 0.057474 1.2264 6.3615e-39 254 325 0 0 0 0.66492 -0.024358 -0.74652 0.040739
-0.17116 0.056771 1.2267 6.3615e-39 377 324.5 0 0 0 0.65571 -0.0092946 -0.75496 0.037969
-0.25244 0.058967 1.2276 7.0991e-39 399 325 0 0 0 -0.73628 -0.0533 -0.67458 0.02925
-0.251 0.058967 1.2276 6.8225e-39 400 325 0 0 0 -0.73287 -0.085331 -0.675 0.037868
-0.17327 0.058908 1.2264 6.5459e-39 465 325 0 0 0 0.68122 0.0029359 -0.73207 0.035237
-0.1712 0.058938 1.227 5.9927e-39 466.5 325 0 0 0 0.68164 0.043783 -0.73038 0.029292
-0.251 0.061121 1.2276 4.7942e-39 252.5 326 0 0 0 -0.72606 0.010069 -0.68756 0.022866
-0.24932 0.061061 1.2264 4.6559e-39 253.5 326 0 0 0 -0.71804 -0.0069595 -0.69597 0.024112
-0.17471 0.061778 1.2264 7.7444e-39 426 326 0 0 0 0.70602 0.06718 -0.705 0.023742
-0.17285 0.06132 1.2268 7.222e-39 360.33 326 0 0 0 0.7005 0.078346 -0.70934 0.022704
-0.17099 0.060862 1.2272 6.6381e-39 294.67 326 0 0 0 0.68894 0.089181 -0.71931 0.021376
-0.24932 0.063213 1.2264 5.9927e-39 494 326 0 0 0 -0.72835 0.026968 -0.68467 0.020001
-0.24788 0.063213 1.2264 6.1771e-39 495 326 0 0 0 -0.72699 0.014072 -0.6865 0.021491
-0.17471 0.063213 1.2264 4.6098e-39 194 327 0 0 0 0.71553 0.10526 -0.6906 0.017214
-0.17264 0.063244 1.227 5.209e-39 195.5 327 0 0 0 0.71233 0.12564 -0.6905 0.013986
-0.24957 0.064712 1.2276 5.7161e-39 237 327 0 0 0 -0.73023 0.077146 -0.67883 0.012476
-0.24788 0.064648 1.2264 5.9927e-39 238 327 0 0 0 -0.72881 0.06622 -0.68151 0.012362
-0.17471 0.064648 1.2264 7.0991e-39 398 327 0 0 0 0.72279 0.13675 -0.67741 0.011288
-0.17273 0.064712 1.2276 6.7303e-39 399.5 327 0 0 0 0.71691 0.15703 -0.67925 0.0089314
-0.24885 0.066866 1.2276 6.131e-39 332.5 327.5 0 0 0 -0.73258 0.11915 -0.67017 0.0065256
-0.24716 0.0668 1.2264 6.0849e-39 333.5 327.5 0 0 0 -0.73729 0.10044 -0.66807 0.0071343
-0.17488 0.066866 1.2276 5.3934e-39 201.5 328 0 0 0 0.7286 0.17278 -0.66278 0.0057158
-0.17273 0.066148 1.2276 4.1027e-39 143.5 328 0 0 0 0.72493 0.17523 -0.66616 0.0063982
-0.24813 0.069021 1.2276 7.56e-39 414 328 0 0 0 -0.7432 0.15096 -0.65182 0.0042274
-0.24645 0.068952 1.2264 7.6522e-39 415 328 0 0 0 -0.74421 0.14066 -0.65297 0.0040678
-0.17614 0.068952 1.2264 6.1771e-39 473 328 0 0 0 0.73629 0.18729 -0.65023 0.0046216
-0.17488 0.069021 1.2276 6.0849e-39 474 328 0 0 0 0.73355 0.1881 -0.65309 0.0043193
-0.24813 0.071175 1.2276 8.5281e-39 281.5 329 0 0 0 -0.7483 0.1645 -0.64264 0.0038039
-0.24645 0.071104 1.2264 8.021e-39 282.5 329 0 0 0 -0.74826 0.15714 -0.64452 0.003647
-0.17614 0.071104 1.2264 7.2374e-39 336 329 0 0 0 0.73565 0.19451 -0.64883 0.004252
-0.17488 0.071175 1.2276 7.1452e-39 337 329 0 0 0 0.73493 0.19353 -0.64994 0.0038801
-0.24813 0.073329 1.2276 6.7303e-39 530 329 0 0 0 -0.75291 0.18004 -0.63302 0.003552
-0.24645 0.073257 1.2264 6.5459e-39 531 329 0 0 0 -0.7523 0.17336 -0.6356 0.0035095
-0.17614 0.073257 1.2264 6.8225e-39 193 330 0 0 0 0.73311 0.19637 -0.65114 0.00417
-0.24645 0.074691 1.2264 7.0991e-39 244 330 0 0 0 -0.75405 0.18051 -0.63153 0.0034332
-0.17614 0.074691 1.2264 7.56e-39 396 330 0 0 0 0.73149 0.19581 -0.65313 0.004109
-0.24669 0.07692 1.2276 5.9927e-39 317.5 330.5 0 0 0 -0.75643 0.19231 -0.62517 0.0031893
-0.17674 0.077134 1.2272 5.5625e-39 342 330.67 0 0 0 0.72592 0.19668 -0.65906 0.0039763
-0.24669 0.079074 1.2276 6.9147e-39 400 331 0 0 0 -0.7587 0.19696 -0.62095 0.0030304
-0.17901 0.078996 1.2264 5.5317e-39 451 331 0 0 0 0.71874 0.20071 -0.66568 0.0037029
-0.17776 0.079074 1.2276 5.6239e-39 452 331 0 0 0 0.72227 0.19366 -0.66395 0.0039967
-0.24501 0.081149 1.2264 6.1771e-39 376 331.5 0 0 0 -0.76392 0.19209 -0.61606 0.0028843
-0.17901 0.081149 1.2264 1.1017e-38 281.5 332 0 0 0 0.7176 0.18937 -0.67021 0.0037387
-0.17776 0.081229 1.2276 1.0003e-38 282.5 332 0 0 0 0.71856 0.18415 -0.67065 0.0038337
-0.24501 0.0833 1.2264 7.6522e-39 438 332 0 0 0 -0.76671 0.19101 -0.61292 0.0027444
-0.17919 0.083383 1.2276 6.1771e-39 495 332 0 0 0 0.71705 0.17573 -0.67451 0.003694
-0.17776 0.083383 1.2276 6.6381e-39 496 332 0 0 0 0.71708 0.17634 -0.67432 0.0039033
-0.24501 0.084735 1.2264 3.1347e-39 161 333 0 0 0 -0.76445 0.19299 -0.61512 0.0026056
-0.17919 0.084819 1.2276 7.1913e-39 207 333 0 0 0 0.71656 0.1713 -0.67617 0.0036458
-0.24526 0.086974 1.2276 6.2232e-39 421.5 333 0 0 0 -0.7647 0.19023 -0.61567 0.0024786
-0.1814 0.087127 1.2264 6.2386e-39 236.67 333.67 0 0 0 0.71638 0.16156 -0.67875 0.0034816
-0.17919 0.086974 1.2276 6.4998e-39 284 333.5 0 0 0 0.71489 0.15962 -0.68077 0.0035556
-0.24358 0.08904 1.2264 7.56e-39 195 334 0 0 0 -0.75342 0.19468 -0.62806 0.0025244
-0.18117 0.08904 1.2264 6.9147e-39 247.5 334 0 0 0 0.71554 0.15074 -0.68212 0.0035252
-0.24271 0.090982 1.2268 6.1156e-39 452.33 334 0 0 0 -0.74985 0.19953 -0.63081 0.0024962
-0.18117 0.091192 1.2264 6.1771e-39 316.5 334.5 0 0 0 0.71358 0.14094 -0.68626 0.0035056
-0.24239 0.093437 1.2276 6.5459e-39 231 335 0 0 0 -0.74325 0.19945 -0.63859 0.0022076
-0.18117 0.093344 1.2264 6.8686e-39 396.5 335 0 0 0 0.71257 0.13165 -0.68914 0.0035062
-0.24239 0.094873 1.2276 6.3615e-39 447 335 0 0 0 -0.7381 0.20443 -0.64297 0.0021897
-0.18117 0.094779 1.2264 6.592e-39 507 335 0 0 0 0.71131 0.12482 -0.69171 0.0035132
-0.24071 0.096931 1.2264 5.5317e-39 278.5 336 0 0 0 -0.72638 0.21419 -0.65306 0.001852
-0.18117 0.096931 1.2264 7.8827e-39 320 336 0 0 0 0.70944 0.11684 -0.69501 0.0034778
-0.24071 0.099083 1.2264 5.9927e-39 492 336 0 0 0 -0.7212 0.21831 -0.65742 0.0016897
-0.18117 0.099083 1.2264 2.1666e-39 538.5 336 0 0 0 0.70343 0.11484 -0.70142 0.0035179
-0.24071 0.10052 1.2264 7.2835e-39 197 337 0 0 0 -0.71624 0.22083 -0.66199 0.0014978
-0.1829 0.10103 1.2268 6.3615e-39 315 337 0 0 0 0.69882 0.11421 -0.70612 0.0036356
-0.18063 0.10062 1.2276 7.3757e-39 247 337 0 0 0 0.70576 0.11344 -0.69931 0.0034698
-0.24095 0.10277 1.2276 7.3296e-39 463 337 0 0 0 -0.71666 0.21746 -0.66266 0.0016794
-0.23928 0.10339 1.2264 6.0849e-39 513 337 0 0 0 -0.71348 0.21965 -0.66536 0.0015748
-0.18248 0.10298 1.2272 4.9171e-39 260 337.67 0 0 0 0.69959 0.11917 -0.70453 0.0036971
-0.18063 0.10277 1.2276 5.0707e-39 310 337.5 0 0 0 0.70434 0.11749 -0.70007 0.0036535
-0.24095 0.10493 1.2276 6.4537e-39 216 338 0 0 0 -0.71446 0.21507 -0.6658 0.0017487
-0.23928 0.10482 1.2264 6.2693e-39 217 338 0 0 0 -0.71148 0.2176 -0.66817 0.0016198
-0.18269 0.10487 1.227 6.8686e-39 377.5 338 0 0 0 0.69652 0.1247 -0.70662 0.0037885
-0.23951 0.10636 1.2276 6.5459e-39 432 338 0 0 0 -0.71242 0.21703 -0.66736 0.001887
-0.23784 0.10769 1.2264 3.2268e-39 538 338 0 0 0 -0.71113 0.21346 -0.66987 0.0020548
-0.18475 0.10769 1.2264 7.2835e-39 178 339 0 0 0 0.68463 0.1343 -0.71641 0.0034891
-0.18269 0.10703 1.227 6.8916e-39 325 338.5 0 0 0 0.69498 0.13078 -0.70703 0.0037318
-0.23808 0.10924 1.2276 5.8083e-39 235 339 0 0 0 -0.71492 0.21083 -0.66667 0.0022872
-0.18475 0.10913 1.2264 6.7303e-39 389 339 0 0 0 0.68431 0.14039 -0.71555 0.0035339
-0.18278 0.10924 1.2276 7.1452e-39 390.5 339 0 0 0 0.69335 0.13943 -0.70699 0.0038037
-0.23808 0.11067 1.2276 6.4537e-39 447 339 0 0 0 -0.71611 0.21161 -0.66514 0.0025705
-0.23641 0.11056 1.2264 6.0849e-39 448 339 0 0 0 -0.7122 0.20784 -0.67051 0.0025493
-0.18475 0.11056 1.2264 6.0849e-39 484 339 0 0 0 0.68276 0.1486 -0.71537 0.0035183
-0.18278 0.11067 1.2276 6.0388e-39 485.5 339 0 0 0 0.69359 0.14783 -0.70504 0.003822
-0.23664 0.11282 1.2276 5.9927e-39 274 340 0 0 0 -0.71717 0.20976 -0.66458 0.0029715
-0.23497 0.11272 1.2264 5.8544e-39 275 340 0 0 0 -0.71135 0.20385 -0.67263 0.0027367
-0.18485 0.11277 1.227 7.6522e-39 310 340 0 0 0 0.68322 0.16051 -0.71235 0.003482
-0.1835 0.11282 1.2276 7.5601e-39 311 340 0 0 0 0.69014 0.15797 -0.70623 0.0037974
-0.2352 0.11498 1.2276 6.1771e-39 479 340 0 0 0 -0.7176 0.20516 -0.66556 0.0031647
-0.18494 0.11498 1.2276 2.0283e-39 542 340 0 0 0 0.68405 0.17151 -0.70898 0.0037737
-0.2352 0.11714 1.2276 7.0069e-39 314.5 341 0 0 0 -0.71757 0.20105 -0.66684 0.0031784
-0.18494 0.11642 1.2276 6.6381e-39 244 341 0 0 0 0.68471 0.17619 -0.7072 0.0038216
-0.2352 0.11929 1.2276 5.163e-39 162 342 0 0 0 -0.72015 0.19869 -0.66476 0.0032014
-0.23354 0.11917 1.2264 5.4395e-39 163 342 0 0 0 -0.7113 0.19646 -0.67487 0.0031888
-0.2352 0.12073 1.2276 7.0991e-39 374 342 0 0 0 -0.72274 0.1945 -0.66319 0.0033224
-0.23354 0.12061 1.2264 6.7303e-39 375 342 0 0 0 -0.71499 0.19307 -0.67194 0.0031324
-0.2352 0.12288 1.2276 5.9005e-39 338.5 342.5 0 0 0 -0.72616 0.19122 -0.6604 0.0032496
-0.23354 0.12276 1.2264 5.9927e-39 339.5 342.5 0 0 0 -0.71791 0.188 -0.67027 0.0031221
-0.18667 0.123 1.2264 5.9927e-39 338.67 342.67 0 0 0 0.67948 0.19974 -0.70599 0.0038876
-0.2352 0.12503 1.2276 8.6664e-39 417 343 0 0 0 -0.72807 0.18621 -0.65973 0.00313
-0.23354 0.12491 1.2264 8.3898e-39 418 343 0 0 0 -0.7183 0.18305 -0.67122 0.0032006
-0.18906 0.12491 1.2264 5.8083e-39 449 343 0 0 0 0.6781 0.20376 -0.70616 0.0038967
-0.1869 0.12491 1.2264 5.9005e-39 450.5 343 0 0 0 0.68121 0.20637 -0.7024 0.0038844
-0.2352 0.12719 1.2276 5.8544e-39 190 344 0 0 0 -0.73182 0.18735 -0.65524 0.0031407
-0.23354 0.12706 1.2264 6.4076e-39 192 344 0 0 0 -0.71288 0.18955 -0.67518 0.0038077
-0.18906 0.12706 1.2264 7.8366e-39 281.5 344 0 0 0 0.6788 0.21308 -0.70273 0.0039538
-0.18695 0.12709 1.2267 7.6522e-39 283 344 0 0 0 0.68632 0.21385 -0.69515 0.0038918
-0.23293 0.12927 1.227 5.9466e-39 449.5 344 0 0 0 -0.70836 0.19406 -0.67866 0.0043666
-0.18906 0.12921 1.2264 5.9927e-39 480 344 0 0 0 0.67668 0.22125 -0.70225 0.0041887
-0.18709 0.12934 1.2276 5.9466e-39 482.5 344 0 0 0 0.69057 0.21974 -0.68908 0.0039469
-0.23233 0.13078 1.2276 5.9005e-39 171 345 0 0 0 -0.71077 0.19741 -0.67515 0.0046233
-0.23067 0.13065 1.2264 6.0849e-39 172 345 0 0 0 -0.69146 0.19788 -0.69478 0.0045469
-0.19049 0.13065 1.2264 6.2693e-39 200 345 0 0 0 0.67233 0.22305 -0.70585 0.0045406
-0.18925 0.13078 1.2276 6.3615e-39 201 345 0 0 0 0.67991 0.22525 -0.69784 0.0045394
-0.18781 0.13078 1.2276 6.8225e-39 202 345 0 0 0 0.68727 0.22457 -0.69082 0.0041143
-0.23233 0.13222 1.2276 7.0069e-39 378 345 0 0 0 -0.71317 0.19813 -0.67241 0.0046459
-0.23067 0.1328 1.2264 7.3296e-39 423 345 0 0 0 -0.68517 0.2044 -0.69911 0.0052205
-0.19049 0.1328 1.2264 7.1452e-39 459.5 345 0 0 0 0.67393 0.22516 -0.70365 0.0048991
-0.18925 0.13294 1.2276 7.0069e-39 460.5 345 0 0 0 0.68189 0.22752 -0.69517 0.0048078
-0.18781 0.13222 1.2276 8.7586e-39 409 345 0 0 0 0.69016 0.22491 -0.68781 0.0042508
-0.2309 0.13509 1.2276 7.2835e-39 184 346 0 0 0 -0.69265 0.2139 -0.68883 0.0053592
-0.19121 0.13495 1.2264 6.3615e-39 211.5 346 0 0 0 0.66897 0.22701 -0.70778 0.005643
-0.18925 0.13509 1.2276 6.1771e-39 213 346 0 0 0 0.68446 0.22798 -0.69249 0.005022
-0.2309 0.13652 1.2276 7.9288e-39 390 346 0 0 0 -0.68593 0.21793 -0.69427 0.0057255
-0.22923 0.13782 1.2264 6.4537e-39 477 346 0 0 0 -0.65967 0.22107 -0.7183 0.0057505
-0.19336 0.13782 1.2264 2.1205e-39 543 346 0 0 0 0.66342 0.22577 -0.71337 0.0063421
-0.19131 0.13717 1.227 4.1488e-39 481 346 0 0 0 0.67392 0.22829 -0.70265 0.005949
-0.22923 0.13926 1.2264 6.1771e-39 198 347 0 0 0 -0.65887 0.22308 -0.71842 0.0063413
-0.19274 0.13933 1.227 6.0388e-39 223.5 347 0 0 0 0.671 0.22416 -0.70676 0.0067458
-0.22946 0.14083 1.2276 8.021e-39 398 347 0 0 0 -0.66472 0.21991 -0.71399 0.0064735
-0.19274 0.14076 1.227 6.4076e-39 423.5 347 0 0 0 0.6715 0.22438 -0.70621 0.0069742
-0.22946 0.14299 1.2276 6.4998e-39 335 347.5 0 0 0 -0.66902 0.21242 -0.71224 0.0071403
-0.19274 0.14292 1.227 5.7392e-39 178.5 348 0 0 0 0.67635 0.21965 -0.70307 0.007311
-0.19274 0.14507 1.227 8.6203e-39 393.5 348 0 0 0 0.67452 0.21833 -0.70523 0.0079084
-0.2278 0.14715 1.2264 6.2693e-39 433.5 348 0 0 0 -0.64639 0.19817 -0.73683 0.0078109
-0.19355 0.14658 1.2276 5.9927e-39 438 348 0 0 0 0.67478 0.21792 -0.70511 0.0080338
-0.22802 0.14945 1.2276 6.3615e-39 509 348 0 0 0 -0.65502 0.19238 -0.73071 0.0076176
-0.22636 0.1493 1.2264 6.5459e-39 510 348 0 0 0 -0.63036 0.19588 -0.75118 0.0091334
-0.1948 0.1493 1.2264 5.7161e-39 148 349 0 0 0 0.65749 0.21643 -0.72171 0.010131
-0.19355 0.14801 1.2276 6.1771e-39 477 348 0 0 0 0.67452 0.21891 -0.70505 0.008535
-0.22802 0.15089 1.2276 6.0849e-39 167 349 0 0 0 -0.65778 0.18628 -0.72981 0.0080939
-0.22636 0.15074 1.2264 5.9005e-39 168 349 0 0 0 -0.62129 0.19256 -0.75955 0.0098571
-0.1948 0.15074 1.2264 6.7303e-39 190 349 0 0 0 0.65903 0.21988 -0.71926 0.010791
-0.22659 0.15304 1.2276 6.592e-39 225 349 0 0 0 -0.63557 0.18944 -0.74844 0.0095518
-0.19633 0.15297 1.227 5.9927e-39 308 349 0 0 0 0.65051 0.22067 -0.72673 0.012537
-0.19499 0.15304 1.2276 6.7764e-39 309 349 0 0 0 0.6655 0.21925 -0.71347 0.011276
-0.22659 0.1552 1.2276 8.3898e-39 399 349 0 0 0 -0.63441 0.18883 -0.74958 0.010121
-0.22493 0.15504 1.2264 8.7586e-39 400 349 0 0 0 -0.58614 0.21464 -0.78126 0.015587
-0.19705 0.15512 1.227 6.5459e-39 419.5 349 0 0 0 0.63516 0.23614 -0.7354 0.016679
-0.22493 0.1572 1.2264 5.8544e-39 444 349 0 0 0 -0.58744 0.21168 -0.7811 0.016787
-0.19767 0.15648 1.2264 6.6381e-39 449 349 0 0 0 0.61336 0.25386 -0.7479 0.020343
-0.22493 0.15935 1.2264 5.9005e-39 484 349 0 0 0 -0.58754 0.21815 -0.77924 0.018124
-0.19786 0.15879 1.2276 4.1027e-39 512 349 0 0 0 0.62393 0.28626 -0.72717 0.020941
-0.22515 0.16094 1.2276 5.5317e-39 142 350 0 0 0 -0.60378 0.23015 -0.76321 0.018053
-0.19786 0.16094 1.2276 5.9927e-39 168 350 0 0 0 0.62192 0.31684 -0.71612 0.021967
-0.21244 0.041774 1.2288 3.9644e-39 532 319 0 0 0 -0.0052886 -0.92175 -0.38775 0.0049954
-0.211 0.041774 1.2288 3.8722e-39 533 319 0 0 0 0.0011869 -0.92354 -0.38351 0.0052752
-0.20812 0.041774 1.2288 3.8722e-39 535 319 0 0 0 0.024379 -0.93221 -0.36109 0.0052559
-0.22106 0.043211 1.2288 6.6381e-39 357 320 0 0 0 -0.06329 -0.90093 -0.42932 0.0033563
-0.21891 0.043211 1.2288 6.131e-39 358.5 320 0 0 0 -0.048161 -0.90429 -0.4242 0.0031623
-0.21675 0.043211 1.2288 5.9927e-39 360 320 0 0 0 -0.035382 -0.9097 -0.41376 0.0038245
-0.21531 0.043211 1.2288 6.4537e-39 361 320 0 0 0 -0.02678 -0.91347 -0.40603 0.004197
-0.23328 0.044649 1.2288 5.67e-39 469.5 320 0 0 0 -0.22118 -0.86238 -0.4554 0.012784
