# .PCD v.7 - Point Cloud Data file format
VERSION .7
FIELDS x y z rgb u v vx vy vz normal_x normal_y normal_z curvature
SIZE 4 4 4 4 4 4 4 4 4 4 4 4 4
TYPE F F F F F F F F F F F F F
COUNT 1 1 1 1 1 1 1 1 1 1 1 1 1
WIDTH 554
HEIGHT 1
VIEWPOINT 0 0 0 1 0 0 0
POINTS 554
DATA ascii
0.052997 -0.057439 1.024 5.6239e-39 369 253 0 0 0 -0.78933 -0.42576 -0.44236 0.0096345
-0.044046 -0.055043 1.024 5.0708e-39 207 254 0 0 0 0.79218 -0.36819 -0.4867 0.051808
-0.042847 -0.055043 1.024 4.8864e-39 208 254 0 0 0 0.79839 -0.36084 -0.48205 0.049749
-0.041084 -0.055089 1.0249 4.7942e-39 209.5 254 0 0 0 0.80054 -0.35361 -0.48383 0.044423
-0.038702 -0.055111 1.0253 4.8864e-39 211.5 254 0 0 0 0.81816 -0.3207 -0.47725 0.040684
-0.036888 -0.055089 1.0249 5.2552e-39 213 254 0 0 0 0.81936 -0.32728 -0.47067 0.040235
-0.046442 -0.053246 1.024 5.9466e-39 301 254.5 0 0 0 0.79054 -0.36813 -0.48941 0.062296
-0.044469 -0.053076 1.0246 6.0542e-39 272.67 254.67 0 0 0 0.80189 -0.36094 -0.47612 0.054594
-0.042883 -0.053291 1.0249 6.131e-39 304 254.5 0 0 0 0.80318 -0.35762 -0.47646 0.047269
-0.041076 -0.05328 1.0247 6.2463e-39 305.5 254.5 0 0 0 0.81164 -0.35471 -0.46414 0.046253
-0.038702 -0.053312 1.0253 6.2232e-39 307.5 254.5 0 0 0 0.82201 -0.32953 -0.46444 0.041547
-0.036857 -0.053246 1.024 6.4537e-39 309 254.5 0 0 0 0.8217 -0.3713 -0.43237 0.050662
-0.046442 -0.05085 1.024 6.131e-39 300.5 255.5 0 0 0 0.7908 -0.37613 -0.48286 0.062576
-0.044654 -0.050861 1.0242 6.2232e-39 302 255.5 0 0 0 0.80313 -0.36903 -0.46777 0.058197
-0.042883 -0.050893 1.0249 6.3615e-39 303.5 255.5 0 0 0 0.81752 -0.35678 -0.45208 0.052468
-0.040862 -0.051064 1.0243 6.3308e-39 336.33 255.33 0 0 0 0.81775 -0.38288 -0.42974 0.055404
-0.03867 -0.050871 1.0245 6.2923e-39 307 255.5 0 0 0 0.82396 -0.38635 -0.41451 0.053599
-0.036857 -0.051449 1.024 6.0849e-39 402 255 0 0 0 0.82196 -0.38523 -0.41951 0.052329
-0.035718 -0.050334 1.0257 6.8225e-39 216 256 0 0 0 0.81944 -0.34163 -0.46022 0.041035
0.049465 -0.050913 1.0253 5.3934e-39 280 256 0 0 0 -0.83853 -0.35311 -0.41494 0.022273
0.050643 -0.050893 1.0249 5.5317e-39 281 256 0 0 0 -0.8454 -0.35128 -0.40237 0.022829
-0.044645 -0.049053 1.024 5.4395e-39 359.5 256 0 0 0 0.80918 -0.40146 -0.42901 0.063823
-0.042847 -0.049053 1.024 5.9005e-39 361 256 0 0 0 0.80732 -0.40604 -0.42821 0.059668
-0.035718 -0.049134 1.0257 5.7161e-39 373 256 0 0 0 0.8214 -0.36091 -0.44163 0.046159
0.047085 -0.049134 1.0257 5.3473e-39 533 256 0 0 0 -0.84787 -0.32563 -0.41842 0.025283
-0.042847 -0.047855 1.024 3.319e-39 539 256 0 0 0 0.80979 -0.41836 -0.41135 0.060789
0.045847 -0.046695 1.0249 5.7161e-39 390 257 0 0 0 -0.86885 -0.30617 -0.38905 0.026875
0.047046 -0.047894 1.0249 5.9005e-39 239 257 0 0 0 -0.87477 -0.28986 -0.38829 0.026771
0.048245 -0.047894 1.0249 5.9005e-39 240 257 0 0 0 -0.87735 -0.29047 -0.38194 0.02744
0.044685 -0.044334 1.0257 6.6381e-39 211 258 0 0 0 -0.89376 -0.27085 -0.35753 0.029465
0.044648 -0.043098 1.0249 4.7942e-39 293 258 0 0 0 -0.92179 -0.26638 -0.28167 0.035895
0.044611 -0.041864 1.024 6.2693e-39 422 258 0 0 0 -0.9464 -0.25888 -0.19316 0.038278
0.045247 -0.034705 1.0249 3.0886e-39 538.5 260 0 0 0 0.98291 0.17786 -0.047469 0.037939
0.047046 -0.035304 1.0249 4.5637e-39 454 260 0 0 0 -0.98331 -0.18049 0.023015 0.038116
0.043485 -0.032334 1.0257 6.5459e-39 383 261 0 0 0 0.9772 0.17128 -0.12546 0.035628
0.044685 -0.033534 1.0257 6.6381e-39 225 261 0 0 0 0.98331 0.1643 -0.078195 0.03814
0.047085 -0.033534 1.0257 5.9005e-39 227 261 0 0 0 0.98236 0.16794 -0.082196 0.035409
0.04225 -0.025112 1.0249 6.3615e-39 381 263 0 0 0 0.8948 0.22606 -0.385 0.016065
0.039819 -0.022695 1.024 7.0991e-39 195 264 0 0 0 0.88506 0.20274 -0.41901 0.013447
0.041051 -0.023313 1.0249 6.1311e-39 326.5 263.5 0 0 0 0.88764 0.20803 -0.41087 0.013719
0.042285 -0.023333 1.0257 6.1311e-39 327.5 263.5 0 0 0 0.89287 0.19827 -0.40432 0.014488
0.041017 -0.021497 1.024 4.702e-39 289 264 0 0 0 0.8842 0.20074 -0.42177 0.013294
0.042285 -0.020933 1.0257 6.1771e-39 354.5 264 0 0 0 0.89138 0.176 -0.4177 0.013111
0.04225 -0.019117 1.0249 4.7942e-39 158 265 0 0 0 0.88808 0.15229 -0.43373 0.012307
0.042215 -0.017903 1.024 5.6239e-39 235 265 0 0 0 0.88437 0.15186 -0.44139 0.011707
0.039869 0.0030668 1.0253 5.5318e-39 304.5 269.5 0 0 0 0.86183 0.26289 -0.43375 0.01818
0.041085 0.0024679 1.0257 6.0849e-39 439 269 0 0 0 0.8748 0.24871 -0.41577 0.016288
-0.029706 0.0066656 1.0253 6.4537e-39 308.5 270 0 0 0 -0.77379 0.35362 -0.52555 0.016951
-0.028471 0.0096521 1.024 4.8864e-39 168 271 0 0 0 -0.74839 0.36737 -0.55223 0.017143
-0.028518 0.010868 1.0257 6.0849e-39 231 271 0 0 0 -0.76302 0.3632 -0.53468 0.015972
0.036285 0.013268 1.0257 1.8439e-39 543 271 0 0 0 0.77207 0.41851 -0.47829 0.022182
-0.026707 0.015061 1.0253 5.9005e-39 186.5 272 0 0 0 -0.73321 0.39421 -0.55408 0.016864
-0.024898 0.018654 1.0249 6.4076e-39 422.5 272 0 0 0 -0.68809 0.43225 -0.58283 0.017537
-0.023679 0.019237 1.024 5.2552e-39 453 272 0 0 0 -0.65907 0.45369 -0.59983 0.020331
0.033856 0.019253 1.0249 5.163e-39 173 273 0 0 0 0.70374 0.50263 -0.50211 0.024446
-0.022509 0.021061 1.0253 6.5459e-39 213.5 273 0 0 0 -0.65125 0.48137 -0.58666 0.02343
0.031458 0.021651 1.0249 4.9786e-39 336 273 0 0 0 0.64609 0.55709 -0.52175 0.029169
-0.021282 0.022831 1.024 4.7942e-39 354 273 0 0 0 -0.60661 0.51473 -0.60587 0.026264
0.030259 0.02285 1.0249 7.8366e-39 399 273 0 0 0 0.6084 0.58781 -0.53323 0.03118
-0.020705 0.024654 1.0251 6.3384e-39 475.5 273 0 0 0 -0.58821 0.57249 -0.5712 0.030772
0.025442 0.025227 1.024 5.8083e-39 179 274 0 0 0 0.39182 0.67204 -0.62836 0.023436
0.027261 0.024649 1.0249 5.7622e-39 316.5 273.5 0 0 0 0.46741 0.66363 -0.58405 0.030224
0.02906 0.024649 1.0249 5.67e-39 318 273.5 0 0 0 0.54498 0.64405 -0.53685 0.032118
0.030284 0.024069 1.0257 5.163e-39 459 273 0 0 0 0.60717 0.614 -0.50434 0.030974
-0.020118 0.026469 1.0257 7.0069e-39 193 274 0 0 0 -0.55646 0.6248 -0.5477 0.034053
-0.018902 0.027646 1.0249 6.2693e-39 263 274 0 0 0 -0.50356 0.66577 -0.55062 0.034884
0.023084 0.027669 1.0257 3.9644e-39 299 274 0 0 0 0.33756 0.75952 -0.55604 0.026286
0.024274 0.027058 1.0253 5.1629e-39 283 274 0 0 0 0.36937 0.72224 -0.58476 0.025109
-0.017718 0.028869 1.0257 5.6239e-39 349 274 0 0 0 -0.44673 0.73154 -0.51506 0.03689
0.021258 0.028833 1.0245 6.2232e-39 381.5 274 0 0 0 0.29009 0.77734 -0.5582 0.022891
-0.016504 0.030044 1.0249 7.6522e-39 399 274 0 0 0 -0.41341 0.75024 -0.51598 0.037393
-0.012896 0.031217 1.024 5.7161e-39 444 274 0 0 0 -0.27846 0.81495 -0.50825 0.033299
-0.010509 0.031243 1.0249 6.2693e-39 446 274 0 0 0 -0.2173 0.8459 -0.48707 0.029487
-0.0087062 0.03123 1.0245 5.9005e-39 447.5 274 0 0 0 -0.17832 0.84989 -0.49587 0.027903
-0.0045096 0.031217 1.024 5.4395e-39 450 274 0 0 0 -0.075806 0.86789 -0.49094 0.021361
-0.002117 0.031269 1.0257 5.9005e-39 452 274 0 0 0 -0.038767 0.8838 -0.46626 0.015875
0.00028309 0.031269 1.0257 5.5317e-39 454 274 0 0 0 -0.0064858 0.88485 -0.46584 0.014752
0.0062781 0.030044 1.0249 8.3898e-39 418 274 0 0 0 0.066426 0.86417 -0.4988 0.016708
0.014659 0.030019 1.024 5.5317e-39 425 274 0 0 0 0.18368 0.82289 -0.5377 0.019851
0.01707 0.030044 1.0249 5.5317e-39 427 274 0 0 0 0.21604 0.82489 -0.52239 0.019639
0.018269 0.030044 1.0249 5.5317e-39 428 274 0 0 0 0.23338 0.8137 -0.53237 0.020484
-0.041771 -0.063014 1.027 6.2232e-39 367 250 0 0 0 0.79389 -0.26289 -0.54829 0.034598
-0.04117 -0.06061 1.027 3.8262e-39 243 251.5 0 0 0 0.7997 -0.26514 -0.53869 0.03371
0.053174 -0.061236 1.0274 3.4112e-39 534 251 0 0 0 -0.78644 -0.38498 -0.48302 0.0080224
-0.039351 -0.058783 1.0266 5.4395e-39 364 252 0 0 0 0.81564 -0.27505 -0.509 0.038523
-0.03698 -0.058832 1.0274 5.9005e-39 366 252 0 0 0 0.80339 -0.24925 -0.54077 0.034719
0.051928 -0.059985 1.0266 4.8864e-39 349 252 0 0 0 -0.77795 -0.40846 -0.47745 0.0091837
-0.03815 -0.056981 1.0266 7.4218e-39 297 253 0 0 0 0.8137 -0.27534 -0.51193 0.035207
0.049567 -0.052822 1.0274 5.7161e-39 389 255 0 0 0 -0.80244 -0.36622 -0.47114 0.014644
0.050769 -0.052822 1.0274 5.5317e-39 390 255 0 0 0 -0.80478 -0.36958 -0.46448 0.014208
0.047163 -0.050418 1.0274 5.163e-39 354 256 0 0 0 -0.81833 -0.33732 -0.46536 0.019849
0.048365 -0.050418 1.0274 5.7161e-39 355 256 0 0 0 -0.8271 -0.3301 -0.4549 0.019072
0.048325 -0.049175 1.0266 4.3332e-39 534 256 0 0 0 -0.84787 -0.32563 -0.41842 0.025283
0.045923 -0.047974 1.0266 5.6239e-39 238 257 0 0 0 -0.85743 -0.29701 -0.42023 0.02646
0.045548 -0.032778 1.0271 6.1464e-39 331.67 261 0 0 0 -0.98751 -0.15434 0.03155 0.038143
0.047124 -0.03236 1.0266 5.8083e-39 386 261 0 0 0 0.98362 0.16433 -0.074129 0.036777
0.043521 -0.031159 1.0266 2.8581e-39 539 261 0 0 0 0.9745 0.1645 -0.15263 0.033876
0.043557 -0.029382 1.0274 5.67e-39 310 262 0 0 0 0.97133 0.1574 -0.17816 0.032868
0.043557 -0.026978 1.0274 5.1168e-39 190 263 0 0 0 0.92496 0.19306 -0.32737 0.022473
0.04232 -0.010742 1.0266 1.9361e-39 540 266 0 0 0 0.89397 0.13113 -0.42851 0.010535
-0.030957 0.003072 1.027 5.7622e-39 406.5 269 0 0 0 -0.82394 0.32145 -0.46668 0.013561
0.041153 0.003674 1.0274 5.2552e-39 172 270 0 0 0 0.88281 0.26157 -0.39015 0.014899
0.039918 0.004872 1.0266 6.0849e-39 238 270 0 0 0 0.86856 0.27933 -0.40937 0.016976
0.039935 0.0066766 1.027 5.6239e-39 400 270 0 0 0 0.86337 0.29665 -0.40815 0.016798
-0.029768 0.0084822 1.0274 5.5317e-39 437 270 0 0 0 -0.80201 0.34037 -0.49085 0.013112
0.038749 0.0084822 1.0274 4.5176e-39 162 271 0 0 0 0.85201 0.32946 -0.40685 0.017121
-0.028554 0.012684 1.027 6.6841e-39 389.5 271 0 0 0 -0.76974 0.37005 -0.52016 0.014253
-0.02614 0.016882 1.0266 4.241e-39 292 272 0 0 0 -0.73376 0.40971 -0.54197 0.016819
-0.024959 0.020503 1.0274 5.9927e-39 182 273 0 0 0 -0.71822 0.45998 -0.5221 0.018921
-0.023738 0.020486 1.0266 6.5459e-39 183 273 0 0 0 -0.68604 0.47006 -0.55533 0.020727
0.032739 0.021705 1.0274 4.7942e-39 337 273 0 0 0 0.6927 0.55718 -0.45795 0.02476
-0.022555 0.022907 1.0274 4.7942e-39 353 273 0 0 0 -0.65892 0.52686 -0.53687 0.026629
0.031537 0.022907 1.0274 7.6522e-39 400 273 0 0 0 0.66007 0.59257 -0.4617 0.027739
-0.022555 0.02471 1.0274 6.2693e-39 474 273 0 0 0 -0.6393 0.56952 -0.51667 0.03012
0.026706 0.02529 1.0266 5.9927e-39 180 274 0 0 0 0.49497 0.69463 -0.52201 0.030653
0.030335 0.025311 1.0274 6.4537e-39 183 274 0 0 0 0.60615 0.65345 -0.45342 0.031102
-0.020744 0.027103 1.027 6.3154e-39 222.5 274 0 0 0 -0.57533 0.64359 -0.50477 0.034511
0.025516 0.027103 1.027 5.209e-39 284 274 0 0 0 0.4511 0.73821 -0.50156 0.031217
0.027931 0.026513 1.0274 6.0849e-39 237 274 0 0 0 0.51969 0.71016 -0.47497 0.031877
-0.018949 0.028917 1.0274 5.3473e-39 348 274 0 0 0 -0.50301 0.72615 -0.46872 0.035804
0.023122 0.028917 1.0274 6.4537e-39 383 274 0 0 0 0.3184 0.8009 -0.50712 0.02361
0.024304 0.028893 1.0266 6.4537e-39 384 274 0 0 0 0.35388 0.7748 -0.52388 0.025682
-0.017747 0.030119 1.0274 7.9288e-39 398 274 0 0 0 -0.44317 0.78022 -0.44144 0.036417
-0.01533 0.031295 1.0266 5.4395e-39 443 274 0 0 0 -0.36504 0.82135 -0.43832 0.034597
-0.011727 0.031295 1.0266 6.1771e-39 445 274 0 0 0 -0.24154 0.86055 -0.44845 0.027582
-0.006923 0.031295 1.0266 5.3473e-39 449 274 0 0 0 -0.12895 0.88353 -0.45028 0.019424
-0.00091848 0.031321 1.0274 5.5317e-39 453 274 0 0 0 -0.020977 0.89812 -0.43925 0.01154
0.011093 0.031295 1.0266 5.8083e-39 471 274 0 0 0 0.12388 0.87482 -0.46834 0.013956
0.012304 0.031321 1.0274 5.5317e-39 472 274 0 0 0 0.13249 0.87765 -0.46063 0.013035
0.015897 0.030094 1.0266 5.6239e-39 426 274 0 0 0 0.19543 0.85185 -0.48595 0.017
0.0195 0.030094 1.0266 5.9005e-39 429 274 0 0 0 0.24955 0.83555 -0.48946 0.01981
0.020701 0.030094 1.0266 6.0849e-39 430 274 0 0 0 0.26639 0.82467 -0.49896 0.020631
-0.041239 -0.064924 1.0287 6.0849e-39 411.5 249 0 0 0 0.79031 -0.22113 -0.57141 0.033117
-0.038847 -0.064951 1.0292 6.131e-39 414.5 249 0 0 0 0.78727 -0.20682 -0.58089 0.031006
-0.04062 -0.063092 1.0283 6.0388e-39 368 250 0 0 0 0.79435 -0.22471 -0.56437 0.032569
-0.038847 -0.063145 1.0292 5.8544e-39 369.75 250 0 0 0 0.79122 -0.20162 -0.57734 0.030384
-0.037072 -0.063198 1.03 5.67e-39 371.5 250 0 0 0 0.79536 -0.16383 -0.58357 0.031509
-0.04062 -0.061287 1.0283 5.3473e-39 343 251 0 0 0 0.79627 -0.24278 -0.55409 0.033208
-0.039048 -0.060536 1.0291 3.8722e-39 211.67 251.67 0 0 0 0.80172 -0.21047 -0.55942 0.032373
-0.037072 -0.060787 1.03 4.0105e-39 246.5 251.5 0 0 0 0.79657 -0.18714 -0.57485 0.03251
0.052015 -0.061287 1.0283 3.78e-39 533 251 0 0 0 -0.78052 -0.38744 -0.49058 0.0081378
-0.038214 -0.058881 1.0283 5.8083e-39 365 252 0 0 0 0.80304 -0.23862 -0.54607 0.033749
0.049691 -0.05898 1.03 2.8581e-39 144 253 0 0 0 -0.75663 -0.39934 -0.51773 0.013561
0.04965 -0.057124 1.0291 1.051e-38 283 253.5 0 0 0 -0.76264 -0.41007 -0.50023 0.011994
0.050875 -0.057149 1.0295 9.4962e-39 284 253.5 0 0 0 -0.76842 -0.40499 -0.4955 0.010594
0.04963 -0.054694 1.0287 5.4395e-39 296.5 254.5 0 0 0 -0.7801 -0.39074 -0.48864 0.012411
0.050833 -0.054694 1.0287 5.7162e-39 297.5 254.5 0 0 0 -0.78104 -0.39709 -0.48197 0.011012
0.047281 -0.052954 1.03 6.2693e-39 386 255 0 0 0 -0.76964 -0.37576 -0.51619 0.015899
0.048486 -0.052954 1.03 6.3615e-39 387 255 0 0 0 -0.76964 -0.37576 -0.51619 0.015899
-0.035867 -0.051749 1.03 6.0849e-39 403 255 0 0 0 0.81853 -0.25874 -0.51289 0.0332
0.046621 -0.051082 1.0287 4.9325e-39 277.5 256 0 0 0 -0.79247 -0.35284 -0.49749 0.018404
0.048446 -0.051706 1.0291 4.4254e-39 203 256 0 0 0 -0.79628 -0.35161 -0.49225 0.017637
0.046 -0.049257 1.0283 5.9927e-39 532 256 0 0 0 -0.81839 -0.32678 -0.47271 0.021947
0.044871 -0.046929 1.03 5.8083e-39 389 257 0 0 0 -0.833 -0.28869 -0.47199 0.024769
0.04324 -0.045298 1.0294 4.9478e-39 295.67 257.67 0 0 0 -0.8478 -0.27802 -0.4516 0.029301
0.044797 -0.045648 1.0283 4.4254e-39 139 258 0 0 0 -0.85874 -0.27984 -0.42924 0.029194
0.045198 -0.03081 1.0283 4.0566e-39 437.67 261.33 0 0 0 0.98078 0.15343 -0.12051 0.035665
0.046815 -0.030417 1.0286 5.6239e-39 204 262 0 0 0 0.9825 0.15225 -0.10729 0.035492
0.044797 -0.028805 1.0283 5.6239e-39 390 262 0 0 0 0.96787 0.15159 -0.20062 0.031727
0.046038 -0.028829 1.0291 5.6239e-39 391 262 0 0 0 0.97119 0.14364 -0.19014 0.032007
0.044797 -0.027 1.0283 5.0246e-39 191 263 0 0 0 0.92677 0.1855 -0.32663 0.022778
0.046076 -0.027045 1.03 5.0246e-39 192 263 0 0 0 0.93336 0.15918 -0.32173 0.025554
0.043593 -0.025196 1.0283 6.6381e-39 382 263 0 0 0 0.90261 0.20251 -0.37984 0.016761
0.044834 -0.024615 1.0291 5.9005e-39 421.5 263 0 0 0 0.90344 0.18907 -0.38477 0.016338
0.046076 -0.025238 1.03 6.4537e-39 384 263 0 0 0 0.90277 0.18807 -0.38684 0.016911
0.043612 -0.023401 1.0287 6.1311e-39 328.5 263.5 0 0 0 0.89951 0.18528 -0.39566 0.014291
0.044834 -0.022809 1.0291 7.2835e-39 199 264 0 0 0 0.90371 0.16907 -0.39334 0.014651
0.04363 -0.021003 1.0291 6.4076e-39 355.5 264 0 0 0 0.90238 0.16418 -0.39844 0.013696
0.044834 -0.021003 1.0291 6.5459e-39 384.5 264 0 0 0 0.90409 0.16681 -0.39345 0.013788
0.043648 -0.018602 1.0295 5.209e-39 197.5 265 0 0 0 0.9106 0.12987 -0.39236 0.010885
0.044834 -0.019197 1.0291 4.702e-39 160 265 0 0 0 0.90854 0.14711 -0.39105 0.012117
0.043666 -0.016803 1.03 6.2693e-39 384 265 0 0 0 0.91415 0.12179 -0.38665 0.0098913
0.044834 -0.017391 1.0291 6.1771e-39 319 265 0 0 0 0.91442 0.12003 -0.38655 0.009757
0.044871 -0.015598 1.03 4.8864e-39 454 265 0 0 0 0.9207 0.11777 -0.37208 0.0091674
-0.031021 0.0048842 1.0291 5.3473e-39 175 270 0 0 0 -0.84077 0.31294 -0.44178 0.011095
0.041222 0.0048842 1.0291 5.9005e-39 239 270 0 0 0 0.89109 0.27502 -0.36101 0.012506
-0.031047 0.0060933 1.03 5.9005e-39 244 270 0 0 0 -0.86227 0.29638 -0.41068 0.0098248
-0.029842 0.0097085 1.03 5.163e-39 167 271 0 0 0 -0.83532 0.3329 -0.43752 0.010112
-0.028613 0.015119 1.0292 6.0388e-39 185 272 0 0 0 -0.78833 0.39164 -0.47451 0.011511
-0.027386 0.015708 1.0283 6.6381e-39 217 272 0 0 0 -0.7655 0.39544 -0.50758 0.014276
0.036436 0.014529 1.03 6.6381e-39 208 272 0 0 0 0.81622 0.41985 -0.39688 0.016854
-0.026194 0.018723 1.0287 6.4536e-39 421.5 272 0 0 0 -0.74987 0.43225 -0.50085 0.015779
-0.026227 0.020554 1.03 5.9005e-39 181 273 0 0 0 -0.75481 0.46112 -0.46651 0.017336
-0.025001 0.021741 1.0291 5.8083e-39 241 273 0 0 0 -0.72855 0.48524 -0.48349 0.021728
-0.023777 0.021723 1.0283 5.8083e-39 242 273 0 0 0 -0.69112 0.49875 -0.52306 0.022535
-0.026227 0.022964 1.03 5.5317e-39 350 273 0 0 0 -0.74623 0.49886 -0.44077 0.020759
-0.025022 0.022964 1.03 5.163e-39 351 273 0 0 0 -0.71803 0.53866 -0.44077 0.026282
-0.023797 0.022945 1.0291 4.8864e-39 352 273 0 0 0 -0.68837 0.53818 -0.48632 0.027109
0.032821 0.022964 1.03 7.8366e-39 401 273 0 0 0 0.6957 0.6004 -0.39437 0.024892
-0.026829 0.024772 1.03 6.6842e-39 439 273 0 0 0 -0.74014 0.52422 -0.42117 0.021773
-0.025022 0.024169 1.03 7.56e-39 409 273 0 0 0 -0.71208 0.55637 -0.42824 0.027197
-0.023817 0.024772 1.03 6.2694e-39 473 273 0 0 0 -0.67919 0.60093 -0.4214 0.030693
0.03159 0.024751 1.0292 6.1311e-39 322 273.5 0 0 0 0.65556 0.63658 -0.40621 0.028148
-0.022583 0.027148 1.0287 6.9147e-39 218 274 0 0 0 -0.62359 0.64515 -0.44149 0.032404
-0.021371 0.027738 1.0283 6.0849e-39 246 274 0 0 0 -0.5896 0.67282 -0.44686 0.034509
0.027174 0.02736 1.0291 5.3473e-39 301.67 274 0 0 0 0.49387 0.75466 -0.43195 0.029666
0.029169 0.027148 1.0287 5.7622e-39 287 274 0 0 0 0.5598 0.71374 -0.42096 0.030364
0.030385 0.027159 1.0291 5.67e-39 288 274 0 0 0 0.60487 0.69263 -0.39293 0.0303
-0.022593 0.028965 1.0291 4.9786e-39 345 274 0 0 0 -0.60169 0.69206 -0.39877 0.033855
-0.020787 0.028965 1.0291 5.0708e-39 346.5 274 0 0 0 -0.56567 0.71073 -0.41818 0.034018
0.025548 0.028941 1.0283 6.5459e-39 385 274 0 0 0 0.44918 0.7791 -0.43732 0.029673
0.030411 0.028989 1.03 8.021e-39 389 274 0 0 0 0.56471 0.74291 -0.35942 0.028608
-0.018997 0.030194 1.03 7.3757e-39 394 274 0 0 0 -0.48528 0.7928 -0.36874 0.034838
0.0014893 0.031399 1.03 5.0708e-39 459 274 0 0 0 0.014909 0.90513 -0.42487 0.008607
0.0026944 0.031399 1.03 5.163e-39 460 274 0 0 0 0.031278 0.90399 -0.4264 0.0085787
0.0069032 0.03136 1.0287 5.7622e-39 467.5 274 0 0 0 0.05876 0.89747 -0.43715 0.0094505
0.0093139 0.031373 1.0292 5.8544e-39 469.5 274 0 0 0 0.094331 0.894 -0.43802 0.0099435
0.013517 0.031347 1.0283 5.0708e-39 474 274 0 0 0 0.1492 0.88045 -0.45006 0.012527
0.014733 0.031373 1.0291 5.2552e-39 537 274 0 0 0 0.17205 0.88001 -0.44271 0.012083
0.017141 0.031373 1.0291 5.4395e-39 539 274 0 0 0 0.19868 0.8758 -0.43988 0.013246
0.01836 0.031399 1.03 5.4395e-39 540 274 0 0 0 0.21901 0.87726 -0.42714 0.013517
0.021939 0.030144 1.0283 5.9927e-39 431 274 0 0 0 0.27556 0.83836 -0.47034 0.019503
0.023161 0.030169 1.0291 5.5317e-39 432 274 0 0 0 0.30167 0.84008 -0.45085 0.019837
0.024773 0.030579 1.0294 3.9337e-39 470.67 274 0 0 0 0.37022 0.83543 -0.40619 0.022059
-0.041342 -0.066293 1.0313 7.1913e-39 235.5 249 0 0 0 0.79005 -0.19135 -0.58241 0.0322
-0.039515 -0.066265 1.0309 5.2552e-39 237 249 0 0 0 0.79031 -0.17323 -0.58771 0.031012
-0.038309 -0.061441 1.0309 5.5317e-39 345 251 0 0 0 0.79938 -0.17073 -0.57605 0.031432
0.049774 -0.060285 1.0317 5.5317e-39 344 252 0 0 0 -0.74641 -0.37566 -0.54932 0.014385
0.050982 -0.060285 1.0317 5.163e-39 346 252 0 0 0 -0.76243 -0.37098 -0.53016 0.012183
0.050939 -0.059029 1.0309 2.8581e-39 145 253 0 0 0 -0.76442 -0.38977 -0.51356 0.012211
0.04734 -0.057244 1.0313 4.4254e-39 256.5 253.5 0 0 0 -0.73496 -0.40439 -0.54434 0.015493
0.048547 -0.057244 1.0313 4.3332e-39 259.5 253.5 0 0 0 -0.74068 -0.40235 -0.53806 0.01489
0.046932 -0.054622 1.0312 5.7161e-39 261 254.67 0 0 0 -0.73928 -0.41288 -0.53197 0.014311
0.048527 -0.054808 1.0309 5.4856e-39 290.5 254.5 0 0 0 -0.74739 -0.41002 -0.52277 0.013632
0.046153 -0.053043 1.0317 5.7161e-39 385 255 0 0 0 -0.74196 -0.39618 -0.54087 0.015125
0.046115 -0.051792 1.0309 6.5459e-39 201 256 0 0 0 -0.77119 -0.3526 -0.53004 0.018092
0.044909 -0.048174 1.0309 5.4395e-39 237 257 0 0 0 -0.80832 -0.29873 -0.50733 0.023438
0.043739 -0.047007 1.0317 6.1771e-39 388 257 0 0 0 -0.80674 -0.2975 -0.51056 0.02322
0.046115 -0.024053 1.0309 5.4395e-39 461 263 0 0 0 0.89756 0.1826 -0.40129 0.01605
0.046115 -0.022847 1.0309 7.4678e-39 200 264 0 0 0 0.90135 0.17848 -0.39461 0.017013
0.046115 -0.021038 1.0309 6.3154e-39 385.5 264 0 0 0 0.90963 0.14973 -0.38749 0.014149
0.046115 -0.018626 1.0309 5.0707e-39 207.5 265 0 0 0 0.91919 0.1333 -0.37057 0.011668
0.046153 -0.016831 1.0317 5.9005e-39 386 265 0 0 0 0.92495 0.12199 -0.35997 0.010396
0.043721 -0.015014 1.0313 5.624e-39 321 265.5 0 0 0 0.9234 0.11617 -0.36584 0.0093
0.044909 -0.014405 1.0309 6.9147e-39 190 266 0 0 0 0.92538 0.11919 -0.35982 0.0091706
0.044928 -0.012601 1.0313 6.3154e-39 350 266 0 0 0 0.93125 0.11361 -0.34622 0.0090042
0.042532 -0.0095884 1.0317 5.9927e-39 210 267 0 0 0 0.92709 0.13926 -0.348 0.0088805
-0.031099 0.0073106 1.0317 6.3615e-39 371 270 0 0 0 -0.86718 0.30468 -0.39391 0.0092708
0.041291 0.0060984 1.0309 5.5317e-39 368 270 0 0 0 0.9013 0.28559 -0.32573 0.010216
0.040084 0.0085105 1.0309 4.8864e-39 163 271 0 0 0 0.89057 0.31139 -0.33156 0.0098188
0.037672 0.010923 1.0309 5.9005e-39 349 271 0 0 0 0.85529 0.36337 -0.36939 0.013701
-0.028685 0.016967 1.0317 4.5176e-39 290 272 0 0 0 -0.81263 0.41083 -0.41335 0.011369
-0.027455 0.016953 1.0309 4.241e-39 291 272 0 0 0 -0.79672 0.4152 -0.43914 0.012493
-0.026249 0.021777 1.0309 5.9927e-39 240 273 0 0 0 -0.76397 0.4795 -0.43177 0.018054
-0.027478 0.023002 1.0317 5.9005e-39 349 273 0 0 0 -0.77501 0.4857 -0.4043 0.018783
-0.028685 0.02421 1.0317 7.8366e-39 406 273 0 0 0 -0.78211 0.48538 -0.39078 0.019917
-0.025043 0.025395 1.0309 5.4395e-39 472 273 0 0 0 -0.69675 0.60206 -0.38994 0.029405
0.032848 0.024189 1.0309 6.0849e-39 464 273 0 0 0 0.69648 0.61405 -0.3713 0.025472
-0.023857 0.026624 1.0317 7.4678e-39 190 274 0 0 0 -0.67779 0.63929 -0.3632 0.03217
0.031668 0.026624 1.0317 6.2693e-39 240 274 0 0 0 0.65254 0.68144 -0.33141 0.027726
0.02684 0.029038 1.0317 7.2835e-39 386 274 0 0 0 0.47236 0.80615 -0.35637 0.025017
0.028627 0.029014 1.0309 7.6983e-39 387.5 274 0 0 0 0.52515 0.77314 -0.35564 0.028288
-0.022631 0.03022 1.0309 7.7444e-39 391 274 0 0 0 -0.59392 0.73138 -0.33518 0.03424
-0.020822 0.03022 1.0309 7.9288e-39 392.5 274 0 0 0 -0.54601 0.76542 -0.3406 0.034229
-0.017203 0.031426 1.0309 5.4856e-39 441.5 274 0 0 0 -0.41465 0.83923 -0.3518 0.030593
0.0051087 0.031426 1.0309 5.9005e-39 466 274 0 0 0 0.043519 0.90521 -0.42273 0.0081629
0.015963 0.031426 1.0309 5.0708e-39 538 274 0 0 0 0.18068 0.88908 -0.42059 0.01043
0.019581 0.031426 1.0309 4.6098e-39 541 274 0 0 0 0.23575 0.87931 -0.4138 0.013075
0.020788 0.031426 1.0309 3.0425e-39 542 274 0 0 0 0.24515 0.87732 -0.41257 0.013715
0.023219 0.031452 1.0317 1.9361e-39 544 274 0 0 0 0.32863 0.86732 -0.37385 0.01725
-0.010579 0.032659 1.0317 5.7161e-39 155 275 0 0 0 -0.20622 0.89263 -0.40086 0.017551
0.011148 0.032659 1.0317 5.3473e-39 170 275 0 0 0 0.10909 0.90386 -0.41369 0.0079949
0.012345 0.032632 1.0309 5.3473e-39 171 275 0 0 0 0.126 0.8976 -0.42242 0.0085193
-0.037165 -0.065168 1.0326 6.0849e-39 417 249 0 0 0 0.79096 -0.10773 -0.60231 0.03165
0.049232 -0.060965 1.033 5.5317e-39 437 251.5 0 0 0 -0.74167 -0.35743 -0.5676 0.015579
0.051024 -0.061544 1.0326 4.6098e-39 532 251 0 0 0 -0.75542 -0.36615 -0.54338 0.013044
0.046815 -0.059152 1.033 3.8261e-39 141.5 253 0 0 0 -0.72148 -0.3879 -0.57358 0.016869
0.048608 -0.059128 1.0326 3.1347e-39 143 253 0 0 0 -0.73772 -0.38443 -0.55497 0.015698
0.046192 -0.057315 1.0326 4.3331e-39 255.5 253.5 0 0 0 -0.71752 -0.40328 -0.56793 0.016612
0.046192 -0.055503 1.0326 5.8083e-39 373 254 0 0 0 -0.71879 -0.41957 -0.55435 0.015513
0.045021 -0.050713 1.0334 5.0708e-39 352 256 0 0 0 -0.75586 -0.35579 -0.54963 0.017979
0.043812 -0.048295 1.0334 5.6239e-39 236 257 0 0 0 -0.77529 -0.32146 -0.54368 0.020206
0.044984 -0.049463 1.0326 7.2835e-39 442 256 0 0 0 -0.77865 -0.32463 -0.53696 0.020218
0.042568 -0.047047 1.0326 6.5459e-39 387 257 0 0 0 -0.79141 -0.2994 -0.53294 0.022471
0.04136 -0.045839 1.0326 3.5034e-39 538 257 0 0 0 -0.80811 -0.26835 -0.52435 0.024514
0.046192 -0.015637 1.0326 5.0708e-39 455 265 0 0 0 0.93401 0.11741 -0.33742 0.010462
0.043776 -0.013221 1.0326 4.702e-39 285 266 0 0 0 0.93275 0.11422 -0.34194 0.0090767
0.044984 -0.010804 1.0326 1.6595e-39 542 266 0 0 0 0.93803 0.12053 -0.32491 0.0086814
0.045021 -0.0096044 1.0334 6.3615e-39 212 267 0 0 0 0.9433 0.12684 -0.30676 0.0080507
0.038943 0.0097328 1.0326 6.3615e-39 224 271 0 0 0 0.88749 0.3315 -0.32009 0.0085703
-0.029917 0.010941 1.0326 5.9005e-39 230 271 0 0 0 -0.85689 0.33047 -0.39563 0.0088289
-0.028733 0.018205 1.0334 6.2693e-39 390 272 0 0 0 -0.81896 0.42778 -0.3825 0.011672
-0.027501 0.018189 1.0326 7.0991e-39 391 272 0 0 0 -0.8082 0.42542 -0.40722 0.011805
-0.027524 0.021832 1.0334 6.1771e-39 239 273 0 0 0 -0.79714 0.47039 -0.37855 0.017838
0.034111 0.020606 1.0326 6.1771e-39 232 273 0 0 0 0.75281 0.54982 -0.3619 0.019215
-0.028709 0.023022 1.0326 5.5317e-39 348 273 0 0 0 -0.79885 0.47397 -0.37038 0.018213
0.032903 0.025438 1.0326 6.9147e-39 185 274 0 0 0 0.68627 0.65842 -0.30907 0.025626
-0.025096 0.027261 1.033 6.592e-39 216 274 0 0 0 -0.68585 0.65344 -0.32035 0.033764
-0.023877 0.027854 1.0326 6.2693e-39 244 274 0 0 0 -0.66331 0.68166 -0.30881 0.034294
0.031695 0.027854 1.0326 4.7942e-39 338 274 0 0 0 0.64202 0.70713 -0.29629 0.027626
0.032931 0.026668 1.0334 5.8083e-39 241 274 0 0 0 0.67995 0.67366 -0.28957 0.026349
-0.023897 0.029086 1.0334 5.2552e-39 342 274 0 0 0 -0.64931 0.70914 -0.2748 0.034201
-0.020269 0.031505 1.0334 5.9005e-39 439 274 0 0 0 -0.51299 0.81042 -0.28295 0.030613
0.022049 0.031505 1.0334 2.1205e-39 543 274 0 0 0 0.30366 0.88421 -0.35491 0.015461
0.026885 0.030295 1.0334 4.9786e-39 435 274 0 0 0 0.46005 0.83012 -0.31505 0.023797
0.029279 0.03027 1.0326 5.2552e-39 437 274 0 0 0 0.53526 0.78632 -0.30854 0.02534
-0.011796 0.032686 1.0326 5.6239e-39 154 275 0 0 0 -0.23463 0.88894 -0.39336 0.019494
-0.0093875 0.032714 1.0334 5.6239e-39 156 275 0 0 0 -0.1585 0.89957 -0.407 0.016197
0.0099579 0.032714 1.0334 5.2552e-39 169 275 0 0 0 0.096723 0.90365 -0.41721 0.009605
0.013574 0.032686 1.0326 5.163e-39 172 275 0 0 0 0.13315 0.89978 -0.41553 0.00863
0.04873 -0.06291 1.0352 4.702e-39 287 251 0 0 0 -0.72456 -0.349 -0.59432 0.018538
0.05111 -0.062857 1.0343 4.8864e-39 288 251 0 0 0 -0.74188 -0.35242 -0.57044 0.014954
0.046893 -0.060462 1.0347 4.9786e-39 341.5 252 0 0 0 -0.71462 -0.36938 -0.59404 0.018043
0.048689 -0.061647 1.0343 6.0849e-39 530 251 0 0 0 -0.73201 -0.34674 -0.58646 0.016294
0.043886 -0.054432 1.0352 8.2054e-39 202 255 0 0 0 -0.70665 -0.3881 -0.59162 0.016588
0.045097 -0.054432 1.0352 6.6381e-39 203 255 0 0 0 -0.70818 -0.39153 -0.58753 0.016537
-0.036018 -0.053176 1.0343 6.7303e-39 220 255 0 0 0 0.80823 -0.15355 -0.56849 0.03194
0.043886 -0.052616 1.0352 8.2054e-39 291 255.5 0 0 0 -0.71108 -0.4022 -0.57672 0.016332
0.045097 -0.053221 1.0352 5.7161e-39 384 255 0 0 0 -0.70832 -0.40666 -0.57698 0.016481
0.043849 -0.050756 1.0343 5.3473e-39 351 256 0 0 0 -0.73798 -0.36635 -0.56672 0.017082
0.045059 -0.051966 1.0343 8.7586e-39 200 256 0 0 0 -0.72268 -0.39257 -0.56888 0.015356
0.043262 -0.048961 1.0347 6.638e-39 338 256.5 0 0 0 -0.76416 -0.31574 -0.56247 0.018564
0.041464 -0.047165 1.0352 6.3615e-39 386 257 0 0 0 -0.77056 -0.29132 -0.56689 0.019891
0.043849 -0.012033 1.0343 7.9288e-39 413 266 0 0 0 0.94297 0.11882 -0.31094 0.0088601
0.043849 -0.010823 1.0343 1.7517e-39 541 266 0 0 0 0.94547 0.11981 -0.30287 0.0081654
0.043886 -0.0096205 1.0352 6.0849e-39 211 267 0 0 0 0.94701 0.12672 -0.29516 0.0080234
0.045059 -0.0084024 1.0343 5.4395e-39 358 267 0 0 0 0.94594 0.137 -0.29399 0.007369
0.045097 -0.0071983 1.0352 8.5742e-39 432 267 0 0 0 0.94991 0.15036 -0.27397 0.006235
0.040252 0.0097573 1.0352 6.3615e-39 225 271 0 0 0 0.90728 0.32404 -0.26802 0.0056903
-0.031177 0.010959 1.0343 5.6239e-39 229 271 0 0 0 -0.87102 0.32862 -0.36515 0.0087787
-0.031203 0.012785 1.0352 6.4537e-39 387.5 271 0 0 0 -0.86858 0.34431 -0.35639 0.0090116
-0.029967 0.012774 1.0343 6.5459e-39 388.5 271 0 0 0 -0.86017 0.34799 -0.37284 0.0085493
-0.033597 0.01459 1.0343 4.702e-39 150 272 0 0 0 -0.86641 0.3506 -0.35555 0.0090909
-0.03119 0.015201 1.0347 5.5317e-39 183 272 0 0 0 -0.85557 0.37126 -0.36078 0.0095165
-0.029967 0.015195 1.0343 5.67e-39 184 272 0 0 0 -0.8447 0.38102 -0.3759 0.0097666
0.036588 0.0158 1.0343 4.4254e-39 284 272 0 0 0 0.84325 0.42794 -0.32526 0.012405
-0.028757 0.01943 1.0343 5.4395e-39 449 272 0 0 0 -0.81948 0.43188 -0.37675 0.012824
-0.027547 0.01943 1.0343 5.3473e-39 450 272 0 0 0 -0.81886 0.43035 -0.37984 0.01265
-0.028769 0.021254 1.0347 5.9466e-39 208.5 273 0 0 0 -0.81787 0.44826 -0.36076 0.016159
-0.027547 0.02064 1.0343 5.9927e-39 180 273 0 0 0 -0.81 0.45745 -0.36693 0.016645
0.032958 0.027901 1.0343 4.9786e-39 339 274 0 0 0 0.66782 0.69866 -0.25668 0.026053
-0.023937 0.030346 1.0352 7.6522e-39 390 274 0 0 0 -0.62395 0.74827 -0.22534 0.032763
-0.021496 0.031531 1.0343 5.6239e-39 438 274 0 0 0 -0.55633 0.79097 -0.25466 0.030041
-0.019076 0.031531 1.0343 5.8083e-39 440 274 0 0 0 -0.48314 0.82467 -0.29408 0.027192
0.028118 0.030321 1.0343 5.163e-39 436 274 0 0 0 0.50724 0.81466 -0.28114 0.025415
-0.0081852 0.032741 1.0343 5.4395e-39 157 275 0 0 0 -0.12737 0.90378 -0.4086 0.015079
-0.0045549 0.032741 1.0343 4.9786e-39 159 275 0 0 0 -0.057973 0.9092 -0.4123 0.011995
-0.00092541 0.032768 1.0352 4.5176e-39 161 275 0 0 0 -0.016211 0.90602 -0.42293 0.014202
0.006336 0.032741 1.0343 5.5317e-39 166 275 0 0 0 0.055792 0.90509 -0.42153 0.011236
0.0087635 0.032768 1.0352 5.163e-39 168 275 0 0 0 0.075198 0.90477 -0.41921 0.011764
0.014807 0.032741 1.0343 5.0708e-39 173 275 0 0 0 0.1511 0.89893 -0.41121 0.0092588
0.016622 0.032741 1.0343 5.4856e-39 174.5 275 0 0 0 0.1808 0.89663 -0.40418 0.0096256
0.019664 0.032768 1.0352 6.3615e-39 177 275 0 0 0 0.24019 0.89229 -0.38227 0.012269
0.023297 0.032768 1.0352 5.9927e-39 180 275 0 0 0 0.35599 0.87745 -0.32148 0.016233
-0.040995 -0.067925 1.0378 4.8864e-39 286 248 0 0 0 0.7968 -0.057607 -0.60149 0.027477
0.048853 -0.064282 1.0378 5.2552e-39 428 250 0 0 0 -0.70038 -0.3549 -0.61929 0.020237
0.046953 -0.06175 1.036 6.2232e-39 456.5 251 0 0 0 -0.70536 -0.3666 -0.60669 0.018651
-0.036139 -0.058211 1.0378 6.0849e-39 209 253 0 0 0 0.79688 -0.043995 -0.60254 0.032729
0.043978 -0.058794 1.0373 4.5176e-39 245.5 253 0 0 0 -0.69662 -0.36372 -0.6184 0.017813
0.045192 -0.058794 1.0373 4.8864e-39 249 253 0 0 0 -0.69409 -0.37322 -0.61558 0.017616
-0.036139 -0.056997 1.0378 5.6239e-39 389 253 0 0 0 0.80341 -0.032556 -0.59453 0.033611
0.04396 -0.056949 1.0369 3.2268e-39 150 254 0 0 0 -0.69988 -0.36785 -0.61225 0.016798
0.045173 -0.056949 1.0369 3.4112e-39 151 254 0 0 0 -0.69691 -0.37314 -0.61244 0.017242
-0.036123 -0.055153 1.0373 5.7622e-39 307 254 0 0 0 0.81269 -0.028449 -0.58201 0.03188
-0.034924 -0.055176 1.0378 5.9005e-39 308 254 0 0 0 0.81368 -0.0084781 -0.58125 0.034541
0.043352 -0.055129 1.0369 8.2974e-39 286 254.5 0 0 0 -0.70695 -0.36247 -0.60731 0.017068
0.045135 -0.05569 1.036 5.9005e-39 372 254 0 0 0 -0.70446 -0.38135 -0.59858 0.017039
-0.034895 -0.052703 1.0369 6.2232e-39 312.5 255 0 0 0 0.82376 -0.034632 -0.56588 0.033645
0.042782 -0.052748 1.0378 8.4818e-39 286 255.5 0 0 0 -0.70893 -0.35991 -0.60654 0.017245
-0.034924 -0.050926 1.0378 6.6381e-39 217 256 0 0 0 0.82574 -0.025689 -0.56346 0.034924
0.042782 -0.050926 1.0378 5.4395e-39 350 256 0 0 0 -0.71088 -0.36692 -0.60002 0.016816
0.041533 -0.048457 1.0369 5.7161e-39 234 257 0 0 0 -0.73726 -0.31663 -0.59681 0.017789
0.042746 -0.049671 1.0369 7.56e-39 440 256 0 0 0 -0.72709 -0.3603 -0.5844 0.01697
0.04032 -0.046031 1.0369 3.5034e-39 537 257 0 0 0 -0.75127 -0.27249 -0.60112 0.018798
0.043923 -0.0084165 1.036 5.9005e-39 357 267 0 0 0 0.94952 0.14838 -0.27641 0.0067881
0.043923 -0.0072043 1.036 8.7586e-39 431 267 0 0 0 0.94937 0.15594 -0.27272 0.0059484
0.04396 -0.0053907 1.0369 5.209e-39 202.5 268 0 0 0 0.95045 0.18938 -0.24655 0.0049654
0.045154 -0.0053881 1.0365 5.3012e-39 204 268 0 0 0 0.95086 0.18588 -0.24763 0.0047225
0.043389 -0.0035739 1.0378 6.3615e-39 370.5 268 0 0 0 0.94901 0.20479 -0.23968 0.004949
0.045211 -0.0029669 1.0378 5.5317e-39 408 268 0 0 0 0.9497 0.21199 -0.23051 0.0049504
0.039074 0.010978 1.036 5.7161e-39 350 271 0 0 0 0.90364 0.33872 -0.26211 0.0053466
0.040354 0.010996 1.0378 5.3473e-39 351 271 0 0 0 0.91472 0.32981 -0.23347 0.0054587
0.037894 0.0122 1.0369 7.56e-39 413 271 0 0 0 0.89743 0.35499 -0.26193 0.0054422
0.03914 0.01221 1.0378 7.3757e-39 414 271 0 0 0 0.90508 0.34799 -0.24439 0.0052246
-0.032469 0.015232 1.0369 5.67e-39 182 272 0 0 0 -0.86987 0.35186 -0.34572 0.009945
-0.030623 0.017038 1.036 4.9325e-39 288.5 272 0 0 0 -0.84837 0.39448 -0.35306 0.011606
-0.030675 0.018281 1.0378 6.2693e-39 388.5 272 0 0 0 -0.84814 0.41134 -0.33385 0.015116
-0.030043 0.023118 1.0369 5.0708e-39 347 273 0 0 0 -0.82743 0.45661 -0.32691 0.018962
0.034254 0.023118 1.0369 8.2054e-39 402 273 0 0 0 0.74299 0.62412 -0.24176 0.02185
0.034226 0.024917 1.036 6.3154e-39 326 273.5 0 0 0 0.72114 0.64711 -0.2474 0.023649
-0.020337 0.032823 1.0369 4.7942e-39 151 275 0 0 0 -0.49746 0.82492 -0.26841 0.026741
-0.01914 0.032851 1.0378 5.0708e-39 152 275 0 0 0 -0.47335 0.83545 -0.2792 0.027138
-0.017896 0.032796 1.036 5.163e-39 153 275 0 0 0 -0.43578 0.84842 -0.30047 0.026426
-0.0069927 0.032823 1.0369 5.0708e-39 158 275 0 0 0 -0.091668 0.90002 -0.42609 0.016634
-0.0021401 0.032823 1.0369 4.6098e-39 160 275 0 0 0 -0.028362 0.89864 -0.43776 0.016782
0.00089202 0.032796 1.036 4.8864e-39 162.5 275 0 0 0 0.0097264 0.90152 -0.43264 0.016029
0.0027102 0.032796 1.036 5.3473e-39 164 275 0 0 0 0.023134 0.90002 -0.43524 0.015796
0.0051388 0.032823 1.0369 5.5317e-39 165 275 0 0 0 0.045207 0.89607 -0.44162 0.016895
0.0075651 0.032823 1.0369 5.3473e-39 167 275 0 0 0 0.051943 0.89716 -0.43863 0.015469
0.018483 0.032823 1.0369 6.0849e-39 176 275 0 0 0 0.21421 0.89479 -0.39174 0.012918
0.02091 0.032823 1.0369 5.9927e-39 178 275 0 0 0 0.29421 0.88581 -0.35886 0.015091
-0.01914 0.034065 1.0378 6.0849e-39 181 275 0 0 0 -0.44664 0.84275 -0.30046 0.026007
-0.010641 0.034065 1.0378 6.5459e-39 186 275 0 0 0 -0.12997 0.89096 -0.43509 0.020662
-0.00092774 0.034065 1.0378 6.4537e-39 194 275 0 0 0 -0.021543 0.88262 -0.46959 0.020701
0.00028642 0.034065 1.0378 6.1771e-39 195 275 0 0 0 -0.012328 0.8826 -0.46996 0.020641
0.0027148 0.034065 1.0378 5.9927e-39 197 275 0 0 0 0.01876 0.88295 -0.4691 0.020581
0.0063573 0.034065 1.0378 5.9005e-39 200 275 0 0 0 0.046381 0.88456 -0.46412 0.019663
0.0093885 0.034051 1.0373 6.4998e-39 202.5 275 0 0 0 0.085133 0.89159 -0.44478 0.017183
0.011205 0.034037 1.0369 6.1771e-39 204 275 0 0 0 0.096034 0.89332 -0.43904 0.015351
0.013019 0.034023 1.0365 5.8544e-39 205.5 275 0 0 0 0.11812 0.89671 -0.42657 0.013238
-0.034983 -0.066823 1.0395 4.9786e-39 238 249 0 0 0 0.76616 0.067776 -0.63906 0.034424
-0.036169 -0.064944 1.0387 5.6239e-39 353 249.5 0 0 0 0.78058 0.031224 -0.62428 0.033859
-0.034983 -0.064391 1.0395 4.9786e-39 289 250 0 0 0 0.77497 0.068428 -0.62828 0.035413
-0.036169 -0.063121 1.0387 6.4537e-39 457 250 0 0 0 0.78513 0.017026 -0.6191 0.033672
-0.034983 -0.063174 1.0395 6.5459e-39 458 250 0 0 0 0.78476 0.039772 -0.61852 0.035048
0.047072 -0.063121 1.0387 5.0247e-39 285.5 251 0 0 0 -0.68591 -0.36575 -0.62909 0.022033
-0.036199 -0.06135 1.0395 3.8723e-39 248.5 251.5 0 0 0 0.79039 0.025788 -0.61206 0.03359
-0.034983 -0.06135 1.0395 4.1027e-39 249.5 251.5 0 0 0 0.78699 0.047908 -0.6151 0.035027
0.04466 -0.061324 1.0391 5.5548e-39 377.25 251.5 0 0 0 -0.67872 -0.37655 -0.63052 0.021102
-0.036169 -0.059476 1.0387 5.8083e-39 367 252 0 0 0 0.79374 -0.0035459 -0.60825 0.032629
-0.034954 -0.058868 1.0387 4.8864e-39 289 252.5 0 0 0 0.80588 0.0071755 -0.59203 0.03549
-0.033767 -0.058918 1.0395 4.6098e-39 290 252.5 0 0 0 0.79759 0.049573 -0.60116 0.038115
0.042854 -0.058309 1.0395 4.9786e-39 351 253 0 0 0 -0.68971 -0.35475 -0.63124 0.019131
-0.034954 -0.057045 1.0387 5.6239e-39 390 253 0 0 0 0.80959 -0.0015134 -0.58699 0.036397
-0.033767 -0.057093 1.0395 5.7161e-39 391 253 0 0 0 0.80262 0.042913 -0.59494 0.038045
0.042854 -0.057093 1.0395 2.8581e-39 149 254 0 0 0 -0.69803 -0.34058 -0.62989 0.017743
-0.033767 -0.055269 1.0395 6.2232e-39 309 254 0 0 0 0.81383 0.029571 -0.58035 0.038068
0.041638 -0.055269 1.0395 9.5881e-39 284.5 254.5 0 0 0 -0.70019 -0.34288 -0.62623 0.017484
0.042818 -0.05583 1.0387 6.0849e-39 370 254 0 0 0 -0.70225 -0.35627 -0.61637 0.017411
-0.033739 -0.052792 1.0387 6.2232e-39 313.5 255 0 0 0 0.82227 0.025183 -0.56855 0.037145
0.041638 -0.052837 1.0395 8.3896e-39 285 255.5 0 0 0 -0.70141 -0.34889 -0.62154 0.016645
-0.033739 -0.050969 1.0387 6.4537e-39 218 256 0 0 0 0.83008 0.0037011 -0.55763 0.038147
0.041603 -0.050969 1.0387 5.2552e-39 349 256 0 0 0 -0.7081 -0.35837 -0.60841 0.016671
-0.034983 -0.049796 1.0395 5.9927e-39 374 256 0 0 0 0.83282 -0.0066382 -0.5535 0.039192
0.041603 -0.049754 1.0387 7.7444e-39 439 256 0 0 0 -0.70613 -0.36579 -0.60628 0.016728
0.040388 -0.047324 1.0387 5.9005e-39 385 257 0 0 0 -0.71548 -0.3345 -0.61335 0.016647
0.042818 -0.0023618 1.0387 4.9786e-39 442 268 0 0 0 0.94855 0.21988 -0.22783 0.0053392
0.044033 -0.0023618 1.0387 4.6098e-39 443 268 0 0 0 0.95052 0.21502 -0.22423 0.0052263
0.042854 -0.0011475 1.0395 4.241e-39 170 269 0 0 0 0.94792 0.23887 -0.21069 0.0062666
0.044641 -0.0011466 1.0387 4.702e-39 171.5 269 0 0 0 0.9474 0.22991 -0.22265 0.0056767
0.042854 6.8683e-05 1.0395 5.5317e-39 242 269 0 0 0 0.9468 0.24459 -0.20913 0.0067307
0.044869 0.00047407 1.0392 5.9312e-39 285.67 269 0 0 0 0.94751 0.24123 -0.20985 0.0066333
0.041638 0.0085822 1.0395 5.0708e-39 164 271 0 0 0 0.92623 0.30756 -0.21795 0.0067477
-0.033767 0.013447 1.0395 7.0991e-39 417 271 0 0 0 -0.88764 0.31525 -0.33573 0.012415
0.037958 0.013436 1.0387 1.7517e-39 544 271 0 0 0 0.89818 0.36473 -0.24545 0.0063435
0.039206 0.013447 1.0395 1.7517e-39 545 271 0 0 0 0.90725 0.34827 -0.23581 0.0060274
0.040422 0.012231 1.0395 7.1913e-39 415 271 0 0 0 0.91195 0.34157 -0.22734 0.00598
0.036773 0.017096 1.0395 5.9005e-39 384 272 0 0 0 0.87027 0.42391 -0.25087 0.010312
-0.030093 0.019512 1.0387 5.6239e-39 448 272 0 0 0 -0.84243 0.42671 -0.329 0.016533
-0.030105 0.021343 1.0391 6.0388e-39 207.5 273 0 0 0 -0.83718 0.4511 -0.30926 0.021159
-0.011865 0.034094 1.0387 6.7303e-39 185 275 0 0 0 -0.13232 0.88199 -0.45232 0.020211
-0.0088273 0.034094 1.0387 6.4998e-39 187.5 275 0 0 0 -0.09068 0.88218 -0.4621 0.018905
-0.0070104 0.034123 1.0395 7.0991e-39 189 275 0 0 0 -0.065201 0.87526 -0.47924 0.018666
-0.0051817 0.034094 1.0387 7.1452e-39 190.5 275 0 0 0 -0.051168 0.87742 -0.47699 0.019556
-0.0027513 0.034094 1.0387 6.7303e-39 192.5 275 0 0 0 -0.03453 0.87287 -0.48673 0.020792
-0.00092931 0.035339 1.0395 5.9927e-39 232 275 0 0 0 -0.03209 0.85221 -0.52222 0.022481
0.00089441 0.034717 1.0391 5.9005e-39 214.5 275 0 0 0 -0.0082171 0.86437 -0.50279 0.023276
0.0033258 0.034717 1.0391 5.7161e-39 216.5 275 0 0 0 0.01915 0.8609 -0.50841 0.022952
0.0051474 0.034094 1.0387 6.0849e-39 199 275 0 0 0 0.036126 0.87466 -0.48339 0.021064
0.0069729 0.034717 1.0391 6.3154e-39 219.5 275 0 0 0 0.052674 0.86895 -0.49209 0.02137
0.0088004 0.035339 1.0395 6.4537e-39 240 275 0 0 0 0.073806 0.85585 -0.51194 0.022637
0.010017 0.035339 1.0395 6.0849e-39 241 275 0 0 0 0.0767 0.86345 -0.49857 0.022008
0.014869 0.034094 1.0387 6.3615e-39 207 275 0 0 0 0.14063 0.88711 -0.43961 0.015553
0.016692 0.034094 1.0387 6.3615e-39 208.5 275 0 0 0 0.16159 0.88706 -0.43244 0.01509
0.019746 0.034123 1.0395 5.9005e-39 211 275 0 0 0 0.24059 0.88575 -0.39694 0.016621
0.023395 0.034123 1.0395 6.9147e-39 214 275 0 0 0 0.35487 0.87128 -0.33902 0.018554
-0.031361 -0.068096 1.0404 4.7942e-39 288 248 0 0 0 0.70524 0.046736 -0.70743 0.030645
-0.027733 -0.068154 1.0413 5.6239e-39 344 248 0 0 0 0.66804 0.029937 -0.74352 0.020907
-0.035013 -0.065662 1.0404 6.0849e-39 419 249 0 0 0 0.75933 0.085343 -0.64509 0.036704
-0.033824 -0.064499 1.0413 5.0708e-39 290 250 0 0 0 0.73973 0.10388 -0.66484 0.036109
0.047191 -0.064499 1.0413 5.0247e-39 426.5 250 0 0 0 -0.66689 -0.38071 -0.64056 0.025069
-0.033795 -0.062619 1.0404 5.9005e-39 405 250.5 0 0 0 0.76684 0.083264 -0.63642 0.03731
0.042927 -0.062063 1.0413 5.6239e-39 436 251 0 0 0 -0.66645 -0.3605 -0.65259 0.023146
0.044735 -0.063255 1.0409 5.3934e-39 283.5 251 0 0 0 -0.66627 -0.36832 -0.6484 0.022698
-0.033795 -0.060793 1.0404 3.2268e-39 150 252 0 0 0 0.78114 0.073017 -0.62007 0.039566
0.042927 -0.060844 1.0413 4.7942e-39 292 252 0 0 0 -0.67486 -0.3509 -0.64918 0.021363
-0.032606 -0.059017 1.0413 4.7481e-39 291 252.5 0 0 0 0.76632 0.10622 -0.63361 0.042732
0.041708 -0.059017 1.0413 4.3332e-39 441 252.5 0 0 0 -0.67646 -0.34288 -0.65179 0.021177
0.04289 -0.059576 1.0404 4.3332e-39 138 253 0 0 0 -0.68218 -0.35417 -0.63968 0.02067
-0.032606 -0.05719 1.0413 5.8083e-39 392 253 0 0 0 0.77025 0.12049 -0.62626 0.04328
0.041082 -0.057165 1.0409 2.812e-39 147.5 254 0 0 0 -0.68615 -0.34399 -0.64099 0.020526
-0.032606 -0.055362 1.0413 6.131e-39 310 254 0 0 0 0.78074 0.10925 -0.61523 0.045126
0.039272 -0.055362 1.0413 4.3332e-39 261 254.5 0 0 0 -0.68195 -0.33062 -0.6524 0.019329
0.040473 -0.055339 1.0409 1.0187e-38 283.5 254.5 0 0 0 -0.69266 -0.32255 -0.64512 0.017461
-0.032606 -0.052925 1.0413 6.4076e-39 314.5 255 0 0 0 0.79507 0.09384 -0.59922 0.045804
0.039272 -0.052925 1.0413 4.3793e-39 263.5 255.5 0 0 0 -0.68718 -0.32925 -0.6476 0.017861
0.040456 -0.052881 1.0404 4.2871e-39 264.5 255.5 0 0 0 -0.69487 -0.34278 -0.63219 0.018142
0.039272 -0.051098 1.0413 4.9786e-39 347 256 0 0 0 -0.69725 -0.31475 -0.64403 0.015275
0.040456 -0.051055 1.0404 5.0708e-39 348 256 0 0 0 -0.69982 -0.33417 -0.63133 0.01633
-0.033795 -0.049838 1.0404 6.3615e-39 375 256 0 0 0 0.83366 0.026613 -0.55163 0.043108
0.039272 -0.049271 1.0413 6.6381e-39 334.5 256.5 0 0 0 -0.70426 -0.32123 -0.63311 0.015851
0.040456 -0.049229 1.0404 6.8224e-39 335.5 256.5 0 0 0 -0.70135 -0.35457 -0.61837 0.017289
0.039239 -0.046795 1.0404 4.7481e-39 460 257 0 0 0 -0.71611 -0.33076 -0.61464 0.016124
0.04289 0.001286 1.0404 5.5317e-39 368 269 0 0 0 0.94582 0.25402 -0.20225 0.0077798
0.044108 0.001286 1.0404 6.1771e-39 369 269 0 0 0 0.94542 0.25438 -0.20367 0.0078987
0.042927 0.0025053 1.0413 6.0849e-39 440 269 0 0 0 0.94136 0.26716 -0.20608 0.0091941
0.044126 0.0031134 1.0409 5.6239e-39 307.5 269.5 0 0 0 0.9404 0.26949 -0.20743 0.0093623
0.041708 0.0098149 1.0413 5.7161e-39 226 271 0 0 0 0.92259 0.3182 -0.21811 0.0078548
-0.032578 0.013458 1.0404 7.2835e-39 418 271 0 0 0 -0.8864 0.31739 -0.33698 0.0123
0.040456 0.013458 1.0404 1.6595e-39 546 271 0 0 0 0.91133 0.34097 -0.23067 0.0066963
0.03863 0.014676 1.0404 5.9927e-39 209.5 272 0 0 0 0.89667 0.37369 -0.23735 0.0074621
0.04049 0.014688 1.0413 5.9005e-39 211 272 0 0 0 0.90881 0.34501 -0.23459 0.0070723
0.035587 0.01711 1.0404 5.9005e-39 383 272 0 0 0 0.86959 0.42446 -0.25231 0.010933
0.03682 0.018944 1.0409 5.5317e-39 309.5 272.5 0 0 0 0.86277 0.43928 -0.25031 0.012611
0.028284 0.031717 1.0404 1.7517e-39 547 274 0 0 0 0.52593 0.81822 -0.23219 0.023159
-0.014935 0.034166 1.0409 6.2693e-39 182.5 275 0 0 0 -0.25232 0.85818 -0.44705 0.023556
-0.013113 0.03418 1.0413 6.8225e-39 184 275 0 0 0 -0.12423 0.86251 -0.49055 0.018944
-0.011286 0.035398 1.0413 5.9466e-39 218.5 275 0 0 0 -0.09047 0.85207 -0.51554 0.018795
-0.0082404 0.035398 1.0413 5.6239e-39 221 275 0 0 0 -0.055086 0.83899 -0.54136 0.018975
-0.0045818 0.035369 1.0404 5.5317e-39 229 275 0 0 0 -0.049084 0.84317 -0.5354 0.020958
-0.0027559 0.035369 1.0404 5.7622e-39 230.5 275 0 0 0 -0.039412 0.84369 -0.53538 0.022239
0.0015044 0.035369 1.0404 5.4395e-39 234 275 0 0 0 -0.0040974 0.84046 -0.54186 0.024401
0.0039389 0.035369 1.0404 5.7161e-39 236 275 0 0 0 0.023175 0.83528 -0.54933 0.023904
0.0051561 0.035369 1.0404 6.1771e-39 237 275 0 0 0 0.033204 0.84041 -0.54094 0.023352
0.007597 0.035398 1.0413 6.8225e-39 239 275 0 0 0 0.063323 0.8305 -0.55341 0.025173
0.011242 0.035369 1.0404 5.9005e-39 242 275 0 0 0 0.10478 0.86067 -0.49827 0.02359
0.013068 0.035369 1.0404 6.1771e-39 243.5 275 0 0 0 0.12402 0.8647 -0.48674 0.02167
0.018561 0.03418 1.0413 5.8083e-39 210 275 0 0 0 0.20231 0.87429 -0.44124 0.019308
0.020998 0.03418 1.0413 6.0849e-39 212 275 0 0 0 0.29058 0.86947 -0.39947 0.019613
0.024653 0.03418 1.0413 6.4537e-39 215 275 0 0 0 0.38284 0.86005 -0.33725 0.019996
-0.00093087 0.036617 1.0413 5.6239e-39 278 275 0 0 0 -0.020902 0.8201 -0.57184 0.024758
0.00089655 0.036617 1.0413 4.8403e-39 279.5 275 0 0 0 -0.019343 0.8101 -0.58598 0.024689
0.0027239 0.036617 1.0413 4.7942e-39 281 275 0 0 0 0.0011889 0.81266 -0.58274 0.025161
0.0051604 0.036617 1.0413 4.6098e-39 283 275 0 0 0 0.032936 0.81695 -0.57577 0.024608
0.0063787 0.036617 1.0413 4.241e-39 284 275 0 0 0 0.048609 0.81957 -0.57091 0.025089
0.0088152 0.036617 1.0413 4.3332e-39 286 275 0 0 0 0.078088 0.83612 -0.54296 0.025022
0.010033 0.036617 1.0413 4.5176e-39 287 275 0 0 0 0.095724 0.84082 -0.53279 0.026037
-0.032633 -0.068211 1.0422 4.8864e-39 287 248 0 0 0 0.69682 0.082556 -0.71248 0.029707
-0.028975 -0.068211 1.0422 5.4395e-39 343 248 0 0 0 0.66839 0.04031 -0.74272 0.021621
-0.033257 -0.06702 1.0426 5.2091e-39 239.5 249 0 0 0 0.70147 0.098367 -0.70588 0.032114
-0.030804 -0.066992 1.0422 5.67e-39 241.5 249 0 0 0 0.68868 0.09431 -0.71891 0.027857
-0.029 -0.067049 1.043 5.9005e-39 243 249 0 0 0 0.66872 0.087907 -0.7383 0.023861
-0.027181 -0.067077 1.0434 5.3473e-39 244.5 249 0 0 0 0.63971 0.07828 -0.76462 0.019385
-0.02536 -0.067105 1.0439 5.0708e-39 246 249 0 0 0 0.62365 0.053779 -0.77985 0.016698
-0.033049 -0.065385 1.0425 5.4703e-39 377.33 249.33 0 0 0 0.70953 0.10371 -0.697 0.033011
-0.030823 -0.065204 1.0428 5.4626e-39 381.5 249.5 0 0 0 0.69716 0.11463 -0.70769 0.0308
-0.029024 -0.065274 1.0439 5.4396e-39 383 249.5 0 0 0 0.66352 0.12967 -0.73684 0.025502
-0.027192 -0.065274 1.0439 5.4395e-39 384.5 249.5 0 0 0 0.63915 0.1196 -0.75972 0.022713
0.041814 -0.064663 1.0439 5.9005e-39 422 250 0 0 0 -0.60996 -0.40096 -0.68351 0.032292
0.043035 -0.064663 1.0439 6.1771e-39 423 250 0 0 0 -0.62871 -0.38324 -0.67664 0.026903
0.044811 -0.064581 1.0426 5.7161e-39 424.5 250 0 0 0 -0.64756 -0.37391 -0.66397 0.024794
-0.032633 -0.062725 1.0422 5.4857e-39 441 250.5 0 0 0 0.7232 0.1285 -0.67857 0.036955
-0.030817 -0.062752 1.0426 4.9095e-39 442.5 250.5 0 0 0 0.6965 0.14106 -0.70355 0.031572
-0.029024 -0.062831 1.0439 4.5637e-39 444 250.5 0 0 0 0.664 0.16193 -0.72998 0.027657
-0.027803 -0.063441 1.0439 3.4112e-39 534 250 0 0 0 0.65665 0.13759 -0.74154 0.026233
0.03876 -0.06222 1.0439 5.3473e-39 431.5 251 0 0 0 -0.62298 -0.33136 -0.70858 0.032456
0.041168 -0.062778 1.043 5.3012e-39 357 251 0 0 0 -0.64599 -0.34717 -0.67983 0.024605
0.042963 -0.063334 1.0422 5.5317e-39 282 251 0 0 0 -0.6519 -0.36135 -0.66668 0.023633
-0.032633 -0.060896 1.0422 3.1347e-39 151 252 0 0 0 0.73476 0.14044 -0.66363 0.04052
-0.030804 -0.060896 1.0422 1.2124e-38 206.5 252 0 0 0 0.71439 0.15359 -0.68268 0.034947
-0.029024 -0.060999 1.0439 1.0142e-38 208 252 0 0 0 0.6682 0.18007 -0.72186 0.02984
0.036929 -0.060999 1.0439 4.702e-39 287 252 0 0 0 -0.63458 -0.30463 -0.71029 0.030757
0.03876 -0.060999 1.0439 4.9786e-39 288.5 252 0 0 0 -0.63864 -0.31416 -0.70246 0.029198
0.041134 -0.060896 1.0422 5.2551e-39 290.5 252 0 0 0 -0.66472 -0.34451 -0.66292 0.022604
-0.030804 -0.059067 1.0422 5.209e-39 292.5 252.5 0 0 0 0.72779 0.15514 -0.66802 0.040646
-0.029024 -0.059166 1.0439 5.7161e-39 294 252.5 0 0 0 0.67168 0.18902 -0.71632 0.031619
-0.027192 -0.059167 1.0439 6.0849e-39 295.5 252.5 0 0 0 0.65101 0.19948 -0.73239 0.030569
0.035707 -0.058556 1.0439 4.8864e-39 340 253 0 0 0 -0.63558 -0.27177 -0.72262 0.03028
0.036929 -0.059166 1.0439 4.9325e-39 436.5 252.5 0 0 0 -0.64702 -0.28531 -0.70708 0.02946
0.038728 -0.059116 1.043 4.6559e-39 438 252.5 0 0 0 -0.65606 -0.31685 -0.68497 0.024325
0.040524 -0.059066 1.0422 4.5637e-39 439.5 252.5 0 0 0 -0.66626 -0.34544 -0.66089 0.021829
-0.030804 -0.056628 1.0422 6.4306e-39 306 253.5 0 0 0 0.74166 0.1623 -0.65085 0.043179
-0.029024 -0.056724 1.0439 6.4537e-39 307.5 253.5 0 0 0 0.66339 0.2266 -0.71314 0.032838
-0.027192 -0.056724 1.0439 6.2693e-39 309 253.5 0 0 0 0.64293 0.21563 -0.73495 0.031138
