# .PCD v.7 - Point Cloud Data file format
VERSION .7
FIELDS x y z rgb u v vx vy vz normal_x normal_y normal_z curvature
SIZE 4 4 4 4 4 4 4 4 4 4 4 4 4
TYPE F F F F F F F F F F F F F
COUNT 1 1 1 1 1 1 1 1 1 1 1 1 1
WIDTH 557
HEIGHT 1
VIEWPOINT 0 0 0 1 0 0 0
POINTS 557
DATA ascii
0.02515 0.013094 1.0123 5.5317e-39 436 277 0 0 0 0.37783 0.42481 -0.82267 0.0096892
0.027519 0.013094 1.0123 6.1771e-39 438 277 0 0 0 0.40839 0.41348 -0.81379 0.0097843
0.028726 0.013105 1.0131 6.2693e-39 439 277 0 0 0 0.44676 0.40561 -0.79742 0.011579
-0.010396 0.014302 1.0139 6.9147e-39 476 277 0 0 0 -0.41456 0.46135 -0.78441 0.010456
-0.0086122 0.014886 1.0133 6.3154e-39 326.5 277.5 0 0 0 -0.38215 0.47346 -0.7936 0.011534
-0.0068293 0.014878 1.0127 6.592e-39 330 277.5 0 0 0 -0.34797 0.4781 -0.80643 0.0131
-0.005249 0.015073 1.0126 6.6996e-39 282.33 277.67 0 0 0 -0.32561 0.48412 -0.81216 0.013557
0.021005 0.015463 1.0123 6.7764e-39 218.5 278 0 0 0 0.28742 0.47306 -0.83283 0.010024
0.023577 0.015073 1.0126 6.2079e-39 195.33 278 0 0 0 0.34079 0.45264 -0.824 0.010226
0.025181 0.014889 1.0135 6.0389e-39 183.5 278 0 0 0 0.36859 0.44078 -0.81845 0.010539
0.026949 0.014883 1.0131 6.3845e-39 185 278 0 0 0 0.3927 0.42915 -0.8134 0.01049
0.02875 0.014895 1.0139 5.8545e-39 188 278 0 0 0 0.44425 0.41794 -0.79245 0.011974
-0.0080239 0.017268 1.0139 6.4076e-39 307.5 278 0 0 0 -0.36374 0.49201 -0.79096 0.013205
-0.0068349 0.017261 1.0135 6.592e-39 308.5 278 0 0 0 -0.34452 0.49404 -0.79827 0.01411
-0.0050562 0.017261 1.0135 6.592e-39 310 278 0 0 0 -0.32257 0.5033 -0.80164 0.014503
-0.0028797 0.017442 1.0126 6.2078e-39 327 278 0 0 0 -0.26395 0.51272 -0.81698 0.014812
-0.00090493 0.017832 1.0123 5.9005e-39 359 278 0 0 0 -0.21512 0.52916 -0.8208 0.014464
0.01686 0.017832 1.0123 5.7161e-39 374 278 0 0 0 0.1728 0.52233 -0.83505 0.010246
0.018636 0.017832 1.0123 6.2232e-39 375.5 278 0 0 0 0.2109 0.51234 -0.83248 0.010507
0.021022 0.017254 1.0131 5.6239e-39 332.5 278 0 0 0 0.27538 0.49732 -0.82271 0.011009
0.022809 0.017261 1.0135 5.5317e-39 334 278 0 0 0 0.30748 0.48454 -0.81895 0.011467
0.0244 0.01707 1.0139 5.2859e-39 320.33 278 0 0 0 0.34195 0.47079 -0.81328 0.01173
0.026971 0.016675 1.0139 5.1629e-39 292.5 278 0 0 0 0.39003 0.44591 -0.80563 0.011901
0.02875 0.016675 1.0139 5.7161e-39 294 278 0 0 0 0.4306 0.43101 -0.79298 0.012686
-0.0068377 0.019047 1.0139 5.8083e-39 436 278 0 0 0 -0.33509 0.51021 -0.79209 0.015471
-0.0050583 0.019047 1.0139 5.9466e-39 437.5 278 0 0 0 -0.31115 0.52161 -0.79443 0.015233
-0.0026849 0.019039 1.0135 6.3154e-39 439.5 278 0 0 0 -0.25282 0.53248 -0.8078 0.015013
-0.00090567 0.019031 1.0131 6.1771e-39 441 278 0 0 0 -0.21069 0.5389 -0.8156 0.014877
0.00087154 0.019016 1.0123 6.4998e-39 442.5 278 0 0 0 -0.17897 0.5435 -0.82011 0.013424
0.012714 0.019016 1.0123 6.4537e-39 452.5 278 0 0 0 0.090433 0.554 -0.82759 0.0095935
0.015083 0.019016 1.0123 5.9927e-39 454.5 278 0 0 0 0.14197 0.54267 -0.82786 0.0092388
0.01686 0.019016 1.0123 5.8083e-39 456 278 0 0 0 0.1684 0.53281 -0.82931 0.010331
0.018652 0.019031 1.0131 6.3154e-39 457.5 278 0 0 0 0.21314 0.52481 -0.8241 0.011205
0.021039 0.019047 1.0139 6.2693e-39 466.5 278 0 0 0 0.26638 0.51129 -0.81708 0.011257
-0.0024881 0.020629 1.0139 5.4703e-39 166.33 279 0 0 0 -0.23657 0.54918 -0.80152 0.015584
-0.00090642 0.020826 1.0139 6.085e-39 179.5 279 0 0 0 -0.20722 0.56207 -0.80071 0.015839
0.00087261 0.020818 1.0135 6.1541e-39 181 279 0 0 0 -0.1729 0.56916 -0.80384 0.014797
0.0030449 0.021007 1.0131 6.2079e-39 195.67 279 0 0 0 -0.11147 0.57404 -0.8112 0.013397
0.0050186 0.020801 1.0127 6.085e-39 186 279 0 0 0 -0.061762 0.58003 -0.81225 0.01203
0.0065974 0.020995 1.0126 6.4845e-39 198.67 279 0 0 0 -0.029287 0.5829 -0.81201 0.011529
0.0091655 0.020801 1.0127 6.592e-39 190 279 0 0 0 0.02662 0.58439 -0.81104 0.010075
0.010938 0.020792 1.0123 6.5459e-39 191.5 279 0 0 0 0.054753 0.57545 -0.816 0.0091586
0.01273 0.020818 1.0135 6.1771e-39 193 279 0 0 0 0.083927 0.57291 -0.81531 0.00932
0.015099 0.020814 1.0133 5.9005e-39 195 279 0 0 0 0.13143 0.56321 -0.81579 0.0095298
0.016874 0.020809 1.0131 5.7161e-39 196.5 279 0 0 0 0.15995 0.55545 -0.81602 0.010691
0.018663 0.020823 1.0137 5.9466e-39 198 279 0 0 0 0.20144 0.55072 -0.81002 0.01191
0.020446 0.020233 1.0139 5.7161e-39 165 279 0 0 0 0.24476 0.53294 -0.80998 0.012268
0.003837 0.023189 1.0135 6.2693e-39 315 279 0 0 0 -0.082606 0.59392 -0.80027 0.01302
0.0050249 0.022606 1.0139 6.1771e-39 277 279 0 0 0 -0.060553 0.59824 -0.79902 0.012663
0.0069999 0.022995 1.0136 6.0849e-39 304.67 279 0 0 0 -0.015857 0.59976 -0.80002 0.011906
0.0091767 0.022606 1.0139 5.4395e-39 280.5 279 0 0 0 0.029999 0.60048 -0.79908 0.010406
0.010956 0.023199 1.0139 5.7162e-39 321 279 0 0 0 0.048603 0.59923 -0.7991 0.0099076
0.016887 0.022606 1.0139 5.2552e-39 287 279 0 0 0 0.15661 0.57286 -0.80455 0.011126
0.053156 -0.052214 1.0156 5.9005e-39 298.5 257 0 0 0 -0.90359 -0.30834 -0.29741 0.046487
0.054938 -0.052214 1.0156 5.9927e-39 335 257 0 0 0 -0.90743 -0.30715 -0.28677 0.048336
0.056126 -0.052214 1.0156 5.7161e-39 339 257 0 0 0 -0.89887 -0.30247 -0.31708 0.045427
0.053156 -0.051026 1.0156 7.6522e-39 239.5 258 0 0 0 -0.9099 -0.29775 -0.28885 0.044439
0.054938 -0.051026 1.0156 7.4678e-39 241 258 0 0 0 -0.90979 -0.30346 -0.28317 0.048422
0.056126 -0.051026 1.0156 7.2835e-39 242 258 0 0 0 -0.90979 -0.30346 -0.28317 0.048422
0.053354 -0.049442 1.0156 5.7469e-39 194.67 259 0 0 0 -0.9298 -0.28159 -0.23703 0.048896
0.054938 -0.049243 1.0156 6.2232e-39 213.5 259 0 0 0 -0.93006 -0.2906 -0.22481 0.051076
0.056126 -0.049838 1.0156 5.9927e-39 162 259 0 0 0 -0.91809 -0.29562 -0.26406 0.04815
0.047809 -0.046273 1.0156 6.6381e-39 279 260 0 0 0 -0.96808 -0.24711 -0.041846 0.048394
0.050185 -0.046867 1.0156 5.8545e-39 231 260 0 0 0 -0.96871 -0.2459 -0.033689 0.04985
0.054938 -0.046867 1.0156 5.9927e-39 241.5 260 0 0 0 -0.962 -0.24569 -0.1191 0.053847
0.047809 -0.045085 1.0156 6.2693e-39 201 261 0 0 0 -0.97091 -0.23859 0.02026 0.045157
0.048997 -0.045085 1.0156 5.8083e-39 202 261 0 0 0 -0.97288 -0.2299 0.025564 0.045005
0.050185 -0.045085 1.0156 5.6239e-39 203 261 0 0 0 -0.97326 -0.22824 0.02581 0.046053
0.047769 -0.043266 1.0148 6.5459e-39 271.5 261 0 0 0 0.96494 0.23797 -0.11076 0.039373
0.048997 -0.043302 1.0156 6.3154e-39 272.5 261 0 0 0 0.97026 0.23005 -0.075271 0.040795
0.050185 -0.043897 1.0156 6.9147e-39 262 261 0 0 0 0.97045 0.23298 -0.062781 0.042029
0.047769 -0.040892 1.0148 6.7764e-39 210.5 262 0 0 0 0.94993 0.22982 -0.2117 0.032589
0.047215 -0.039144 1.0156 5.67e-39 154.5 263 0 0 0 0.94463 0.22946 -0.23456 0.030722
0.045432 -0.026073 1.0156 6.5459e-39 490 267 0 0 0 0.90304 0.23055 -0.36244 0.012742
0.044208 -0.018929 1.0148 6.2693e-39 261 270 0 0 0 0.88809 0.25207 -0.38439 0.015001
0.043056 -0.017756 1.0156 6.0849e-39 361 270 0 0 0 0.88984 0.2512 -0.3809 0.013942
0.040679 -0.0046857 1.0156 5.0708e-39 162 274 0 0 0 0.82444 0.27271 -0.49592 0.027635
0.039459 -0.002901 1.0148 6.131e-39 318 274 0 0 0 0.78839 0.29162 -0.54166 0.029041
0.038881 -0.0011206 1.0152 6.9147e-39 487.5 274 0 0 0 0.75916 0.29957 -0.57787 0.028926
0.037084 0.0012543 1.0148 5.3473e-39 282 275 0 0 0 0.66691 0.3525 -0.65649 0.021204
0.038303 0.0006612 1.0156 5.9928e-39 246.5 275 0 0 0 0.73652 0.30372 -0.60439 0.026701
0.035501 0.003233 1.0148 6.5152e-39 447 275 0 0 0 0.6302 0.36311 -0.6863 0.018208
0.037115 0.0030376 1.0156 6.4537e-39 430 275 0 0 0 0.68032 0.33655 -0.65107 0.021577
-0.016942 0.0048179 1.0152 6.8225e-39 497.5 275 0 0 0 -0.53281 0.39291 -0.74949 0.0070293
0.035304 0.004816 1.0148 6.9147e-39 205.5 276 0 0 0 0.63053 0.35553 -0.68995 0.01813
0.037115 0.0048199 1.0156 7.4678e-39 207 276 0 0 0 0.66747 0.33696 -0.66403 0.019941
-0.016746 0.0064025 1.0153 5.7776e-39 245.67 276 0 0 0 -0.5224 0.40192 -0.75204 0.0077585
-0.015154 0.0071904 1.0148 5.2552e-39 293 276 0 0 0 -0.49542 0.41029 -0.76565 0.0078444
0.035318 0.0065995 1.0152 5.9927e-39 325 276 0 0 0 0.63111 0.34365 -0.69542 0.018244
-0.016355 0.0083845 1.0156 5.4395e-39 396 276 0 0 0 -0.50575 0.41357 -0.75709 0.0090264
-0.01516 0.0089753 1.0152 6.4998e-39 446.5 276 0 0 0 -0.49533 0.41506 -0.76314 0.0086325
-0.013967 0.0095649 1.0148 7.0991e-39 497 276 0 0 0 -0.47376 0.42288 -0.77248 0.0086983
0.033523 0.0089713 1.0148 6.9147e-39 331.5 276.5 0 0 0 0.57536 0.36557 -0.73166 0.015114
0.035134 0.0087806 1.0156 6.6688e-39 382 276.33 0 0 0 0.62225 0.34043 -0.70492 0.016718
-0.015166 0.010761 1.0156 7.4678e-39 208 277 0 0 0 -0.48628 0.42493 -0.76352 0.0095278
-0.013973 0.01135 1.0152 6.6841e-39 244 277 0 0 0 -0.46829 0.43175 -0.7709 0.0094384
0.032936 0.011348 1.015 6.2923e-39 308.5 277 0 0 0 0.54666 0.37325 -0.74957 0.014292
-0.011592 0.013127 1.0148 6.3615e-39 370 277 0 0 0 -0.43166 0.45237 -0.78041 0.010115
0.029961 0.013127 1.0148 6.3615e-39 440 277 0 0 0 0.48503 0.39729 -0.77904 0.012982
0.031148 0.013127 1.0148 6.3615e-39 441 277 0 0 0 0.50281 0.39139 -0.77071 0.013574
0.032942 0.013132 1.0152 6.2693e-39 442.5 277 0 0 0 0.5369 0.37811 -0.75417 0.014562
-0.012779 0.014907 1.0148 5.8083e-39 323 277.5 0 0 0 -0.43907 0.45288 -0.77596 0.010987
-0.011196 0.015105 1.0148 5.6854e-39 274 277.67 0 0 0 -0.41848 0.46365 -0.78097 0.011268
0.029973 0.014914 1.0152 5.6239e-39 189 278 0 0 0 0.47214 0.40858 -0.78112 0.013637
0.031161 0.014914 1.0152 5.5778e-39 190 278 0 0 0 0.4928 0.39645 -0.77458 0.013689
0.032758 0.014722 1.0156 5.3166e-39 178.67 278 0 0 0 0.53184 0.38304 -0.75527 0.015025
-0.01279 0.017296 1.0156 6.2232e-39 298 278 0 0 0 -0.42654 0.45973 -0.77892 0.012218
-0.011003 0.017289 1.0152 6.2463e-39 299.5 278 0 0 0 -0.40789 0.47223 -0.78143 0.012279
-0.0092178 0.017282 1.0148 6.1771e-39 306.5 278 0 0 0 -0.38319 0.48623 -0.78533 0.013056
0.025212 0.017875 1.0148 5.8083e-39 381 278 0 0 0 0.35156 0.47319 -0.80778 0.012665
0.026992 0.017875 1.0148 5.9927e-39 382.5 278 0 0 0 0.38615 0.45838 -0.80048 0.012815
0.02938 0.017289 1.0152 5.67e-39 339.5 278 0 0 0 0.43974 0.42959 -0.78872 0.013965
0.031174 0.016702 1.0156 5.4395e-39 296 278 0 0 0 0.47439 0.40917 -0.77944 0.014685
0.032362 0.016702 1.0156 5.2552e-39 298 278 0 0 0 0.50868 0.39125 -0.76692 0.014602
-0.01279 0.019078 1.0156 5.5317e-39 430 278 0 0 0 -0.41639 0.46206 -0.78302 0.012882
-0.011008 0.019078 1.0156 5.67e-39 432 278 0 0 0 -0.40036 0.47828 -0.78164 0.013092
-0.0086241 0.019063 1.0148 5.8083e-39 434.5 278 0 0 0 -0.3701 0.49479 -0.78627 0.014298
0.022837 0.019063 1.0148 6.3615e-39 475 278 0 0 0 0.29679 0.50777 -0.80876 0.012724
0.024629 0.01907 1.0152 6.7303e-39 476.5 278 0 0 0 0.33259 0.48852 -0.80668 0.013428
0.027015 0.019078 1.0156 7.053e-39 478.5 278 0 0 0 0.3845 0.47245 -0.79307 0.014486
0.028797 0.019078 1.0156 6.6381e-39 480 278 0 0 0 0.41448 0.45171 -0.79004 0.01473
-0.01279 0.020267 1.0156 6.9147e-39 496 278 0 0 0 -0.40784 0.46151 -0.78783 0.013579
-0.010414 0.020267 1.0156 6.5459e-39 498 278 0 0 0 -0.38086 0.48874 -0.78491 0.014498
-0.0086296 0.020857 1.0154 6.3615e-39 263.5 278.75 0 0 0 -0.36333 0.50223 -0.7847 0.015823
-0.0068461 0.020852 1.0152 6.131e-39 174.5 279 0 0 0 -0.32356 0.52811 -0.78512 0.016589
-0.0050645 0.020852 1.0152 5.9697e-39 176 279 0 0 0 -0.30253 0.53782 -0.78691 0.016762
-0.0032816 0.021437 1.0148 7.1913e-39 213 279 0 0 0 -0.25541 0.55655 -0.79058 0.015731
0.021254 0.021041 1.0148 5.9005e-39 211.67 279 0 0 0 0.25209 0.54422 -0.80017 0.013832
0.022856 0.020861 1.0156 5.9927e-39 201.5 279 0 0 0 0.2838 0.53281 -0.79723 0.014797
0.024044 0.020861 1.0156 6.131e-39 202.5 279 0 0 0 0.30865 0.52148 -0.79549 0.015175
0.027609 0.020861 1.0156 5.8544e-39 205.5 279 0 0 0 0.3719 0.48391 -0.79216 0.015586
-0.0068489 0.022643 1.0156 6.3615e-39 267 279 0 0 0 -0.31049 0.53686 -0.78446 0.016616
-0.0050666 0.022643 1.0156 5.9927e-39 268.5 279 0 0 0 -0.28328 0.55647 -0.78109 0.017222
-0.0026893 0.023228 1.0152 6.0158e-39 309.5 279 0 0 0 -0.23054 0.57793 -0.78284 0.017093
-0.00090716 0.023218 1.0148 6.5459e-39 311 279 0 0 0 -0.19498 0.58251 -0.78909 0.016553
0.00087368 0.023218 1.0148 6.3154e-39 312.5 279 0 0 0 -0.15527 0.58982 -0.79247 0.015559
0.0026556 0.023228 1.0152 6.2232e-39 314 279 0 0 0 -0.1172 0.59933 -0.79187 0.014544
0.005029 0.023812 1.0148 6.7303e-39 355 279 0 0 0 -0.058455 0.60813 -0.79168 0.013359
0.0062162 0.023812 1.0148 6.6381e-39 356 279 0 0 0 -0.031041 0.61088 -0.79111 0.013118
0.0091843 0.023812 1.0148 5.9005e-39 358.5 279 0 0 0 0.022777 0.60858 -0.79317 0.011139
0.012751 0.023228 1.0152 5.9005e-39 322.5 279 0 0 0 0.079022 0.60069 -0.79556 0.01073
0.015127 0.023228 1.0152 5.5548e-39 324.5 279 0 0 0 0.12112 0.59411 -0.79521 0.010954
0.016901 0.023812 1.0148 5.8083e-39 365 279 0 0 0 0.14982 0.5911 -0.79256 0.011708
0.01869 0.023228 1.0152 5.5778e-39 327.5 279 0 0 0 0.19178 0.57335 -0.79655 0.012314
0.020876 0.023039 1.0156 5.1937e-39 316.33 279 0 0 0 0.23573 0.55938 -0.79469 0.014067
0.024044 0.022643 1.0156 5.2552e-39 293 279 0 0 0 0.29699 0.54168 -0.78637 0.01677
-0.0020961 0.025019 1.0156 5.5317e-39 390 279 0 0 0 -0.21805 0.59573 -0.77302 0.018395
-0.00090791 0.025019 1.0156 5.3473e-39 393 279 0 0 0 -0.19089 0.60113 -0.77602 0.017389
0.0008744 0.025019 1.0156 5.2552e-39 394.5 279 0 0 0 -0.14629 0.61843 -0.7721 0.0172
0.0032492 0.025009 1.0152 5.7622e-39 396.5 279 0 0 0 -0.093141 0.61041 -0.78659 0.014202
0.005029 0.024999 1.0148 6.3615e-39 398 279 0 0 0 -0.050416 0.61174 -0.78945 0.012989
0.0068123 0.025009 1.0152 5.8544e-39 399.5 279 0 0 0 -0.012081 0.62102 -0.7837 0.012793
0.0091919 0.025019 1.0156 5.8544e-39 401.5 279 0 0 0 0.023744 0.62403 -0.78104 0.011634
0.010965 0.024999 1.0148 5.9005e-39 403 279 0 0 0 0.050158 0.61621 -0.78598 0.01033
0.012162 0.025019 1.0156 5.8083e-39 404 279 0 0 0 0.066906 0.61413 -0.78636 0.010592
0.015133 0.025019 1.0156 5.5317e-39 430.5 279 0 0 0 0.11545 0.60131 -0.79063 0.011473
0.016915 0.025019 1.0156 5.7161e-39 432 279 0 0 0 0.14519 0.59667 -0.78924 0.012229
0.018103 0.025019 1.0156 6.1771e-39 433 279 0 0 0 0.16171 0.59441 -0.78774 0.013041
-0.0020961 0.026208 1.0156 6.4537e-39 458 279 0 0 0 -0.20464 0.60721 -0.76774 0.019615
-0.00090791 0.026208 1.0156 6.0849e-39 459 279 0 0 0 -0.17637 0.61946 -0.76496 0.018822
0.0002803 0.026208 1.0156 6.4537e-39 474 279 0 0 0 -0.152 0.62214 -0.76801 0.017853
0.0038449 0.026802 1.0156 5.8083e-39 313.5 279.5 0 0 0 -0.068668 0.64096 -0.7645 0.015971
0.0050331 0.026208 1.0156 7.0991e-39 478 279 0 0 0 -0.044076 0.63454 -0.77163 0.014301
0.0074095 0.026802 1.0156 6.0849e-39 316.5 279.5 0 0 0 0.002674 0.63477 -0.7727 0.012369
0.0085977 0.026208 1.0156 6.3615e-39 481 279 0 0 0 0.015271 0.63108 -0.77556 0.01181
0.010974 0.026208 1.0156 6.2693e-39 483 279 0 0 0 0.046484 0.62546 -0.77887 0.011148
0.052648 -0.05468 1.0173 6.4537e-39 276 256 0 0 0 -0.87036 -0.3306 -0.36493 0.035354
0.053199 -0.053446 1.0164 6.592e-39 207.5 257 0 0 0 -0.8828 -0.31535 -0.34818 0.037355
0.055028 -0.05349 1.0173 6.7303e-39 209 257 0 0 0 -0.87831 -0.32102 -0.35428 0.03696
0.056218 -0.05349 1.0173 6.2693e-39 210 257 0 0 0 -0.88013 -0.32238 -0.34848 0.038888
0.052605 -0.048689 1.0164 6.5459e-39 264 259 0 0 0 -0.93903 -0.2591 -0.22602 0.048
0.049037 -0.046311 1.0164 6.4537e-39 280 260 0 0 0 -0.96987 -0.23889 -0.047732 0.049292
0.053199 -0.046905 1.0164 5.6931e-39 233.5 260 0 0 0 -0.96526 -0.24732 -0.084236 0.052163
0.053243 -0.045159 1.0173 6.0849e-39 206.5 261 0 0 0 -0.97299 -0.2284 -0.033441 0.050175
0.046659 -0.043338 1.0164 6.9607e-39 270.5 261 0 0 0 0.97195 0.23049 -0.046728 0.042481
0.050842 -0.043356 1.0168 6.4076e-39 274 261 0 0 0 -0.97472 -0.22054 0.03578 0.043642
0.053243 -0.043969 1.0173 7.053e-39 264.5 261 0 0 0 -0.97385 -0.22663 -0.015929 0.047231
0.046659 -0.040959 1.0164 6.9146e-39 209.5 262 0 0 0 0.96686 0.21759 -0.13355 0.039544
0.049057 -0.040976 1.0168 6.8225e-39 211.5 262 0 0 0 0.9715 0.2159 -0.097846 0.041122
0.046697 -0.038018 1.0173 7.56e-39 239 263 0 0 0 0.953 0.22085 -0.20739 0.034093
0.049077 -0.039208 1.0173 6.1771e-39 156 263 0 0 0 0.97197 0.20423 -0.11649 0.038463
0.047477 -0.037214 1.017 6.5152e-39 366.33 263 0 0 0 0.94609 0.22422 -0.23377 0.029111
0.045507 -0.024926 1.0173 7.0069e-39 245 268 0 0 0 0.90962 0.23606 -0.34186 0.0095105
0.044317 -0.017785 1.0173 6.4537e-39 362 270 0 0 0 0.90155 0.25193 -0.35178 0.010467
0.04073 -0.0029067 1.0168 5.9466e-39 319 274 0 0 0 0.836 0.25107 -0.48792 0.027593
0.040746 -0.001123 1.0173 6.4537e-39 489 274 0 0 0 0.82826 0.23211 -0.51001 0.027535
0.03954 0.00066228 1.0168 5.9928e-39 247.5 275 0 0 0 0.78361 0.26314 -0.56277 0.028182
-0.018746 0.0036347 1.0164 5.4395e-39 385 275 0 0 0 -0.58434 0.3775 -0.71836 0.0061712
0.038945 0.0030414 1.0168 6.569e-39 431.5 275 0 0 0 0.74046 0.28969 -0.60646 0.025106
-0.018762 0.0048279 1.0173 7.0991e-39 496 275 0 0 0 -0.5803 0.38356 -0.71843 0.0072684
0.038945 0.0048259 1.0168 7.4218e-39 208.5 276 0 0 0 0.71016 0.30445 -0.63481 0.020264
-0.018762 0.0066131 1.0173 5.7161e-39 255.5 276 0 0 0 -0.56192 0.39373 -0.72748 0.0085136
-0.017557 0.0072023 1.0164 4.9786e-39 291 276 0 0 0 -0.53255 0.40392 -0.7438 0.008428
0.037145 0.0066077 1.0164 5.7622e-39 326.5 276 0 0 0 0.66577 0.32457 -0.67187 0.01752
0.038953 0.0066119 1.0171 5.8313e-39 328 276 0 0 0 0.71268 0.28759 -0.63983 0.019151
-0.01697 0.0089895 1.0168 6.2693e-39 441 276 0 0 0 -0.5199 0.41052 -0.74912 0.0097961
0.035956 0.0095806 1.0164 6.4537e-39 186 277 0 0 0 0.63625 0.3332 -0.69581 0.01678
0.037161 0.0089899 1.0168 6.4998e-39 334.5 276.5 0 0 0 0.66814 0.31444 -0.67432 0.017609
0.038366 0.0083984 1.0173 6.7303e-39 483 276 0 0 0 0.68657 0.30634 -0.65938 0.017903
-0.016375 0.01137 1.0168 6.8225e-39 242 277 0 0 0 -0.49299 0.42436 -0.75953 0.010919
-0.015179 0.011959 1.0164 6.2693e-39 278 277 0 0 0 -0.48109 0.42938 -0.76432 0.010551
0.035361 0.011364 1.0164 6.3384e-39 310.5 277 0 0 0 0.61542 0.345 -0.70868 0.016862
0.037176 0.010779 1.0173 5.9927e-39 267 277 0 0 0 0.66423 0.31327 -0.67872 0.017447
-0.015191 0.013159 1.0173 5.5317e-39 367 277 0 0 0 -0.48017 0.42944 -0.76486 0.011297
-0.01399 0.013148 1.0164 5.7161e-39 368 277 0 0 0 -0.46173 0.44069 -0.76981 0.01077
0.035391 0.013159 1.0173 6.3615e-39 444.5 277 0 0 0 0.61498 0.34213 -0.71046 0.018415
-0.015191 0.014944 1.0173 6.2693e-39 314 277.5 0 0 0 -0.46401 0.43338 -0.77258 0.011773
-0.01399 0.014932 1.0164 5.9005e-39 315 277.5 0 0 0 -0.45765 0.4411 -0.772 0.01111
0.033578 0.015527 1.0164 5.9927e-39 230 278 0 0 0 0.55214 0.37609 -0.74411 0.0162
0.035986 0.014349 1.0173 5.7161e-39 156 278 0 0 0 0.61575 0.34578 -0.70802 0.01709
-0.01399 0.017311 1.0164 5.9927e-39 297 278 0 0 0 -0.4368 0.44735 -0.78044 0.012375
0.030605 0.017905 1.0164 5.163e-39 385.5 278 0 0 0 0.45728 0.4259 -0.7807 0.015453
0.033191 0.017514 1.0167 5.4702e-39 358 278 0 0 0 0.52706 0.39242 -0.7538 0.016741
-0.014001 0.01911 1.0173 5.4395e-39 405 278 0 0 0 -0.41987 0.44261 -0.79234 0.013361
0.030617 0.019102 1.0168 6.3615e-39 481.5 278 0 0 0 0.44868 0.43545 -0.78043 0.015963
0.032415 0.01911 1.0173 6.1771e-39 483 278 0 0 0 0.50024 0.41578 -0.75953 0.016876
-0.014001 0.0203 1.0173 6.9147e-39 495 278 0 0 0 -0.41201 0.44096 -0.79737 0.013456
-0.0128 0.021472 1.0164 6.5459e-39 205 279 0 0 0 -0.39239 0.45923 -0.79696 0.014376
-0.011215 0.021076 1.0164 6.761e-39 303.33 278.67 0 0 0 -0.38994 0.48381 -0.7835 0.014858
0.025253 0.020877 1.0164 6.2232e-39 203.5 279 0 0 0 0.33172 0.51634 -0.78952 0.016225
0.026454 0.020886 1.0168 6.131e-39 204.5 279 0 0 0 0.35193 0.50727 -0.78665 0.016545
0.028821 0.020877 1.0164 5.5779e-39 206.5 279 0 0 0 0.39678 0.47275 -0.78681 0.016851
0.03063 0.020895 1.0173 5.7622e-39 208 279 0 0 0 0.43913 0.4521 -0.77639 0.018007
0.032415 0.0203 1.0173 5.8083e-39 175 279 0 0 0 0.48416 0.43004 -0.76201 0.017722
-0.012811 0.02268 1.0173 6.4537e-39 262 279 0 0 0 -0.37889 0.46198 -0.80188 0.015986
-0.011026 0.02268 1.0173 6.6381e-39 263.5 279 0 0 0 -0.37276 0.49437 -0.78527 0.016688
-0.0086384 0.023257 1.0164 6.0158e-39 302.5 279 0 0 0 -0.34188 0.52357 -0.78038 0.01751
-0.0068546 0.023851 1.0164 5.5317e-39 345 279 0 0 0 -0.29865 0.55496 -0.77642 0.017465
-0.0050708 0.023851 1.0164 5.4395e-39 346.5 279 0 0 0 -0.26919 0.57105 -0.77552 0.018421
0.021686 0.023851 1.0164 5.9005e-39 369 279 0 0 0 0.23732 0.56193 -0.79241 0.014946
0.022884 0.023266 1.0168 5.624e-39 331 279 0 0 0 0.26848 0.55151 -0.78978 0.016356
0.024864 0.023461 1.0167 5.839e-39 345.67 279 0 0 0 0.30628 0.54301 -0.78188 0.018286
0.027243 0.023064 1.0167 5.3166e-39 321.67 279 0 0 0 0.34605 0.5217 -0.77979 0.018858
0.028821 0.023256 1.0164 5.5318e-39 336 279 0 0 0 0.37094 0.50241 -0.78102 0.019515
0.03063 0.023275 1.0173 5.7392e-39 337.5 279 0 0 0 0.40656 0.48481 -0.77439 0.020508
-0.0086422 0.025051 1.0168 5.209e-39 384.5 279 0 0 0 -0.3073 0.53757 -0.78523 0.017573
-0.0068546 0.02504 1.0164 5.0708e-39 386 279 0 0 0 -0.28943 0.5623 -0.77462 0.018822
-0.0050708 0.02504 1.0164 5.3012e-39 387.5 279 0 0 0 -0.2688 0.5884 -0.76258 0.01959
-0.003287 0.02504 1.0164 5.7161e-39 389 279 0 0 0 -0.24273 0.60177 -0.76089 0.019937
0.013362 0.02504 1.0164 5.5317e-39 405 279 0 0 0 0.087004 0.61206 -0.78601 0.011114
0.019307 0.02504 1.0164 6.1771e-39 434 279 0 0 0 0.19043 0.58689 -0.78696 0.013805
0.021092 0.02504 1.0164 5.9927e-39 435.5 279 0 0 0 0.2237 0.57386 -0.78781 0.014885
0.022894 0.025061 1.0173 5.9927e-39 437 279 0 0 0 0.25822 0.56536 -0.78338 0.017418
0.024679 0.025061 1.0173 6.131e-39 438.5 279 0 0 0 0.29491 0.55536 -0.77756 0.01921
0.027632 0.02504 1.0164 6.3615e-39 441 279 0 0 0 0.33614 0.5299 -0.7786 0.020327
0.028821 0.02504 1.0164 6.6381e-39 442 279 0 0 0 0.35234 0.51552 -0.78109 0.020493
0.030035 0.025061 1.0173 6.6381e-39 444 279 0 0 0 0.38197 0.50475 -0.77416 0.021549
-0.0080504 0.026251 1.0173 6.4537e-39 451 279 0 0 0 -0.29366 0.57397 -0.76441 0.020946
-0.0068602 0.026251 1.0173 6.6381e-39 452 279 0 0 0 -0.27979 0.59858 -0.75062 0.02201
-0.005075 0.026251 1.0173 6.3154e-39 453.5 279 0 0 0 -0.26016 0.60162 -0.75523 0.021591
-0.0028924 0.027037 1.017 5.2244e-39 247 279.67 0 0 0 -0.21664 0.61369 -0.75925 0.020567
-0.00090865 0.027418 1.0164 5.163e-39 144 280 0 0 0 -0.16701 0.62678 -0.76109 0.01853
0.0010733 0.027022 1.0164 5.7776e-39 255.33 279.67 0 0 0 -0.13408 0.62948 -0.76536 0.017601
0.00266 0.026835 1.0168 5.9927e-39 311.5 279.5 0 0 0 -0.099984 0.63656 -0.76472 0.017223
0.0050373 0.027418 1.0164 5.7161e-39 151 280 0 0 0 -0.041896 0.64703 -0.76131 0.014731
0.006229 0.026835 1.0168 6.4537e-39 315.5 279.5 0 0 0 -0.024763 0.64952 -0.75994 0.014692
0.0094003 0.027029 1.0167 5.5625e-39 263.67 279.67 0 0 0 0.025401 0.64644 -0.76254 0.012826
0.010983 0.027418 1.0164 5.9927e-39 156 280 0 0 0 0.046661 0.63925 -0.76759 0.01217
0.012772 0.026835 1.0168 5.8313e-39 321 279.5 0 0 0 0.0681 0.63387 -0.77043 0.012246
0.015152 0.026835 1.0168 5.7622e-39 323 279.5 0 0 0 0.10399 0.61477 -0.78182 0.012067
0.016936 0.026835 1.0168 5.9466e-39 324.5 279.5 0 0 0 0.14024 0.61429 -0.77652 0.013658
0.01872 0.026835 1.0168 6.2232e-39 326 279.5 0 0 0 0.16254 0.60404 -0.78021 0.013646
0.0211 0.026835 1.0168 6.2232e-39 328 279.5 0 0 0 0.20759 0.58294 -0.78555 0.015869
0.024084 0.026251 1.0173 6.7303e-39 494 279 0 0 0 0.267 0.56637 -0.7797 0.018828
0.027655 0.026251 1.0173 6.9147e-39 497 279 0 0 0 0.32982 0.54578 -0.77029 0.022313
0.028845 0.026846 1.0173 6.0388e-39 334.5 279.5 0 0 0 0.34602 0.54277 -0.7653 0.0231
0.030035 0.026846 1.0173 5.8083e-39 335.5 279.5 0 0 0 0.37041 0.53927 -0.75629 0.024186
-0.0020996 0.028631 1.0173 6.0849e-39 176 280 0 0 0 -0.18149 0.62445 -0.75968 0.020377
-0.0009094 0.028631 1.0173 5.8083e-39 177 280 0 0 0 -0.1619 0.63292 -0.7571 0.019171
0.00087583 0.028631 1.0173 6.4998e-39 184.5 280 0 0 0 -0.1231 0.64293 -0.75597 0.018362
0.0038481 0.028608 1.0164 6.6381e-39 187 280 0 0 0 -0.054584 0.652 -0.75625 0.015711
0.0050414 0.028631 1.0173 6.5459e-39 188 280 0 0 0 -0.043551 0.6819 -0.73015 0.017995
0.0074156 0.028608 1.0164 6.8225e-39 190 280 0 0 0 0.0021108 0.66356 -0.74812 0.014739
0.010992 0.028631 1.0173 6.4537e-39 195 280 0 0 0 0.040984 0.65355 -0.75577 0.013229
0.030035 0.028631 1.0173 6.8225e-39 216 280 0 0 0 0.35703 0.5538 -0.75222 0.025741
0.053309 -0.055344 1.0186 5.9927e-39 227 256 0 0 0 -0.86839 -0.3323 -0.36806 0.033323
0.055119 -0.054771 1.019 6.6381e-39 278 256 0 0 0 -0.87216 -0.32746 -0.36347 0.033602
0.056311 -0.054771 1.019 6.8225e-39 279 256 0 0 0 -0.86614 -0.33582 -0.37018 0.034582
0.051585 -0.05243 1.0198 5.9927e-39 297 257 0 0 0 -0.89499 -0.28394 -0.34406 0.031788
0.051564 -0.050619 1.0194 6.1772e-39 198 258.5 0 0 0 -0.91847 -0.25661 -0.30094 0.039114
0.050926 -0.04879 1.0186 6.7303e-39 262.5 259 0 0 0 -0.93842 -0.23811 -0.25034 0.043053
0.049199 -0.047657 1.0198 5.3473e-39 178 260 0 0 0 -0.94636 -0.21262 -0.24329 0.041337
0.0515 -0.046983 1.0181 5.8083e-39 232 260 0 0 0 -0.95494 -0.22237 -0.19659 0.046555
0.046774 -0.045234 1.019 6.3615e-39 200 261 0 0 0 -0.96962 -0.2258 -0.094083 0.046306
0.0515 -0.045196 1.0181 5.8083e-39 204 261 0 0 0 -0.97269 -0.22487 -0.057565 0.04709
0.04562 -0.042885 1.0198 6.2693e-39 281 261 0 0 0 -0.97951 -0.19861 -0.033345 0.042483
0.051543 -0.042849 1.019 6.2693e-39 286 261 0 0 0 -0.97881 -0.20472 -0.0037606 0.044585
0.053287 -0.042814 1.0181 6.5459e-39 287.5 261 0 0 0 -0.97767 -0.20963 0.014802 0.045684
0.05033 -0.041044 1.0186 7.0991e-39 213 262 0 0 0 0.97698 0.20531 -0.057914 0.041067
0.052756 -0.041078 1.0194 6.4998e-39 220.5 262 0 0 0 -0.9794 -0.20192 0.00017091 0.042399
0.049158 -0.038081 1.019 6.9147e-39 241 263 0 0 0 0.97251 0.19753 -0.12329 0.037289
0.050392 -0.039305 1.0198 6.6381e-39 157 263 0 0 0 0.97643 0.20178 -0.076646 0.040686
0.049158 -0.036889 1.019 5.9927e-39 488 263 0 0 0 0.96591 0.20695 -0.15555 0.035416
0.04735 -0.035086 1.0186 6.7764e-39 367 264 0 0 0 0.94685 0.21187 -0.24206 0.028139
0.049199 -0.035726 1.0198 7.56e-39 247 264 0 0 0 0.96565 0.20034 -0.1655 0.032133
0.046813 -0.032743 1.0198 6.4536e-39 302.5 265 0 0 0 0.94033 0.20623 -0.27064 0.020553
0.048006 -0.03334 1.0198 7.4678e-39 246 265 0 0 0 0.94716 0.20402 -0.24751 0.02366
0.046813 -0.030954 1.0198 6.4537e-39 227 266 0 0 0 0.93935 0.20008 -0.27855 0.017396
0.045583 -0.023179 1.0189 6.131e-39 292.5 268.5 0 0 0 0.91673 0.2325 -0.32488 0.0081615
0.04078 0.00066283 1.0181 5.9467e-39 248.5 275 0 0 0 0.82318 0.20849 -0.52812 0.026859
0.04078 0.0030452 1.0181 6.1771e-39 433 275 0 0 0 0.7955 0.21332 -0.56716 0.025033
0.04078 0.0048318 1.0181 7.1913e-39 210 276 0 0 0 0.77008 0.23623 -0.5926 0.023859
-0.020001 0.0072261 1.0198 5.9927e-39 289 276 0 0 0 -0.57923 0.37896 -0.72172 0.010471
0.04078 0.0066186 1.0181 5.8544e-39 329.5 276 0 0 0 0.74858 0.25086 -0.61376 0.02043
-0.020001 0.0084192 1.0198 5.2552e-39 385 276 0 0 0 -0.56923 0.37963 -0.72928 0.011038
-0.018785 0.0090048 1.0186 6.0388e-39 440 276 0 0 0 -0.54738 0.39637 -0.73706 0.01066
0.039192 0.0091994 1.0181 6.6074e-39 287 276.67 0 0 0 0.70521 0.28034 -0.65122 0.017607
0.040797 0.0090048 1.0186 6.6842e-39 337.5 276.5 0 0 0 0.73386 0.25473 -0.62973 0.019436
0.037206 0.011979 1.0181 6.5459e-39 357 277 0 0 0 0.65947 0.317 -0.68162 0.017745
0.039026 0.011393 1.019 6.2463e-39 313.5 277 0 0 0 0.69548 0.28768 -0.65845 0.019442
0.040831 0.011397 1.0194 6.592e-39 315 277 0 0 0 0.71281 0.26787 -0.64819 0.018767
-0.016395 0.01317 1.0181 5.4395e-39 366 277 0 0 0 -0.48683 0.42009 -0.76585 0.011987
0.037206 0.01317 1.0181 6.6381e-39 446 277 0 0 0 0.65393 0.31871 -0.68615 0.017793
0.039058 0.013192 1.0198 6.0849e-39 447.5 277 0 0 0 0.6878 0.28923 -0.66579 0.019212
-0.018793 0.014969 1.019 5.7622e-39 311 277.5 0 0 0 -0.48605 0.39092 -0.78163 0.012695
-0.016991 0.014956 1.0181 5.8313e-39 312.5 277.5 0 0 0 -0.47415 0.41597 -0.77598 0.012431
0.034824 0.014957 1.0181 5.5779e-39 193 278 0 0 0 0.59625 0.35748 -0.71881 0.018557
0.03683 0.015163 1.0187 5.7776e-39 208 278 0 0 0 0.62985 0.33505 -0.70074 0.018791
0.038461 0.014385 1.0198 5.163e-39 160 278 0 0 0 0.66737 0.30854 -0.6778 0.019193
-0.020001 0.016771 1.0198 6.3615e-39 241 278 0 0 0 -0.48568 0.36396 -0.79476 0.011352
-0.018793 0.016757 1.019 6.2693e-39 242 278 0 0 0 -0.47162 0.38993 -0.7909 0.011874
-0.016998 0.017346 1.0186 5.67e-39 294.5 278 0 0 0 -0.45184 0.40629 -0.79421 0.012036
-0.015204 0.017338 1.0181 5.7162e-39 296 278 0 0 0 -0.44775 0.42543 -0.78647 0.012324
0.034853 0.017353 1.019 5.3012e-39 346.5 278 0 0 0 0.58056 0.3692 -0.7257 0.019376
0.036664 0.017364 1.0196 5.3243e-39 348 278 0 0 0 0.61547 0.35068 -0.70585 0.019574
-0.016395 0.019126 1.0181 5.8083e-39 403 278 0 0 0 -0.43904 0.41286 -0.79799 0.012635
-0.015204 0.019126 1.0181 5.7161e-39 404 278 0 0 0 -0.43013 0.42452 -0.79673 0.013177
0.033633 0.019126 1.0181 5.8083e-39 484 278 0 0 0 0.53443 0.39965 -0.74476 0.019112
0.034882 0.019157 1.0198 5.9005e-39 485 278 0 0 0 0.57596 0.38367 -0.72185 0.020922
-0.014609 0.020913 1.0181 6.4537e-39 343 278.5 0 0 0 -0.4113 0.42721 -0.80519 0.01322
0.033255 0.021122 1.0187 5.9312e-39 221.67 279 0 0 0 0.50958 0.42659 -0.74723 0.020131
-0.010439 0.02389 1.0181 5.7161e-39 338 279 0 0 0 -0.34903 0.50333 -0.79047 0.017929
0.026486 0.02389 1.0181 5.7161e-39 373 279 0 0 0 0.33247 0.5401 -0.77314 0.020615
0.033051 0.023304 1.0186 5.4856e-39 339.5 279 0 0 0 0.47528 0.46073 -0.74956 0.021372
-0.010439 0.025081 1.0181 5.7161e-39 383 279 0 0 0 -0.32323 0.50655 -0.79933 0.017846
0.026508 0.025102 1.019 6.3615e-39 440 279 0 0 0 0.32532 0.55289 -0.76712 0.022584
0.031251 0.025081 1.0181 6.2693e-39 445 279 0 0 0 0.41672 0.49974 -0.75935 0.023629
0.033065 0.025102 1.019 5.9466e-39 446.5 279 0 0 0 0.47076 0.49277 -0.73182 0.024798
-0.0092482 0.026272 1.0181 6.0849e-39 450 279 0 0 0 -0.30879 0.56518 -0.765 0.022927
-0.0068659 0.027464 1.0181 4.6098e-39 139 280 0 0 0 -0.27322 0.60216 -0.75017 0.022864
-0.0050792 0.027464 1.0181 4.6098e-39 140.5 280 0 0 0 -0.25622 0.60546 -0.7535 0.022321
0.022923 0.026879 1.0186 5.9005e-39 329.5 279.5 0 0 0 0.24883 0.58405 -0.77264 0.019268
0.024898 0.027067 1.0181 5.8084e-39 276.67 279.67 0 0 0 0.28645 0.57861 -0.76365 0.022151
0.026905 0.027089 1.019 6.1156e-39 278.33 279.67 0 0 0 0.31956 0.56727 -0.75901 0.0242
0.031251 0.026868 1.0181 5.9005e-39 336.5 279.5 0 0 0 0.3965 0.52196 -0.75522 0.024833
0.032469 0.026294 1.019 4.7942e-39 138 280 0 0 0 0.44435 0.52286 -0.72744 0.026117
-0.0044891 0.029287 1.0194 6.592e-39 195.5 280 0 0 0 -0.22985 0.64664 -0.72735 0.024997
-0.0028978 0.029474 1.019 6.6074e-39 204 280 0 0 0 -0.19539 0.66086 -0.72463 0.026114
-0.0009109 0.029871 1.019 6.8225e-39 220 280 0 0 0 -0.15616 0.68208 -0.71441 0.02419
0.0008772 0.029858 1.0186 7.2374e-39 221.5 280 0 0 0 -0.1215 0.69113 -0.71245 0.023289
0.0030611 0.029457 1.0184 7.4064e-39 211 280 0 0 0 -0.083093 0.69359 -0.71556 0.021662
0.0050456 0.029846 1.0181 7.4678e-39 225 280 0 0 0 -0.046751 0.69829 -0.71429 0.020258
0.0066355 0.029457 1.0184 7.1298e-39 214 280 0 0 0 -0.020327 0.69318 -0.72048 0.019128
0.0090211 0.029068 1.0187 6.9454e-39 203.67 280 0 0 0 0.009191 0.69821 -0.71583 0.018574
0.01101 0.029871 1.019 7.0991e-39 230 280 0 0 0 0.031333 0.71444 -0.69899 0.020813
0.012793 0.029263 1.0186 6.569e-39 214.25 280 0 0 0 0.058634 0.69121 -0.72027 0.019577
0.01518 0.029269 1.0187 6.6612e-39 216.5 280 0 0 0 0.097626 0.67035 -0.7356 0.018374
0.016964 0.029263 1.0186 6.4998e-39 220 280 0 0 0 0.12609 0.66733 -0.73401 0.019741
0.018759 0.029275 1.019 6.7534e-39 221.5 280 0 0 0 0.16171 0.65644 -0.73684 0.020928
0.021135 0.029263 1.0186 6.9147e-39 223.5 280 0 0 0 0.19069 0.63922 -0.74501 0.02275
0.022951 0.028702 1.0198 7.6522e-39 210 280 0 0 0 0.23571 0.62733 -0.74223 0.024689
0.02471 0.029262 1.0186 6.7764e-39 226.5 280 0 0 0 0.25838 0.5907 -0.76441 0.022875
0.027711 0.029287 1.0194 6.4537e-39 229 280 0 0 0 0.31687 0.58423 -0.74718 0.027284
0.028868 0.02925 1.0181 6.4076e-39 230 280 0 0 0 0.32952 0.58062 -0.74451 0.027534
0.00087791 0.031075 1.0194 6.4537e-39 247.5 280 0 0 0 -0.12222 0.73524 -0.6667 0.026935
0.0038576 0.031063 1.019 5.9927e-39 261 280 0 0 0 -0.056098 0.71515 -0.69671 0.022102
0.0050539 0.031088 1.0198 6.1771e-39 262 280 0 0 0 -0.050883 0.74326 -0.66706 0.0234
0.007434 0.031063 1.019 6.4537e-39 264 280 0 0 0 -0.0034008 0.7232 -0.69063 0.020928
0.02473 0.031075 1.0194 6.0388e-39 278.5 280 0 0 0 0.25024 0.6426 -0.72419 0.029559
0.052866 -0.058492 1.0215 6.5459e-39 343 254 0 0 0 -0.84186 -0.37385 -0.38923 0.025998
0.052866 -0.057297 1.0215 8.2054e-39 250 255 0 0 0 -0.85788 -0.3467 -0.37928 0.027098
0.054636 -0.056079 1.021 5.209e-39 178.5 256 0 0 0 -0.87162 -0.32563 -0.3664 0.03132
0.056451 -0.056102 1.0215 4.8864e-39 180 256 0 0 0 -0.86767 -0.33228 -0.36979 0.032042
0.051628 -0.053667 1.0206 6.6381e-39 206 257 0 0 0 -0.89004 -0.29306 -0.34921 0.031932
0.04689 -0.046541 1.0215 7.1913e-39 278 260 0 0 0 -0.93884 -0.20369 -0.27764 0.035592
0.051649 -0.041145 1.021 7.1913e-39 214 262 0 0 0 -0.97899 -0.18178 -0.092368 0.040997
0.050434 -0.038144 1.0206 6.8225e-39 242 263 0 0 0 0.9799 0.19152 -0.055892 0.038929
0.050476 -0.03698 1.0215 5.9927e-39 489 263 0 0 0 0.98245 0.18145 -0.043264 0.039997
0.04924 -0.034561 1.0206 6.3615e-39 490 264 0 0 0 0.96773 0.19004 -0.16546 0.030943
0.046852 -0.029785 1.0206 5.6239e-39 295 266 0 0 0 0.93903 0.20274 -0.27769 0.017276
0.04689 -0.026224 1.0215 6.8225e-39 491 267 0 0 0 0.92364 0.23557 -0.30232 0.0087299
0.04689 -0.025029 1.0215 7.1913e-39 246 268 0 0 0 0.92403 0.2368 -0.30014 0.008035
0.045695 -0.021444 1.0215 6.1771e-39 344 269 0 0 0 0.92553 0.24477 -0.28892 0.0055109
0.044463 -0.01665 1.0206 4.9786e-39 153 271 0 0 0 0.91665 0.23963 -0.31988 0.0063762
0.040881 0.013203 1.0206 5.9005e-39 449 277 0 0 0 0.71428 0.26983 -0.64575 0.019625
0.0393 0.015197 1.0209 5.8083e-39 210 278 0 0 0 0.68109 0.29984 -0.66799 0.019924
0.040915 0.015006 1.0215 5.9466e-39 199 278 0 0 0 0.70416 0.27765 -0.6535 0.019648
0.038525 0.016799 1.0215 5.3473e-39 303 278 0 0 0 0.6657 0.32265 -0.67286 0.021579
0.036717 0.019181 1.021 6.0849e-39 486.5 278 0 0 0 0.62202 0.36297 -0.6938 0.021657
0.034925 0.020973 1.021 6.4537e-39 215 279 0 0 0 0.57258 0.41423 -0.70751 0.023028
0.03733 0.020384 1.0215 6.8225e-39 187 279 0 0 0 0.62346 0.37405 -0.68657 0.022333
0.0098345 0.02992 1.0206 7.3757e-39 229 280 0 0 0 0.016714 0.75875 -0.65117 0.024363
0.02297 0.02992 1.0206 6.0849e-39 240 280 0 0 0 0.22898 0.66682 -0.70917 0.029191
0.026563 0.029335 1.021 6.4998e-39 228 280 0 0 0 0.30656 0.64207 -0.70269 0.032701
-0.00091241 0.031114 1.0206 6.4537e-39 246 280 0 0 0 -0.17367 0.763 -0.62264 0.029205
0.0026721 0.03114 1.0215 5.9927e-39 249 280 0 0 0 -0.10239 0.79122 -0.6029 0.027545
0.0062522 0.031114 1.0206 6.1771e-39 263 280 0 0 0 -0.04218 0.7908 -0.61063 0.026229
0.0092415 0.031127 1.021 6.6842e-39 265.5 280 0 0 0 0.0034425 0.78948 -0.61377 0.025306
0.011029 0.031114 1.0206 6.3615e-39 267 280 0 0 0 0.018636 0.7733 -0.63377 0.025042
0.01282 0.031114 1.0206 5.9466e-39 268.5 280 0 0 0 0.046133 0.76847 -0.63822 0.02625
0.015215 0.031127 1.021 5.8083e-39 270.5 280 0 0 0 0.08355 0.7683 -0.63461 0.027582
0.016999 0.031114 1.0206 6.3615e-39 272 280 0 0 0 0.11773 0.75213 -0.64841 0.0283
0.018798 0.031127 1.021 5.9005e-39 273.5 280 0 0 0 0.14749 0.74254 -0.65336 0.029198
0.021178 0.031114 1.0206 5.6239e-39 275.5 280 0 0 0 0.18854 0.71172 -0.67669 0.029466
0.027746 0.031114 1.0206 5.8083e-39 281 280 0 0 0 0.3233 0.64008 -0.69697 0.03376
0.00087934 0.032321 1.021 5.7161e-39 282.5 280 0 0 0 -0.13029 0.78517 -0.60542 0.02808
0.0038672 0.032335 1.0215 5.8083e-39 285 280 0 0 0 -0.082527 0.81913 -0.56763 0.026595
0.0050623 0.032335 1.0215 5.5317e-39 286 280 0 0 0 -0.069039 0.81352 -0.57743 0.02608
0.0074524 0.032335 1.0215 5.163e-39 288 280 0 0 0 -0.029728 0.81917 -0.57278 0.024991
0.024967 0.032715 1.0209 5.3474e-39 320 280 0 0 0 0.2517 0.71329 -0.65412 0.035882
0.052953 -0.060983 1.0232 7.56e-39 267 253 0 0 0 -0.82653 -0.39706 -0.399 0.022736
0.052953 -0.059786 1.0232 5.6239e-39 207 254 0 0 0 -0.83921 -0.37834 -0.39062 0.023517
0.054128 -0.059163 1.0228 6.0849e-39 276 254 0 0 0 -0.84163 -0.37286 -0.39069 0.024993
0.05415 -0.057392 1.0232 8.1132e-39 251 255 0 0 0 -0.86107 -0.34332 -0.37508 0.026403
0.051713 -0.054952 1.0223 6.7303e-39 275 256 0 0 0 -0.88615 -0.29454 -0.35775 0.030356
0.050559 -0.050209 1.0232 5.5317e-39 371 258 0 0 0 -0.91882 -0.2268 -0.32301 0.030342
0.045771 -0.044224 1.0232 8.021e-39 258 261 0 0 0 -0.95023 -0.1651 -0.2642 0.031975
0.051713 -0.039403 1.0223 6.5459e-39 158 263 0 0 0 -0.98234 -0.17955 -0.052687 0.041047
0.050517 -0.035217 1.0223 6.8225e-39 372 264 0 0 0 0.97942 0.1767 -0.097563 0.03572
0.048723 -0.032825 1.0223 6.5458e-39 304 265 0 0 0 0.96952 0.16969 -0.17676 0.026809
0.048165 -0.031056 1.0232 6.4537e-39 228 266 0 0 0 0.96454 0.16846 -0.2032 0.023444
0.046968 -0.028662 1.0232 6.6381e-39 157 267 0 0 0 0.95091 0.18655 -0.24692 0.017755
0.046968 -0.027465 1.0232 6.1771e-39 272 267 0 0 0 0.94138 0.2051 -0.26785 0.015121
0.046948 -0.023265 1.0228 6.1771e-39 293.5 268.5 0 0 0 0.92213 0.25214 -0.29344 0.0069193
0.045733 -0.020266 1.0223 4.8864e-39 153 270 0 0 0 0.92805 0.23951 -0.28525 0.0050231
0.04218 0.0066514 1.0232 5.7161e-39 330.5 276 0 0 0 0.82093 0.14962 -0.55107 0.021494
0.042163 0.0090421 1.0228 6.5459e-39 338.5 276.5 0 0 0 0.79645 0.18705 -0.57504 0.02078
0.039753 0.016813 1.0223 5.4395e-39 336 278 0 0 0 0.68932 0.30182 -0.65859 0.020524
0.040949 0.016813 1.0223 5.8083e-39 337 278 0 0 0 0.70237 0.29057 -0.64981 0.020553
0.038557 0.018009 1.0223 5.4395e-39 396 278 0 0 0 0.66658 0.32908 -0.66886 0.021853
0.036164 0.020401 1.0223 7.1913e-39 186 279 0 0 0 0.60943 0.39033 -0.6901 0.023427
0.034997 0.022812 1.0232 5.0708e-39 302 279 0 0 0 0.57059 0.46931 -0.67393 0.026541
0.03736 0.023989 1.0223 5.9927e-39 382 279 0 0 0 0.59868 0.45447 -0.65958 0.025089
0.034997 0.024009 1.0232 5.5317e-39 380 279 0 0 0 0.55562 0.50551 -0.66011 0.028296
0.023008 0.031166 1.0223 6.0849e-39 277 280 0 0 0 0.22994 0.74251 -0.62913 0.034029
0.026596 0.031166 1.0223 5.9005e-39 280 280 0 0 0 0.31013 0.69954 -0.64379 0.037588
0.0062625 0.032362 1.0223 5.2552e-39 287 280 0 0 0 -0.049938 0.83986 -0.5405 0.024448
0.011047 0.032362 1.0223 4.9786e-39 290 280 0 0 0 0.017445 0.83126 -0.55561 0.025824
0.012841 0.032362 1.0223 4.9325e-39 291.5 280 0 0 0 0.0402 0.82836 -0.55876 0.026503
0.014635 0.032362 1.0223 5.163e-39 293 280 0 0 0 0.067137 0.82285 -0.56429 0.027842
0.017041 0.032388 1.0232 5.163e-39 295 280 0 0 0 0.094087 0.82508 -0.55713 0.029305
0.018223 0.032362 1.0223 4.8864e-39 296 280 0 0 0 0.12326 0.79312 -0.59647 0.030269
0.021232 0.032388 1.0232 5.4395e-39 298.5 280 0 0 0 0.18327 0.79988 -0.5715 0.032282
0.024204 0.033558 1.0223 6.4537e-39 356 280 0 0 0 0.24503 0.77849 -0.57785 0.035398
0.054817 -0.061058 1.0245 7.6522e-39 268.5 253 0 0 0 -0.82728 -0.39075 -0.40364 0.021528
0.051885 -0.058735 1.0257 6.1771e-39 342 254 0 0 0 -0.85276 -0.3442 -0.39284 0.019967
0.055393 -0.059236 1.024 5.9927e-39 279 254 0 0 0 -0.83444 -0.38418 -0.39512 0.023541
0.057038 -0.059086 1.0249 6.2693e-39 306.67 254 0 0 0 -0.83821 -0.37267 -0.39814 0.02313
0.051821 -0.056864 1.0245 6.5459e-39 212.5 255.5 0 0 0 -0.86997 -0.31891 -0.3761 0.02331
0.055393 -0.057439 1.024 7.8366e-39 252 255 0 0 0 -0.86083 -0.34157 -0.37722 0.026612
0.056591 -0.057439 1.024 7.7444e-39 253 255 0 0 0 -0.85675 -0.3464 -0.38208 0.026739
0.050643 -0.051492 1.0249 6.6381e-39 237 258 0 0 0 -0.90152 -0.24791 -0.3547 0.025447
0.049485 -0.049134 1.0257 6.9147e-39 261 259 0 0 0 -0.91223 -0.21088 -0.35124 0.027076
0.051799 -0.03827 1.024 7.0069e-39 243 263 0 0 0 -0.97541 -0.1552 -0.15647 0.037563
0.051842 -0.037103 1.0249 6.2693e-39 490 263 0 0 0 -0.978 -0.13732 -0.15703 0.036071
0.051863 -0.035319 1.0253 6.6842e-39 373 264 0 0 0 -0.98988 -0.10723 -0.092995 0.03543
0.049444 -0.032307 1.0249 5.7161e-39 362 265 0 0 0 0.97689 0.14521 -0.15685 0.025883
0.050643 -0.032906 1.0249 6.4998e-39 308 265 0 0 0 0.98139 0.14151 -0.12982 0.027649
0.049485 -0.031134 1.0257 6.5459e-39 229 266 0 0 0 0.97961 0.14189 -0.14224 0.026092
0.048225 -0.029297 1.0245 6.3154e-39 227 266.5 0 0 0 0.95548 0.18128 -0.23281 0.018671
0.048285 -0.027533 1.0257 6.4537e-39 273 267 0 0 0 0.95327 0.18576 -0.23827 0.01916
0.047085 -0.021533 1.0257 5.8083e-39 345 269 0 0 0 0.92078 0.2505 -0.29901 0.0065494
0.045809 -0.019101 1.024 6.2693e-39 263 270 0 0 0 0.9304 0.22875 -0.28642 0.005897
0.043449 -0.01552 1.0249 7.0991e-39 257 271 0 0 0 0.93454 0.20689 -0.28955 0.0066247
0.044611 -0.015507 1.024 6.8225e-39 258 271 0 0 0 0.93343 0.20781 -0.29244 0.0062264
0.042285 0.0036679 1.0257 6.3615e-39 489 275 0 0 0 0.85026 0.084456 -0.51954 0.016566
0.04225 0.0048639 1.0249 7.0991e-39 211 276 0 0 0 0.84469 0.09653 -0.52648 0.018123
0.043431 0.0066595 1.0245 5.3934e-39 331.5 276 0 0 0 0.83472 0.1154 -0.53844 0.020262
0.043449 0.0090606 1.0249 6.3615e-39 339.5 276.5 0 0 0 0.82588 0.15062 -0.54335 0.02048
0.042868 0.010863 1.0253 6.2693e-39 271.5 277 0 0 0 0.81407 0.16667 -0.55633 0.019755
0.042285 0.015668 1.0257 7.0069e-39 237 278 0 0 0 0.76885 0.23363 -0.59522 0.019674
0.039442 0.018848 1.0246 6.5152e-39 458 278 0 0 0 0.69088 0.32578 -0.64541 0.021537
0.041051 0.018054 1.0249 6.1771e-39 398 278 0 0 0 0.71966 0.29554 -0.62829 0.020651
0.036838 0.021642 1.0245 6.4076e-39 247.5 279 0 0 0 0.62976 0.42061 -0.65306 0.024565
0.038685 0.020469 1.0257 6.5459e-39 188 279 0 0 0 0.68046 0.37145 -0.63167 0.022461
0.036838 0.02284 1.0245 4.8864e-39 303.5 279 0 0 0 0.61867 0.44903 -0.64469 0.026099
0.035055 0.025248 1.0249 5.8083e-39 448 279 0 0 0 0.5685 0.53636 -0.62379 0.028954
0.036254 0.024049 1.0249 5.9005e-39 381 279 0 0 0 0.60276 0.49779 -0.62361 0.027165
0.002681 0.032442 1.0249 5.5317e-39 284 280 0 0 0 -0.11408 0.87093 -0.47798 0.020759
0.0098753 0.032442 1.0249 5.0708e-39 289 280 0 0 0 -0.00023871 0.86967 -0.49364 0.020895
0.015857 0.032415 1.024 5.6239e-39 294 280 0 0 0 0.074654 0.84238 -0.53368 0.026993
0.019452 0.032415 1.024 4.7942e-39 297 280 0 0 0 0.15155 0.83017 -0.53652 0.029813
0.023065 0.032442 1.0249 5.6239e-39 300 280 0 0 0 0.23868 0.81492 -0.52814 0.033253
0.026662 0.032442 1.0249 4.7942e-39 303 280 0 0 0 0.32239 0.79382 -0.51568 0.038373
0.024264 0.03484 1.0249 5.7161e-39 374 280 0 0 0 0.2494 0.83914 -0.48336 0.032345
0.051928 -0.062387 1.0266 6.2693e-39 359 252 0 0 0 -0.83868 -0.35059 -0.41678 0.016916
0.051928 -0.061186 1.0266 7.7444e-39 266 253 0 0 0 -0.84098 -0.35621 -0.40728 0.018401
0.05678 -0.061236 1.0274 8.2054e-39 270 253 0 0 0 -0.84154 -0.34615 -0.41471 0.015387
0.051928 -0.059985 1.0266 5.8083e-39 206 254 0 0 0 -0.84076 -0.35768 -0.40643 0.018168
0.057934 -0.059985 1.0266 5.8083e-39 221 254 0 0 0 -0.8433 -0.3492 -0.40855 0.01932
0.050727 -0.052778 1.0266 6.3615e-39 296 257 0 0 0 -0.888 -0.26479 -0.37595 0.023982
0.049567 -0.051019 1.0274 5.9927e-39 302.5 258 0 0 0 -0.89182 -0.23959 -0.38374 0.024608
0.047124 -0.047974 1.0266 5.163e-39 176 260 0 0 0 -0.90017 -0.21432 -0.37916 0.026799
0.045961 -0.04561 1.0274 6.1771e-39 199 261 0 0 0 -0.89733 -0.19138 -0.39772 0.028817
0.05195 -0.032974 1.027 6.4537e-39 309 265 0 0 0 -0.99658 -0.082183 -0.0091049 0.028013
0.050727 -0.031159 1.0266 7.0069e-39 230 266 0 0 0 0.98395 0.13071 -0.12148 0.026525
0.049526 -0.029358 1.0266 6.1771e-39 228 266.5 0 0 0 0.96819 0.15684 -0.19495 0.022426
0.050769 -0.029382 1.0274 6.0388e-39 229 266.5 0 0 0 0.97167 0.15175 -0.18117 0.023636
0.048946 -0.026967 1.027 6.6381e-39 383 267 0 0 0 0.94439 0.20281 -0.25884 0.0168
0.048325 -0.025154 1.0266 7.2835e-39 247 268 0 0 0 0.92273 0.24464 -0.29786 0.010167
0.048365 -0.023973 1.0274 6.0849e-39 361 268 0 0 0 0.91021 0.26802 -0.31574 0.0071347
0.047124 -0.02035 1.0266 5.2552e-39 154 270 0 0 0 0.91641 0.24383 -0.31738 0.007768
0.045923 -0.017948 1.0266 6.4537e-39 363 270 0 0 0 0.93144 0.21643 -0.29253 0.0082366
0.043521 -0.014345 1.0266 5.9927e-39 359 271 0 0 0 0.9348 0.1896 -0.30034 0.0080958
0.04232 0.0024699 1.0266 5.5317e-39 379 275 0 0 0 0.86166 0.064653 -0.50335 0.014829
0.043521 0.004872 1.0266 7.0991e-39 212 276 0 0 0 0.85912 0.081997 -0.50516 0.016522
0.044759 0.0072802 1.0274 5.3473e-39 380 276 0 0 0 0.86086 0.10178 -0.49856 0.01764
0.04232 0.012679 1.0266 6.1771e-39 405.5 277 0 0 0 0.80323 0.18215 -0.56714 0.019172
0.042939 0.015087 1.027 6.3154e-39 200.5 278 0 0 0 0.79635 0.20282 -0.56982 0.018655
0.042939 0.01689 1.027 5.5317e-39 338.5 278 0 0 0 0.78117 0.23078 -0.58009 0.019535
0.041119 0.019285 1.0266 6.9147e-39 490 278 0 0 0 0.73233 0.3129 -0.6048 0.020186
0.042355 0.018099 1.0274 5.8083e-39 399 278 0 0 0 0.76255 0.26559 -0.5899 0.019114
0.039951 0.020503 1.0274 6.8225e-39 189 279 0 0 0 0.71292 0.33669 -0.61513 0.020234
0.036345 0.025311 1.0274 5.9005e-39 449 279 0 0 0 0.61999 0.56154 -0.54798 0.029208
0.0038865 0.033697 1.0266 5.7161e-39 338 280 0 0 0 -0.084755 0.89308 -0.44185 0.014151
0.0050917 0.033725 1.0274 5.4395e-39 339 280 0 0 0 -0.068503 0.89696 -0.43678 0.012651
0.0062938 0.033725 1.0274 5.2552e-39 340 280 0 0 0 -0.059897 0.89793 -0.43605 0.012294
0.012905 0.033725 1.0274 5.7622e-39 345.5 280 0 0 0 0.021114 0.89362 -0.44833 0.014337
0.014708 0.033725 1.0274 5.9005e-39 347 280 0 0 0 0.042506 0.89212 -0.44979 0.015966
0.018314 0.033725 1.0274 6.7303e-39 350 280 0 0 0 0.10139 0.8859 -0.45267 0.018253
0.023122 0.033725 1.0274 6.5459e-39 355 280 0 0 0 0.21845 0.86884 -0.4443 0.026084
0.052058 -0.063747 1.0291 6.3615e-39 231 252 0 0 0 -0.83773 -0.31142 -0.44858 0.016926
0.05803 -0.061287 1.0283 8.021e-39 271 253 0 0 0 -0.84181 -0.34459 -0.41546 0.015615
0.049691 -0.056569 1.03 4.9786e-39 174 256 0 0 0 -0.83601 -0.31534 -0.44905 0.023952
0.050897 -0.056569 1.03 5.0708e-39 175 256 0 0 0 -0.83704 -0.32701 -0.43867 0.0225
0.04967 -0.054739 1.0295 6.4076e-39 238.5 256.5 0 0 0 -0.84905 -0.30168 -0.43372 0.02325
0.050833 -0.054694 1.0287 6.5459e-39 239.5 256.5 0 0 0 -0.8614 -0.29429 -0.41398 0.022722
0.049609 -0.052866 1.0283 6.7303e-39 295 257 0 0 0 -0.8664 -0.28654 -0.40897 0.02251
0.048486 -0.050544 1.03 5.8083e-39 368 258 0 0 0 -0.86224 -0.25621 -0.43693 0.026687
0.046076 -0.046929 1.03 7.3757e-39 277 260 0 0 0 -0.86578 -0.22878 -0.44507 0.027894
0.049609 -0.026399 1.0283 6.3615e-39 496 267 0 0 0 0.94236 0.20748 -0.2625 0.017415
0.050812 -0.027 1.0283 6.3615e-39 386 267 0 0 0 0.94181 0.2078 -0.26423 0.018304
0.049609 -0.025196 1.0283 7.0069e-39 253 268 0 0 0 0.90896 0.26566 -0.32126 0.0076711
0.049222 -0.023197 1.0286 6.8532e-39 273 268.67 0 0 0 0.90876 0.26467 -0.32265 0.0071902
0.049089 -0.021623 1.03 5.67e-39 346.5 269 0 0 0 0.90554 0.25805 -0.33676 0.0083798
0.047203 -0.019181 1.0283 6.2693e-39 264 270 0 0 0 0.91656 0.2402 -0.31971 0.0090736
0.046038 -0.016789 1.0291 5.3473e-39 154 271 0 0 0 0.92791 0.21126 -0.30717 0.009655
0.044797 -0.014369 1.0283 5.9005e-39 360 271 0 0 0 0.93184 0.18902 -0.30975 0.0090098
0.043593 -0.013166 1.0283 4.4254e-39 149 272 0 0 0 0.93252 0.1761 -0.31526 0.0094392
0.043253 -0.011176 1.0297 6.3615e-39 314.33 272 0 0 0 0.93226 0.13748 -0.33466 0.012446
0.043046 -0.0047502 1.0295 6.6842e-39 177 274 0 0 0 0.9057 0.072879 -0.4176 0.012363
0.04301 -0.0029409 1.0287 5.7852e-39 320.5 274 0 0 0 0.89889 0.066088 -0.43316 0.011598
0.044852 -0.0029436 1.0295 6.1771e-39 322 274 0 0 0 0.90107 0.056121 -0.43003 0.011431
0.04301 -0.0011356 1.0287 5.9927e-39 491.5 274 0 0 0 0.887 0.050541 -0.459 0.010826
0.044834 -0.0011361 1.0291 6.7303e-39 495 274 0 0 0 0.89493 0.047224 -0.4437 0.0099251
0.04301 0.00066973 1.0287 5.6931e-39 253.5 275 0 0 0 0.88399 0.048994 -0.46493 0.010658
0.044834 0.00067 1.0291 6.0388e-39 255 275 0 0 0 0.89186 0.046978 -0.44987 0.0099483
0.043593 0.0030755 1.0283 5.8083e-39 435.5 275 0 0 0 0.87755 0.062469 -0.4754 0.012797
0.044834 0.0030781 1.0291 5.9466e-39 436.5 275 0 0 0 0.88384 0.050712 -0.46504 0.011395
0.044834 0.0048842 1.0291 7.2835e-39 213 276 0 0 0 0.87953 0.063819 -0.47155 0.013801
0.044797 0.0060832 1.0283 5.0708e-39 285 276 0 0 0 0.87108 0.072752 -0.48572 0.015195
0.046057 0.0066928 1.0295 5.3473e-39 333.5 276 0 0 0 0.88289 0.065301 -0.46502 0.014442
0.044834 0.0090989 1.0292 6.8685e-39 344.5 276.5 0 0 0 0.86407 0.11328 -0.49045 0.018312
0.046076 0.0085034 1.03 6.4537e-39 489 276 0 0 0 0.87596 0.085229 -0.4748 0.016799
0.043612 0.012706 1.0287 6.2232e-39 406.5 277 0 0 0 0.82912 0.16427 -0.5344 0.018954
0.043593 0.014504 1.0283 6.0849e-39 164 278 0 0 0 0.81799 0.18359 -0.54515 0.018226
0.046057 0.015125 1.0295 6.2693e-39 203 278 0 0 0 0.84158 0.18084 -0.50895 0.017167
