# .PCD v.7 - Point Cloud Data file format
VERSION .7
FIELDS x y z rgb u v vx vy vz normal_x normal_y normal_z curvature
SIZE 4 4 4 4 4 4 4 4 4 4 4 4 4
TYPE F F F F F F F F F F F F F
COUNT 1 1 1 1 1 1 1 1 1 1 1 1 1
WIDTH 554
HEIGHT 1
VIEWPOINT 0 0 0 1 0 0 0
POINTS 554
DATA ascii
-0.24696 -0.056156 1.2325 1.1156e-38 202.5 254 0 0 0 -0.53288 -0.49882 -0.68353 0.026261
-0.24287 -0.057655 1.2337 5.5317e-39 345 253 0 0 0 -0.44659 -0.6009 -0.66293 0.021331
-0.24071 -0.057655 1.2337 4.9786e-39 351 253 0 0 0 -0.40106 -0.64548 -0.65 0.018476
-0.23927 -0.057655 1.2337 4.702e-39 352 253 0 0 0 -0.37035 -0.6718 -0.6415 0.018246
-0.23759 -0.057598 1.2325 5.4395e-39 358 253 0 0 0 -0.33718 -0.6922 -0.6381 0.017091
-0.18856 -0.057598 1.2325 6.0849e-39 405 253 0 0 0 0.13934 -0.86787 -0.47685 0.0023231
-0.18505 -0.057627 1.2331 5.8544e-39 408.5 253 0 0 0 0.13147 -0.86424 -0.4856 0.0026576
-0.18279 -0.057598 1.2325 6.1771e-39 410 253 0 0 0 0.12211 -0.86217 -0.49168 0.0032865
-0.18135 -0.057598 1.2325 5.9927e-39 416 253 0 0 0 0.11902 -0.85705 -0.50131 0.0037383
-0.17846 -0.056156 1.2325 5.2552e-39 268 254 0 0 0 0.11292 -0.83042 -0.54558 0.01018
-0.17702 -0.056156 1.2325 5.4395e-39 269 254 0 0 0 0.10321 -0.8209 -0.56166 0.012077
-0.17558 -0.056156 1.2325 5.9005e-39 270 254 0 0 0 0.10754 -0.81156 -0.57429 0.014468
-0.16926 -0.057655 1.2337 5.8544e-39 424.5 253 0 0 0 0.11408 -0.7883 -0.60462 0.023224
-0.1671 -0.057655 1.2337 5.3473e-39 426 253 0 0 0 0.15227 -0.76355 -0.62755 0.03359
-0.16477 -0.057598 1.2325 5.3473e-39 427.5 253 0 0 0 0.21538 -0.71411 -0.66607 0.046629
-0.1626 -0.057598 1.2325 5.7161e-39 429 253 0 0 0 0.25185 -0.68975 -0.67884 0.05258
-0.16116 -0.057598 1.2325 5.8083e-39 430 253 0 0 0 0.28832 -0.66188 -0.69194 0.055617
-0.159 -0.057598 1.2325 5.8544e-39 431.5 253 0 0 0 0.33624 -0.62046 -0.7085 0.059187
-0.15692 -0.056906 1.2331 5.5779e-39 362 253.5 0 0 0 0.41003 -0.53485 -0.73879 0.06149
-0.15501 -0.057155 1.2333 6.2386e-39 387 253.33 0 0 0 0.44746 -0.49353 -0.74579 0.059768
-0.1533 -0.056184 1.2331 4.7942e-39 316.5 254 0 0 0 0.50328 -0.39703 -0.76751 0.059595
-0.25081 -0.054768 1.2337 6.2693e-39 398 254 0 0 0 -0.59813 -0.41524 -0.68543 0.030905
-0.15107 -0.054714 1.2325 6.6381e-39 203 255 0 0 0 0.55857 -0.29448 -0.77542 0.051012
-0.14977 -0.054768 1.2337 5.9927e-39 204 255 0 0 0 0.57087 -0.25988 -0.77883 0.051012
-0.25056 -0.053272 1.2325 5.9927e-39 231 255 0 0 0 -0.62637 -0.39819 -0.67015 0.030745
-0.15251 -0.053272 1.2325 5.9927e-39 397 255 0 0 0 0.58157 -0.24549 -0.77557 0.052523
-0.15122 -0.053325 1.2337 6.1771e-39 398 255 0 0 0 0.58824 -0.22346 -0.7772 0.052071
-0.25081 -0.05116 1.2337 5.7622e-39 352.5 255.5 0 0 0 -0.66508 -0.32764 -0.67106 0.033154
-0.15299 -0.050869 1.2325 6.2693e-39 343.67 256 0 0 0 0.6094 -0.14491 -0.77951 0.048572
-0.15122 -0.05116 1.2337 6.0849e-39 315 256 0 0 0 0.61567 -0.13434 -0.77647 0.044992
-0.25081 -0.048995 1.2337 6.8225e-39 435 256 0 0 0 -0.69872 -0.25798 -0.66726 0.032274
-0.1533 -0.04897 1.2331 6.4076e-39 222.5 257 0 0 0 0.63247 -0.070975 -0.77132 0.042473
-0.25056 -0.046783 1.2325 6.085e-39 355.5 257 0 0 0 -0.71845 -0.17237 -0.67389 0.026175
-0.15453 -0.046574 1.2333 6.6074e-39 276.67 257.67 0 0 0 0.64801 -0.006258 -0.76161 0.035119
-0.25081 -0.044664 1.2337 5.8083e-39 245 258 0 0 0 -0.73315 -0.12123 -0.66918 0.022092
-0.15474 -0.044642 1.2331 6.9147e-39 399.5 258 0 0 0 0.65277 0.055852 -0.75549 0.028161
-0.25081 -0.043221 1.2337 7.56e-39 431 258 0 0 0 -0.74102 -0.089925 -0.66543 0.01871
-0.15539 -0.043178 1.2325 7.56e-39 206 259 0 0 0 0.66214 0.081617 -0.74492 0.024265
-0.15547 -0.041035 1.2331 6.9146e-39 298 259.5 0 0 0 0.66526 0.14451 -0.7325 0.015014
-0.15684 -0.038852 1.2325 5.9005e-39 384 260 0 0 0 0.65846 0.18314 -0.72999 0.011871
-0.15555 -0.038891 1.2337 5.8083e-39 385 260 0 0 0 0.66838 0.19324 -0.71828 0.0093201
-0.15692 -0.036707 1.2331 6.6381e-39 279 261 0 0 0 0.66151 0.22177 -0.71639 0.0075481
-0.15836 -0.035264 1.2331 4.4715e-39 266.5 261.5 0 0 0 0.663 0.24319 -0.70802 0.0066842
-0.16116 -0.033084 1.2325 5.9005e-39 357 262 0 0 0 0.66728 0.25605 -0.69941 0.0061217
-0.15972 -0.033084 1.2325 5.6239e-39 358 262 0 0 0 0.6662 0.26369 -0.69759 0.0057923
-0.24912 -0.0302 1.2325 7.0069e-39 196 263 0 0 0 -0.75075 0.11244 -0.65095 0.0022196
-0.16277 -0.031674 1.2337 4.241e-39 157 263 0 0 0 0.66838 0.26766 -0.69399 0.0054474
-0.24912 -0.028758 1.2325 5.8083e-39 391 263 0 0 0 -0.75101 0.12288 -0.64876 0.0022957
-0.16404 -0.028758 1.2325 4.8864e-39 459 263 0 0 0 0.66758 0.27428 -0.69218 0.0050081
-0.24937 -0.027343 1.2337 5.163e-39 172 264 0 0 0 -0.7522 0.13039 -0.64591 0.0023745
-0.16404 -0.027316 1.2325 6.0849e-39 239 264 0 0 0 0.66836 0.27803 -0.68993 0.0049691
-0.24937 -0.025178 1.2337 5.209e-39 409 264 0 0 0 -0.75203 0.14492 -0.643 0.0025101
-0.16421 -0.025178 1.2337 7.2374e-39 304.5 264.5 0 0 0 0.66854 0.28163 -0.68829 0.0052134
-0.24768 -0.02299 1.2325 6.2693e-39 257 265 0 0 0 -0.74466 0.16186 -0.64751 0.0027606
-0.2478 -0.020837 1.2331 7.5601e-39 303.5 265.5 0 0 0 -0.74514 0.18064 -0.64198 0.0029462
-0.16557 -0.020837 1.2331 3.9183e-39 406 265.5 0 0 0 0.6753 0.26482 -0.68836 0.0058562
-0.24709 -0.018674 1.2331 6.5459e-39 373.5 266 0 0 0 -0.74069 0.20052 -0.64122 0.0028919
-0.24624 -0.017222 1.2325 1.7517e-39 544 266 0 0 0 -0.73575 0.21086 -0.64359 0.0028787
-0.16693 -0.017222 1.2325 6.7303e-39 204 267 0 0 0 0.68841 0.23925 -0.68472 0.0063934
-0.24648 -0.015074 1.2337 4.8864e-39 362 267 0 0 0 -0.73611 0.2258 -0.63809 0.0026964
-0.16693 -0.015059 1.2325 5.0246e-39 281 267.5 0 0 0 0.69315 0.22186 -0.6858 0.006385
-0.1671 -0.012909 1.2337 5.2552e-39 345 268 0 0 0 0.69566 0.20287 -0.68913 0.0064946
-0.24492 -0.010738 1.2331 6.6381e-39 287.5 268.5 0 0 0 -0.73124 0.24607 -0.63619 0.0026236
-0.1671 -0.011466 1.2337 5.0708e-39 457 268 0 0 0 0.69599 0.19561 -0.6909 0.0064377
-0.16909 -0.0085704 1.2325 8.6203e-39 406.5 269 0 0 0 0.70662 0.1766 -0.6852 0.0061591
-0.24335 -0.0071284 1.2325 4.8864e-39 459 269 0 0 0 -0.72992 0.25719 -0.6333 0.0026504
-0.16917 -0.007132 1.2331 5.8083e-39 178.5 270 0 0 0 0.70681 0.16701 -0.68741 0.0061384
-0.24215 -0.0042487 1.2337 7.6522e-39 405 270 0 0 0 -0.73132 0.26153 -0.6299 0.0025551
-0.24191 -0.0056865 1.2325 5.2552e-39 234 270 0 0 0 -0.73278 0.258 -0.62966 0.0024764
-0.16939 -0.0052077 1.2329 5.5932e-39 386 270 0 0 0 0.70745 0.15781 -0.68892 0.0061185
-0.24047 -0.0028025 1.2325 5.6239e-39 175 271 0 0 0 -0.73466 0.26227 -0.62569 0.0024038
-0.16981 -0.0028025 1.2325 6.3615e-39 224 271 0 0 0 0.71061 0.15072 -0.68725 0.0060909
-0.24071 -0.0013619 1.2337 4.1488e-39 292 271 0 0 0 -0.73282 0.26502 -0.62669 0.0024504
-0.16981 -0.0013605 1.2325 5.9927e-39 388 271 0 0 0 0.7118 0.14889 -0.68642 0.0061016
-0.24071 8.1514e-05 1.2337 6.1771e-39 440 271 0 0 0 -0.73421 0.26804 -0.62378 0.0022925
-0.16989 0.00080317 1.2331 4.8864e-39 216.5 272 0 0 0 0.71218 0.14808 -0.6862 0.0063711
-0.17125 0.0051284 1.2325 5.3012e-39 237.5 273 0 0 0 0.71454 0.14768 -0.68383 0.0071886
-0.17125 0.0072913 1.2325 5.163e-39 433 273 0 0 0 0.71738 0.15636 -0.67891 0.0075552
-0.17125 0.0087333 1.2325 6.0849e-39 205 274 0 0 0 0.71853 0.16655 -0.67526 0.0078165
-0.1727 0.011617 1.2325 5.8083e-39 471 274 0 0 0 0.71129 0.19065 -0.67655 0.0076732
-0.17143 0.010907 1.2337 5.6239e-39 416.5 274 0 0 0 0.71699 0.18512 -0.67206 0.0076432
-0.23614 0.013059 1.2325 6.1771e-39 195 275 0 0 0 -0.70875 0.29703 -0.63988 0.0022083
-0.1727 0.013059 1.2325 6.2693e-39 244 275 0 0 0 0.71106 0.20649 -0.67212 0.007923
-0.23638 0.014516 1.2337 4.8864e-39 352 275 0 0 0 -0.70578 0.29664 -0.64333 0.002208
-0.17278 0.01523 1.2331 6.8686e-39 282.5 275.5 0 0 0 0.70925 0.22494 -0.6681 0.0075171
-0.2347 0.017385 1.2325 6.0849e-39 232 276 0 0 0 -0.68929 0.30713 -0.65616 0.0029224
-0.17287 0.017403 1.2337 4.4254e-39 290 276 0 0 0 0.70454 0.25615 -0.66182 0.0071452
-0.23494 0.018846 1.2337 8.1132e-39 384 276 0 0 0 -0.68913 0.30289 -0.6583 0.0028942
-0.23326 0.018827 1.2325 8.1132e-39 385 276 0 0 0 -0.67888 0.3101 -0.66555 0.0036745
-0.23182 0.018827 1.2325 8.021e-39 386 276 0 0 0 -0.6757 0.31221 -0.6678 0.0040547
-0.17414 0.018827 1.2325 5.5317e-39 426 276 0 0 0 0.70118 0.26525 -0.66181 0.0072909
-0.23253 0.02077 1.2337 4.1795e-39 322.67 276.67 0 0 0 -0.67863 0.30214 -0.66946 0.0040294
-0.23038 0.02099 1.2325 5.2551e-39 211.5 277 0 0 0 -0.66958 0.30553 -0.67699 0.0048729
-0.17423 0.021001 1.2331 5.7622e-39 265.5 277 0 0 0 0.69934 0.27908 -0.65805 0.0071729
-0.23061 0.023176 1.2337 7.6522e-39 402 277 0 0 0 -0.67603 0.28575 -0.67922 0.0049917
-0.17558 0.023153 1.2325 5.5317e-39 440 277 0 0 0 0.69467 0.29757 -0.65489 0.0071338
-0.17576 0.02462 1.2337 5.5317e-39 205 278 0 0 0 0.69135 0.31099 -0.65217 0.0069181
-0.22905 0.026772 1.2331 6.2693e-39 348 278 0 0 0 -0.67215 0.26198 -0.69252 0.0058806
-0.17855 0.026772 1.2331 5.2551e-39 397 278 0 0 0 0.68778 0.31465 -0.65418 0.007437
-0.17711 0.026772 1.2331 5.3012e-39 398 278 0 0 0 0.69299 0.31607 -0.64797 0.0070451
-0.22749 0.028921 1.2325 6.3615e-39 177 279 0 0 0 -0.66588 0.24658 -0.70413 0.0062537
-0.17991 0.028921 1.2325 6.1771e-39 212 279 0 0 0 0.68376 0.31821 -0.65667 0.0076547
-0.22749 0.031084 1.2325 4.8403e-39 358.5 279 0 0 0 -0.6654 0.24261 -0.70597 0.006031
-0.18153 0.031837 1.2337 5.9005e-39 458 279 0 0 0 0.68311 0.31366 -0.65953 0.0086445
-0.22772 0.03328 1.2337 6.6381e-39 190 280 0 0 0 -0.67857 0.2347 -0.69603 0.005284
-0.18153 0.03328 1.2337 5.8083e-39 222 280 0 0 0 0.68179 0.31233 -0.66152 0.0087516
-0.22689 0.034706 1.2331 4.3793e-39 294.5 280 0 0 0 -0.67139 0.22739 -0.70536 0.0052847
-0.18279 0.034689 1.2325 6.1771e-39 362 280 0 0 0 0.67681 0.30352 -0.67068 0.0098065
-0.22661 0.036624 1.2329 5.7161e-39 338.33 280.33 0 0 0 -0.67386 0.22321 -0.70434 0.0047812
-0.18297 0.036889 1.2337 5.8544e-39 328 280.5 0 0 0 0.68249 0.29223 -0.66993 0.0093504
-0.22605 0.039015 1.2325 5.4395e-39 266 281 0 0 0 -0.67705 0.2197 -0.70238 0.0047653
-0.18297 0.039054 1.2337 4.702e-39 299 281 0 0 0 0.684 0.28418 -0.67186 0.0090253
-0.22628 0.041219 1.2337 5.9467e-39 421.5 281 0 0 0 -0.68836 0.2233 -0.69014 0.0043893
-0.18423 0.041178 1.2325 5.624e-39 287.5 281.5 0 0 0 0.67927 0.2762 -0.67993 0.0099208
-0.18442 0.043384 1.2337 5.163e-39 233 282 0 0 0 0.68739 0.25856 -0.6787 0.009004
-0.18567 0.044783 1.2325 4.1488e-39 302 282 0 0 0 0.67686 0.25535 -0.6904 0.010668
-0.22472 0.046969 1.2331 6.3154e-39 387.5 282 0 0 0 -0.67882 0.23437 -0.6959 0.0052362
-0.22317 0.047667 1.2325 6.1771e-39 413 282 0 0 0 -0.66522 0.23884 -0.70742 0.0063114
-0.18586 0.046992 1.2337 6.0849e-39 414.5 282 0 0 0 0.68783 0.24337 -0.68386 0.010032
-0.22172 0.049109 1.2325 5.2552e-39 462 282 0 0 0 -0.64255 0.2572 -0.72179 0.0086167
-0.18586 0.049158 1.2337 5.163e-39 161 283 0 0 0 0.68875 0.23875 -0.68456 0.010773
-0.221 0.050551 1.2325 6.3615e-39 183.5 283 0 0 0 -0.63217 0.27177 -0.72561 0.010152
-0.18856 0.051993 1.2325 5.2552e-39 265 283 0 0 0 0.65658 0.2625 -0.7071 0.015444
-0.18712 0.051993 1.2325 5.5317e-39 266 283 0 0 0 0.67225 0.25689 -0.69432 0.013855
-0.18586 0.050601 1.2337 6.2693e-39 213 283 0 0 0 0.69024 0.24413 -0.68115 0.011155
-0.22122 0.052044 1.2337 5.5778e-39 234.5 283 0 0 0 -0.64526 0.27502 -0.71274 0.0086426
-0.21884 0.059202 1.2325 5.8083e-39 435 283 0 0 0 -0.59637 0.3454 -0.7246 0.016801
-0.21884 0.060644 1.2325 6.2693e-39 441 283 0 0 0 -0.59693 0.35311 -0.72041 0.017796
-0.22506 -0.064937 1.235 5.6239e-39 369 250 0 0 0 -0.040401 -0.88031 -0.47268 0.01163
-0.22361 -0.064937 1.235 5.9005e-39 370 250 0 0 0 -0.012877 -0.88814 -0.4594 0.010902
-0.23662 -0.063492 1.235 5.2552e-39 218 251 0 0 0 -0.19985 -0.77543 -0.59898 0.017169
-0.22072 -0.063492 1.235 1.0142e-38 229 251 0 0 0 0.020717 -0.89114 -0.45326 0.0094318
-0.21639 -0.062047 1.235 5.9005e-39 422 251 0 0 0 0.051796 -0.89757 -0.43783 0.0072425
-0.21061 -0.062047 1.235 5.163e-39 426 251 0 0 0 0.071921 -0.90848 -0.4117 0.0050132
-0.20916 -0.062047 1.235 5.0708e-39 427 251 0 0 0 0.075475 -0.91121 -0.40497 0.0045608
-0.19688 -0.062047 1.235 5.7622e-39 436.5 251 0 0 0 0.093478 -0.89964 -0.42651 0.0043287
-0.23806 -0.059158 1.235 6.7303e-39 437 252 0 0 0 -0.30924 -0.7123 -0.63008 0.017954
-0.19183 -0.059158 1.235 4.4254e-39 210 253 0 0 0 0.12124 -0.88263 -0.45417 0.0034904
-0.18894 -0.059158 1.235 3.9644e-39 212 253 0 0 0 0.13029 -0.8736 -0.46888 0.0028431
-0.18171 -0.059158 1.235 5.9927e-39 217 253 0 0 0 0.10365 -0.86296 -0.49452 0.003447
-0.16004 -0.059158 1.235 7.1913e-39 232 253 0 0 0 0.26062 -0.71313 -0.65079 0.050513
-0.15859 -0.059158 1.235 6.8225e-39 233 253 0 0 0 0.29943 -0.69301 -0.6558 0.055677
-0.24529 -0.057713 1.235 5.7161e-39 343 253 0 0 0 -0.47444 -0.53575 -0.69848 0.030493
-0.18749 -0.057713 1.235 6.0849e-39 407 253 0 0 0 0.12985 -0.87062 -0.47451 0.002788
-0.18027 -0.057713 1.235 6.3615e-39 417 253 0 0 0 0.10027 -0.8598 -0.50068 0.0035712
-0.17304 -0.057713 1.235 5.8083e-39 422 253 0 0 0 0.080541 -0.82813 -0.55472 0.010294
-0.1716 -0.057713 1.235 6.0849e-39 423 253 0 0 0 0.090137 -0.81731 -0.5691 0.013688
-0.15137 -0.056268 1.235 5.0708e-39 341 254 0 0 0 0.51667 -0.38411 -0.76519 0.060933
-0.14992 -0.053378 1.235 6.4537e-39 399 255 0 0 0 0.58859 -0.19769 -0.78388 0.051039
-0.14992 -0.051933 1.235 5.9927e-39 226 256 0 0 0 0.60948 -0.14059 -0.78023 0.048943
-0.15137 -0.049044 1.235 6.4537e-39 224 257 0 0 0 0.63136 -0.051023 -0.77381 0.038784
-0.15281 -0.046876 1.235 6.7303e-39 309.5 257.5 0 0 0 0.64551 -0.0045771 -0.76373 0.035322
-0.15426 -0.043264 1.235 7.56e-39 207 259 0 0 0 0.65824 0.087258 -0.74773 0.023062
-0.25106 -0.041097 1.235 6.592e-39 334 259 0 0 0 -0.75593 -0.030531 -0.65394 0.010593
-0.15426 -0.041097 1.235 6.8224e-39 299 259.5 0 0 0 0.66624 0.14916 -0.73066 0.013493
-0.15426 -0.03893 1.235 6.0849e-39 386 260 0 0 0 0.66966 0.20082 -0.715 0.0079122
-0.1557 -0.037485 1.235 5.9005e-39 187 261 0 0 0 0.66874 0.21612 -0.7114 0.0068258
-0.15715 -0.034595 1.235 3.319e-39 166 262 0 0 0 0.6662 0.25598 -0.70046 0.0054256
-0.15859 -0.03315 1.235 5.5317e-39 359 262 0 0 0 0.6614 0.26606 -0.70126 0.005376
-0.16293 -0.03026 1.235 5.163e-39 286 263 0 0 0 0.66596 0.27365 -0.69398 0.0053008
-0.16076 -0.030982 1.235 4.6098e-39 223 263 0 0 0 0.66457 0.27132 -0.69623 0.0053582
-0.16293 -0.028816 1.235 5.2552e-39 460 263 0 0 0 0.66561 0.27808 -0.69256 0.0052602
-0.24962 -0.023036 1.235 6.1771e-39 256 265 0 0 0 -0.75328 0.16101 -0.63769 0.0027362
-0.16437 -0.023036 1.235 5.9927e-39 378 265 0 0 0 0.66601 0.27558 -0.69317 0.0058047
-0.16582 -0.018702 1.235 7.0069e-39 436 266 0 0 0 0.67778 0.24984 -0.69152 0.0064826
-0.24817 -0.017257 1.235 1.7517e-39 543 266 0 0 0 -0.7455 0.20994 -0.63257 0.0028288
-0.16582 -0.017257 1.235 6.4537e-39 205 267 0 0 0 0.68094 0.2393 -0.69214 0.0069372
-0.16582 -0.01509 1.235 5.1168e-39 282 267.5 0 0 0 0.68722 0.22048 -0.69218 0.0070504
-0.24673 -0.012922 1.235 5.9927e-39 211 268 0 0 0 -0.73734 0.23828 -0.6321 0.0025864
-0.16582 -0.012922 1.235 5.163e-39 346 268 0 0 0 0.68876 0.20649 -0.69496 0.0070016
-0.16726 -0.010032 1.235 5.6239e-39 233 269 0 0 0 0.69694 0.18737 -0.69222 0.0065091
-0.24384 -0.0056978 1.235 5.7161e-39 233 270 0 0 0 -0.73008 0.26505 -0.62987 0.0025831
-0.16871 -0.004253 1.235 5.163e-39 458 270 0 0 0 0.70618 0.15999 -0.68972 0.0060244
-0.16871 -0.0028081 1.235 6.3615e-39 225 271 0 0 0 0.70865 0.15362 -0.68864 0.0060825
-0.16871 -0.0013633 1.235 5.7161e-39 389 271 0 0 0 0.7104 0.15252 -0.68707 0.0060446
-0.24095 0.0015265 1.235 5.9005e-39 211 272 0 0 0 -0.73204 0.26928 -0.62578 0.0024265
-0.16871 0.00080405 1.235 4.6559e-39 217.5 272 0 0 0 0.71076 0.14841 -0.6876 0.0061425
-0.17015 0.0029713 1.235 7.56e-39 412 272 0 0 0 0.7144 0.14919 -0.68365 0.00669
-0.17015 0.0051386 1.235 5.1168e-39 238.5 273 0 0 0 0.71805 0.15429 -0.67867 0.0070926
-0.1716 0.013085 1.235 6.1771e-39 245 275 0 0 0 0.71673 0.21385 -0.66375 0.0077989
-0.23662 0.015975 1.235 5.3473e-39 460 275 0 0 0 -0.70569 0.29484 -0.64426 0.0021557
-0.17304 0.018865 1.235 5.4395e-39 427 276 0 0 0 0.70364 0.26563 -0.65904 0.0070392
-0.23228 0.023199 1.235 7.56e-39 401 277 0 0 0 -0.68236 0.28595 -0.67277 0.0040714
-0.17449 0.023199 1.235 5.4395e-39 441 277 0 0 0 0.69724 0.30055 -0.6508 0.0071551
-0.23084 0.024644 1.235 5.7161e-39 165 278 0 0 0 -0.68083 0.27789 -0.67768 0.0047405
-0.17593 0.026089 1.235 4.9786e-39 347 278 0 0 0 0.68975 0.31626 -0.65132 0.0068148
-0.22939 0.028979 1.235 6.2693e-39 176 279 0 0 0 -0.68866 0.24902 -0.68098 0.0049487
-0.17882 0.028979 1.235 5.9927e-39 213 279 0 0 0 0.69295 0.31808 -0.64703 0.0067358
-0.17738 0.028979 1.235 5.9005e-39 214 279 0 0 0 0.69201 0.31727 -0.64843 0.006892
-0.22939 0.030424 1.235 4.0566e-39 290 279 0 0 0 -0.69074 0.24332 -0.68094 0.0046827
-0.18027 0.030424 1.235 5.6239e-39 356 279 0 0 0 0.68582 0.31843 -0.65441 0.0075657
-0.18171 0.034758 1.235 5.7161e-39 363 280 0 0 0 0.68477 0.30278 -0.66289 0.0087603
-0.22795 0.037648 1.235 5.6239e-39 171 281 0 0 0 -0.6973 0.22975 -0.67896 0.0037998
-0.22795 0.039093 1.235 5.4395e-39 265 281 0 0 0 -0.69749 0.2284 -0.67922 0.0038094
-0.18316 0.041261 1.235 5.7162e-39 288.5 281.5 0 0 0 0.68889 0.27277 -0.67159 0.0085024
-0.2265 0.043427 1.235 6.1771e-39 200 282 0 0 0 -0.70067 0.22686 -0.67646 0.003798
-0.2265 0.044872 1.235 5.3473e-39 269 282 0 0 0 -0.70225 0.22878 -0.67416 0.0039128
-0.1846 0.044872 1.235 4.241e-39 303 282 0 0 0 0.69465 0.25138 -0.67399 0.0085546
-0.1846 0.046317 1.235 6.9147e-39 391 282 0 0 0 0.69743 0.24425 -0.67375 0.008444
-0.22361 0.049207 1.235 5.0708e-39 461 282 0 0 0 -0.67922 0.25319 -0.68888 0.0054752
-0.22072 0.053541 1.235 4.1488e-39 287 283 0 0 0 -0.65195 0.28387 -0.70312 0.0080123
-0.18894 0.053541 1.235 5.3473e-39 352 283 0 0 0 0.67196 0.27037 -0.68947 0.014574
-0.18677 0.052819 1.235 5.5317e-39 310 283 0 0 0 0.69165 0.2519 -0.67688 0.012136
-0.22072 0.054986 1.235 7.3757e-39 369 283 0 0 0 -0.6496 0.29514 -0.70065 0.0083607
-0.22072 0.057154 1.235 6.9607e-39 413.5 283 0 0 0 -0.65122 0.30929 -0.693 0.0085814
-0.23564 -0.065067 1.2374 5.7161e-39 357 250 0 0 0 -0.13764 -0.80691 -0.57441 0.02087
-0.23324 -0.065002 1.2362 5.9005e-39 359.5 250 0 0 0 -0.11249 -0.82994 -0.5464 0.016491
-0.2313 -0.065067 1.2374 5.9005e-39 365 250 0 0 0 -0.073583 -0.8506 -0.52065 0.016996
-0.22901 -0.065035 1.2368 5.7622e-39 366.5 250 0 0 0 -0.067786 -0.86425 -0.49848 0.01338
-0.22673 -0.065002 1.2362 5.5317e-39 368 250 0 0 0 -0.049612 -0.87712 -0.47771 0.011996
-0.23854 -0.062172 1.2374 6.4537e-39 401 251 0 0 0 -0.21084 -0.74212 -0.63624 0.026372
-0.21889 -0.062864 1.2368 7.56e-39 325.5 251 0 0 0 0.047943 -0.90096 -0.43125 0.007802
-0.21537 -0.062172 1.2374 6.2693e-39 423 251 0 0 0 0.07196 -0.90856 -0.41151 0.0057861
-0.21227 -0.062109 1.2362 5.4395e-39 425 251 0 0 0 0.067285 -0.90953 -0.41016 0.0054169
-0.20731 -0.062141 1.2368 5.4395e-39 428.5 251 0 0 0 0.081659 -0.91735 -0.38962 0.003749
-0.20524 -0.062172 1.2374 5.5317e-39 430 251 0 0 0 0.074883 -0.91753 -0.39056 0.0035139
-0.20234 -0.062172 1.2374 5.3473e-39 432 251 0 0 0 0.068127 -0.91576 -0.3959 0.0036107
-0.2007 -0.062109 1.2362 5.3473e-39 433 251 0 0 0 0.067832 -0.91039 -0.40816 0.003879
-0.19511 -0.062172 1.2374 6.7303e-39 439 251 0 0 0 0.093387 -0.90038 -0.42496 0.0045599
-0.19366 -0.062172 1.2374 6.2693e-39 456 251 0 0 0 0.097989 -0.89687 -0.43129 0.0045898
-0.2383 -0.060663 1.2362 5.8083e-39 247 252 0 0 0 -0.26585 -0.7331 -0.62601 0.020905
-0.19202 -0.060663 1.2362 5.7161e-39 356 252 0 0 0 0.11647 -0.88527 -0.45026 0.00393
-0.19057 -0.060663 1.2362 5.6239e-39 357 252 0 0 0 0.11697 -0.8818 -0.45688 0.0037448
-0.18931 -0.060724 1.2374 5.6239e-39 358 252 0 0 0 0.11272 -0.88133 -0.45886 0.0038893
-0.18208 -0.060724 1.2374 5.8083e-39 365 252 0 0 0 0.10037 -0.86551 -0.49073 0.0031626
-0.24433 -0.059276 1.2374 5.6239e-39 433 252 0 0 0 -0.41099 -0.5879 -0.69675 0.034005
-0.24288 -0.059276 1.2374 5.9927e-39 434 252 0 0 0 -0.37454 -0.62287 -0.68685 0.032074
-0.24143 -0.059276 1.2374 6.4537e-39 435 252 0 0 0 -0.35756 -0.64589 -0.67452 0.031303
-0.23999 -0.059276 1.2374 6.6381e-39 436 252 0 0 0 -0.31764 -0.68937 -0.65105 0.026473
-0.18714 -0.059276 1.2374 4.8864e-39 213.5 253 0 0 0 0.1202 -0.87262 -0.47337 0.0033429
-0.18479 -0.059217 1.2362 5.5317e-39 215 253 0 0 0 0.11533 -0.86912 -0.48097 0.0030929
-0.18334 -0.059217 1.2362 5.9927e-39 216 253 0 0 0 0.10869 -0.86674 -0.48677 0.0031599
-0.16688 -0.059276 1.2374 7.3757e-39 227.5 253 0 0 0 0.12441 -0.81784 -0.56184 0.019134
-0.1647 -0.059276 1.2374 7.1913e-39 229 253 0 0 0 0.1606 -0.80067 -0.57717 0.029013
-0.16325 -0.059276 1.2374 6.9147e-39 230 253 0 0 0 0.17804 -0.78904 -0.58797 0.033279
-0.16165 -0.059217 1.2362 6.9147e-39 231 253 0 0 0 0.21914 -0.75594 -0.61688 0.04411
-0.15746 -0.059276 1.2374 6.0849e-39 234 253 0 0 0 0.29326 -0.70136 -0.64968 0.056138
-0.15521 -0.059246 1.2368 5.4856e-39 235.5 253 0 0 0 0.33608 -0.65211 -0.67956 0.06
-0.15312 -0.059276 1.2374 5.2552e-39 237 253 0 0 0 0.38984 -0.58652 -0.70994 0.062858
-0.25302 -0.056381 1.2374 2.8581e-39 154 254 0 0 0 -0.58515 -0.38209 -0.71527 0.037822
-0.25132 -0.056324 1.2362 1.5028e-38 200 254 0 0 0 -0.5764 -0.4099 -0.70692 0.034856
-0.24915 -0.057771 1.2362 4.9325e-39 340.5 253 0 0 0 -0.52605 -0.46235 -0.7138 0.033796
-0.24698 -0.057771 1.2362 5.3473e-39 342 253 0 0 0 -0.49678 -0.49002 -0.71631 0.03345
-0.179 -0.057771 1.2362 6.6381e-39 418 253 0 0 0 0.083614 -0.85729 -0.50801 0.0035668
-0.17692 -0.0578 1.2368 6.3154e-39 419.5 253 0 0 0 0.069432 -0.8549 -0.51412 0.0042759
-0.17466 -0.057771 1.2362 5.6239e-39 421 253 0 0 0 0.069549 -0.84195 -0.53506 0.0061741
-0.15297 -0.057771 1.2362 7.1913e-39 436 253 0 0 0 0.44787 -0.50058 -0.74083 0.064458
-0.15065 -0.057327 1.237 6.6074e-39 406 253.33 0 0 0 0.48108 -0.43469 -0.76132 0.066537
-0.25276 -0.054878 1.2362 5.9927e-39 397 254 0 0 0 -0.60995 -0.37039 -0.70055 0.036039
-0.25289 -0.052735 1.2368 5.7622e-39 329 255 0 0 0 -0.65496 -0.3319 -0.67887 0.036222
-0.25302 -0.05059 1.2374 5.163e-39 275 256 0 0 0 -0.70221 -0.27627 -0.65618 0.035483
-0.15007 -0.050539 1.2362 6.1771e-39 406 256 0 0 0 0.62277 -0.11108 -0.77448 0.046403
-0.25302 -0.049142 1.2374 7.0069e-39 434 256 0 0 0 -0.71751 -0.23667 -0.65511 0.034164
-0.15022 -0.049142 1.2374 6.5459e-39 225 257 0 0 0 0.62627 -0.062486 -0.7771 0.042459
-0.25276 -0.046923 1.2362 6.085e-39 354.5 257 0 0 0 -0.73525 -0.17775 -0.65407 0.029498
-0.15109 -0.04718 1.2366 6.5459e-39 342.33 257.33 0 0 0 0.63771 0.013933 -0.77015 0.033037
-0.25276 -0.044754 1.2362 6.0849e-39 244 258 0 0 0 -0.75495 -0.10629 -0.64711 0.020948
-0.15297 -0.044754 1.2362 6.7303e-39 401 258 0 0 0 0.65612 0.05992 -0.75227 0.026857
-0.15167 -0.044799 1.2374 6.5459e-39 402 258 0 0 0 0.65562 0.064455 -0.75234 0.026336
-0.25302 -0.043351 1.2374 7.1913e-39 430 258 0 0 0 -0.76619 -0.073856 -0.63835 0.016847
-0.15297 -0.043307 1.2362 7.56e-39 208 259 0 0 0 0.65964 0.10303 -0.74449 0.020486
-0.25302 -0.041903 1.2374 5.9005e-39 238 259 0 0 0 -0.77118 -0.020373 -0.63629 0.0096605
-0.15304 -0.041158 1.2368 6.7764e-39 300 259.5 0 0 0 0.66883 0.1614 -0.72568 0.011677
-0.25132 -0.038969 1.2362 6.1771e-39 233 260 0 0 0 -0.76702 0.025489 -0.64112 0.0048381
-0.15312 -0.039008 1.2374 6.3615e-39 387 260 0 0 0 0.67251 0.2158 -0.70793 0.0064231
-0.25132 -0.036799 1.2362 6.6842e-39 321 260.5 0 0 0 -0.76856 0.066296 -0.63633 0.002277
-0.15495 -0.03657 1.2366 5.501e-39 313 261 0 0 0 0.67455 0.24143 -0.69764 0.0054756
-0.15312 -0.03756 1.2374 4.1488e-39 189 261 0 0 0 0.6741 0.22913 -0.7022 0.005724
-0.25132 -0.03463 1.2362 5.6239e-39 411 261 0 0 0 -0.76988 0.08705 -0.63222 0.0018786
-0.15602 -0.034664 1.2374 3.8722e-39 167 262 0 0 0 0.67029 0.25631 -0.69643 0.0055327
-0.25132 -0.033183 1.2362 7.0991e-39 206 262 0 0 0 -0.76981 0.09275 -0.63149 0.0018454
-0.15666 -0.0332 1.2368 5.4395e-39 360.5 262 0 0 0 0.66775 0.26174 -0.69686 0.0054847
-0.25132 -0.031014 1.2362 6.4537e-39 301 262.5 0 0 0 -0.76809 0.10766 -0.63123 0.0018142
-0.15875 -0.031014 1.2362 4.3332e-39 224.5 263 0 0 0 0.66078 0.26896 -0.70074 0.0054127
-0.15746 -0.031045 1.2374 3.9644e-39 225.5 263 0 0 0 0.66244 0.26712 -0.69987 0.0054586
-0.25157 -0.028873 1.2374 5.6239e-39 390 263 0 0 0 -0.76941 0.1218 -0.62704 0.0017514
-0.16093 -0.028844 1.2362 5.3473e-39 462.5 263 0 0 0 0.66043 0.27233 -0.69976 0.0054612
-0.15891 -0.028873 1.2374 5.4395e-39 466 263 0 0 0 0.65734 0.26873 -0.70405 0.0055237
-0.25157 -0.027426 1.2374 4.4254e-39 171 264 0 0 0 -0.76894 0.13 -0.62596 0.0019801
-0.16309 -0.027398 1.2362 5.8083e-39 240 264 0 0 0 0.6605 0.279 -0.69707 0.005569
-0.16093 -0.027398 1.2362 5.8544e-39 254.5 264 0 0 0 0.65767 0.27388 -0.70175 0.0055758
-0.15891 -0.027426 1.2374 5.9927e-39 256 264 0 0 0 0.65345 0.27154 -0.70659 0.0057087
-0.25157 -0.025254 1.2374 5.209e-39 407 264 0 0 0 -0.76801 0.14258 -0.62437 0.0022204
-0.16309 -0.025229 1.2362 7.6522e-39 305.5 264.5 0 0 0 0.65975 0.2823 -0.69645 0.0057711
-0.16104 -0.025248 1.2371 7.7675e-39 307 264.5 0 0 0 0.65351 0.27999 -0.70323 0.0060198
-0.15891 -0.025978 1.2374 7.4678e-39 423 264 0 0 0 0.65184 0.27197 -0.70791 0.0057277
-0.25157 -0.023082 1.2374 5.7161e-39 255 265 0 0 0 -0.76608 0.15874 -0.62283 0.0025543
-0.16309 -0.023059 1.2362 5.9005e-39 379 265 0 0 0 0.66141 0.27792 -0.69663 0.0060712
-0.16181 -0.023082 1.2374 5.9927e-39 380 265 0 0 0 0.65287 0.27578 -0.70548 0.0061553
-0.24987 -0.02089 1.2362 7.3757e-39 302.5 265.5 0 0 0 -0.75389 0.18179 -0.63135 0.002606
-0.16454 -0.02089 1.2362 3.9183e-39 407 265.5 0 0 0 0.6657 0.26704 -0.6968 0.0062797
-0.16325 -0.021635 1.2374 1.7517e-39 541 265 0 0 0 0.65791 0.27048 -0.70285 0.0064077
-0.25012 -0.018739 1.2374 6.6381e-39 372 266 0 0 0 -0.7531 0.20023 -0.62669 0.0026174
-0.1647 -0.018739 1.2374 7.1913e-39 437 266 0 0 0 0.66878 0.24965 -0.70029 0.0071376
-0.1647 -0.017291 1.2374 6.4537e-39 206 267 0 0 0 0.67004 0.24081 -0.70218 0.0072899
-0.24842 -0.015105 1.2362 5.209e-39 361 267 0 0 0 -0.74401 0.22551 -0.62897 0.0026984
-0.1647 -0.01512 1.2374 5.3473e-39 283 267.5 0 0 0 0.67329 0.22406 -0.70461 0.0074543
-0.24867 -0.012948 1.2374 5.9927e-39 210 268 0 0 0 -0.74222 0.23682 -0.62692 0.002608
-0.1647 -0.012948 1.2374 5.163e-39 347 268 0 0 0 0.67715 0.20926 -0.70547 0.0076126
-0.2471 -0.010771 1.2368 6.6381e-39 286.5 268.5 0 0 0 -0.73793 0.24927 -0.62715 0.002565
-0.16555 -0.01101 1.2366 5.1015e-39 383.67 268.33 0 0 0 0.68558 0.19568 -0.7012 0.0072641
-0.24553 -0.0085962 1.2362 5.0708e-39 346 269 0 0 0 -0.73226 0.25567 -0.63121 0.0026821
-0.16679 -0.0086005 1.2368 9.4503e-39 408.5 269 0 0 0 0.69423 0.18045 -0.69676 0.0067395
-0.24578 -0.007157 1.2374 5.0708e-39 458 269 0 0 0 -0.73325 0.2617 -0.62759 0.0026269
-0.1676 -0.007157 1.2374 6.5459e-39 180 270 0 0 0 0.69858 0.16901 -0.69529 0.0067889
-0.24408 -0.0042572 1.2362 8.021e-39 404 270 0 0 0 -0.73027 0.26593 -0.62928 0.0026048
-0.1676 -0.0049854 1.2374 5.3473e-39 405.5 270 0 0 0 0.70009 0.16578 -0.69454 0.0065811
-0.24264 -0.0028109 1.2362 5.5317e-39 174 271 0 0 0 -0.73028 0.26438 -0.62992 0.0025573
-0.1676 -0.0028138 1.2374 5.7161e-39 226 271 0 0 0 0.70429 0.15468 -0.69286 0.0063773
-0.24288 -0.001366 1.2374 4.241e-39 291 271 0 0 0 -0.73206 0.2673 -0.6266 0.0024854
-0.1676 -0.001366 1.2374 5.9005e-39 390 271 0 0 0 0.70572 0.15364 -0.69163 0.0064032
-0.16752 0.00080488 1.2368 4.6098e-39 218.5 272 0 0 0 0.70914 0.1544 -0.68796 0.0063173
-0.24143 0.0029773 1.2374 5.3473e-39 366 272 0 0 0 -0.73083 0.26918 -0.62724 0.0025054
-0.16888 0.0029743 1.2362 7.3757e-39 413 272 0 0 0 0.71505 0.15351 -0.68201 0.0064771
-0.1676 0.0029773 1.2374 7.3757e-39 414 272 0 0 0 0.71313 0.15913 -0.68274 0.0065548
-0.24143 0.004425 1.2374 5.8083e-39 471 272 0 0 0 -0.72976 0.27141 -0.62753 0.0025095
-0.16905 0.0051489 1.2374 5.0246e-39 239.5 273 0 0 0 0.71704 0.16179 -0.678 0.0072463
-0.1676 0.0051489 1.2374 5.2551e-39 240.5 273 0 0 0 0.7149 0.16616 -0.67919 0.0070847
-0.17032 0.0073132 1.2362 5.0708e-39 434 273 0 0 0 0.71931 0.16714 -0.67428 0.0074423
-0.16905 0.0073205 1.2374 5.0708e-39 435 273 0 0 0 0.72086 0.17092 -0.67167 0.0073322
-0.17032 0.0087595 1.2362 5.8083e-39 206 274 0 0 0 0.72027 0.17274 -0.67184 0.0075381
-0.16905 0.0087683 1.2374 6.3615e-39 207 274 0 0 0 0.71939 0.17932 -0.67106 0.0076181
-0.17041 0.010935 1.2368 5.5318e-39 418 274 0 0 0 0.71805 0.19321 -0.66863 0.0078022
-0.17177 0.015268 1.2362 6.6381e-39 283.5 275.5 0 0 0 0.7135 0.23364 -0.66055 0.0076875
-0.23685 0.017437 1.2362 5.9005e-39 231 276 0 0 0 -0.70712 0.29219 -0.6439 0.0019856
-0.17194 0.017455 1.2374 4.0566e-39 291 276 0 0 0 0.70699 0.25566 -0.6594 0.0076679
-0.23709 0.018903 1.2374 7.6522e-39 383 276 0 0 0 -0.70729 0.28896 -0.64518 0.0018886
-0.23553 0.021064 1.2368 3.5035e-39 407.5 276.5 0 0 0 -0.70024 0.28835 -0.65309 0.0023142
-0.17322 0.021053 1.2362 5.5779e-39 266.5 277 0 0 0 0.70054 0.28148 -0.65575 0.0071755
-0.23396 0.023223 1.2362 7.3757e-39 400 277 0 0 0 -0.69156 0.28443 -0.66396 0.0031874
-0.17339 0.023246 1.2374 5.4395e-39 442 277 0 0 0 0.69393 0.30274 -0.6533 0.0072604
-0.23419 0.024694 1.2374 5.3473e-39 163 278 0 0 0 -0.69562 0.28074 -0.66129 0.0028237
-0.23251 0.024669 1.2362 5.7161e-39 164 278 0 0 0 -0.68745 0.2792 -0.67042 0.0040592
-0.17466 0.024669 1.2362 5.6239e-39 206 278 0 0 0 0.69161 0.31065 -0.65206 0.0070683
-0.17339 0.024694 1.2374 5.9927e-39 207 278 0 0 0 0.6913 0.30563 -0.65475 0.0073548
-0.23275 0.026141 1.2374 4.702e-39 280 278 0 0 0 -0.69726 0.26968 -0.66415 0.0033631
-0.23118 0.026852 1.2368 5.9927e-39 347 278 0 0 0 -0.69247 0.26316 -0.67174 0.0043359
-0.17611 0.027561 1.2362 5.9927e-39 451 278 0 0 0 0.6893 0.31749 -0.65121 0.0070228
-0.17484 0.026141 1.2374 5.3473e-39 348 278 0 0 0 0.69027 0.31446 -0.65164 0.0072169
-0.17628 0.029037 1.2374 5.7161e-39 215 279 0 0 0 0.69065 0.31701 -0.65001 0.0070398
-0.22962 0.0319 1.2362 5.9005e-39 425 279 0 0 0 -0.69857 0.2392 -0.67437 0.0041509
-0.18045 0.0319 1.2362 5.2552e-39 459 279 0 0 0 0.68746 0.31447 -0.65461 0.0079791
-0.17918 0.030485 1.2374 5.4395e-39 357 279 0 0 0 0.6925 0.31749 -0.6478 0.0069659
-0.17773 0.030485 1.2374 5.4395e-39 358 279 0 0 0 0.69273 0.31729 -0.64765 0.0068985
-0.22962 0.033347 1.2362 6.4537e-39 189 280 0 0 0 -0.70129 0.2366 -0.67247 0.0040163
-0.18063 0.03338 1.2374 6.2693e-39 223 280 0 0 0 0.69261 0.30605 -0.65316 0.007923
-0.22985 0.034828 1.2374 4.3332e-39 293 280 0 0 0 -0.70523 0.2355 -0.66872 0.0036082
-0.18063 0.034828 1.2374 5.4395e-39 364 280 0 0 0 0.69158 0.29925 -0.6574 0.0079521
-0.22985 0.037 1.2374 6.0388e-39 295 280.5 0 0 0 -0.71061 0.23707 -0.66244 0.003119
-0.18189 0.036963 1.2362 5.7161e-39 329 280.5 0 0 0 0.68959 0.28749 -0.66469 0.0083607
-0.18208 0.039171 1.2374 4.702e-39 300 281 0 0 0 0.69175 0.27932 -0.66593 0.0078313
-0.22818 0.040578 1.2362 7.56e-39 382 281 0 0 0 -0.70655 0.2319 -0.66859 0.0033993
-0.2284 0.04279 1.2374 5.5318e-39 329 281.5 0 0 0 -0.71885 0.23825 -0.65307 0.0027562
-0.18334 0.043471 1.2362 4.9786e-39 234 282 0 0 0 0.69315 0.25829 -0.67292 0.0079645
-0.18334 0.044917 1.2362 4.9786e-39 339 282 0 0 0 0.69475 0.25243 -0.67349 0.0079799
-0.22684 0.04711 1.2368 6.2693e-39 386.5 282 0 0 0 -0.71173 0.24018 -0.66012 0.0035158
-0.18479 0.04781 1.2362 5.8083e-39 440 282 0 0 0 0.70246 0.23427 -0.67206 0.00782
-0.18352 0.047134 1.2374 6.7303e-39 416.5 282 0 0 0 0.70345 0.24066 -0.66877 0.0073585
-0.22528 0.049256 1.2362 4.7942e-39 460 282 0 0 0 -0.70134 0.24824 -0.6682 0.004266
-0.18479 0.049256 1.2362 5.0708e-39 162 283 0 0 0 0.70684 0.23036 -0.66881 0.0079566
-0.18352 0.049305 1.2374 5.2552e-39 163 283 0 0 0 0.70793 0.23106 -0.66742 0.0073991
-0.22551 0.050753 1.2374 6.2693e-39 181 283 0 0 0 -0.70775 0.25847 -0.65748 0.0039127
-0.22384 0.050702 1.2362 6.2693e-39 182 283 0 0 0 -0.69415 0.25841 -0.67185 0.0046341
-0.18497 0.050753 1.2374 5.9927e-39 214 283 0 0 0 0.71105 0.23396 -0.66307 0.0077228
-0.18352 0.050753 1.2374 5.8083e-39 215 283 0 0 0 0.7102 0.23406 -0.66396 0.0077388
-0.22406 0.052201 1.2374 5.4395e-39 233 283 0 0 0 -0.69836 0.26643 -0.66431 0.0044538
-0.22239 0.053595 1.2362 4.1488e-39 286 283 0 0 0 -0.67253 0.27467 -0.68721 0.0061182
-0.18623 0.053595 1.2362 4.9786e-39 354 283 0 0 0 0.70575 0.24175 -0.66594 0.010405
-0.22261 0.055096 1.2374 6.7303e-39 368 283 0 0 0 -0.68317 0.28635 -0.67178 0.0052439
-0.18912 0.055041 1.2362 6.6381e-39 391 283 0 0 0 0.67853 0.28322 -0.67778 0.014598
-0.18705 0.055069 1.2368 7.2374e-39 392.5 283 0 0 0 0.69744 0.26357 -0.66641 0.011868
-0.18912 0.056488 1.2362 6.1771e-39 418 283 0 0 0 0.67579 0.2905 -0.67744 0.015308
-0.18787 0.056544 1.2374 6.5459e-39 419 283 0 0 0 0.69645 0.27598 -0.66241 0.013245
-0.22094 0.05938 1.2362 5.9927e-39 434 283 0 0 0 -0.67192 0.30683 -0.67408 0.0066136
-0.22116 0.060887 1.2374 5.9927e-39 440 283 0 0 0 -0.68448 0.30779 -0.66088 0.0057948
-0.23733 -0.065132 1.2387 5.2552e-39 356 250 0 0 0 -0.12555 -0.79227 -0.59711 0.028326
-0.22306 -0.065198 1.2399 5.9005e-39 371 250 0 0 0 0.026984 -0.90835 -0.41735 0.0097495
-0.23902 -0.063747 1.2399 5.0708e-39 217 251 0 0 0 -0.17888 -0.76567 -0.61786 0.031773
-0.21726 -0.063747 1.2399 9.1274e-39 232 251 0 0 0 0.085266 -0.91635 -0.3912 0.0045632
-0.21414 -0.063683 1.2387 8.2976e-39 234 251 0 0 0 0.084855 -0.91816 -0.38701 0.0043166
-0.204 -0.062234 1.2387 5.3473e-39 431 251 0 0 0 0.068372 -0.91956 -0.38697 0.0032365
-0.1926 -0.062297 1.2399 6.1771e-39 457 251 0 0 0 0.086388 -0.9005 -0.42618 0.0049727
-0.19095 -0.062234 1.2387 6.0849e-39 530 251 0 0 0 0.098847 -0.89395 -0.43713 0.0047838
-0.18969 -0.062297 1.2399 5.6239e-39 531 251 0 0 0 0.097946 -0.89061 -0.4441 0.0044984
-0.18534 -0.062297 1.2399 3.4112e-39 534 251 0 0 0 0.097301 -0.87796 -0.46875 0.003747
-0.18316 -0.062297 1.2399 3.3651e-39 535.5 251 0 0 0 0.091062 -0.87471 -0.47602 0.0033452
-0.24482 -0.060846 1.2399 5.2552e-39 243 252 0 0 0 -0.37012 -0.6199 -0.69191 0.039013
-0.24337 -0.060846 1.2399 5.2552e-39 244 252 0 0 0 -0.33603 -0.65542 -0.67639 0.037265
-0.24108 -0.060815 1.2393 5.5778e-39 245.5 252 0 0 0 -0.28528 -0.69441 -0.66062 0.034601
-0.18824 -0.060846 1.2399 5.7161e-39 359 252 0 0 0 0.10045 -0.88435 -0.45588 0.0042006
-0.18679 -0.060846 1.2399 6.0849e-39 360 252 0 0 0 0.10042 -0.87904 -0.46605 0.0039832
-0.18516 -0.060785 1.2387 5.9927e-39 361 252 0 0 0 0.10304 -0.87497 -0.47309 0.0034563
-0.18371 -0.060785 1.2387 5.4395e-39 364 252 0 0 0 0.10235 -0.87147 -0.47965 0.0032697
-0.18099 -0.060846 1.2399 5.9005e-39 366 252 0 0 0 0.083816 -0.87059 -0.48482 0.0031574
-0.16793 -0.060846 1.2399 6.3615e-39 375 252 0 0 0 0.06691 -0.85409 -0.51581 0.0067319
-0.16213 -0.060846 1.2399 5.9005e-39 388 252 0 0 0 0.16368 -0.81204 -0.56017 0.030868
-0.16068 -0.060846 1.2399 5.7161e-39 389 252 0 0 0 0.19501 -0.79232 -0.5781 0.039054
-0.15907 -0.060785 1.2387 5.5317e-39 390 252 0 0 0 0.21216 -0.77243 -0.59862 0.042159
-0.15706 -0.060846 1.2399 5.8544e-39 391.5 252 0 0 0 0.24464 -0.74997 -0.61457 0.049811
-0.15488 -0.060846 1.2399 6.2693e-39 393 252 0 0 0 0.2872 -0.711 -0.64187 0.060017
-0.15343 -0.060846 1.2399 6.7303e-39 394 252 0 0 0 0.31125 -0.66712 -0.67681 0.064266
-0.15198 -0.060846 1.2399 6.4537e-39 395 252 0 0 0 0.32841 -0.62982 -0.7039 0.066137
-0.24917 -0.059395 1.2399 5.6239e-39 430 252 0 0 0 -0.46161 -0.51327 -0.72352 0.04332
-0.24687 -0.059365 1.2393 5.4856e-39 431.5 252 0 0 0 -0.4365 -0.55119 -0.7111 0.039621
-0.18081 -0.059336 1.2387 6.0849e-39 218 253 0 0 0 0.087277 -0.86571 -0.49287 0.0031317
-0.17873 -0.059365 1.2393 6.8686e-39 219.5 253 0 0 0 0.071305 -0.86703 -0.49313 0.0031853
-0.17664 -0.059395 1.2399 6.8225e-39 221 253 0 0 0 0.056095 -0.8679 -0.49356 0.0030575
-0.17501 -0.059336 1.2387 7.0991e-39 222 253 0 0 0 0.050782 -0.86315 -0.50238 0.0034111
-0.17292 -0.059365 1.2393 7.514e-39 223.5 253 0 0 0 0.043694 -0.8635 -0.50245 0.0033094
-0.17066 -0.059336 1.2387 7.0069e-39 225 253 0 0 0 0.058537 -0.84983 -0.5238 0.0061752
-0.16922 -0.059336 1.2387 7.0069e-39 226 253 0 0 0 0.069171 -0.84525 -0.52988 0.0079605
-0.1511 -0.059336 1.2387 5.7161e-39 238.5 253 0 0 0 0.39407 -0.55976 -0.72896 0.067353
-0.25497 -0.056494 1.2399 3.0425e-39 153 254 0 0 0 -0.5958 -0.35627 -0.71979 0.04179
-0.25352 -0.057945 1.2399 4.6098e-39 292 253 0 0 0 -0.55797 -0.39667 -0.72892 0.042257
-0.25182 -0.057886 1.2387 4.5176e-39 293 253 0 0 0 -0.53848 -0.42342 -0.72852 0.040954
-0.14908 -0.056494 1.2399 5.9005e-39 344 254 0 0 0 0.50397 -0.3532 -0.78821 0.067269
-0.14763 -0.056494 1.2399 5.2552e-39 346 254 0 0 0 0.51413 -0.32042 -0.79561 0.066726
-0.25497 -0.055043 1.2399 5.9927e-39 396 254 0 0 0 -0.62034 -0.33817 -0.70768 0.041014
-0.14893 -0.054988 1.2387 5.2552e-39 205 255 0 0 0 0.53933 -0.29615 -0.7883 0.063088
-0.14763 -0.055043 1.2399 4.6098e-39 206 255 0 0 0 0.55149 -0.25515 -0.7942 0.060316
-0.25497 -0.052868 1.2399 5.7161e-39 328 255 0 0 0 -0.66447 -0.2907 -0.68846 0.03879
-0.14893 -0.052814 1.2387 6.1771e-39 313.5 255.5 0 0 0 0.5858 -0.17237 -0.79192 0.053609
-0.14763 -0.052868 1.2399 6.0388e-39 314.5 255.5 0 0 0 0.58742 -0.14895 -0.79545 0.051765
-0.25497 -0.050691 1.2399 5.8083e-39 271 256 0 0 0 -0.70542 -0.24763 -0.66413 0.035236
-0.14908 -0.050691 1.2399 6.4537e-39 407 256 0 0 0 0.60131 -0.1112 -0.79124 0.051426
-0.14763 -0.050691 1.2399 5.9005e-39 408 256 0 0 0 0.60761 -0.077794 -0.79041 0.044605
-0.25497 -0.049241 1.2399 7.0069e-39 433 256 0 0 0 -0.73033 -0.22706 -0.64426 0.032856
-0.14908 -0.049241 1.2399 6.1771e-39 226 257 0 0 0 0.6121 -0.048571 -0.78929 0.044033
-0.25472 -0.047017 1.2387 6.3154e-39 351.5 257 0 0 0 -0.7492 -0.15943 -0.64287 0.028112
-0.15038 -0.046293 1.2387 7.0991e-39 217 258 0 0 0 0.64178 0.042775 -0.7657 0.029461
-0.14908 -0.04779 1.2399 6.3615e-39 407 257 0 0 0 0.62439 0.0012613 -0.78111 0.037106
-0.25497 -0.044889 1.2399 5.9927e-39 243 258 0 0 0 -0.7723 -0.10258 -0.62692 0.021397
-0.15038 -0.044844 1.2387 6.6381e-39 403 258 0 0 0 0.65098 0.074215 -0.75546 0.025631
-0.25497 -0.043438 1.2399 7.0069e-39 429 258 0 0 0 -0.77989 -0.046795 -0.62416 0.01324
-0.15117 -0.043416 1.2393 7.053e-39 209.5 259 0 0 0 0.65516 0.12041 -0.74583 0.018456
-0.25497 -0.041987 1.2399 5.4395e-39 237 259 0 0 0 -0.78814 -0.014806 -0.61531 0.0093305
-0.25327 -0.040496 1.2387 7.0991e-39 428 259 0 0 0 -0.78168 0.0074452 -0.62364 0.0070508
-0.15117 -0.041241 1.2393 7.03e-39 301.5 259.5 0 0 0 0.6615 0.17272 -0.72979 0.011336
-0.25327 -0.039047 1.2387 5.9927e-39 232 260 0 0 0 -0.78187 0.040236 -0.62215 0.0036211
-0.15117 -0.039067 1.2393 5.9466e-39 388.5 260 0 0 0 0.66616 0.21552 -0.71399 0.0070467
-0.25327 -0.036873 1.2387 6.4998e-39 320 260.5 0 0 0 -0.78169 0.068603 -0.61988 0.0021956
-0.15327 -0.036148 1.2387 5.9005e-39 379 261 0 0 0 0.66734 0.24699 -0.7026 0.0060354
-0.1515 -0.037152 1.2399 5.2244e-39 253.67 261 0 0 0 0.66157 0.23619 -0.71171 0.0062781
-0.25327 -0.034699 1.2387 5.2552e-39 410 261 0 0 0 -0.77902 0.086916 -0.62095 0.0019195
-0.15472 -0.034699 1.2387 4.5176e-39 168 262 0 0 0 0.66921 0.25336 -0.69855 0.0059048
-0.15327 -0.034699 1.2387 3.9644e-39 169 262 0 0 0 0.6658 0.25135 -0.70252 0.0061316
-0.15198 -0.034734 1.2399 1.051e-38 176 262 0 0 0 0.65912 0.24837 -0.70984 0.0064955
-0.25327 -0.03325 1.2387 7.1913e-39 205 262 0 0 0 -0.7785 0.091355 -0.62097 0.0019377
-0.15472 -0.03325 1.2387 5.3473e-39 362 262 0 0 0 0.6671 0.25691 -0.69927 0.0059665
-0.15327 -0.03325 1.2387 5.3473e-39 363 262 0 0 0 0.66444 0.25645 -0.70196 0.0060489
-0.2534 -0.031092 1.2393 6.592e-39 300 262.5 0 0 0 -0.77662 0.10557 -0.62106 0.0019534
-0.15617 -0.031076 1.2387 4.0105e-39 255 263 0 0 0 0.66294 0.26079 -0.70178 0.005782
-0.1548 -0.031092 1.2393 4.0566e-39 256 263 0 0 0 0.66236 0.25651 -0.7039 0.0061264
-0.15343 -0.031108 1.2399 4.1488e-39 257 263 0 0 0 0.65995 0.25342 -0.70728 0.0064985
-0.25352 -0.028931 1.2399 5.7161e-39 389 263 0 0 0 -0.77534 0.12174 -0.61969 0.0018819
-0.15689 -0.028902 1.2387 5.8544e-39 467.5 263 0 0 0 0.65725 0.26182 -0.70673 0.00597
-0.15488 -0.028931 1.2399 5.8083e-39 469 263 0 0 0 0.65758 0.25356 -0.70943 0.0061176
-0.15343 -0.028931 1.2399 5.4395e-39 470 263 0 0 0 0.65596 0.25019 -0.71212 0.0064683
-0.25352 -0.026756 1.2399 4.702e-39 261 264 0 0 0 -0.775 0.13147 -0.61814 0.002052
-0.15689 -0.026728 1.2387 6.8455e-39 341 264 0 0 0 0.65027 0.26272 -0.71284 0.0060577
-0.15488 -0.026756 1.2399 6.8224e-39 342.5 264 0 0 0 0.65223 0.25425 -0.71411 0.0063221
-0.15343 -0.026756 1.2399 6.7303e-39 343.5 264 0 0 0 0.65163 0.24915 -0.71645 0.006529
-0.25352 -0.024579 1.2399 5.0708e-39 460 264 0 0 0 -0.77389 0.14598 -0.61627 0.0023833
-0.15907 -0.024555 1.2387 7.0991e-39 194 265 0 0 0 0.64369 0.27085 -0.71575 0.0061688
-0.15698 -0.024567 1.2393 7.4218e-39 195.5 265 0 0 0 0.64288 0.26367 -0.71916 0.0062889
-0.16052 -0.023105 1.2387 6.3615e-39 381 265 0 0 0 0.64538 0.2722 -0.71372 0.0063405
-0.15907 -0.023105 1.2387 6.6381e-39 382 265 0 0 0 0.6398 0.27112 -0.71913 0.0062322
-0.15706 -0.023129 1.2399 6.4076e-39 383.5 265 0 0 0 0.63561 0.26413 -0.72542 0.0065037
-0.25182 -0.020932 1.2387 7.1913e-39 301.5 265.5 0 0 0 -0.76405 0.17918 -0.61978 0.0026987
-0.16342 -0.020207 1.2387 5.9927e-39 275 266 0 0 0 0.65665 0.26162 -0.70736 0.0067953
-0.16133 -0.020942 1.2393 3.7108e-39 409.5 265.5 0 0 0 0.6425 0.26416 -0.71931 0.0065753
-0.15923 -0.020953 1.2399 3.9644e-39 411 265.5 0 0 0 0.63529 0.26219 -0.7264 0.0063138
-0.25182 -0.018758 1.2387 6.2693e-39 371 266 0 0 0 -0.75878 0.1992 -0.62013 0.002722
-0.16278 -0.018768 1.2393 7.2374e-39 438.5 266 0 0 0 0.65058 0.25077 -0.71684 0.0070182
-0.25207 -0.017326 1.2399 1.7517e-39 541 266 0 0 0 -0.75933 0.20574 -0.61733 0.0029591
-0.25037 -0.017309 1.2387 1.6595e-39 542 266 0 0 0 -0.75398 0.21055 -0.62225 0.0027446
-0.16278 -0.017317 1.2393 6.1771e-39 207.5 267 0 0 0 0.65111 0.2411 -0.71967 0.0071332
-0.25207 -0.015875 1.2399 5.6239e-39 278 267 0 0 0 -0.7566 0.2147 -0.61763 0.002867
-0.2505 -0.015142 1.2393 5.6239e-39 360 267 0 0 0 -0.7517 0.22245 -0.62085 0.0026718
-0.16278 -0.015142 1.2393 5.7622e-39 284.5 267.5 0 0 0 0.65713 0.22893 -0.71817 0.0074847
-0.16278 -0.012967 1.2393 5.6239e-39 348.5 268 0 0 0 0.662 0.2129 -0.71863 0.0077856
-0.24904 -0.010792 1.2393 6.4076e-39 285.5 268.5 0 0 0 -0.74329 0.24671 -0.62181 0.0026611
-0.16487 -0.010063 1.2387 5.3473e-39 235 269 0 0 0 0.67913 0.19437 -0.70782 0.0073354
-0.16304 -0.011036 1.2395 5.1015e-39 385.67 268.33 0 0 0 0.66823 0.20229 -0.71593 0.0079083
-0.24772 -0.008622 1.2399 5.0708e-39 345 269 0 0 0 -0.73846 0.25588 -0.62386 0.002769
-0.16503 -0.008622 1.2399 7.2835e-39 410 269 0 0 0 0.68028 0.18353 -0.7096 0.0073549
-0.16358 -0.008622 1.2399 7.56e-39 411 269 0 0 0 0.67432 0.19016 -0.71353 0.0074871
-0.16632 -0.0071642 1.2387 6.6381e-39 181 270 0 0 0 0.69083 0.17537 -0.70142 0.0069756
-0.24627 -0.0057207 1.2399 5.9927e-39 232 270 0 0 0 -0.7335 0.26572 -0.62559 0.0026276
-0.16632 -0.0049904 1.2387 5.1629e-39 406.5 270 0 0 0 0.69459 0.16748 -0.69964 0.0068559
-0.24457 -0.0028166 1.2387 5.2552e-39 173 271 0 0 0 -0.73136 0.26687 -0.62761 0.0026078
-0.16632 -0.0028166 1.2387 5.5317e-39 227 271 0 0 0 0.69807 0.159 -0.69815 0.0067106
-0.24457 -0.0013674 1.2387 4.8864e-39 290 271 0 0 0 -0.73197 0.26944 -0.6258 0.0026403
-0.16632 -0.0013674 1.2387 6.4537e-39 391 271 0 0 0 0.69988 0.15853 -0.69644 0.0066612
-0.24482 0.00080726 1.2399 6.0388e-39 323.5 271.5 0 0 0 -0.73191 0.26562 -0.6275 0.0026631
-0.24312 0.00080642 1.2387 5.9466e-39 324.5 271.5 0 0 0 -0.73256 0.26749 -0.62595 0.0024865
-0.16632 0.00080642 1.2387 4.702e-39 219.5 272 0 0 0 0.7033 0.15922 -0.69283 0.006603
-0.16503 0.0015326 1.2399 4.8864e-39 278 272 0 0 0 0.69786 0.1681 -0.69623 0.0072978
-0.24482 0.0029832 1.2399 5.7161e-39 364 272 0 0 0 -0.73229 0.2645 -0.62753 0.0027313
-0.24337 0.0029832 1.2399 5.5317e-39 365 272 0 0 0 -0.73179 0.26489 -0.62795 0.0025931
-0.16632 0.0029803 1.2387 7.3757e-39 415 272 0 0 0 0.70517 0.16723 -0.68903 0.0070036
-0.24337 0.0044339 1.2399 5.9005e-39 470 272 0 0 0 -0.73042 0.26566 -0.62921 0.002541
-0.24168 0.0058787 1.2387 5.4395e-39 234 273 0 0 0 -0.72852 0.26948 -0.62979 0.0025819
-0.16632 0.0051541 1.2387 5.5778e-39 241.5 273 0 0 0 0.70878 0.1739 -0.68366 0.0075402
-0.24192 0.0073352 1.2399 6.8225e-39 386 273 0 0 0 -0.72714 0.26779 -0.6321 0.0025621
-0.16713 0.0073316 1.2393 5.2091e-39 436.5 273 0 0 0 0.71135 0.17807 -0.6799 0.0078665
-0.16713 0.0087815 1.2393 6.4076e-39 208.5 274 0 0 0 0.71217 0.18166 -0.67809 0.0079987
-0.24023 0.010951 1.2387 6.7764e-39 348.5 274 0 0 0 -0.72049 0.27431 -0.63691 0.0024885
-0.16922 0.010951 1.2387 5.5779e-39 450 274 0 0 0 0.71898 0.19503 -0.66711 0.0080802
-0.16721 0.010962 1.2399 5.3704e-39 451.5 274 0 0 0 0.71158 0.19473 -0.67509 0.0086659
-0.24047 0.013138 1.2399 6.5459e-39 193 275 0 0 0 -0.7176 0.27481 -0.63994 0.0024545
-0.23878 0.013125 1.2387 6.4537e-39 194 275 0 0 0 -0.71704 0.2778 -0.63928 0.0023949
-0.17066 0.013125 1.2387 6.0849e-39 246 275 0 0 0 0.71504 0.21739 -0.66443 0.0078887
-0.16939 0.013138 1.2399 6.2693e-39 262 275 0 0 0 0.71433 0.2164 -0.66551 0.0081726
-0.24047 0.014589 1.2399 5.7161e-39 350 275 0 0 0 -0.71545 0.27556 -0.64203 0.0023441
-0.23878 0.014574 1.2387 5.2552e-39 351 275 0 0 0 -0.71408 0.28016 -0.64156 0.0021914
-0.17066 0.014574 1.2387 7.7444e-39 399 275 0 0 0 0.7127 0.22918 -0.66298 0.0079446
-0.16939 0.014589 1.2399 7.56e-39 400 275 0 0 0 0.71124 0.22558 -0.66577 0.0081304
-0.23902 0.016764 1.2399 5.3012e-39 344.5 275.5 0 0 0 -0.7107 0.28406 -0.6436 0.0021447
-0.17084 0.016764 1.2399 4.6559e-39 231 276 0 0 0 0.70241 0.25147 -0.66587 0.0081708
-0.17211 0.018922 1.2387 5.6239e-39 428 276 0 0 0 0.70069 0.27035 -0.66026 0.0077743
-0.23745 0.021107 1.2393 3.4113e-39 406.5 276.5 0 0 0 -0.70826 0.28254 -0.64695 0.0017283
-0.1722 0.021107 1.2393 5.6701e-39 267.5 277 0 0 0 0.69616 0.28497 -0.6589 0.0079193
-0.23588 0.023269 1.2387 7.6522e-39 399 277 0 0 0 -0.70635 0.28067 -0.64984 0.0019348
-0.17229 0.023293 1.2399 5.6239e-39 443 277 0 0 0 0.69143 0.29908 -0.65763 0.0079414
-0.23612 0.024743 1.2399 4.9786e-39 162 278 0 0 0 -0.70868 0.27861 -0.64819 0.0016659
-0.23612 0.026194 1.2399 5.4395e-39 278 278 0 0 0 -0.71039 0.27587 -0.64748 0.0016253
-0.23443 0.026892 1.2387 6.0389e-39 345 278 0 0 0 -0.70261 0.27033 -0.65822 0.002604
-0.23298 0.027617 1.2387 7.1913e-39 412 278 0 0 0 -0.70315 0.26531 -0.65969 0.0029177
-0.17501 0.027617 1.2387 6.0849e-39 452 278 0 0 0 0.6885 0.31947 -0.65108 0.0071251
-0.17356 0.026892 1.2387 5.7622e-39 401 278 0 0 0 0.68666 0.31912 -0.6532 0.0073406
-0.23466 0.029095 1.2399 5.8083e-39 173 279 0 0 0 -0.71362 0.2662 -0.64798 0.00208
-0.23298 0.029066 1.2387 5.8083e-39 174 279 0 0 0 -0.70674 0.25977 -0.65805 0.0030509
-0.23153 0.029066 1.2387 5.9927e-39 175 279 0 0 0 -0.70413 0.25349 -0.66328 0.0035573
-0.17519 0.029095 1.2399 5.4395e-39 216 279 0 0 0 0.68908 0.31895 -0.65072 0.007178
-0.17374 0.029095 1.2399 5.4395e-39 217 279 0 0 0 0.68629 0.31973 -0.65329 0.0073966
-0.23321 0.031271 1.2399 5.1168e-39 355.5 279 0 0 0 -0.71471 0.2553 -0.65116 0.0026783
-0.23164 0.031255 1.2393 5.209e-39 356.5 279 0 0 0 -0.71358 0.24933 -0.6547 0.0030344
-0.17936 0.031964 1.2387 5.0708e-39 460 279 0 0 0 0.69231 0.31273 -0.65031 0.0071703
-0.17706 0.031502 1.2395 5.5932e-39 427.33 279 0 0 0 0.69042 0.31285 -0.65226 0.0072355
-0.23321 0.033447 1.2399 6.9147e-39 187 280 0 0 0 -0.72202 0.24781 -0.64597 0.0023786
-0.23176 0.033447 1.2399 6.4537e-39 188 280 0 0 0 -0.71786 0.24398 -0.65204 0.002839
-0.17873 0.033431 1.2393 5.8083e-39 225 280 0 0 0 0.69525 0.3043 -0.65118 0.0073125
-0.17882 0.034898 1.2399 5.5778e-39 365.5 280 0 0 0 0.69489 0.29581 -0.65545 0.0072424
-0.23176 0.036348 1.2399 5.9005e-39 419 280 0 0 0 -0.72155 0.24405 -0.64793 0.0023307
-0.1809 0.037055 1.2393 5.4856e-39 330 280.5 0 0 0 0.69608 0.28478 -0.65907 0.0072775
-0.17954 0.036348 1.2399 5.0708e-39 455 280 0 0 0 0.69735 0.2885 -0.6561 0.0071434
-0.23008 0.03921 1.2387 5.2552e-39 264 281 0 0 0 -0.7189 0.24085 -0.65205 0.0026819
-0.18099 0.03925 1.2399 4.4254e-39 301 281 0 0 0 0.69939 0.27712 -0.65883 0.0068893
-0.23031 0.0407 1.2399 7.8366e-39 381 281 0 0 0 -0.72595 0.24588 -0.6423 0.0023717
-0.18226 0.04066 1.2387 6.3615e-39 416 281 0 0 0 0.6944 0.27267 -0.66592 0.0073349
-0.23031 0.042151 1.2399 5.4395e-39 458 281 0 0 0 -0.72691 0.24616 -0.64109 0.0023648
-0.18226 0.042833 1.2387 5.5317e-39 199 282 0 0 0 0.69734 0.26329 -0.66663 0.0070814
-0.22863 0.045007 1.2387 5.4395e-39 268 282 0 0 0 -0.72533 0.24023 -0.64513 0.0027467
