# .PCD v.7 - Point Cloud Data file format
VERSION .7
FIELDS x y z rgb u v vx vy vz normal_x normal_y normal_z curvature
SIZE 4 4 4 4 4 4 4 4 4 4 4 4 4
TYPE F F F F F F F F F F F F F
COUNT 1 1 1 1 1 1 1 1 1 1 1 1 1
WIDTH 557
HEIGHT 1
VIEWPOINT 0 0 0 1 0 0 0
POINTS 557
DATA ascii
0.1878 0.11288 0.835 5.67e-39 274 277 0 0 0 -0.55106 -0.068819 -0.83162 0.049379
0.18865 0.1133 0.83444 5.4395e-39 363 277 0 0 0 -0.54962 -0.072336 -0.83228 0.049913
0.18793 0.11443 0.83557 5.5317e-39 190 278 0 0 0 -0.56826 -0.021481 -0.82257 0.040652
0.18871 0.1148 0.83472 5.1629e-39 279.5 278 0 0 0 -0.56671 -0.0044593 -0.8239 0.037508
0.18929 0.11682 0.83514 6.7072e-39 289 279 0 0 0 -0.57823 0.040274 -0.81488 0.029287
0.29604 0.11721 0.83444 4.9786e-39 172 280 0 0 0 0.7147 -0.032639 -0.69867 0.055919
0.18981 0.11879 0.83528 7.1452e-39 295 280 0 0 0 -0.58966 0.084621 -0.80321 0.019597
0.1906 0.11916 0.83444 8.021e-39 380 280 0 0 0 -0.59307 0.088903 -0.80023 0.018823
0.29536 0.11879 0.83528 6.131e-39 261 280.5 0 0 0 0.71401 -0.01389 -0.7 0.050834
0.29644 0.11883 0.83557 6.4537e-39 262 280.5 0 0 0 0.71576 0.0030985 -0.69834 0.047496
0.18988 0.1203 0.83557 6.0849e-39 209 281 0 0 0 -0.59698 0.13633 -0.79059 0.010169
0.19097 0.12081 0.83463 7.0376e-39 316.33 281 0 0 0 -0.59931 0.14131 -0.78795 0.0095951
0.19128 0.1227 0.83528 5.5547e-39 277.5 282 0 0 0 -0.60079 0.18527 -0.77764 0.0039857
0.19255 0.12306 0.83444 5.3473e-39 358 282 0 0 0 -0.60223 0.18644 -0.77625 0.0039669
0.29321 0.12262 0.83472 5.3473e-39 228.5 282.5 0 0 0 0.73979 0.069411 -0.66925 0.032311
0.29418 0.12262 0.83472 5.3012e-39 229.5 282.5 0 0 0 0.73803 0.084583 -0.66944 0.027597
0.19184 0.1247 0.83557 6.6842e-39 266 283 0 0 0 -0.60561 0.21406 -0.76643 0.0017954
0.19268 0.12461 0.835 6.4998e-39 267 283 0 0 0 -0.60455 0.2106 -0.76822 0.0020673
0.29282 0.12461 0.835 6.108e-39 372.75 283 0 0 0 0.75203 0.14532 -0.64291 0.014647
0.19184 0.12616 0.83557 5.3473e-39 168 284 0 0 0 -0.60514 0.22321 -0.76419 0.0015764
0.19317 0.12705 0.835 6.1771e-39 249.25 284.25 0 0 0 -0.60397 0.22823 -0.76363 0.0016291
0.29115 0.12697 0.83444 8.3898e-39 434 284 0 0 0 0.77091 0.20429 -0.60329 0.0036804
0.29243 0.12661 0.83528 7.2374e-39 356.5 284 0 0 0 0.76464 0.20631 -0.61054 0.0038423
0.19359 0.12946 0.83472 5.9466e-39 385.5 285 0 0 0 -0.60366 0.23776 -0.76096 0.0015683
0.19451 0.1299 0.83444 5.8083e-39 473 285 0 0 0 -0.60229 0.24047 -0.7612 0.0016031
0.29145 0.12856 0.83528 6.9146e-39 339 285 0 0 0 0.77041 0.21408 -0.60053 0.0039685
0.19379 0.13105 0.83557 5.8083e-39 283 286 0 0 0 -0.60129 0.24486 -0.76059 0.0016214
0.19464 0.13145 0.835 6.4537e-39 373.5 286 0 0 0 -0.60109 0.24733 -0.75995 0.0016236
0.29087 0.13096 0.835 6.1771e-39 245 286.5 0 0 0 0.76745 0.2102 -0.60568 0.0041617
0.19379 0.13203 0.83557 7.2835e-39 462 286 0 0 0 -0.60097 0.25023 -0.75909 0.0015851
0.19501 0.1336 0.83519 7.4986e-39 380 287 0 0 0 -0.59676 0.25846 -0.75965 0.0016786
0.29037 0.1334 0.835 5.67e-39 312 287.5 0 0 0 0.76633 0.19263 -0.61289 0.0039639
0.19561 0.13536 0.835 7.8827e-39 342 288 0 0 0 -0.59639 0.26681 -0.75706 0.0016436
0.29057 0.13496 0.83557 6.8225e-39 385 288 0 0 0 0.76441 0.18602 -0.61731 0.0042302
0.19575 0.13741 0.83557 5.7161e-39 324.5 289 0 0 0 -0.59419 0.27508 -0.75582 0.0015743
0.19646 0.13771 0.83444 6.0849e-39 400 289 0 0 0 -0.59233 0.27688 -0.75663 0.0015723
0.2893 0.13726 0.83472 6.3615e-39 278.5 289.5 0 0 0 0.76928 0.16936 -0.61606 0.0040854
0.19708 0.13927 0.835 7.053e-39 303.5 290 0 0 0 -0.59213 0.28235 -0.75476 0.001531
0.28959 0.13887 0.83557 8.3898e-39 346 290 0 0 0 0.7662 0.16036 -0.62228 0.004577
0.1977 0.14083 0.83557 5.8083e-39 209 291 0 0 0 -0.59196 0.28844 -0.75259 0.0015134
0.19861 0.14127 0.83528 7.3296e-39 285.5 291 0 0 0 -0.59301 0.28911 -0.7515 0.0014948
0.1992 0.14301 0.835 5.7776e-39 240.33 292 0 0 0 -0.59408 0.29124 -0.74983 0.0015177
0.20036 0.14308 0.83444 6.3615e-39 266 292 0 0 0 -0.59662 0.29084 -0.74797 0.0015383
0.19966 0.14474 0.83557 5.163e-39 155 293 0 0 0 -0.59618 0.29304 -0.74746 0.0015168
0.20099 0.14513 0.835 6.3385e-39 216.5 293 0 0 0 -0.59833 0.29161 -0.7463 0.0015312
0.20245 0.14757 0.835 6.2693e-39 234 294 0 0 0 -0.60176 0.29141 -0.74362 0.0015155
0.2031 0.14887 0.835 6.4844e-39 314.67 294.33 0 0 0 -0.60341 0.29164 -0.74219 0.0014645
0.20427 0.14942 0.83444 5.3473e-39 196 295 0 0 0 -0.60472 0.29051 -0.74156 0.0015026
0.20486 0.15097 0.83486 7.053e-39 401 295 0 0 0 -0.6055 0.29287 -0.74 0.0014346
0.20503 0.15256 0.83557 6.3615e-39 255.5 296 0 0 0 -0.60673 0.29338 -0.73879 0.0013513
0.20622 0.15333 0.83444 8.943e-39 393 296 0 0 0 -0.6076 0.29141 -0.73885 0.0013381
0.20643 0.15495 0.83528 7.099e-39 277 297 0 0 0 -0.60922 0.29265 -0.73702 0.0011965
0.2072 0.15723 0.83444 7.0991e-39 274 298 0 0 0 -0.61227 0.2917 -0.73487 0.0011041
0.20741 0.15886 0.83528 6.4537e-39 316 298.5 0 0 0 -0.61263 0.29733 -0.73231 0.0011583
0.20817 0.15918 0.83444 5.8083e-39 222 299 0 0 0 -0.61308 0.29648 -0.73228 0.0011077
0.2088 0.16076 0.835 6.4306e-39 265 299.5 0 0 0 -0.61341 0.30354 -0.72911 0.0012537
0.20936 0.16276 0.83528 6.3154e-39 353 300 0 0 0 -0.61357 0.31066 -0.72596 0.0013781
0.2105 0.16475 0.83463 7.8366e-39 325 301 0 0 0 -0.61297 0.31684 -0.7238 0.001452
0.21101 0.16653 0.83538 5.7776e-39 225 302 0 0 0 -0.61291 0.32362 -0.72084 0.0015005
0.21215 0.16657 0.83472 5.9927e-39 246 302 0 0 0 -0.6141 0.32336 -0.71995 0.0014772
0.21259 0.16878 0.83519 6.2386e-39 322 302.67 0 0 0 -0.61381 0.32966 -0.71733 0.0015405
0.21297 0.17044 0.83538 7.6215e-39 338.33 303.33 0 0 0 -0.61582 0.3294 -0.71572 0.0016434
0.2141 0.1734 0.83472 6.3154e-39 232.5 305 0 0 0 -0.62127 0.32648 -0.71234 0.0018069
0.21474 0.17498 0.83528 6.6842e-39 438.5 305 0 0 0 -0.62311 0.32344 -0.71213 0.001831
0.21613 0.1759 0.835 5.9927e-39 259 306 0 0 0 -0.62641 0.32191 -0.70992 0.0018335
0.2153 0.17602 0.83557 5.9927e-39 258 306 0 0 0 -0.62449 0.32142 -0.71183 0.0019084
0.21678 0.1772 0.835 6.6688e-39 348 306.33 0 0 0 -0.62749 0.31956 -0.71002 0.0018522
0.2176 0.17883 0.835 9.1274e-39 378.5 307 0 0 0 -0.62719 0.31804 -0.71097 0.0018443
0.21849 0.17975 0.83472 5.7622e-39 195 308 0 0 0 -0.62665 0.31831 -0.71133 0.0018738
0.21939 0.18143 0.835 7.0376e-39 221.67 308.67 0 0 0 -0.62511 0.31772 -0.71295 0.0018114
0.22101 0.18323 0.835 9.2657e-39 371.5 309 0 0 0 -0.62341 0.31688 -0.71481 0.0018301
0.22214 0.1853 0.83557 7.1913e-39 341.5 310 0 0 0 -0.62037 0.31767 -0.7171 0.0018802
0.22214 0.18775 0.83557 9.6805e-39 373 311 0 0 0 -0.61808 0.31647 -0.7196 0.0020254
0.27261 0.18945 0.83444 1.0234e-38 369 312 0 0 0 0.72361 0.31455 -0.61437 0.0047136
0.22346 0.19104 0.835 8.2284e-39 348 312.5 0 0 0 -0.61144 0.31688 -0.72507 0.0020799
0.27163 0.1914 0.83444 1.4475e-38 302 313 0 0 0 0.73256 0.31229 -0.60484 0.0045494
0.27288 0.19111 0.83528 1.0418e-38 236 313 0 0 0 0.72631 0.32193 -0.60732 0.0044281
0.2241 0.19264 0.83557 1.0234e-38 397 313 0 0 0 -0.60749 0.31696 -0.72835 0.0021511
0.27116 0.19284 0.835 9.3118e-39 383 313.33 0 0 0 0.73944 0.31404 -0.59549 0.0043132
0.22541 0.19495 0.835 9.1275e-39 252 314.5 0 0 0 -0.60041 0.31924 -0.73321 0.0021395
0.22672 0.19531 0.83444 5.9005e-39 153 315 0 0 0 -0.59812 0.32188 -0.73392 0.002106
0.26928 0.19489 0.83472 7.8826e-39 300 314.5 0 0 0 0.74435 0.31221 -0.59031 0.0040673
0.22736 0.19691 0.835 9.7266e-39 342 315 0 0 0 -0.59459 0.32166 -0.73688 0.0021171
0.26772 0.19726 0.83444 1.0326e-38 449 315 0 0 0 0.74278 0.30878 -0.59408 0.0045154
0.22887 0.19889 0.83514 1.0948e-38 269 316 0 0 0 -0.59006 0.32261 -0.7401 0.0021414
0.26791 0.19837 0.835 7.0069e-39 246 316 0 0 0 0.74714 0.30716 -0.58944 0.0045758
0.26809 0.19948 0.83557 1.1063e-38 372 316 0 0 0 0.75446 0.29975 -0.58389 0.0048461
0.22988 0.20088 0.83528 8.3437e-39 321 316.5 0 0 0 -0.58672 0.32208 -0.74298 0.0021257
0.23063 0.20116 0.83444 7.1913e-39 211 317 0 0 0 -0.58464 0.32407 -0.74376 0.0021157
0.26809 0.20046 0.83557 5.9927e-39 149 317 0 0 0 0.75677 0.29382 -0.58393 0.004767
0.23127 0.20277 0.835 1.2031e-38 354.5 317 0 0 0 -0.58241 0.322 -0.7464 0.0021132
0.23192 0.20437 0.83557 5.4395e-39 167 318 0 0 0 -0.58117 0.31917 -0.74858 0.0021477
0.23274 0.20472 0.835 8.851e-39 215 318 0 0 0 -0.57891 0.31856 -0.75059 0.0021916
0.2333 0.20674 0.83528 1.1156e-38 393 318 0 0 0 -0.57667 0.31541 -0.75364 0.0023155
0.23453 0.208 0.83444 6.9147e-39 188 319 0 0 0 -0.5713 0.31264 -0.75886 0.0026952
0.23387 0.20828 0.83557 6.5459e-39 187 319 0 0 0 -0.57552 0.3105 -0.75655 0.0023976
0.2351 0.20904 0.83472 1.2124e-38 278.5 319 0 0 0 -0.56984 0.30845 -0.76167 0.002724
0.23545 0.21051 0.83538 1.0725e-38 384 319 0 0 0 -0.57106 0.30433 -0.76242 0.0027718
0.23648 0.21141 0.83444 8.436e-39 300 319.5 0 0 0 -0.56028 0.30735 -0.76918 0.0035953
0.23664 0.21302 0.835 1.2354e-38 238 320 0 0 0 -0.55978 0.30461 -0.77063 0.0040487
0.23713 0.21497 0.835 1.452e-38 351.5 320 0 0 0 -0.55148 0.30619 -0.77596 0.0054417
0.23762 0.21693 0.835 9.404e-39 454 320 0 0 0 -0.54567 0.30828 -0.77924 0.0069194
0.23844 0.21776 0.83444 7.8366e-39 168 321 0 0 0 -0.53117 0.31731 -0.7856 0.009629
0.23778 0.21854 0.83557 1.0556e-38 186 321 0 0 0 -0.54717 0.30802 -0.77828 0.0074742
0.239 0.2193 0.83472 1.2608e-38 222.5 321 0 0 0 -0.52852 0.31593 -0.78794 0.010906
0.23936 0.22127 0.83538 1.4075e-38 278 321 0 0 0 -0.52935 0.31335 -0.78842 0.012305
0.26271 0.22001 0.83557 1.3552e-38 263.5 321 0 0 0 0.61279 0.41302 -0.67372 0.047278
0.24039 0.22362 0.83444 1.89e-38 343 321 0 0 0 -0.48947 0.34071 -0.80271 0.0215
0.26049 0.22321 0.83472 1.4336e-38 350.5 321 0 0 0 0.32732 0.49072 -0.8075 0.053335
0.24153 0.22475 0.835 1.1617e-38 361 321 0 0 0 -0.46165 0.36916 -0.8066 0.029406
0.16785 0.090727 0.83784 6.8225e-39 373 262.5 0 0 0 -0.30342 -0.57426 -0.76037 0.20496
0.16872 0.090175 0.83727 6.7303e-39 408 262 0 0 0 -0.25512 -0.52247 -0.8136 0.19655
0.16774 0.092624 0.83727 6.7303e-39 372.5 264 0 0 0 -0.42392 -0.26216 -0.86693 0.16826
0.22327 0.099836 0.83613 6.0849e-39 235 270 0 0 0 -0.011434 -0.90906 -0.41651 0.0058521
0.22474 0.099836 0.83613 6.5459e-39 236.5 270 0 0 0 -0.0081526 -0.91092 -0.41249 0.0057997
0.22718 0.099836 0.83613 6.1771e-39 239 270 0 0 0 -0.010168 -0.91545 -0.40229 0.0058803
0.22865 0.099836 0.83613 6.0388e-39 240.5 270 0 0 0 -0.01279 -0.91738 -0.39781 0.0056012
0.23012 0.099836 0.83613 6.9147e-39 242 270 0 0 0 -0.013883 -0.91849 -0.39519 0.0053792
0.185 0.102 0.83784 5.9927e-39 241.5 271 0 0 0 -0.29213 -0.54967 -0.78264 0.085861
0.18659 0.10156 0.83689 6.9147e-39 285.33 270.67 0 0 0 -0.26282 -0.60857 -0.74871 0.07905
0.18887 0.10099 0.83756 5.5778e-39 371.5 270 0 0 0 -0.24255 -0.67798 -0.69391 0.064703
0.19121 0.10125 0.83708 6.3e-39 334.67 270.33 0 0 0 -0.2228 -0.71139 -0.66655 0.060987
0.19271 0.10144 0.83727 6.6381e-39 316.5 270.5 0 0 0 -0.20902 -0.72693 -0.65413 0.057081
0.19455 0.10186 0.8367 7.6983e-39 251.5 271 0 0 0 -0.20961 -0.73164 -0.64866 0.056152
0.19699 0.10186 0.8367 7.6522e-39 254 271 0 0 0 -0.19857 -0.76429 -0.61354 0.048329
0.19824 0.102 0.83784 7.7444e-39 255 271 0 0 0 -0.17433 -0.78507 -0.59437 0.040815
0.21328 0.10193 0.83727 6.5459e-39 270.5 271 0 0 0 -0.040651 -0.89002 -0.4541 0.0042321
0.21517 0.10141 0.83698 6.5228e-39 341.25 270.5 0 0 0 -0.030226 -0.8954 -0.44423 0.0041781
0.21706 0.10088 0.8367 7.0991e-39 415 270 0 0 0 -0.02544 -0.89734 -0.44061 0.00458
0.21909 0.10091 0.83698 6.7764e-39 418.5 270 0 0 0 -0.02104 -0.90169 -0.43187 0.0052671
0.22033 0.10081 0.83613 6.8225e-39 420 270 0 0 0 -0.020452 -0.90383 -0.42741 0.0054769
0.22274 0.10004 0.83784 5.9005e-39 234 270 0 0 0 -0.0061669 -0.90984 -0.41491 0.0060838
0.23157 0.10004 0.83784 7.56e-39 243 270 0 0 0 -0.0080316 -0.92411 -0.38205 0.0049765
0.23476 0.10091 0.83698 5.5317e-39 434.5 270 0 0 0 -0.0070818 -0.92227 -0.38647 0.004795
0.2377 0.10091 0.83698 6.131e-39 437.5 270 0 0 0 -0.0067841 -0.92356 -0.38338 0.004523
0.23941 0.10102 0.83784 6.4537e-39 439 270 0 0 0 -0.0067986 -0.92582 -0.37789 0.0042257
0.24022 0.10095 0.83727 6.3615e-39 440 270 0 0 0 -0.0039094 -0.92334 -0.38396 0.0042892
0.24311 0.10093 0.83708 5.4702e-39 443 270 0 0 0 0.0019279 -0.92362 -0.38331 0.0035708
0.24528 0.10081 0.83613 5.9005e-39 445.5 270 0 0 0 0.0045898 -0.91972 -0.39255 0.003209
0.24725 0.10004 0.83784 7.4678e-39 259 270 0 0 0 0.0035212 -0.92354 -0.38348 0.0027615
0.24855 0.10046 0.83727 6.4998e-39 354.5 270 0 0 0 0.0093707 -0.92059 -0.39042 0.0025848
0.2506 0.10099 0.83756 5.8083e-39 455.5 270 0 0 0 0.014935 -0.91821 -0.39581 0.0024068
0.25307 0.101 0.83765 6.2693e-39 458 270 0 0 0 0.024009 -0.91364 -0.40582 0.0022794
0.25532 0.10141 0.83698 6.3154e-39 402 270.5 0 0 0 0.033367 -0.91137 -0.41023 0.0021154
0.25682 0.10158 0.83708 6.423e-39 384 270.67 0 0 0 0.040804 -0.90879 -0.41526 0.0019434
0.25924 0.1019 0.83698 6.8225e-39 347.5 271 0 0 0 0.056632 -0.90597 -0.41955 0.0017453
0.2612 0.1019 0.83698 7.7905e-39 349.5 271 0 0 0 0.06706 -0.90326 -0.42383 0.0017708
0.26289 0.10179 0.83613 7.3757e-39 351.5 271 0 0 0 0.075561 -0.90063 -0.42797 0.0017917
0.26502 0.10186 0.8367 7.053e-39 353.5 271 0 0 0 0.080393 -0.90088 -0.42657 0.0017719
0.26698 0.10186 0.8367 7.5601e-39 355.5 271 0 0 0 0.08113 -0.90141 -0.42529 0.0017116
0.26894 0.10186 0.8367 7.3296e-39 357.5 271 0 0 0 0.078565 -0.90276 -0.42292 0.0017208
0.2709 0.10186 0.8367 5.3934e-39 359.5 271 0 0 0 0.076436 -0.90366 -0.42137 0.0017952
0.27276 0.10182 0.83642 5.5778e-39 361.5 271 0 0 0 0.075146 -0.90501 -0.4187 0.0018468
0.27509 0.10196 0.83756 5.4395e-39 363.5 271 0 0 0 0.074991 -0.9067 -0.41506 0.0017104
0.27696 0.10193 0.83727 5.1169e-39 365.5 271 0 0 0 0.077444 -0.90624 -0.4156 0.0017924
0.18353 0.10396 0.83784 4.8864e-39 278 272 0 0 0 -0.38973 -0.40014 -0.82946 0.08832
0.18485 0.10338 0.83713 5.2782e-39 352 271.5 0 0 0 -0.34616 -0.4839 -0.80375 0.083759
0.1861 0.10326 0.83613 5.4395e-39 353.5 271.5 0 0 0 -0.34718 -0.50611 -0.7895 0.078944
0.19943 0.10333 0.8367 6.592e-39 367 271.5 0 0 0 -0.20242 -0.76128 -0.61602 0.046906
0.2014 0.10382 0.8367 5.5318e-39 296.5 272 0 0 0 -0.19542 -0.77172 -0.6052 0.042614
0.20335 0.10382 0.8367 4.6098e-39 298.5 272 0 0 0 -0.16953 -0.7924 -0.58597 0.034467
0.20538 0.10337 0.83698 5.3934e-39 373 271.5 0 0 0 -0.13459 -0.82585 -0.5476 0.023878
0.20711 0.10349 0.8367 6.1464e-39 360.67 271.67 0 0 0 -0.12226 -0.83436 -0.53749 0.021295
0.20888 0.10356 0.83727 6.8225e-39 372.33 271.67 0 0 0 -0.095072 -0.85711 -0.50628 0.013671
0.21125 0.10385 0.83698 7.053e-39 336.5 272 0 0 0 -0.077214 -0.87012 -0.48676 0.0088482
0.21265 0.10284 0.8367 6.0849e-39 456 271 0 0 0 -0.053011 -0.88245 -0.46741 0.0050576
0.27882 0.10287 0.83698 6.2693e-39 233.5 272 0 0 0 0.095844 -0.89779 -0.42986 0.0037388
0.28059 0.10352 0.83689 6.6996e-39 350.67 272 0 0 0 0.13428 -0.87475 -0.4656 0.014069
0.28274 0.10385 0.83698 7.1913e-39 410.5 272 0 0 0 0.15796 -0.857 -0.49051 0.022742
0.28499 0.10396 0.83784 7.1452e-39 412.5 272 0 0 0 0.17423 -0.83915 -0.51524 0.03333
0.28685 0.10393 0.83756 6.3615e-39 417.5 272 0 0 0 0.19684 -0.82317 -0.53259 0.043022
0.29283 0.10396 0.83784 5.2551e-39 423.5 272 0 0 0 0.31794 -0.74266 -0.58938 0.073076
0.29459 0.10389 0.83727 5.5317e-39 425.5 272 0 0 0 0.36284 -0.70735 -0.60664 0.077186
0.29626 0.10396 0.83784 5.6239e-39 427 272 0 0 0 0.40304 -0.67925 -0.61333 0.083431
0.18353 0.10543 0.83784 7.1452e-39 395.5 272.5 0 0 0 -0.4218 -0.34084 -0.84019 0.084
0.18481 0.10533 0.83698 7.1913e-39 397 272.5 0 0 0 -0.41249 -0.37254 -0.8313 0.078869
0.1861 0.10522 0.83613 7.1452e-39 398.5 272.5 0 0 0 -0.41442 -0.4034 -0.8158 0.078609
0.2849 0.10473 0.83613 7.3757e-39 267 273 0 0 0 0.20198 -0.82111 -0.53384 0.04106
0.28685 0.10473 0.83613 7.56e-39 269 273 0 0 0 0.22123 -0.80351 -0.55266 0.051471
0.28907 0.10482 0.83689 7.2527e-39 271 273 0 0 0 0.26236 -0.77428 -0.57589 0.062823
0.29077 0.10473 0.83613 5.9005e-39 273 273 0 0 0 0.28999 -0.75385 -0.58959 0.067088
0.29566 0.10473 0.83613 4.8864e-39 278 273 0 0 0 0.42076 -0.66015 -0.62222 0.08495
0.29717 0.10545 0.8367 6.4844e-39 397.33 273 0 0 0 0.48922 -0.57922 -0.65205 0.090854
0.29907 0.10555 0.83746 6.9761e-39 399 273 0 0 0 0.52477 -0.55054 -0.64925 0.092003
0.30077 0.10524 0.83765 5.7161e-39 341.67 273 0 0 0 0.54743 -0.53625 -0.64246 0.090147
0.30214 0.10494 0.83784 4.5176e-39 284 273 0 0 0 0.57764 -0.48934 -0.65336 0.09022
0.18353 0.10739 0.83784 6.3615e-39 258.5 274 0 0 0 -0.47417 -0.23432 -0.84868 0.06925
0.18481 0.10728 0.83698 6.6381e-39 260 274 0 0 0 -0.47089 -0.26579 -0.8412 0.07041
0.29918 0.10721 0.83642 7.099e-39 415.5 274 0 0 0 0.59034 -0.46149 -0.66221 0.089021
0.30075 0.10724 0.8367 6.8685e-39 417 274 0 0 0 0.61147 -0.42355 -0.66836 0.088336
0.18353 0.10886 0.83784 5.163e-39 176 275 0 0 0 -0.50427 -0.18437 -0.84363 0.062621
0.18481 0.10924 0.83698 5.7392e-39 267 275 0 0 0 -0.49651 -0.19735 -0.8453 0.06331
0.1861 0.10962 0.83613 5.7161e-39 358 275 0 0 0 -0.51008 -0.17286 -0.84258 0.062813
0.29905 0.10901 0.83651 7.5908e-39 387.67 275 0 0 0 0.62334 -0.37236 -0.6876 0.091299
0.30057 0.10932 0.83756 7.3757e-39 416 275 0 0 0 0.64956 -0.34082 -0.67964 0.087413
0.18488 0.11124 0.83727 6.4537e-39 264.5 276 0 0 0 -0.52439 -0.11304 -0.84394 0.05397
0.18616 0.11112 0.83642 6.2232e-39 266 276 0 0 0 -0.52262 -0.14163 -0.84072 0.05909
0.18497 0.11325 0.8377 5.2782e-39 270.5 277 0 0 0 -0.54496 -0.036429 -0.83767 0.040471
0.18671 0.11312 0.8367 5.7161e-39 272.5 277 0 0 0 -0.54396 -0.058493 -0.83707 0.046066
0.18549 0.11474 0.83784 5.4395e-39 187 278 0 0 0 -0.55262 0.0070507 -0.83341 0.032655
0.18684 0.11516 0.83727 5.3934e-39 277 278 0 0 0 -0.56009 0.0014565 -0.82843 0.034823
0.18805 0.11549 0.83613 5.163e-39 367 278 0 0 0 -0.56491 0.012417 -0.82506 0.034496
0.1869 0.11715 0.83756 5.9697e-39 285 279 0 0 0 -0.56854 0.072027 -0.8195 0.020561
0.18818 0.11703 0.8367 5.9466e-39 287.5 279 0 0 0 -0.57509 0.048587 -0.81665 0.026341
0.18704 0.11893 0.83746 6.6995e-39 263.67 280 0 0 0 -0.58251 0.11714 -0.80434 0.012601
0.18864 0.11897 0.83656 7.3987e-39 293.5 280 0 0 0 -0.58864 0.10255 -0.80186 0.015333
0.1874 0.12107 0.83756 5.4395e-39 285.5 281 0 0 0 -0.5939 0.17906 -0.78436 0.0034944
0.18867 0.12095 0.8367 5.5317e-39 287 281 0 0 0 -0.59894 0.16154 -0.78433 0.0057512
0.19001 0.12136 0.83613 5.9005e-39 368 281 0 0 0 -0.59953 0.16826 -0.78246 0.0052056
0.29566 0.12087 0.83613 6.7764e-39 252.5 281.5 0 0 0 0.72092 0.049327 -0.69126 0.035008
0.29674 0.12091 0.83642 6.9608e-39 253.5 281.5 0 0 0 0.72874 0.062745 -0.68191 0.031777
0.18746 0.12307 0.83784 6.1772e-39 271 282 0 0 0 -0.59664 0.20415 -0.77611 0.0021708
0.1888 0.12299 0.83727 5.5778e-39 273.5 282 0 0 0 -0.60194 0.20168 -0.77265 0.0021283
0.19007 0.12287 0.83642 5.2091e-39 276 282 0 0 0 -0.60335 0.19545 -0.77315 0.0025652
0.29576 0.12287 0.83642 6.1772e-39 242 282.5 0 0 0 0.73714 0.11936 -0.66512 0.017604
0.29694 0.12295 0.83698 6.638e-39 243 282.5 0 0 0 0.73855 0.12849 -0.66184 0.016138
0.18746 0.12503 0.83784 5.8544e-39 258 283 0 0 0 -0.5976 0.21765 -0.77169 0.0019459
0.18896 0.12479 0.83727 5.8084e-39 232.67 283 0 0 0 -0.60351 0.21568 -0.76763 0.0015708
0.19056 0.12482 0.83642 6.8455e-39 261.5 283 0 0 0 -0.60499 0.21408 -0.76691 0.0016985
0.29478 0.12482 0.83642 6.1771e-39 379.5 283 0 0 0 0.75207 0.18753 -0.63184 0.0055885
0.29652 0.12484 0.83765 6.2078e-39 352 283 0 0 0 0.75062 0.20395 -0.62848 0.0040774
0.18746 0.12651 0.83784 5.7161e-39 163 284 0 0 0 -0.59845 0.22407 -0.76919 0.0018671
0.18936 0.12696 0.83756 6.3615e-39 247 284 0 0 0 -0.60266 0.22832 -0.76463 0.0014314
0.1909 0.1269 0.83659 6.4353e-39 265.2 284 0 0 0 -0.60434 0.22838 -0.76329 0.0014491
0.2938 0.12678 0.83642 7.3296e-39 357.5 284 0 0 0 0.76203 0.21581 -0.61052 0.0033684
0.29508 0.12691 0.83727 7.2835e-39 358.5 284 0 0 0 0.75703 0.219 -0.61558 0.0033338
0.18942 0.12847 0.83784 5.3473e-39 156 285 0 0 0 -0.60188 0.23323 -0.76377 0.0014918
0.19079 0.12889 0.83741 5.5317e-39 226.5 285 0 0 0 -0.60191 0.235 -0.76321 0.0014263
0.19252 0.12874 0.83642 5.5778e-39 228.5 285 0 0 0 -0.60357 0.23505 -0.76188 0.001497
0.29272 0.12869 0.83613 7.053e-39 340 285 0 0 0 0.76568 0.21505 -0.60621 0.0040731
0.2942 0.12891 0.83756 7.3757e-39 341 285 0 0 0 0.76205 0.21195 -0.61184 0.003757
0.19101 0.13073 0.83765 6.3e-39 405.67 285.33 0 0 0 -0.59968 0.24381 -0.76219 0.0015301
0.19265 0.13079 0.83698 5.9466e-39 376 285.5 0 0 0 -0.60198 0.24495 -0.76001 0.00153
0.29175 0.13114 0.83613 5.8083e-39 401 286 0 0 0 0.7641 0.20708 -0.61096 0.0046097
0.29302 0.13079 0.83698 5.9927e-39 326 286 0 0 0 0.75301 0.21456 -0.62204 0.0046093
0.2943 0.13043 0.83784 6.0849e-39 251 286 0 0 0 0.75665 0.20781 -0.61991 0.0044598
0.19138 0.13288 0.83784 7.2374e-39 355.5 286.5 0 0 0 -0.59973 0.25426 -0.75873 0.001562
0.19299 0.13287 0.83716 7.0622e-39 340.8 286.6 0 0 0 -0.59919 0.25631 -0.75847 0.0015773
0.29194 0.1327 0.8367 5.7622e-39 319.5 287 0 0 0 0.75699 0.19387 -0.62401 0.0045268
0.29312 0.13279 0.83727 5.8544e-39 320.5 287 0 0 0 0.74615 0.20014 -0.63498 0.0041798
0.19285 0.13484 0.83784 8.2976e-39 345 287.5 0 0 0 -0.59715 0.26509 -0.75706 0.0015288
0.19433 0.13478 0.83651 7.8059e-39 319 287.67 0 0 0 -0.59742 0.2646 -0.75702 0.0015976
0.2926 0.13465 0.83765 6.1464e-39 281.67 288 0 0 0 0.74783 0.18972 -0.63621 0.0044544
0.19236 0.13631 0.83784 7.8366e-39 415 288 0 0 0 -0.59612 0.26829 -0.75675 0.0015467
0.19462 0.13689 0.83659 6.9331e-39 345.2 288.6 0 0 0 -0.59439 0.27364 -0.75619 0.0015809
0.29087 0.13656 0.83642 6.5458e-39 291 289 0 0 0 0.76158 0.17378 -0.62434 0.0046433
0.29234 0.13631 0.83784 5.3473e-39 216 289 0 0 0 0.74493 0.18259 -0.64167 0.0046768
0.19489 0.13889 0.83713 6.0849e-39 267.25 289.75 0 0 0 -0.59187 0.28123 -0.75538 0.0015392
0.19686 0.13994 0.83613 7.56e-39 380 290 0 0 0 -0.59073 0.28467 -0.75498 0.0015211
0.28979 0.13994 0.83613 5.5317e-39 171 291 0 0 0 0.76501 0.16157 -0.62342 0.0049474
0.29106 0.13861 0.83698 6.8685e-39 269.5 290 0 0 0 0.76031 0.16323 -0.62871 0.0053102
0.19484 0.14046 0.83727 6.9147e-39 320.33 290.33 0 0 0 -0.59087 0.28629 -0.75426 0.0015107
0.19675 0.14102 0.8367 7.0068e-39 288.5 290.75 0 0 0 -0.59043 0.2885 -0.75377 0.0014926
0.29126 0.14067 0.83756 4.9786e-39 236.5 291 0 0 0 0.76018 0.16884 -0.6274 0.0057987
0.1953 0.14268 0.83784 6.6381e-39 271.5 291.5 0 0 0 -0.58981 0.29209 -0.75286 0.0014663
0.19693 0.14268 0.83727 6.3062e-39 256.8 291.6 0 0 0 -0.58999 0.2926 -0.75253 0.0014443
0.19881 0.14386 0.83613 6.8225e-39 337 292 0 0 0 -0.59304 0.29339 -0.74982 0.0014467
0.19726 0.14464 0.83784 6.592e-39 243.5 292.5 0 0 0 -0.58868 0.29486 -0.75267 0.0014118
0.19873 0.14496 0.83684 6.4076e-39 228.75 292.75 0 0 0 -0.59244 0.29443 -0.74988 0.0014296
0.19894 0.14664 0.8375 8.1132e-39 353.6 293 0 0 0 -0.5922 0.29437 -0.7501 0.0014111
0.20105 0.14744 0.83647 6.5459e-39 303.8 293.6 0 0 0 -0.59861 0.2928 -0.74561 0.0014308
0.19922 0.14807 0.83784 5.6239e-39 230 294 0 0 0 -0.59337 0.29336 -0.74957 0.0013654
0.20115 0.14928 0.83693 6.7671e-39 300.2 294.4 0 0 0 -0.59879 0.29358 -0.74516 0.0013796
0.20273 0.14973 0.83613 5.6239e-39 194 295 0 0 0 -0.60191 0.29227 -0.74316 0.0014248
0.20085 0.15101 0.83784 5.7776e-39 314 295 0 0 0 -0.59835 0.29471 -0.74507 0.0013024
0.20288 0.15131 0.8368 6.3308e-39 389.67 295 0 0 0 -0.60161 0.29376 -0.74281 0.0013432
0.20305 0.15339 0.83746 7.2988e-39 321 296 0 0 0 -0.60129 0.29532 -0.74246 0.0012863
0.20517 0.15364 0.83613 8.7125e-39 391.5 296 0 0 0 -0.60725 0.29349 -0.73832 0.0012795
0.20491 0.15528 0.83708 7.3142e-39 275 297 0 0 0 -0.60611 0.29392 -0.73908 0.0012101
0.20549 0.15731 0.83741 6.592e-39 211 298 0 0 0 -0.60779 0.29539 -0.73711 0.0011924
0.20671 0.15711 0.83642 6.592e-39 212.5 298 0 0 0 -0.61135 0.29436 -0.73458 0.0011465
0.20538 0.15914 0.83765 6.0234e-39 345 298.33 0 0 0 -0.60666 0.30021 -0.73609 0.0012908
0.20655 0.15936 0.83708 5.6547e-39 283 298.67 0 0 0 -0.61035 0.29897 -0.73354 0.0012527
0.2069 0.16117 0.83718 6.592e-39 262.5 299.5 0 0 0 -0.61103 0.30774 -0.72934 0.0013753
0.20741 0.16315 0.83727 7.1221e-39 350.5 300 0 0 0 -0.61019 0.31361 -0.72754 0.0015455
0.2086 0.16293 0.83613 6.4998e-39 352 300 0 0 0 -0.61308 0.31178 -0.7259 0.0014259
0.2079 0.16462 0.83727 6.2693e-39 227 301 0 0 0 -0.6098 0.31718 -0.72632 0.0016266
0.20896 0.16512 0.83681 7.9104e-39 313.4 301 0 0 0 -0.61094 0.31852 -0.72477 0.0015604
0.20908 0.16697 0.83727 6.5274e-39 230.4 302 0 0 0 -0.60895 0.32307 -0.72443 0.001648
0.21055 0.16733 0.83613 6.6381e-39 303 302 0 0 0 -0.61181 0.32577 -0.72081 0.0015661
0.20958 0.1689 0.83746 6.3308e-39 381 302.33 0 0 0 -0.60691 0.32868 -0.72362 0.0017091
0.21111 0.16886 0.83642 6.4306e-39 351.5 302.5 0 0 0 -0.61065 0.33002 -0.71986 0.0015979
0.20986 0.17099 0.83727 7.2835e-39 303.5 303.5 0 0 0 -0.60542 0.3296 -0.72445 0.0017504
0.21114 0.17084 0.83656 7.3296e-39 305 303.5 0 0 0 -0.60989 0.33099 -0.72006 0.0016605
0.21251 0.17125 0.83613 5.9005e-39 213 304 0 0 0 -0.61388 0.33045 -0.71691 0.0016904
0.21 0.17258 0.83784 7.56e-39 351 304 0 0 0 -0.60284 0.32696 -0.72779 0.0019874
0.2114 0.17301 0.83756 6.615e-39 260 304.5 0 0 0 -0.60885 0.3268 -0.72285 0.0019363
0.21311 0.1728 0.83656 6.2002e-39 262 304.5 0 0 0 -0.61582 0.32706 -0.7168 0.0018556
0.21196 0.17454 0.83784 6.8225e-39 291 305 0 0 0 -0.60844 0.32608 -0.72352 0.0020305
0.21345 0.17475 0.83727 7.0683e-39 340.67 305 0 0 0 -0.6169 0.3244 -0.71708 0.0019891
0.21392 0.17699 0.83784 6.6381e-39 330.5 306 0 0 0 -0.61557 0.32046 -0.71999 0.0022378
0.21484 0.17683 0.83632 6.5766e-39 356.67 306 0 0 0 -0.62279 0.32088 -0.71356 0.0019985
0.21518 0.17877 0.83699 8.505e-39 300 307 0 0 0 -0.62332 0.31606 -0.71525 0.0020944
0.2165 0.17864 0.83642 8.3437e-39 301.5 307 0 0 0 -0.62583 0.31693 -0.71267 0.0019157
0.21536 0.18088 0.8377 7.1221e-39 265 308 0 0 0 -0.62107 0.31262 -0.71871 0.0023047
0.21706 0.18066 0.8367 6.8455e-39 267 308 0 0 0 -0.6251 0.31596 -0.71373 0.0019953
0.21838 0.18103 0.83613 7.7444e-39 347 308 0 0 0 -0.62628 0.31661 -0.71241 0.0018622
0.21746 0.18266 0.83765 6.3615e-39 200.67 309 0 0 0 -0.62312 0.31211 -0.71716 0.0021429
0.2189 0.18282 0.83689 7.0069e-39 247.33 309 0 0 0 -0.62552 0.31343 -0.71448 0.0019646
0.22033 0.18396 0.83613 9.6805e-39 447 309 0 0 0 -0.62363 0.31411 -0.71584 0.0019122
0.21942 0.18462 0.83765 8.82e-39 384.67 309.33 0 0 0 -0.62289 0.31052 -0.71804 0.0020739
0.22097 0.18507 0.8367 6.6381e-39 264.5 310 0 0 0 -0.62195 0.31427 -0.71722 0.0019829
0.2198 0.1863 0.83784 8.6664e-39 414 310 0 0 0 -0.62157 0.31035 -0.71925 0.0021748
0.22112 0.18666 0.83727 7.1451e-39 323 310.5 0 0 0 -0.61999 0.31317 -0.7194 0.002102
0.22229 0.1869 0.83613 6.0849e-39 232 311 0 0 0 -0.61922 0.3163 -0.7187 0.0020229
0.22116 0.18865 0.83741 7.6292e-39 271 311.5 0 0 0 -0.61707 0.31239 -0.72225 0.0021684
0.22236 0.18941 0.83642 9.3576e-39 238.5 312 0 0 0 -0.61456 0.31459 -0.72343 0.0020844
0.22176 0.19071 0.83784 1.2216e-38 371.5 312 0 0 0 -0.61281 0.31019 -0.72681 0.0021741
0.22259 0.19107 0.83727 9.7727e-39 440 312 0 0 0 -0.61197 0.31086 -0.72722 0.0021618
0.22176 0.19218 0.83784 6.9147e-39 252 313 0 0 0 -0.61237 0.30618 -0.72888 0.0022074
0.22297 0.19293 0.83684 8.1824e-39 314.25 313.25 0 0 0 -0.60676 0.3116 -0.73127 0.0021507
0.22425 0.19375 0.83613 5.9927e-39 214 314 0 0 0 -0.60562 0.31501 -0.73075 0.0021549
0.27276 0.19332 0.83642 8.5284e-39 354 313.5 0 0 0 0.73704 0.32158 -0.59445 0.0043832
0.2747 0.19218 0.83784 1.512e-38 304 313 0 0 0 0.71248 0.33883 -0.61446 0.004028
0.22302 0.19475 0.83765 1.0265e-38 303.67 314 0 0 0 -0.60347 0.30816 -0.73544 0.0021906
0.22473 0.19551 0.8367 8.3591e-39 217.33 314.67 0 0 0 -0.59943 0.3125 -0.73691 0.0021928
0.27106 0.19551 0.8367 7.3141e-39 268.67 314.67 0 0 0 0.74587 0.32285 -0.58261 0.0043595
0.27314 0.19456 0.83756 8.8045e-39 332 314 0 0 0 0.73301 0.33737 -0.59066 0.0041888
0.22372 0.1961 0.83784 5.9927e-39 149 315 0 0 0 -0.60049 0.3067 -0.73848 0.0022375
0.2252 0.19727 0.83727 9.5884e-39 317.33 315 0 0 0 -0.59437 0.31272 -0.7409 0.0021727
0.22658 0.19738 0.83632 1.0602e-38 362.67 315 0 0 0 -0.59474 0.31685 -0.73885 0.0021542
0.26934 0.19723 0.83642 1.3737e-38 391 315 0 0 0 0.75025 0.31825 -0.57952 0.004376
0.27059 0.19695 0.83727 1.5673e-38 333 315 0 0 0 0.74876 0.32687 -0.57664 0.004407
0.22519 0.19855 0.83784 8.2977e-39 303 315.5 0 0 0 -0.59275 0.31046 -0.74314 0.0021483
0.22711 0.19919 0.83708 9.3116e-39 245.67 316 0 0 0 -0.58999 0.31664 -0.74273 0.0021085
0.22816 0.19962 0.83613 1.6595e-38 331 316 0 0 0 -0.58974 0.31874 -0.74203 0.0021528
0.26979 0.19904 0.83784 7.6522e-39 247 316 0 0 0 0.75736 0.3195 -0.56949 0.0046926
0.22731 0.201 0.83784 9.9878e-39 321.67 316.33 0 0 0 -0.58616 0.31567 -0.74617 0.0020604
0.22881 0.20122 0.8367 7.8366e-39 319.5 316.5 0 0 0 -0.58716 0.31873 -0.74408 0.0021002
0.26827 0.20157 0.83613 8.8508e-39 251 317 0 0 0 0.7623 0.28997 -0.57863 0.0046546
0.22764 0.20296 0.83784 1.7241e-38 300 317 0 0 0 -0.58525 0.31569 -0.74688 0.0020261
0.22903 0.20338 0.83756 1.3069e-38 351.5 317 0 0 0 -0.58414 0.31721 -0.7471 0.0020329
0.23012 0.20304 0.83613 1.2355e-38 353 317 0 0 0 -0.5837 0.31954 -0.74645 0.0020884
0.26729 0.20353 0.83613 9.6805e-39 439 317 0 0 0 0.76408 0.27464 -0.58374 0.0046496
0.26881 0.20296 0.83784 1.4014e-38 352 317 0 0 0 0.77773 0.28214 -0.56172 0.0044118
0.22961 0.20541 0.83784 8.5739e-39 211 318 0 0 0 -0.58292 0.31237 -0.75009 0.0019607
0.23072 0.2051 0.83656 8.3207e-39 212.5 318 0 0 0 -0.58309 0.31577 -0.74853 0.0021214
0.23207 0.20549 0.83613 1.1709e-38 261 318 0 0 0 -0.58168 0.31498 -0.74996 0.002161
0.22961 0.20688 0.83784 1.4659e-38 349 318 0 0 0 -0.58338 0.31381 -0.74913 0.0021061
0.23088 0.20719 0.83713 1.2216e-38 389.5 318 0 0 0 -0.58269 0.3111 -0.75079 0.0020855
0.23245 0.20716 0.83632 1.0848e-38 404.67 318 0 0 0 -0.58127 0.31062 -0.75209 0.0021881
0.23124 0.20917 0.83784 9.8343e-39 213.67 319 0 0 0 -0.58357 0.30773 -0.7515 0.002177
0.2328 0.20912 0.83698 9.796e-39 230.5 319 0 0 0 -0.57964 0.30648 -0.75504 0.0022672
0.23403 0.2094 0.83613 1.2078e-38 277 319 0 0 0 -0.57699 0.30372 -0.75818 0.0023955
0.23296 0.21122 0.83756 1.0142e-38 392 319 0 0 0 -0.58123 0.30103 -0.75601 0.0023662
0.23446 0.21112 0.83651 9.8342e-39 405 319 0 0 0 -0.5749 0.29966 -0.76138 0.0025809
0.23345 0.21319 0.83756 8.5282e-39 200 320 0 0 0 -0.5825 0.29443 -0.75764 0.0025032
0.23517 0.21297 0.8367 9.3425e-39 202 320 0 0 0 -0.57162 0.29609 -0.76523 0.0028394
0.23492 0.21515 0.83756 1.5835e-38 324 320 0 0 0 -0.57525 0.29267 -0.76383 0.0029588
0.23647 0.21509 0.8367 1.3799e-38 336 320 0 0 0 -0.56156 0.29861 -0.77167 0.0041245
0.23516 0.21702 0.83784 1.0387e-38 419.33 320 0 0 0 -0.57722 0.29062 -0.76312 0.003487
0.23672 0.21696 0.83698 1.0602e-38 429 320 0 0 0 -0.5602 0.2971 -0.77324 0.0047855
0.23549 0.21865 0.83784 7.9288e-39 164 321 0 0 0 -0.57641 0.2925 -0.76301 0.0040794
0.23684 0.21903 0.83741 9.4501e-39 184.5 321 0 0 0 -0.56293 0.29616 -0.77162 0.0053266
0.23765 0.22084 0.83684 1.2239e-38 251.5 321 0 0 0 -0.55807 0.29773 -0.77454 0.0066132
0.26324 0.22144 0.83727 1.8808e-38 292.5 321 0 0 0 0.64876 0.43937 -0.62135 0.043979
0.23745 0.22257 0.83784 1.7609e-38 294 321 0 0 0 -0.56437 0.30098 -0.7687 0.0070035
0.23896 0.22264 0.83627 1.7656e-38 308.5 321 0 0 0 -0.53394 0.31198 -0.78586 0.012784
0.26178 0.22438 0.83727 1.1063e-38 360 321 0 0 0 0.46516 0.52346 -0.71388 0.052728
0.16906 0.092814 0.83898 7.2374e-39 373.5 264 0 0 0 -0.36348 -0.57889 -0.72991 0.16701
0.16819 0.094349 0.83955 8.021e-39 401 265 0 0 0 -0.42349 -0.46654 -0.77653 0.16751
0.2173 0.099261 0.83955 7.9288e-39 342 269 0 0 0 -0.016345 -0.90198 -0.43146 0.0051393
0.22506 0.099216 0.83916 7.6522e-39 350 269 0 0 0 0.0071057 -0.91676 -0.39937 0.0060068
0.22713 0.099261 0.83955 7.6522e-39 352 269 0 0 0 0.0041298 -0.92039 -0.39098 0.0056281
0.18096 0.10123 0.83955 5.4395e-39 363 270 0 0 0 -0.351 -0.52686 -0.77409 0.10539
0.18342 0.10123 0.83955 5.0247e-39 365.5 270 0 0 0 -0.27676 -0.59554 -0.75414 0.096306
0.18519 0.10113 0.83869 5.3012e-39 367.5 270 0 0 0 -0.23307 -0.64135 -0.73099 0.084626
0.18722 0.10067 0.83898 5.9005e-39 271.5 270 0 0 0 -0.2185 -0.68596 -0.69406 0.069478
0.19078 0.10024 0.83955 4.702e-39 177 270 0 0 0 -0.19732 -0.74528 -0.63689 0.054256
0.1936 0.10116 0.83897 5.8083e-39 386 270 0 0 0 -0.18032 -0.74985 -0.63656 0.050747
0.195 0.10113 0.83869 5.9927e-39 387.5 270 0 0 0 -0.17314 -0.76514 -0.62015 0.046804
0.19697 0.10113 0.83869 6.8225e-39 389.5 270 0 0 0 -0.16192 -0.7881 -0.59387 0.041199
0.21323 0.10116 0.83897 6.9147e-39 406 270 0 0 0 -0.031454 -0.8967 -0.44151 0.004315
0.21454 0.1005 0.83898 6.4537e-39 287.33 270 0 0 0 -0.026508 -0.89834 -0.43849 0.0044863
0.21706 0.10013 0.8386 6.761e-39 230 270 0 0 0 -0.019644 -0.90017 -0.43509 0.0050395
0.21927 0.10024 0.83955 6.5459e-39 232 270 0 0 0 -0.0089545 -0.90555 -0.42415 0.0057448
0.2201 0.10017 0.83897 5.9927e-39 233 270 0 0 0 -0.010029 -0.90583 -0.42353 0.0059779
0.23327 0.10014 0.83869 8.0671e-39 244.5 270 0 0 0 -0.004725 -0.92652 -0.37623 0.0046785
0.23498 0.10024 0.83955 8.3898e-39 246 270 0 0 0 -0.0057342 -0.92952 -0.36872 0.0041156
0.23663 0.10109 0.83841 5.6239e-39 436 270 0 0 0 -0.0069798 -0.92639 -0.37649 0.0043277
0.24153 0.10109 0.83841 5.8083e-39 441 270 0 0 0 -0.0022707 -0.92783 -0.37299 0.003639
0.24382 0.10024 0.83955 7.56e-39 255 270 0 0 0 -0.0026466 -0.92879 -0.3706 0.0032074
0.24513 0.10017 0.83897 8.1132e-39 256.5 270 0 0 0 2.2736e-05 -0.92712 -0.37477 0.0031008
0.24644 0.10011 0.83841 7.6522e-39 258 270 0 0 0 0.0010304 -0.9256 -0.3785 0.0028527
0.24938 0.10011 0.83841 7.1913e-39 261 270 0 0 0 0.0061271 -0.92114 -0.38919 0.0027175
0.25111 0.10021 0.83926 7.3296e-39 262.5 270 0 0 0 0.0083055 -0.91976 -0.39239 0.002669
0.25315 0.10024 0.83955 7.7444e-39 264.5 270 0 0 0 0.016901 -0.91611 -0.40057 0.0025508
0.25512 0.10024 0.83955 7.5601e-39 266.5 270 0 0 0 0.027876 -0.91403 -0.40468 0.002432
0.25691 0.10067 0.83898 6.4998e-39 365 270 0 0 0 0.035966 -0.91169 -0.40929 0.0022303
0.25879 0.10113 0.83869 6.6381e-39 463.5 270 0 0 0 0.048972 -0.90878 -0.41439 0.0018649
0.26084 0.10116 0.83897 7.053e-39 477.5 270 0 0 0 0.061106 -0.90746 -0.41566 0.0016595
0.26262 0.10109 0.83841 6.592e-39 491.5 270 0 0 0 0.070398 -0.90551 -0.41845 0.0016363
0.26467 0.10113 0.83869 6.2232e-39 493.5 270 0 0 0 0.078223 -0.9047 -0.4188 0.0015645
0.26673 0.10116 0.83897 5.9466e-39 495.5 270 0 0 0 0.081645 -0.90455 -0.41848 0.0014753
0.26878 0.1012 0.83926 6.2232e-39 514.5 270 0 0 0 0.082094 -0.90462 -0.41825 0.0014846
0.27133 0.10123 0.83955 6.1771e-39 517 270 0 0 0 0.081306 -0.90556 -0.41636 0.0014841
0.2728 0.10123 0.83955 8.1593e-39 518.5 270 0 0 0 0.078928 -0.90682 -0.41407 0.0014531
0.27427 0.10123 0.83955 9.5883e-39 520 270 0 0 0 0.077647 -0.90704 -0.41383 0.0015065
0.30472 0.10074 0.83955 6.3615e-39 284 270.5 0 0 0 0.50377 -0.61589 -0.60572 0.089853
0.17998 0.1027 0.83955 6.4076e-39 327.5 271 0 0 0 -0.42006 -0.40664 -0.81129 0.10618
0.18133 0.10263 0.83897 6.4306e-39 329 271 0 0 0 -0.37991 -0.43862 -0.81442 0.10191
0.18323 0.1026 0.83869 5.9466e-39 331 271 0 0 0 -0.33603 -0.48458 -0.80763 0.097306
0.19962 0.10221 0.83955 8.1132e-39 256 271 0 0 0 -0.16341 -0.80136 -0.57543 0.036213
0.20082 0.10305 0.83841 6.2232e-39 440.5 271 0 0 0 -0.17021 -0.79458 -0.58282 0.036487
0.20292 0.10312 0.83897 5.5778e-39 442.5 271 0 0 0 -0.14777 -0.81992 -0.55308 0.028031
0.20489 0.10312 0.83898 5.8544e-39 444.5 271 0 0 0 -0.11952 -0.84142 -0.527 0.020011
0.20678 0.1021 0.83869 7.4679e-39 263.5 271 0 0 0 -0.086896 -0.86492 -0.49433 0.011819
0.20898 0.10247 0.83898 7.099e-39 326.67 271 0 0 0 -0.067512 -0.87934 -0.47138 0.0071284
0.21074 0.10261 0.83884 6.4767e-39 360.5 271 0 0 0 -0.052524 -0.88684 -0.45908 0.0051171
0.21217 0.1026 0.83869 6.4076e-39 362 271 0 0 0 -0.040469 -0.89117 -0.45187 0.0042902
0.27939 0.1021 0.83869 5.4395e-39 367.5 271 0 0 0 0.085678 -0.90414 -0.41856 0.0023733
0.28145 0.10263 0.83898 6.131e-39 302.5 271.5 0 0 0 0.10784 -0.89345 -0.43602 0.0060441
0.28297 0.10265 0.83912 6.3154e-39 304 271.5 0 0 0 0.12534 -0.88065 -0.45688 0.01209
0.28508 0.10319 0.83955 6.3615e-39 239 272 0 0 0 0.14769 -0.85914 -0.48997 0.025305
0.28655 0.10319 0.83955 5.7622e-39 240.5 272 0 0 0 0.16092 -0.84617 -0.50804 0.031875
0.28802 0.10319 0.83955 5.7161e-39 242 272 0 0 0 0.18544 -0.82991 -0.52617 0.040342
0.29343 0.10319 0.83955 8.5281e-39 247.5 272 0 0 0 0.28564 -0.77476 -0.56405 0.064369
0.29529 0.10316 0.83926 8.1593e-39 249.5 272 0 0 0 0.33522 -0.74229 -0.5802 0.074356
0.29735 0.10319 0.83955 7.6983e-39 251.5 272 0 0 0 0.39401 -0.70128 -0.59411 0.081365
0.29883 0.10319 0.83955 7.6522e-39 253 272 0 0 0 0.42101 -0.67845 -0.60204 0.083141
0.30128 0.10319 0.83955 8.021e-39 255.5 272 0 0 0 0.48869 -0.6202 -0.61363 0.087517
0.30341 0.10286 0.83955 7.683e-39 304 271.67 0 0 0 0.54214 -0.56903 -0.6183 0.094877
0.30472 0.10221 0.83955 7.56e-39 398 271 0 0 0 0.56284 -0.54535 -0.62113 0.0988
0.17946 0.10464 0.83941 5.5317e-39 361.5 272 0 0 0 -0.47021 -0.27564 -0.8384 0.094877
0.18127 0.10505 0.83869 6.1003e-39 353.83 272.33 0 0 0 -0.4396 -0.30675 -0.84419 0.094409
0.18268 0.10501 0.83841 6.2386e-39 355.33 272.33 0 0 0 -0.42474 -0.34506 -0.83698 0.086936
0.2892 0.10407 0.83869 5.8544e-39 419.5 272 0 0 0 0.23485 -0.80061 -0.55125 0.054415
0.29116 0.10407 0.83869 5.6239e-39 421.5 272 0 0 0 0.2833 -0.77009 -0.57158 0.066333
0.29744 0.10403 0.83841 5.7161e-39 428 272 0 0 0 0.42982 -0.65856 -0.6177 0.085033
0.29914 0.10438 0.8386 5.9005e-39 380 272.33 0 0 0 0.47858 -0.60817 -0.63331 0.089532
0.30098 0.10407 0.83869 6.2693e-39 431.5 272 0 0 0 0.51121 -0.5846 -0.63 0.090803
0.30314 0.1044 0.83878 5.3166e-39 384 272.33 0 0 0 0.58954 -0.5033 -0.63177 0.091273
0.17943 0.10659 0.83926 5.2782e-39 399.75 273 0 0 0 -0.49895 -0.18042 -0.84764 0.079707
0.18121 0.10697 0.83841 5.1629e-39 330.5 273.5 0 0 0 -0.48612 -0.19918 -0.85089 0.07279
0.18268 0.10746 0.83841 6.1772e-39 257.5 274 0 0 0 -0.47163 -0.21121 -0.85613 0.070152
0.30235 0.10795 0.83841 5.3473e-39 500 274 0 0 0 0.64021 -0.36785 -0.6744 0.089502
0.17965 0.10843 0.83955 7.0376e-39 290.33 274.33 0 0 0 -0.51778 -0.126 -0.84619 0.064878
0.18143 0.10881 0.83897 6.2693e-39 280.6 274.6 0 0 0 -0.51086 -0.13718 -0.84865 0.060499
0.18309 0.10964 0.83878 6.7303e-39 294.67 275 0 0 0 -0.5082 -0.15469 -0.84723 0.058833
0.30137 0.10992 0.83841 5.8083e-39 498 275 0 0 0 0.65749 -0.30052 -0.69093 0.085049
0.30255 0.10901 0.83897 8.021e-39 336 275 0 0 0 0.65635 -0.33141 -0.67777 0.08984
0.18129 0.11072 0.83955 5.962e-39 232.33 275.67 0 0 0 -0.52957 -0.084171 -0.84408 0.050792
0.18323 0.11143 0.83869 6.7764e-39 262.5 276 0 0 0 -0.52994 -0.089642 -0.84328 0.047768
0.29961 0.11097 0.83897 5.6239e-39 299 276 0 0 0 0.65466 -0.30354 -0.6923 0.090612
0.18145 0.11252 0.83955 6.4306e-39 263.5 276.5 0 0 0 -0.54595 -0.032735 -0.83718 0.039135
0.18329 0.11343 0.83898 5.4856e-39 268.5 277 0 0 0 -0.5453 -0.026891 -0.83781 0.038067
0.18339 0.11545 0.83941 5.8544e-39 273 278 0 0 0 -0.55107 0.043098 -0.83335 0.025373
0.18497 0.11547 0.83841 5.4395e-39 304.33 278 0 0 0 -0.55417 0.032022 -0.83179 0.027063
0.18358 0.11727 0.83955 5.1323e-39 250 279 0 0 0 -0.56199 0.11148 -0.8196 0.013917
0.18519 0.11731 0.83869 5.4165e-39 282.5 279 0 0 0 -0.56107 0.091941 -0.82265 0.015951
0.29883 0.11694 0.83955 8.1132e-39 342 279 0 0 0 0.71795 -0.051796 -0.69416 0.058771
0.18523 0.1193 0.83883 6.7764e-39 289.5 280 0 0 0 -0.57192 0.1473 -0.80698 0.0082536
0.1866 0.11972 0.83841 8.8508e-39 375 280 0 0 0 -0.5824 0.14734 -0.79944 0.0077659
0.18526 0.12128 0.83897 5.5318e-39 283 281 0 0 0 -0.57977 0.19489 -0.79113 0.0037378
0.1866 0.1212 0.83841 5.3934e-39 284.5 281 0 0 0 -0.58722 0.18799 -0.7873 0.0033224
0.18532 0.12328 0.83926 7.0991e-39 268.5 282 0 0 0 -0.58282 0.21284 -0.78423 0.003407
0.1866 0.12316 0.83841 6.592e-39 270 282 0 0 0 -0.58959 0.20609 -0.78097 0.0027281
0.18554 0.12513 0.83955 5.4703e-39 228.67 283 0 0 0 -0.58584 0.22328 -0.77907 0.0031627
0.1866 0.12512 0.83841 5.9005e-39 257 283 0 0 0 -0.58974 0.21955 -0.77718 0.002646
0.18856 0.12561 0.83841 6.9147e-39 340 283 0 0 0 -0.6 0.22168 -0.76868 0.0017385
0.29744 0.12561 0.83841 7.3757e-39 468 283 0 0 0 0.7501 0.21635 -0.62493 0.0033039
0.18587 0.12676 0.83955 5.2552e-39 161 284 0 0 0 -0.5894 0.22966 -0.77451 0.0029357
0.18701 0.1273 0.83878 6.3001e-39 263.67 284 0 0 0 -0.59205 0.22996 -0.7724 0.0024256
0.18856 0.12708 0.83841 6.4998e-39 246 284 0 0 0 -0.59991 0.22828 -0.76681 0.0016172
0.29715 0.12717 0.83898 6.9838e-39 360 284 0 0 0 0.75055 0.2205 -0.62294 0.0033121
0.18725 0.12915 0.83912 4.702e-39 222.5 285 0 0 0 -0.59527 0.23897 -0.76717 0.0021764
0.18893 0.12923 0.8386 4.7942e-39 247.33 285 0 0 0 -0.60041 0.23768 -0.76356 0.0015665
0.29558 0.12909 0.83869 7.6983e-39 342 285 0 0 0 0.75256 0.20703 -0.62513 0.003642
0.29686 0.12873 0.83955 8.1132e-39 268 285 0 0 0 0.75013 0.20921 -0.62732 0.0034314
0.18778 0.13114 0.83926 6.8225e-39 370.5 285.5 0 0 0 -0.59746 0.25015 -0.76188 0.0019805
0.18912 0.13105 0.83869 6.5459e-39 372 285.5 0 0 0 -0.60012 0.24535 -0.76135 0.0015985
0.19053 0.1315 0.83841 6.8225e-39 279 286 0 0 0 -0.60044 0.24736 -0.76045 0.0015316
0.29542 0.13129 0.83917 5.9927e-39 353 286 0 0 0 0.74615 0.19017 -0.63805 0.0036728
0.18921 0.13308 0.83911 7.3987e-39 353 286.5 0 0 0 -0.60059 0.25653 -0.75729 0.0016288
0.19059 0.13302 0.83869 7.2835e-39 354.5 286.5 0 0 0 -0.59946 0.25621 -0.75829 0.0015681
0.2947 0.13257 0.83897 6.3615e-39 244 287 0 0 0 0.74097 0.19718 -0.64194 0.0041543
0.18943 0.13492 0.83936 7.7444e-39 367.67 287.33 0 0 0 -0.60399 0.26391 -0.75203 0.0014686
0.19108 0.13498 0.83869 8.021e-39 342 287.5 0 0 0 -0.59773 0.26386 -0.75703 0.0015592
0.29352 0.13542 0.83841 7.0069e-39 387 288 0 0 0 0.73147 0.19224 -0.65421 0.0038792
0.1898 0.13659 0.83955 8.2054e-39 412 288 0 0 0 -0.60217 0.26994 -0.75135 0.0014395
0.19135 0.13685 0.83916 7.3449e-39 356.67 288.33 0 0 0 -0.59759 0.27303 -0.75388 0.0014658
0.19314 0.13705 0.83841 6.8532e-39 301.67 288.67 0 0 0 -0.59418 0.27313 -0.75654 0.0015178
0.19177 0.13904 0.83955 6.0849e-39 307 289.5 0 0 0 -0.59774 0.28242 -0.7503 0.0014434
0.19304 0.1389 0.83869 5.9927e-39 308.5 289.5 0 0 0 -0.59375 0.27969 -0.75448 0.0014656
0.29274 0.13944 0.83897 8.021e-39 348 290 0 0 0 0.72494 0.18275 -0.66413 0.0045891
0.19177 0.141 0.83955 6.7764e-39 288 290.5 0 0 0 -0.59731 0.28975 -0.74784 0.0013958
0.19314 0.14094 0.83912 6.7533e-39 289.5 290.5 0 0 0 -0.59352 0.28783 -0.75159 0.0014293
0.19445 0.1413 0.83841 5.9005e-39 205 291 0 0 0 -0.59066 0.28837 -0.75363 0.0014891
0.29294 0.14051 0.83955 4.7942e-39 173 291 0 0 0 0.71818 0.18887 -0.66974 0.0041961
0.19308 0.14281 0.83955 7.2834e-39 297 291.33 0 0 0 -0.59535 0.29473 -0.74746 0.0014087
0.19452 0.14283 0.83869 6.592e-39 270 291.5 0 0 0 -0.59113 0.29239 -0.75171 0.0014316
0.195 0.14479 0.83869 6.569e-39 241 292.5 0 0 0 -0.5911 0.2966 -0.75009 0.0014173
0.19641 0.14474 0.83841 6.6381e-39 242.5 292.5 0 0 0 -0.58929 0.29564 -0.75189 0.001418
0.19517 0.14688 0.83941 7.9288e-39 335.5 293 0 0 0 -0.59274 0.29756 -0.74841 0.0013524
0.197 0.14678 0.83884 8.2745e-39 337.5 293 0 0 0 -0.59047 0.29586 -0.75087 0.0013568
0.1957 0.14837 0.83955 6.1771e-39 226 294 0 0 0 -0.59275 0.29801 -0.74822 0.0013145
0.19725 0.14863 0.83916 6.2693e-39 274.33 294 0 0 0 -0.59184 0.29603 -0.74973 0.0013016
0.1987 0.14882 0.83841 6.7303e-39 322.67 294 0 0 0 -0.59235 0.29436 -0.74998 0.0013363
0.19766 0.15083 0.83955 6.3154e-39 243.5 295 0 0 0 -0.59385 0.2963 -0.74803 0.0012397
0.19896 0.1507 0.83883 5.6469e-39 245 295 0 0 0 -0.5937 0.29519 -0.74859 0.001281
0.20033 0.15111 0.83841 5.3473e-39 302 295 0 0 0 -0.59684 0.29426 -0.74646 0.0013093
0.19906 0.15274 0.83926 6.9378e-39 342 295.5 0 0 0 -0.59515 0.29475 -0.74761 0.0012231
0.2007 0.15278 0.8386 6.9762e-39 313 295.67 0 0 0 -0.59748 0.29414 -0.74599 0.0012617
0.19962 0.15427 0.83955 9.1274e-39 385 296 0 0 0 -0.597 0.29514 -0.74597 0.0011586
0.20092 0.15463 0.83884 6.9378e-39 294 296.5 0 0 0 -0.59678 0.29502 -0.7462 0.0012002
0.20279 0.15504 0.83841 5.8083e-39 203.5 297 0 0 0 -0.5996 0.29614 -0.74349 0.0012082
0.20152 0.15666 0.83926 7.0529e-39 242 297.5 0 0 0 -0.59763 0.29745 -0.74455 0.0011799
0.20285 0.15657 0.83869 7.3065e-39 244 297.5 0 0 0 -0.60041 0.29638 -0.74274 0.0012286
0.20426 0.157 0.83841 5.2552e-39 149 298 0 0 0 -0.60266 0.29652 -0.74086 0.0012329
0.20159 0.15819 0.83955 5.7161e-39 267 298 0 0 0 -0.59841 0.2998 -0.74298 0.00122
0.20292 0.15858 0.83897 6.6381e-39 337 298 0 0 0 -0.59985 0.30019 -0.74166 0.0012821
0.2044 0.15858 0.83897 6.9608e-39 338.5 298 0 0 0 -0.60332 0.30063 -0.73866 0.0013334
0.20302 0.16062 0.83941 6.8225e-39 285.5 299 0 0 0 -0.59898 0.3057 -0.74011 0.0014221
0.20482 0.16097 0.83869 6.7764e-39 273.75 299.25 0 0 0 -0.60446 0.30801 -0.73468 0.0015316
0.20322 0.16245 0.83955 6.6073e-39 199 300 0 0 0 -0.60124 0.30938 -0.73675 0.0016053
0.20493 0.16302 0.83912 7.5831e-39 283.75 300 0 0 0 -0.60215 0.31232 -0.73476 0.0017466
0.20622 0.16337 0.83841 7.514e-39 349 300 0 0 0 -0.60583 0.31395 -0.73103 0.0016383
0.20355 0.16409 0.83955 8.021e-39 416 300 0 0 0 -0.59994 0.31433 -0.73571 0.0017361
0.20496 0.16501 0.83926 7.5831e-39 307.5 300.75 0 0 0 -0.60054 0.3166 -0.73425 0.0018131
0.20674 0.16537 0.83855 8.0902e-39 296.5 301 0 0 0 -0.60482 0.31801 -0.73011 0.0017448
0.20552 0.16703 0.83955 5.4395e-39 179 302 0 0 0 -0.59967 0.32037 -0.73332 0.0019224
0.20678 0.16736 0.83869 7.4909e-39 239.5 302 0 0 0 -0.60206 0.32179 -0.73073 0.0018238
0.20818 0.16779 0.83841 8.2976e-39 300 302 0 0 0 -0.60475 0.32338 -0.72781 0.0017567
0.20552 0.16802 0.83955 8.482e-39 297 302 0 0 0 -0.59935 0.3224 -0.73269 0.001988
0.20692 0.16943 0.83926 6.0619e-39 346.5 302.5 0 0 0 -0.59875 0.32396 -0.7325 0.0019979
0.20851 0.16942 0.83841 6.4844e-39 317 302.67 0 0 0 -0.60229 0.32656 -0.72843 0.0018348
0.20711 0.17125 0.83936 8.021e-39 331.33 303.33 0 0 0 -0.59809 0.32461 -0.73274 0.0020626
0.20874 0.17128 0.83869 7.5601e-39 302 303.5 0 0 0 -0.59938 0.32715 -0.73056 0.0019702
0.20896 0.17293 0.83955 8.482e-39 349.5 304 0 0 0 -0.59717 0.32555 -0.73308 0.002143
0.21014 0.17367 0.83841 5.6239e-39 166 305 0 0 0 -0.60036 0.32607 -0.73023 0.0020964
0.21078 0.17526 0.83898 6.2923e-39 361.5 305 0 0 0 -0.60113 0.32328 -0.73084 0.0022979
0.2126 0.17564 0.83841 5.9005e-39 435.5 305 0 0 0 -0.61023 0.32117 -0.7242 0.0022906
0.21141 0.17686 0.83955 6.6381e-39 253 306 0 0 0 -0.60214 0.31985 -0.73152 0.002605
0.21274 0.17723 0.83897 6.592e-39 329 306 0 0 0 -0.60746 0.31942 -0.7273 0.0025613
0.21305 0.17915 0.83955 7.0376e-39 272 307 0 0 0 -0.60873 0.31558 -0.72791 0.0027901
0.21414 0.17913 0.83869 7.9749e-39 298.5 307 0 0 0 -0.61407 0.31554 -0.72343 0.0025454
0.21429 0.18121 0.83926 6.9146e-39 263.5 308 0 0 0 -0.61246 0.31108 -0.72672 0.0028092
0.21487 0.18295 0.83898 6.4229e-39 197.67 309 0 0 0 -0.61574 0.30932 -0.7247 0.0027089
0.21636 0.18315 0.83841 6.9147e-39 244.33 309 0 0 0 -0.62139 0.31126 -0.71902 0.0023425
0.21534 0.1852 0.83955 7.7905e-39 349.5 309.5 0 0 0 -0.61555 0.30884 -0.72506 0.0028038
0.21696 0.18498 0.83897 7.9473e-39 369.6 309.4 0 0 0 -0.62011 0.30797 -0.72154 0.0024311
0.21856 0.18551 0.83869 6.6842e-39 261.5 310 0 0 0 -0.623 0.30808 -0.71899 0.002304
0.21697 0.18701 0.83955 8.0518e-39 349 310.33 0 0 0 -0.62004 0.30517 -0.72279 0.0025985
0.21889 0.18712 0.83886 8.0026e-39 301.8 310.6 0 0 0 -0.62102 0.30773 -0.72086 0.0022784
0.21932 0.18891 0.83898 8.4636e-39 288.8 311.4 0 0 0 -0.61792 0.30667 -0.72397 0.0022493
0.21927 0.1911 0.83955 1.2815e-38 368.5 312 0 0 0 -0.61543 0.30367 -0.72734 0.0022599
0.22051 0.19091 0.83869 1.2493e-38 370 312 0 0 0 -0.61535 0.30543 -0.72667 0.0022371
0.21927 0.19257 0.83955 6.2693e-39 249 313 0 0 0 -0.61485 0.30011 -0.72931 0.0022471
0.22091 0.19305 0.83909 9.072e-39 336 313 0 0 0 -0.61108 0.30311 -0.73124 0.0022402
0.27507 0.19342 0.83897 9.8649e-39 446 313 0 0 0 0.70988 0.35093 -0.61067 0.0035377
0.22157 0.1944 0.83898 6.6842e-39 210.5 314 0 0 0 -0.60745 0.30221 -0.73462 0.0022652
0.22206 0.19539 0.83897 1.1617e-38 348 314 0 0 0 -0.60514 0.30276 -0.7363 0.0022596
0.27409 0.19539 0.83897 1.1432e-38 401 314 0 0 0 0.73071 0.34825 -0.58718 0.0040802
0.22279 0.1969 0.83875 7.2097e-39 221.6 315 0 0 0 -0.60007 0.30502 -0.73951 0.0022342
0.27194 0.19722 0.83841 1.5304e-38 334 315 0 0 0 0.74554 0.3391 -0.57375 0.0045903
0.27311 0.19685 0.83898 1.0649e-38 270 315 0 0 0 0.74429 0.3403 -0.57465 0.0046512
0.22282 0.19875 0.83936 9.865e-39 334 315.33 0 0 0 -0.59844 0.30459 -0.74101 0.0022145
