# .PCD v.7 - Point Cloud Data file format
VERSION .7
FIELDS x y z rgb u v vx vy vz normal_x normal_y normal_z curvature
SIZE 4 4 4 4 4 4 4 4 4 4 4 4 4
TYPE F F F F F F F F F F F F F
COUNT 1 1 1 1 1 1 1 1 1 1 1 1 1
WIDTH 561
HEIGHT 1
VIEWPOINT 0 0 0 1 0 0 0
POINTS 561
DATA ascii
0.27673 0.1389 1.0501 6.3615e-39 469 296 0 0 0 -0.25898 0.43628 -0.86174 0.042013
0.27819 0.13902 1.051 6.3615e-39 470 296 0 0 0 -0.2149 0.4416 -0.8711 0.041318
0.2729 0.14037 1.0519 5.8544e-39 496.5 296 0 0 0 -0.40475 0.42023 -0.81215 0.053665
0.27536 0.14037 1.0519 5.4856e-39 498.5 296 0 0 0 -0.30563 0.44071 -0.84402 0.045886
0.27709 0.14092 1.0515 5.3934e-39 327.5 296.5 0 0 0 -0.27693 0.43247 -0.85807 0.045321
0.27843 0.14037 1.0519 5.2552e-39 501 296 0 0 0 -0.22412 0.4529 -0.86294 0.0427
0.27151 0.0099321 1.0537 4.7942e-39 277 255 0 0 0 -0.55037 -0.76912 -0.3249 0.058572
0.27767 0.0099321 1.0537 5.6239e-39 282 255 0 0 0 -0.27685 -0.90333 -0.32765 0.047712
0.27891 0.0099321 1.0537 5.8083e-39 283 255 0 0 0 -0.22658 -0.91248 -0.34063 0.043124
0.3011 0.0099321 1.0537 5.8083e-39 339 255 0 0 0 -0.020243 -0.9245 -0.38065 0.0035819
0.31096 0.0099321 1.0537 7.56e-39 347 255 0 0 0 -0.044955 -0.90708 -0.41854 0.0030097
0.31343 0.0099321 1.0537 7.8366e-39 349 255 0 0 0 -0.046022 -0.90781 -0.41684 0.0027346
0.31589 0.0099321 1.0537 7.8366e-39 351 255 0 0 0 -0.048886 -0.90581 -0.42084 0.0026994
0.32178 0.0099237 1.0528 8.3898e-39 356 255 0 0 0 -0.049542 -0.90809 -0.41584 0.0021248
0.32329 0.0099321 1.0537 7.8366e-39 357 255 0 0 0 -0.049353 -0.91051 -0.41054 0.0020787
0.325 0.0099279 1.0533 7.6061e-39 358.5 255 0 0 0 -0.051525 -0.91031 -0.41071 0.0019397
0.32699 0.0099321 1.0537 7.6522e-39 362 255 0 0 0 -0.044446 -0.91284 -0.40589 0.0017246
0.32945 0.0099321 1.0537 8.2054e-39 366 255 0 0 0 -0.039523 -0.91472 -0.40216 0.0015836
0.33116 0.0099279 1.0533 8.0671e-39 367.5 255 0 0 0 -0.041369 -0.91536 -0.40051 0.0016293
0.33315 0.0099321 1.0537 6.9147e-39 369 255 0 0 0 -0.041297 -0.91731 -0.39603 0.0015864
0.33486 0.0099279 1.0533 6.7303e-39 370.5 255 0 0 0 -0.024215 -0.92117 -0.38841 0.0023628
0.3689 0.0099321 1.0537 6.4537e-39 387 255 0 0 0 -0.27115 -0.89467 -0.35502 0.0037128
0.26904 0.011165 1.0537 6.2693e-39 408 255 0 0 0 -0.68829 -0.65651 -0.30864 0.056786
0.27374 0.011155 1.0528 6.0849e-39 412 255 0 0 0 -0.4773 -0.8156 -0.32707 0.063488
0.2863 0.011165 1.0537 7.2835e-39 422 255 0 0 0 -0.0061881 -0.94574 -0.32486 0.0039404
0.29099 0.011155 1.0528 7.56e-39 426 255 0 0 0 0.024525 -0.94153 -0.33603 0.0031
0.29247 0.011165 1.0537 7.3757e-39 427 255 0 0 0 0.013428 -0.94103 -0.33806 0.0032017
0.29678 0.011165 1.0537 7.3757e-39 436.5 255 0 0 0 0.0011943 -0.93174 -0.36311 0.0041327
0.33779 0.011155 1.0528 5.4395e-39 191 256 0 0 0 0.018654 -0.92706 -0.37446 0.0037104
0.36612 0.011155 1.0528 5.4395e-39 205 256 0 0 0 -0.27249 -0.89025 -0.36498 0.0042886
0.26781 0.013631 1.0537 5.9005e-39 398 256 0 0 0 -0.77087 -0.56365 -0.29673 0.048554
0.26758 0.014851 1.0528 8.021e-39 247 257 0 0 0 -0.78853 -0.53492 -0.30344 0.049154
0.26658 0.018562 1.0537 6.7303e-39 382 258 0 0 0 -0.8544 -0.42639 -0.29698 0.038673
0.26758 0.023473 1.0528 5.9927e-39 390 260 0 0 0 -0.8996 -0.31665 -0.30075 0.02986
0.26708 0.025332 1.0533 6.3615e-39 300 261 0 0 0 -0.92191 -0.25952 -0.28762 0.022417
0.26658 0.027192 1.0537 5.2552e-39 466 261 0 0 0 -0.94436 -0.18946 -0.26888 0.01384
0.26635 0.029016 1.0528 5.9006e-39 326 262 0 0 0 -0.95394 -0.15064 -0.25943 0.010637
0.26535 0.03089 1.0537 6.8225e-39 419 262 0 0 0 -0.96687 -0.091211 -0.2384 0.007056
0.26524 0.032725 1.0533 5.4395e-39 355.5 262.5 0 0 0 -0.97245 -0.066937 -0.22328 0.0066818
0.26478 0.03539 1.0531 6.6688e-39 329.33 263 0 0 0 -0.9729 -0.040224 -0.22769 0.0074563
0.26461 0.037038 1.0533 6.5459e-39 395.5 263 0 0 0 -0.97123 -0.035529 -0.23547 0.0073212
0.26411 0.038287 1.0537 5.7161e-39 452 263 0 0 0 -0.96929 -0.038657 -0.24287 0.0069398
0.26535 0.041985 1.0537 6.0849e-39 393 264 0 0 0 -0.967 -0.04183 -0.25132 0.0075746
0.26535 0.043218 1.0537 5.0708e-39 182 265 0 0 0 -0.96718 -0.039675 -0.25097 0.0076787
0.26635 0.043181 1.0528 5.9005e-39 223 265 0 0 0 -0.96836 -0.040808 -0.24619 0.007987
0.26647 0.045048 1.0533 5.5318e-39 432.5 265 0 0 0 -0.96929 -0.042054 -0.2423 0.0076866
0.26658 0.055546 1.0537 5.8083e-39 440 269 0 0 0 -0.97709 -0.039615 -0.20909 0.0092031
0.26512 0.056731 1.0528 5.4395e-39 289 270 0 0 0 -0.97795 -0.03902 -0.20517 0.009212
0.26389 0.059194 1.0528 5.4395e-39 280 271 0 0 0 -0.9807 -0.025374 -0.19384 0.0097767
0.26411 0.058012 1.0537 5.0708e-39 429 270 0 0 0 -0.97821 -0.025452 -0.20604 0.0096754
0.26338 0.061068 1.0533 5.5779e-39 351.5 271.5 0 0 0 -0.98278 -0.016101 -0.18407 0.0097417
0.26266 0.06289 1.0528 5.0708e-39 425 272 0 0 0 -0.985 -0.006435 -0.17241 0.0098773
0.26512 0.072744 1.0528 4.702e-39 456 276 0 0 0 -0.98913 0.020727 -0.14558 0.0058117
0.26535 0.086367 1.0537 5.163e-39 192 282 0 0 0 -0.9836 0.00082528 -0.18035 0.0049039
0.26411 0.090682 1.0537 6.085e-39 395.5 283 0 0 0 -0.98196 -0.0035695 -0.18904 0.0044136
0.26389 0.092452 1.0528 6.1771e-39 283 284 0 0 0 -0.97889 0.0011584 -0.20436 0.0049207
0.26411 0.093764 1.0537 5.8083e-39 422 284 0 0 0 -0.97925 0.0052457 -0.20259 0.0049155
0.26411 0.094996 1.0537 7.0069e-39 233 285 0 0 0 -0.97856 0.0096928 -0.20575 0.0051514
0.26411 0.096846 1.0537 6.9147e-39 434 285 0 0 0 -0.97547 0.016429 -0.21951 0.0059541
0.26411 0.11349 1.0537 5.9927e-39 442 290 0 0 0 -0.92818 0.10332 -0.35749 0.030567
0.26411 0.11534 1.0537 6.1311e-39 268.5 291 0 0 0 -0.92258 0.11448 -0.36844 0.033917
0.26389 0.11709 1.0528 5.5317e-39 443 291 0 0 0 -0.90336 0.13031 -0.4086 0.035671
0.38091 0.11709 1.0528 5.8083e-39 188 292 0 0 0 0.19095 0.46502 -0.86446 0.019714
0.37536 0.11893 1.0528 5.8544e-39 362.5 292 0 0 0 0.18557 0.46197 -0.86726 0.013493
0.37737 0.11898 1.0533 5.9466e-39 364 292 0 0 0 0.19249 0.46898 -0.86198 0.015026
0.37914 0.11896 1.053 5.647e-39 365.5 292 0 0 0 0.19974 0.47319 -0.85802 0.016391
0.38107 0.11898 1.0533 5.5779e-39 367 292 0 0 0 0.19978 0.48024 -0.85408 0.018871
0.26389 0.12078 1.0528 5.5317e-39 437 292 0 0 0 -0.87693 0.158 -0.45391 0.040793
0.26512 0.12078 1.0528 5.9005e-39 438 292 0 0 0 -0.85833 0.17024 -0.48403 0.045365
0.37475 0.12078 1.0528 5.5317e-39 183 293 0 0 0 0.18689 0.4688 -0.86331 0.012867
0.37692 0.12089 1.0537 5.7161e-39 185 293 0 0 0 0.19521 0.48092 -0.85476 0.014592
0.37922 0.12083 1.0533 6.4998e-39 187.5 293 0 0 0 0.20378 0.4848 -0.85055 0.01629
0.38091 0.12078 1.0528 6.2693e-39 189 293 0 0 0 0.20257 0.48994 -0.84789 0.01844
0.26389 0.12325 1.0528 6.2693e-39 304 293 0 0 0 -0.85946 0.19139 -0.47402 0.042795
0.26478 0.12246 1.0531 6.0542e-39 232.67 293 0 0 0 -0.85884 0.18819 -0.47643 0.043829
0.37321 0.12287 1.0531 5.4395e-39 376 293 0 0 0 0.18125 0.48372 -0.85625 0.011957
0.37527 0.12246 1.0531 5.7469e-39 337 293 0 0 0 0.19312 0.48361 -0.85371 0.013005
0.37753 0.12274 1.0537 5.8544e-39 359 293 0 0 0 0.20096 0.49418 -0.84581 0.014845
0.37906 0.12249 1.0534 6.0235e-39 340 293 0 0 0 0.20656 0.49733 -0.84261 0.016619
0.26486 0.12496 1.0534 5.5932e-39 344.33 293.33 0 0 0 -0.84028 0.22571 -0.49293 0.050862
0.35381 0.12571 1.0528 7.6522e-39 256 294 0 0 0 0.12187 0.46141 -0.87878 0.003137
0.35997 0.12571 1.0528 7.3757e-39 261 294 0 0 0 0.14039 0.463 -0.87517 0.0032942
0.3612 0.12571 1.0528 7.2835e-39 262 294 0 0 0 0.14484 0.4657 -0.87301 0.0036243
0.3652 0.12582 1.0537 7.0991e-39 265 294 0 0 0 0.15167 0.48525 -0.86112 0.0063126
0.36705 0.12582 1.0537 7.0991e-39 266.5 294 0 0 0 0.15381 0.49148 -0.8572 0.0082405
0.36859 0.12448 1.0528 6.7303e-39 167 294 0 0 0 0.15705 0.48187 -0.86206 0.0093694
0.37075 0.12458 1.0537 6.2232e-39 168.5 294 0 0 0 0.16679 0.49011 -0.85555 0.010412
0.3763 0.12458 1.0537 5.6239e-39 173 294 0 0 0 0.1991 0.50014 -0.84275 0.01363
0.35134 0.12694 1.0528 7.6522e-39 374 294 0 0 0 0.11625 0.47271 -0.87352 0.0027526
0.35258 0.12694 1.0528 8.021e-39 375 294 0 0 0 0.11925 0.46908 -0.87507 0.0029665
0.35458 0.12699 1.0533 8.6664e-39 376.5 294 0 0 0 0.1224 0.4712 -0.87349 0.0027693
0.35873 0.12694 1.0528 7.7444e-39 380 294 0 0 0 0.13235 0.46906 -0.87319 0.0031329
0.36089 0.12705 1.0537 7.3757e-39 381.5 294 0 0 0 0.14653 0.4743 -0.86808 0.0034491
0.3632 0.12699 1.0533 6.4076e-39 383.5 294 0 0 0 0.1515 0.48195 -0.86301 0.0047583
0.26635 0.12878 1.0528 6.3615e-39 452.5 294 0 0 0 -0.71601 0.2954 -0.63251 0.064321
0.34087 0.1294 1.0528 5.2091e-39 208.5 295 0 0 0 0.12731 0.48876 -0.86308 0.0021907
0.34395 0.1294 1.0528 5.6239e-39 211 295 0 0 0 0.11949 0.48729 -0.86503 0.0024432
0.34518 0.1294 1.0528 5.5317e-39 212 295 0 0 0 0.11744 0.48605 -0.86601 0.0025232
0.34718 0.12885 1.0533 5.7853e-39 346 294.5 0 0 0 0.11713 0.48265 -0.86794 0.002581
0.34903 0.12885 1.0533 5.6701e-39 347.5 294.5 0 0 0 0.1142 0.48503 -0.86701 0.0025413
0.35072 0.12866 1.0534 5.839e-39 393 294.33 0 0 0 0.11487 0.48191 -0.86866 0.0026117
0.35288 0.12828 1.0537 5.7161e-39 483 294 0 0 0 0.11847 0.47849 -0.87006 0.0027391
0.35534 0.12828 1.0537 5.7161e-39 485 294 0 0 0 0.12108 0.47552 -0.87133 0.0027144
0.35704 0.12885 1.0533 5.6009e-39 354 294.5 0 0 0 0.12392 0.47882 -0.86912 0.0028521
0.35904 0.1289 1.0537 5.7162e-39 355.5 294.5 0 0 0 0.13341 0.482 -0.86596 0.0033654
0.36274 0.1289 1.0537 5.3473e-39 358.5 294.5 0 0 0 0.15451 0.4836 -0.86155 0.0043587
0.26708 0.13131 1.0533 7.5601e-39 297.5 295 0 0 0 -0.6881 0.32765 -0.64743 0.069098
0.33287 0.13187 1.0528 6.0849e-39 399 295 0 0 0 0.13265 0.49714 -0.85747 0.0021181
0.335 0.13198 1.0537 6.3154e-39 400.5 295 0 0 0 0.13624 0.49673 -0.85715 0.0020602
0.33718 0.13187 1.0528 6.1771e-39 402.5 295 0 0 0 0.13675 0.49517 -0.85797 0.0020281
0.33931 0.13075 1.0537 6.4537e-39 300 295 0 0 0 0.13007 0.49306 -0.86022 0.0021482
0.34117 0.13075 1.0537 6.0388e-39 301.5 295 0 0 0 0.12645 0.49283 -0.86089 0.0023241
0.34301 0.13137 1.0537 5.9005e-39 355 295 0 0 0 0.12286 0.4916 -0.86211 0.002421
0.34486 0.13075 1.0537 6.6381e-39 304.5 295 0 0 0 0.11552 0.48964 -0.86424 0.0025782
0.35719 0.13075 1.0537 7.2835e-39 337.5 295 0 0 0 0.12374 0.48194 -0.86742 0.0029995
0.26781 0.13321 1.0537 5.4395e-39 441 295 0 0 0 -0.64854 0.35599 -0.67281 0.072576
0.32732 0.1331 1.0528 6.2232e-39 480.5 295 0 0 0 0.12636 0.50475 -0.85397 0.0024176
0.33164 0.1331 1.0528 5.7161e-39 484 295 0 0 0 0.13146 0.50377 -0.85377 0.0021622
0.33315 0.13321 1.0537 5.7161e-39 485 295 0 0 0 0.13181 0.50201 -0.85476 0.0021916
0.335 0.13321 1.0537 6.0849e-39 486.5 295 0 0 0 0.13591 0.49818 -0.85636 0.0021132
0.33685 0.13321 1.0537 6.5459e-39 488 295 0 0 0 0.13778 0.49721 -0.85662 0.002116
0.33808 0.13321 1.0537 6.2693e-39 489 295 0 0 0 0.1349 0.49677 -0.85733 0.0022327
0.26893 0.135 1.0533 6.3154e-39 201 296 0 0 0 -0.53094 0.36397 -0.76526 0.055007
0.32301 0.13556 1.0528 6.9147e-39 272 296 0 0 0 0.12704 0.50821 -0.85181 0.0029468
0.32525 0.13523 1.0534 6.3308e-39 247.67 296 0 0 0 0.12799 0.51105 -0.84997 0.0026659
0.32699 0.13507 1.0537 6.3154e-39 236 296 0 0 0 0.1278 0.51175 -0.84957 0.0025177
0.32884 0.13507 1.0537 6.7533e-39 237.5 296 0 0 0 0.13099 0.51198 -0.84895 0.0024406
0.33123 0.13504 1.0535 6.4306e-39 239.5 296 0 0 0 0.12954 0.50681 -0.85227 0.0023994
0.33315 0.13445 1.0537 5.0708e-39 202 296 0 0 0 0.13177 0.50459 -0.85325 0.0022532
0.33808 0.13445 1.0537 5.3473e-39 206 296 0 0 0 0.13484 0.49628 -0.85763 0.0023438
0.26904 0.13691 1.0537 7.0991e-39 336 296 0 0 0 -0.52897 0.38312 -0.75724 0.054241
0.30946 0.1368 1.0528 8.1132e-39 351 296 0 0 0 0.081493 0.49747 -0.86364 0.0052805
0.31316 0.1368 1.0528 8.482e-39 354 296 0 0 0 0.10775 0.49478 -0.86231 0.0044303
0.31439 0.1368 1.0528 8.8508e-39 355 296 0 0 0 0.11861 0.4953 -0.86059 0.0041525
0.31685 0.1368 1.0528 7.7444e-39 357 296 0 0 0 0.1266 0.49884 -0.8574 0.0037934
0.3187 0.1368 1.0528 6.9147e-39 358.5 296 0 0 0 0.12518 0.5037 -0.85476 0.0033824
0.32178 0.1368 1.0528 6.4537e-39 361 296 0 0 0 0.12622 0.51215 -0.84957 0.0030958
0.32329 0.13691 1.0537 5.9927e-39 362 296 0 0 0 0.12946 0.51758 -0.84579 0.002935
0.32452 0.13691 1.0537 6.6381e-39 363 296 0 0 0 0.1292 0.51929 -0.84477 0.0028644
0.27005 0.13864 1.0528 6.0849e-39 432 296 0 0 0 -0.49221 0.40391 -0.7711 0.052297
0.2799 0.13926 1.0528 5.9927e-39 471 296 0 0 0 -0.18108 0.45876 -0.86991 0.04003
0.30898 0.13808 1.0533 5.1169e-39 414 296 0 0 0 0.078205 0.50444 -0.8599 0.0055492
0.3112 0.13848 1.0531 5.3781e-39 435.33 296 0 0 0 0.098967 0.50428 -0.85785 0.0050518
0.31281 0.13876 1.0537 5.67e-39 446 296 0 0 0 0.11194 0.5111 -0.8522 0.0043639
0.31589 0.13876 1.0537 6.3615e-39 448.5 296 0 0 0 0.12917 0.51094 -0.84985 0.0039505
0.31712 0.13876 1.0537 6.3154e-39 449.5 296 0 0 0 0.13178 0.51245 -0.84855 0.0038361
0.31898 0.13814 1.0537 5.7161e-39 422.5 296 0 0 0 0.12872 0.51059 -0.85014 0.0034472
0.32068 0.1387 1.0533 5.9466e-39 452.5 296 0 0 0 0.13071 0.51851 -0.84502 0.0032477
0.32247 0.13855 1.0537 5.6854e-39 444.33 296 0 0 0 0.13017 0.52179 -0.84309 0.003148
0.27102 0.14098 1.0534 5.9927e-39 379.67 296.33 0 0 0 -0.46307 0.40988 -0.78585 0.052534
0.27312 0.14172 1.0528 5.8083e-39 151.5 297 0 0 0 -0.41047 0.42074 -0.809 0.045575
0.27497 0.14172 1.0528 5.8083e-39 153 297 0 0 0 -0.35463 0.42654 -0.83205 0.048241
0.27621 0.14172 1.0528 5.4395e-39 154 297 0 0 0 -0.32295 0.43408 -0.841 0.048948
0.27051 0.0099406 1.0546 4.7942e-39 274 255 0 0 0 -0.59805 -0.73655 -0.31595 0.059457
0.27321 0.0099491 1.0555 4.8864e-39 278 255 0 0 0 -0.47536 -0.81319 -0.33579 0.061567
0.27506 0.0099491 1.0555 4.7481e-39 279.5 255 0 0 0 -0.39067 -0.85719 -0.33555 0.060324
0.27668 0.0099406 1.0546 5.0708e-39 281 255 0 0 0 -0.31491 -0.8871 -0.33746 0.052946
0.28111 0.0099449 1.0551 5.3012e-39 284.5 255 0 0 0 -0.15312 -0.9323 -0.32767 0.028235
0.28309 0.0099491 1.0555 4.9786e-39 286 255 0 0 0 -0.083531 -0.94433 -0.31822 0.014579
0.28432 0.0099491 1.0555 4.9786e-39 287 255 0 0 0 -0.049232 -0.94729 -0.31656 0.0084718
0.29914 0.0099491 1.0555 6.7303e-39 299 255 0 0 0 -0.022535 -0.93233 -0.36091 0.0030999
0.30038 0.0099491 1.0555 8.2054e-39 300 255 0 0 0 -0.027852 -0.92946 -0.36786 0.0029498
0.30321 0.0099406 1.0546 5.8083e-39 340.5 255 0 0 0 -0.030119 -0.92141 -0.38741 0.0031786
0.30532 0.0099491 1.0555 6.4537e-39 342 255 0 0 0 -0.042435 -0.92034 -0.3888 0.0026111
0.30655 0.0099491 1.0555 7.1913e-39 343 255 0 0 0 -0.041971 -0.91878 -0.39254 0.0026703
0.30937 0.0099406 1.0546 8.2054e-39 345.5 255 0 0 0 -0.041207 -0.91221 -0.40764 0.0029728
0.31273 0.0087142 1.0555 5.6239e-39 463 254 0 0 0 -0.047606 -0.91399 -0.40294 0.0024035
0.31493 0.0099406 1.0546 8.021e-39 350 255 0 0 0 -0.047406 -0.91035 -0.41111 0.0025427
0.3174 0.0099406 1.0546 7.7444e-39 352 255 0 0 0 -0.047399 -0.91103 -0.4096 0.0023014
0.31925 0.0099406 1.0546 7.8366e-39 353.5 255 0 0 0 -0.046499 -0.91061 -0.41065 0.0020923
0.3211 0.0099406 1.0546 8.2054e-39 355 255 0 0 0 -0.049174 -0.91123 -0.40895 0.0021101
0.32322 0.0087142 1.0555 5.1169e-39 194.5 255 0 0 0 -0.047084 -0.91428 -0.40233 0.0018584
0.32631 0.0087142 1.0555 4.8864e-39 197 255 0 0 0 -0.041908 -0.91586 -0.39931 0.0015469
0.3285 0.0099406 1.0546 7.7444e-39 365 255 0 0 0 -0.036349 -0.91487 -0.40211 0.0014167
0.33743 0.0099491 1.0555 6.1771e-39 372 255 0 0 0 0.043223 -0.92302 -0.38231 0.0040698
0.36737 0.0099406 1.0546 6.1771e-39 385.5 255 0 0 0 -0.26784 -0.89559 -0.35521 0.0033091
0.37045 0.0087068 1.0546 7.2835e-39 244 255 0 0 0 -0.27372 -0.89524 -0.35159 0.0033707
0.28778 0.011174 1.0546 7.4678e-39 423 255 0 0 0 0.014315 -0.94588 -0.32419 0.0025485
0.29482 0.011184 1.0555 7.3757e-39 428.5 255 0 0 0 -0.00060293 -0.93946 -0.34265 0.0033087
0.36336 0.011184 1.0555 4.8864e-39 202 256 0 0 0 -0.24191 -0.90125 -0.35947 0.0039029
0.3649 0.011174 1.0546 5.0247e-39 203.5 256 0 0 0 -0.25503 -0.89835 -0.35766 0.0035193
0.26703 0.013654 1.0555 5.7161e-39 397 256 0 0 0 -0.77952 -0.55404 -0.29221 0.046486
0.26804 0.012408 1.0546 5.0708e-39 264 256 0 0 0 -0.73312 -0.61118 -0.29833 0.053474
0.36119 0.012408 1.0546 7.8827e-39 365.5 256 0 0 0 -0.25311 -0.89581 -0.36532 0.0043016
0.26703 0.014889 1.0555 8.1132e-39 246 257 0 0 0 -0.79446 -0.53095 -0.29485 0.046207
0.26681 0.016727 1.0546 6.5459e-39 313.5 257.5 0 0 0 -0.83337 -0.46732 -0.29514 0.039762
0.26681 0.019812 1.0546 7.9288e-39 240 259 0 0 0 -0.86596 -0.40521 -0.29312 0.036512
0.26681 0.021045 1.0546 6.5459e-39 385 259 0 0 0 -0.88103 -0.36872 -0.29637 0.032303
0.26681 0.022896 1.0546 7.0991e-39 318.5 260 0 0 0 -0.90075 -0.32388 -0.28941 0.027369
0.26681 0.024747 1.0546 5.3473e-39 234 261 0 0 0 -0.92069 -0.26787 -0.28385 0.020484
0.2658 0.027238 1.0555 5.0708e-39 465 261 0 0 0 -0.94913 -0.17735 -0.26021 0.012041
0.26557 0.029066 1.0546 5.7622e-39 325 262 0 0 0 -0.96021 -0.12651 -0.24898 0.0090321
0.26456 0.030943 1.0555 6.6381e-39 418 262 0 0 0 -0.96976 -0.080637 -0.23036 0.0060935
0.26333 0.033413 1.0555 5.163e-39 235 263 0 0 0 -0.96994 -0.058424 -0.23621 0.0063958
0.26434 0.032767 1.0546 5.2091e-39 354.5 262.5 0 0 0 -0.97182 -0.065536 -0.22644 0.0066021
0.26333 0.035265 1.0555 6.4998e-39 315 263 0 0 0 -0.96792 -0.04632 -0.24695 0.0069212
0.26434 0.034618 1.0546 4.9786e-39 278 263 0 0 0 -0.97188 -0.047327 -0.23067 0.0069408
0.26333 0.037117 1.0555 6.5459e-39 394 263 0 0 0 -0.96595 -0.041491 -0.25537 0.0069316
0.26333 0.038352 1.0555 6.0849e-39 451 263 0 0 0 -0.96603 -0.041099 -0.25515 0.0070301
0.26512 0.045135 1.0553 5.9697e-39 430.75 265 0 0 0 -0.96655 -0.037439 -0.25375 0.00739
0.2658 0.046997 1.0555 7.8366e-39 355 266 0 0 0 -0.96708 -0.039907 -0.25134 0.007203
0.26681 0.046957 1.0546 8.482e-39 356 266 0 0 0 -0.96917 -0.040536 -0.24304 0.0078269
0.26703 0.04885 1.0555 6.592e-39 414.5 266.5 0 0 0 -0.96807 -0.043424 -0.2469 0.007673
0.26703 0.050702 1.0555 5.3473e-39 461 267 0 0 0 -0.96965 -0.048786 -0.23956 0.0077681
0.26703 0.053171 1.0555 4.8864e-39 447 268 0 0 0 -0.97086 -0.043383 -0.23568 0.0084147
0.26531 0.055214 1.0552 5.6239e-39 391.33 269 0 0 0 -0.97355 -0.03492 -0.22581 0.0086977
0.26681 0.05436 1.0546 4.9786e-39 298 269 0 0 0 -0.97425 -0.040629 -0.22176 0.0086073
0.26333 0.056876 1.0555 5.3473e-39 287 270 0 0 0 -0.97496 -0.023796 -0.22111 0.0092206
0.26434 0.056828 1.0546 5.5317e-39 288 270 0 0 0 -0.97546 -0.027771 -0.21842 0.0092956
0.2631 0.058678 1.0546 5.4396e-39 353.5 270.5 0 0 0 -0.97842 -0.020219 -0.20561 0.009581
0.26259 0.061173 1.0551 5.8544e-39 350.5 271.5 0 0 0 -0.97966 -0.006434 -0.20058 0.0094547
0.26187 0.062997 1.0546 5.163e-39 424 272 0 0 0 -0.98316 0.0056723 -0.18265 0.0097936
0.26187 0.064848 1.0546 5.163e-39 363.5 273 0 0 0 -0.98479 0.01548 -0.17304 0.0094954
0.26187 0.066699 1.0546 6.2693e-39 302 274 0 0 0 -0.98436 0.029239 -0.17371 0.0093554
0.26209 0.06799 1.0555 5.0708e-39 445 274 0 0 0 -0.983 0.033884 -0.18047 0.0082549
0.2631 0.0704 1.0546 5.163e-39 452 275 0 0 0 -0.98589 0.031404 -0.1644 0.0072023
0.26434 0.071634 1.0546 6.9147e-39 334 276 0 0 0 -0.98745 0.025618 -0.15583 0.0064216
0.26569 0.074751 1.0551 6.085e-39 373.5 277 0 0 0 -0.98717 0.025737 -0.15757 0.0053829
0.2658 0.077252 1.0555 5.163e-39 359.5 278 0 0 0 -0.98628 0.025359 -0.16315 0.0053008
0.2658 0.079105 1.0555 7.1913e-39 272 279 0 0 0 -0.98607 0.023151 -0.16471 0.0053512
0.2658 0.080958 1.0555 5.8544e-39 331.5 279.5 0 0 0 -0.98566 0.017764 -0.16779 0.0056238
0.2658 0.08281 1.0555 7.4678e-39 396 280 0 0 0 -0.98512 0.0073604 -0.17168 0.0055631
0.26569 0.084625 1.0551 6.6381e-39 308 281 0 0 0 -0.98442 0.00029598 -0.17584 0.0051119
0.26456 0.087749 1.0555 7.0991e-39 354 282 0 0 0 -0.98214 -0.0065855 -0.18805 0.0044442
0.26434 0.088908 1.0546 5.4395e-39 159 283 0 0 0 -0.98209 -0.0026691 -0.18839 0.0044608
0.26434 0.098779 1.0546 7.56e-39 280 286 0 0 0 -0.97597 0.024836 -0.21648 0.0067044
0.26434 0.10063 1.0546 5.67e-39 296.5 286.5 0 0 0 -0.97339 0.031789 -0.22693 0.0079353
0.26445 0.10314 1.0551 6.131e-39 397 287 0 0 0 -0.96908 0.054444 -0.24066 0.010255
0.26456 0.10504 1.0555 6.8225e-39 245 288 0 0 0 -0.96637 0.064494 -0.24893 0.011681
0.26456 0.10627 1.0555 6.5459e-39 394 288 0 0 0 -0.96335 0.067439 -0.25963 0.014652
0.26456 0.10998 1.0555 5.8083e-39 433 289 0 0 0 -0.96011 0.078345 -0.26844 0.018736
0.26456 0.11121 1.0555 5.4395e-39 195 290 0 0 0 -0.95393 0.087151 -0.28708 0.022118
0.26434 0.11235 1.0546 7.0991e-39 337 290 0 0 0 -0.94138 0.098311 -0.3227 0.025162
0.26434 0.12592 1.0546 5.4395e-39 179 294 0 0 0 -0.87116 0.23013 -0.43373 0.047352
0.36922 0.12592 1.0546 7.3757e-39 268 294 0 0 0 0.16361 0.49632 -0.85258 0.0089148
0.37045 0.12592 1.0546 7.3757e-39 269 294 0 0 0 0.16893 0.49834 -0.85036 0.0094837
0.37292 0.12469 1.0546 6.0849e-39 170 294 0 0 0 0.18658 0.49374 -0.84936 0.011645
0.37477 0.12469 1.0546 5.9466e-39 171.5 294 0 0 0 0.19897 0.50019 -0.84275 0.012869
0.37785 0.12469 1.0546 5.6239e-39 174 294 0 0 0 0.20862 0.51068 -0.83408 0.014991
0.37941 0.1248 1.0555 5.9005e-39 175 294 0 0 0 0.20922 0.51668 -0.83022 0.016733
0.26507 0.12721 1.0551 8.021e-39 279.5 294 0 0 0 -0.85822 0.25794 -0.44377 0.052746
0.36552 0.12716 1.0546 6.0849e-39 385 294 0 0 0 0.15863 0.49107 -0.85655 0.0058807
0.36675 0.12716 1.0546 5.8083e-39 386 294 0 0 0 0.16143 0.49534 -0.85357 0.0069929
0.36891 0.12727 1.0555 5.9005e-39 387.5 294 0 0 0 0.17048 0.50159 -0.84814 0.0082912
0.37262 0.12603 1.0555 7.4218e-39 270.5 294 0 0 0 0.18632 0.50583 -0.84227 0.011287
0.37694 0.12603 1.0555 5.9927e-39 274 294 0 0 0 0.21246 0.51529 -0.83026 0.01428
0.2658 0.12912 1.0555 5.8083e-39 451.5 294 0 0 0 -0.79961 0.2915 -0.52503 0.064035
0.35194 0.12963 1.0546 5.9005e-39 217 295 0 0 0 0.11517 0.48415 -0.86737 0.0027286
0.35318 0.12963 1.0546 5.7161e-39 218 295 0 0 0 0.11735 0.48182 -0.86838 0.0027721
0.35492 0.12925 1.0549 5.6239e-39 307.67 294.67 0 0 0 0.1181 0.48121 -0.86861 0.0026811
0.36119 0.12901 1.0546 5.5318e-39 357 294.5 0 0 0 0.15425 0.48478 -0.86093 0.004121
0.3648 0.12884 1.0549 5.4395e-39 404 294.33 0 0 0 0.16296 0.49246 -0.85494 0.0057273
0.36706 0.1285 1.0555 5.9927e-39 494 294 0 0 0 0.16975 0.49749 -0.8507 0.0064788
0.3683 0.1285 1.0555 5.9005e-39 495 294 0 0 0 0.16948 0.50137 -0.84847 0.0072122
0.2658 0.13097 1.0555 6.5459e-39 238 295 0 0 0 -0.77834 0.32129 -0.53941 0.064063
0.34701 0.13086 1.0546 7.3757e-39 306 295 0 0 0 0.11466 0.48814 -0.8652 0.0027069
0.34886 0.13086 1.0546 7.8827e-39 307.5 295 0 0 0 0.11274 0.48577 -0.86679 0.0027072
0.35133 0.13086 1.0546 6.4537e-39 309.5 295 0 0 0 0.11239 0.4852 -0.86715 0.00276
0.35318 0.13086 1.0546 8.2054e-39 334 295 0 0 0 0.11356 0.48386 -0.86775 0.0027417
0.35518 0.13092 1.0551 7.6522e-39 335.5 295 0 0 0 0.1176 0.4832 -0.86757 0.0027486
0.35935 0.13086 1.0546 7.56e-39 339 295 0 0 0 0.13409 0.48655 -0.8633 0.0036206
0.36058 0.13086 1.0546 7.9288e-39 340 295 0 0 0 0.14369 0.48907 -0.86033 0.0041254
0.36259 0.13092 1.0551 8.482e-39 341.5 295 0 0 0 0.15807 0.49039 -0.85705 0.0050314
0.36459 0.13097 1.0555 8.3898e-39 343 295 0 0 0 0.16763 0.49584 -0.85208 0.0056479
0.2658 0.13221 1.0555 8.2976e-39 354 295 0 0 0 -0.77114 0.32991 -0.54452 0.065038
0.26681 0.13271 1.0546 7.1913e-39 397.5 295 0 0 0 -0.72549 0.34485 -0.5956 0.073115
0.3396 0.13271 1.0546 5.9005e-39 447 295 0 0 0 0.13051 0.49353 -0.85988 0.002402
0.34084 0.13271 1.0546 5.7161e-39 448 295 0 0 0 0.12795 0.49428 -0.85984 0.0025062
0.34248 0.13292 1.0546 5.7468e-39 463.67 295 0 0 0 0.1242 0.49286 -0.8612 0.0026562
0.34516 0.13271 1.0546 5.8544e-39 451.5 295 0 0 0 0.11474 0.48981 -0.86424 0.0028036
0.3473 0.13283 1.0555 5.5778e-39 453 295 0 0 0 0.11378 0.48481 -0.86719 0.0028461
0.34908 0.1328 1.0553 5.3473e-39 454.5 295 0 0 0 0.11179 0.48755 -0.86591 0.0028157
0.35086 0.13276 1.0551 5.3012e-39 456 295 0 0 0 0.11124 0.48732 -0.86611 0.0029023
0.35286 0.13283 1.0555 5.2321e-39 457.5 295 0 0 0 0.11096 0.48614 -0.86681 0.0028981
0.35579 0.13276 1.0551 4.6559e-39 460 295 0 0 0 0.11805 0.48428 -0.86691 0.0031289
0.35688 0.13271 1.0546 5.0708e-39 461 295 0 0 0 0.12229 0.48539 -0.8657 0.0033078
0.35881 0.13274 1.0548 5.9697e-39 462.5 295 0 0 0 0.12907 0.49068 -0.86173 0.0039282
0.36089 0.13283 1.0555 6.2693e-39 464 295 0 0 0 0.14713 0.49689 -0.85525 0.004784
0.36295 0.13262 1.0555 5.6546e-39 451.33 295 0 0 0 0.16562 0.50012 -0.84997 0.0058116
0.36459 0.13221 1.0555 5.9005e-39 424 295 0 0 0 0.16946 0.50232 -0.84791 0.0060844
0.26703 0.1353 1.0555 5.8544e-39 199 296 0 0 0 -0.70563 0.38344 -0.59587 0.077996
0.26804 0.13518 1.0546 6.0388e-39 200 296 0 0 0 -0.65578 0.38648 -0.64853 0.079952
0.33344 0.1358 1.0546 7.4678e-39 280 296 0 0 0 0.12964 0.50519 -0.85321 0.0024455
0.33518 0.13501 1.0549 6.2078e-39 229.33 296 0 0 0 0.13505 0.50189 -0.85432 0.0022864
0.33682 0.13542 1.0549 6.6688e-39 256.67 296 0 0 0 0.13894 0.49969 -0.85499 0.0023027
0.33938 0.13546 1.0552 7.0068e-39 258.67 296 0 0 0 0.13062 0.494 -0.8596 0.0028423
0.34113 0.1353 1.0555 6.7303e-39 247 296 0 0 0 0.12507 0.49152 -0.86184 0.0028514
0.34298 0.1353 1.0555 6.3154e-39 248.5 296 0 0 0 0.12005 0.48824 -0.86441 0.0029963
0.34483 0.1353 1.0555 6.0849e-39 250 296 0 0 0 0.1142 0.48407 -0.86754 0.0031905
0.34607 0.1353 1.0555 5.9005e-39 251 296 0 0 0 0.1123 0.48133 -0.86932 0.0030415
0.34977 0.1353 1.0555 5.5779e-39 254 296 0 0 0 0.10971 0.47888 -0.871 0.0029386
0.35101 0.1353 1.0555 5.7622e-39 255 296 0 0 0 0.10823 0.48101 -0.87001 0.0030843
0.35224 0.13468 1.0555 5.7161e-39 217 296 0 0 0 0.10872 0.48147 -0.86969 0.0029863
0.35718 0.13468 1.0555 5.163e-39 221 296 0 0 0 0.12139 0.48329 -0.867 0.0039
0.35842 0.13468 1.0555 4.9786e-39 222 296 0 0 0 0.1311 0.49201 -0.86066 0.0045022
0.26703 0.13715 1.0555 7.9288e-39 334 296 0 0 0 -0.68098 0.40624 -0.60929 0.076462
0.26804 0.13703 1.0546 7.4678e-39 335 296 0 0 0 -0.57325 0.38691 -0.72228 0.062466
0.32665 0.13703 1.0546 7.1913e-39 364.5 296 0 0 0 0.1279 0.51918 -0.84504 0.0028084
0.32912 0.13703 1.0546 8.1132e-39 366.5 296 0 0 0 0.12863 0.51705 -0.84624 0.002602
0.33097 0.13703 1.0546 8.482e-39 368 296 0 0 0 0.12842 0.51086 -0.85002 0.0025939
0.33282 0.13703 1.0546 8.2976e-39 369.5 296 0 0 0 0.12817 0.50913 -0.8511 0.0025181
0.33496 0.13715 1.0555 8.2976e-39 371 296 0 0 0 0.13254 0.5087 -0.85068 0.0025167
0.33681 0.13715 1.0555 8.3898e-39 372.5 296 0 0 0 0.13783 0.50184 -0.85391 0.0025466
0.33837 0.13703 1.0546 8.021e-39 374 296 0 0 0 0.13426 0.49682 -0.85741 0.0027542
0.34113 0.13715 1.0555 8.2976e-39 376 296 0 0 0 0.12539 0.4873 -0.86419 0.0031836
0.34298 0.13715 1.0555 8.2515e-39 377.5 296 0 0 0 0.11728 0.48275 -0.86787 0.0033568
0.34483 0.13715 1.0555 7.0069e-39 379 296 0 0 0 0.11118 0.47654 -0.87209 0.0034113
0.34607 0.13715 1.0555 6.2693e-39 380 296 0 0 0 0.10934 0.47491 -0.87322 0.0032004
0.26877 0.13894 1.0551 6.0158e-39 430 296 0 0 0 -0.54658 0.39011 -0.74099 0.055224
0.30999 0.1395 1.0546 6.0849e-39 472 296 0 0 0 0.090253 0.52935 -0.84359 0.0051384
0.31369 0.1395 1.0546 6.0849e-39 475 296 0 0 0 0.11784 0.51793 -0.84727 0.004541
0.31506 0.13894 1.0551 6.131e-39 447.5 296 0 0 0 0.12788 0.51517 -0.84749 0.0041524
0.31863 0.1395 1.0546 6.7303e-39 479 296 0 0 0 0.13374 0.52125 -0.84286 0.0035865
0.32014 0.13962 1.0555 6.3615e-39 480 296 0 0 0 0.13143 0.52693 -0.83969 0.0033327
0.32356 0.1395 1.0546 5.6239e-39 483 296 0 0 0 0.12952 0.52744 -0.83966 0.0031413
0.3248 0.13888 1.0546 5.6239e-39 455.5 296 0 0 0 0.13134 0.52755 -0.83931 0.0031189
0.32679 0.13894 1.0551 5.5548e-39 460 296 0 0 0 0.12778 0.52571 -0.84101 0.0029831
0.32912 0.13826 1.0546 5.8083e-39 437.5 296 0 0 0 0.12771 0.51818 -0.84568 0.0027913
0.33866 0.13838 1.0555 5.4395e-39 444 296 0 0 0 0.13477 0.4965 -0.85751 0.0030535
0.26877 0.14079 1.0551 5.8544e-39 492.5 296 0 0 0 -0.52309 0.40093 -0.75208 0.056131
0.27051 0.14196 1.0546 5.4395e-39 149 297 0 0 0 -0.47751 0.4224 -0.77043 0.053633
0.31321 0.14079 1.0551 4.7481e-39 502.5 296 0 0 0 0.11533 0.53948 -0.83406 0.0041023
0.31692 0.14079 1.0551 5.9005e-39 505.5 296 0 0 0 0.13365 0.53416 -0.83475 0.0038261
0.31863 0.14073 1.0546 6.9147e-39 507 296 0 0 0 0.13691 0.53348 -0.83466 0.0035301
0.3211 0.14134 1.0546 5.8083e-39 335.5 296.5 0 0 0 0.13154 0.5357 -0.8341 0.0031831
0.32283 0.14118 1.0549 5.6546e-39 153.33 297 0 0 0 0.1334 0.53564 -0.83385 0.0031763
0.2695 0.14209 1.0555 5.5317e-39 148 297 0 0 0 -0.52175 0.41203 -0.747 0.05206
0.31705 0.14209 1.0555 5.3934e-39 159.5 297 0 0 0 0.13047 0.55081 -0.82437 0.0034907
0.3189 0.14209 1.0555 5.4395e-39 161 297 0 0 0 0.13518 0.54903 -0.8248 0.0033624
0.32316 0.0074921 1.0573 7.8366e-39 368 254 0 0 0 -0.044849 -0.91829 -0.39336 0.0017728
0.32687 0.0074921 1.0573 6.5459e-39 371 254 0 0 0 -0.041397 -0.91736 -0.39589 0.0015476
0.26973 0.0099576 1.0564 4.9786e-39 273 255 0 0 0 -0.62354 -0.7159 -0.31413 0.062561
0.27244 0.0087291 1.0573 8.1132e-39 418 254 0 0 0 -0.49236 -0.80808 -0.3234 0.060284
0.27863 0.0087291 1.0573 7.56e-39 423 254 0 0 0 -0.1947 -0.92366 -0.33007 0.03498
0.28605 0.0099662 1.0573 5.3473e-39 288 255 0 0 0 -0.014071 -0.94746 -0.31956 0.0037778
0.28951 0.0099576 1.0564 5.4395e-39 291 255 0 0 0 0.017832 -0.94488 -0.32693 0.002292
0.29136 0.0099576 1.0564 5.5317e-39 292.5 255 0 0 0 0.012353 -0.94435 -0.3287 0.0024428
0.29322 0.0099576 1.0564 5.9005e-39 294 255 0 0 0 0.0020831 -0.94157 -0.33682 0.0027882
0.29718 0.0099662 1.0573 5.3473e-39 297 255 0 0 0 -0.023656 -0.93811 -0.34554 0.0026992
0.29816 0.0099576 1.0564 5.4395e-39 298 255 0 0 0 -0.021107 -0.93467 -0.35489 0.00285
0.30213 0.0087291 1.0573 5.2552e-39 454 254 0 0 0 -0.040156 -0.93079 -0.36334 0.0021452
0.30805 0.0099576 1.0564 8.1132e-39 344 255 0 0 0 -0.046059 -0.91811 -0.39365 0.0024691
0.31176 0.0087216 1.0564 5.6239e-39 462 254 0 0 0 -0.047164 -0.91775 -0.39434 0.0020913
0.31498 0.0087254 1.0568 5.5317e-39 464.5 254 0 0 0 -0.049582 -0.91633 -0.39734 0.0020321
0.3167 0.0087216 1.0564 5.6239e-39 466 254 0 0 0 -0.048968 -0.91578 -0.39868 0.0019669
0.31883 0.0087291 1.0573 5.9005e-39 467.5 254 0 0 0 -0.044378 -0.91666 -0.39719 0.0019444
0.32103 0.0087216 1.0564 5.1169e-39 192.5 255 0 0 0 -0.04553 -0.91588 -0.39887 0.0019094
0.32535 0.0087216 1.0564 4.7942e-39 196 255 0 0 0 -0.044561 -0.91665 -0.3972 0.0016336
0.32783 0.0087216 1.0564 5.0708e-39 198 255 0 0 0 -0.039723 -0.91652 -0.39801 0.0015457
0.32934 0.0087291 1.0573 5.3473e-39 199 255 0 0 0 -0.033233 -0.9166 -0.39843 0.0012826
0.33092 0.0087216 1.0564 5.209e-39 200.5 255 0 0 0 -0.031573 -0.91715 -0.3973 0.0013474
0.33277 0.0087216 1.0564 4.702e-39 202 255 0 0 0 -0.030886 -0.91726 -0.39708 0.0013903
0.33477 0.0087254 1.0568 5.0247e-39 203.5 255 0 0 0 -0.013052 -0.91964 -0.39255 0.0023048
0.33677 0.0087291 1.0573 5.4395e-39 205 255 0 0 0 0.032044 -0.92305 -0.38334 0.0036628
0.36522 0.0099662 1.0573 5.7161e-39 383 255 0 0 0 -0.24198 -0.90312 -0.35472 0.0034412
0.36691 0.0093434 1.0568 6.5919e-39 312.5 255 0 0 0 -0.25461 -0.90096 -0.35134 0.0031459
0.36939 0.0087254 1.0568 7.3296e-39 242.5 255 0 0 0 -0.26641 -0.89972 -0.34574 0.0028821
0.26749 0.011203 1.0573 5.9005e-39 406 255 0 0 0 -0.73724 -0.61065 -0.28911 0.048999
0.2685 0.011194 1.0564 6.2693e-39 407 255 0 0 0 -0.70748 -0.63851 -0.30295 0.053543
0.36274 0.011203 1.0573 5.163e-39 201 256 0 0 0 -0.23114 -0.9037 -0.36043 0.0040404
0.26726 0.01243 1.0564 5.2552e-39 263 256 0 0 0 -0.75746 -0.58298 -0.29391 0.048002
0.35996 0.01243 1.0564 7.1913e-39 364 256 0 0 0 -0.23441 -0.90233 -0.36174 0.0045101
0.26625 0.017388 1.0573 7.0991e-39 237 258 0 0 0 -0.84366 -0.45544 -0.28428 0.035456
0.26625 0.019244 1.0573 7.1913e-39 310 258.5 0 0 0 -0.86883 -0.40533 -0.28434 0.033391
0.26603 0.021081 1.0564 6.2693e-39 384 259 0 0 0 -0.88949 -0.36394 -0.27632 0.0284
0.26603 0.022935 1.0564 7.1913e-39 317.5 260 0 0 0 -0.90894 -0.31174 -0.27685 0.023842
0.26603 0.024789 1.0564 5.5317e-39 233 261 0 0 0 -0.92716 -0.25915 -0.27059 0.018919
0.26502 0.026666 1.0573 6.2693e-39 413.5 261 0 0 0 -0.94918 -0.18556 -0.25421 0.010576
0.26603 0.026025 1.0564 7.4678e-39 364 261 0 0 0 -0.93974 -0.21366 -0.2669 0.014263
0.26378 0.029759 1.0573 6.2693e-39 369 262 0 0 0 -0.9673 -0.092457 -0.23617 0.0057292
0.26479 0.029115 1.0564 5.5779e-39 324 262 0 0 0 -0.963 -0.11601 -0.24327 0.0072035
0.26305 0.030982 1.0568 6.3615e-39 416.5 262 0 0 0 -0.96813 -0.084175 -0.23588 0.0056379
0.26273 0.032617 1.0564 5.1937e-39 392.33 262.33 0 0 0 -0.96802 -0.066877 -0.24181 0.0061888
0.26232 0.035295 1.0564 6.7764e-39 314 263 0 0 0 -0.96588 -0.046322 -0.25483 0.0065587
0.26232 0.037149 1.0564 6.0849e-39 393 263 0 0 0 -0.96303 -0.041461 -0.26618 0.0066447
0.26232 0.039003 1.0564 6.0388e-39 336.5 263.5 0 0 0 -0.96155 -0.040314 -0.27164 0.0067192
0.26232 0.040857 1.0564 5.4395e-39 286 264 0 0 0 -0.96064 -0.035616 -0.27551 0.0066162
0.26288 0.042941 1.057 5.5624e-39 251 264.67 0 0 0 -0.96016 -0.032563 -0.27754 0.0065767
0.26367 0.045203 1.0568 6.2693e-39 429 265 0 0 0 -0.96176 -0.031643 -0.27206 0.0066047
0.26479 0.047037 1.0564 7.3757e-39 354 266 0 0 0 -0.96441 -0.035633 -0.26199 0.0071783
0.26502 0.048314 1.0573 5.4395e-39 470 266 0 0 0 -0.96498 -0.03671 -0.25975 0.0069022
0.26614 0.048912 1.0568 6.8685e-39 413.5 266.5 0 0 0 -0.96562 -0.039054 -0.25701 0.0071487
0.26675 0.051385 1.0568 5.4857e-39 394.5 267.5 0 0 0 -0.96638 -0.043485 -0.25341 0.0075589
0.26502 0.053262 1.0573 4.8864e-39 445 268 0 0 0 -0.9684 -0.036153 -0.24677 0.0080428
0.26625 0.052644 1.0573 6.1311e-39 376 268 0 0 0 -0.96772 -0.043608 -0.24824 0.0079249
0.26378 0.055737 1.0573 5.2552e-39 437 269 0 0 0 -0.97123 -0.024557 -0.23687 0.0088174
0.26479 0.054453 1.0564 5.5317e-39 296 269 0 0 0 -0.97131 -0.03703 -0.23492 0.0083606
0.26254 0.056974 1.0573 4.8864e-39 286 270 0 0 0 -0.97189 -0.020275 -0.23458 0.008997
0.26232 0.058779 1.0564 5.624e-39 352.5 270.5 0 0 0 -0.97528 -0.01113 -0.22068 0.0096876
0.26232 0.060633 1.0564 5.9005e-39 421 271 0 0 0 -0.97788 -0.004116 -0.20915 0.0093963
0.26232 0.069285 1.0564 5.8083e-39 331 275 0 0 0 -0.98278 0.037582 -0.18092 0.0072285
0.26305 0.071169 1.0568 5.624e-39 392 275.5 0 0 0 -0.98333 0.036441 -0.17813 0.0062216
0.26479 0.072993 1.0564 4.5176e-39 455 276 0 0 0 -0.98513 0.024477 -0.17006 0.0059759
0.26502 0.086662 1.0573 4.7942e-39 191 282 0 0 0 -0.98328 -0.010386 -0.18179 0.0045237
0.26356 0.08906 1.0564 4.9786e-39 155 283 0 0 0 -0.98285 -0.0079985 -0.18421 0.0044894
0.26305 0.090953 1.0568 6.0158e-39 394 283 0 0 0 -0.98292 -0.0069786 -0.18388 0.0044493
0.26305 0.092808 1.0568 6.5459e-39 281.5 284 0 0 0 -0.98355 -0.00014106 -0.18065 0.0044284
0.26356 0.094622 1.0564 6.0849e-39 321.5 284.5 0 0 0 -0.98329 0.0051626 -0.18198 0.0047302
0.26367 0.097136 1.0568 6.3615e-39 433 285 0 0 0 -0.98421 0.012329 -0.17655 0.005093
0.26479 0.1076 1.0564 5.9005e-39 159 289 0 0 0 -0.96943 0.069987 -0.23517 0.013867
0.26479 0.10884 1.0564 6.0849e-39 297 289 0 0 0 -0.9677 0.074497 -0.24084 0.015208
0.26378 0.11388 1.0573 5.6239e-39 441 290 0 0 0 -0.96938 0.087428 -0.22946 0.017043
0.26378 0.11511 1.0573 5.3473e-39 197 291 0 0 0 -0.96569 0.090721 -0.24334 0.019108
0.26378 0.11697 1.0573 6.3154e-39 390 291 0 0 0 -0.96057 0.10521 -0.25737 0.020744
0.26356 0.11872 1.0564 5.8083e-39 196 292 0 0 0 -0.95063 0.1178 -0.28709 0.025264
0.26378 0.12068 1.0573 5.624e-39 373.5 292 0 0 0 -0.94995 0.13952 -0.27951 0.025839
0.26378 0.12315 1.0573 6.0849e-39 249 293 0 0 0 -0.94038 0.16435 -0.29778 0.030002
0.37109 0.12738 1.0564 5.9005e-39 389 294 0 0 0 0.18124 0.50758 -0.84233 0.0091732
0.37294 0.12738 1.0564 6.2232e-39 390.5 294 0 0 0 0.19312 0.51467 -0.83536 0.010768
0.37495 0.12681 1.0568 6.8686e-39 332 294 0 0 0 0.21446 0.51438 -0.83032 0.012104
0.37666 0.12703 1.057 6.3e-39 353.33 294 0 0 0 0.22217 0.52056 -0.82442 0.013332
0.37883 0.12625 1.0573 6.2693e-39 275 294 0 0 0 0.22806 0.5236 -0.82087 0.015558
0.26479 0.12861 1.0564 5.9005e-39 398 294 0 0 0 -0.87505 0.27921 -0.39538 0.053496
0.36676 0.12985 1.0564 4.9325e-39 228.5 295 0 0 0 0.17173 0.49856 -0.84967 0.0063531
0.36944 0.12944 1.0564 5.0708e-39 319 294.67 0 0 0 0.17918 0.50819 -0.8424 0.0079855
0.37124 0.12929 1.0568 5.2091e-39 364.5 294.5 0 0 0 0.18883 0.51401 -0.83674 0.0084991
0.37305 0.12913 1.0573 5.5625e-39 410 294.33 0 0 0 0.20546 0.52352 -0.82687 0.01032
0.36676 0.13108 1.0564 8.021e-39 344.5 295 0 0 0 0.17355 0.50537 -0.84527 0.006646
0.36861 0.13108 1.0564 8.7586e-39 346 295 0 0 0 0.18342 0.50832 -0.84141 0.0072538
0.37078 0.1312 1.0573 9.6805e-39 347.5 295 0 0 0 0.19653 0.51198 -0.83621 0.0079003
0.26603 0.13356 1.0564 6.2693e-39 439 295 0 0 0 -0.77326 0.34736 -0.53048 0.068027
0.35502 0.13294 1.0564 4.8864e-39 459 295 0 0 0 0.11539 0.48406 -0.86739 0.0031655
0.36243 0.13356 1.0564 6.6381e-39 508 295 0 0 0 0.16393 0.5048 -0.84753 0.005752
0.36491 0.13356 1.0564 5.7161e-39 146 296 0 0 0 0.17483 0.50744 -0.84377 0.0065493
0.36686 0.13284 1.0573 5.6546e-39 332.67 295.33 0 0 0 0.18279 0.5083 -0.84156 0.0067155
0.36893 0.13243 1.0573 5.6239e-39 427 295 0 0 0 0.19227 0.50975 -0.83856 0.0073796
0.26502 0.13491 1.0573 5.4395e-39 159 296 0 0 0 -0.79067 0.35377 -0.49969 0.066204
0.26603 0.13479 1.0564 5.3473e-39 160 296 0 0 0 -0.75218 0.36547 -0.54832 0.068049
0.3476 0.13479 1.0564 5.0708e-39 213 296 0 0 0 0.11184 0.47927 -0.87051 0.0029647
0.34884 0.13479 1.0564 5.0708e-39 214 296 0 0 0 0.1096 0.47989 -0.87045 0.0030611
0.35378 0.13479 1.0564 5.4395e-39 218 296 0 0 0 0.11065 0.48122 -0.86959 0.0032149
0.35532 0.13491 1.0573 5.4395e-39 219 296 0 0 0 0.11453 0.4807 -0.86937 0.003596
0.35625 0.13479 1.0564 5.2552e-39 220 296 0 0 0 0.11756 0.48339 -0.86748 0.0035972
0.35996 0.13479 1.0564 5.163e-39 223 296 0 0 0 0.14288 0.49677 -0.85604 0.0048954
0.3612 0.13479 1.0564 5.3473e-39 224 296 0 0 0 0.15264 0.50049 -0.85218 0.0054322
0.36305 0.13479 1.0564 5.3473e-39 225.5 296 0 0 0 0.16725 0.50689 -0.84563 0.0062114
0.36522 0.13491 1.0573 4.8864e-39 227 296 0 0 0 0.18042 0.5123 -0.83964 0.0067996
0.26603 0.13665 1.0564 6.2232e-39 273 296 0 0 0 -0.7396 0.38857 -0.54956 0.072028
0.34019 0.13726 1.0564 8.1132e-39 375 296 0 0 0 0.12811 0.48767 -0.86358 0.0032588
0.3476 0.13665 1.0564 6.131e-39 336 296 0 0 0 0.10724 0.47203 -0.87504 0.0030658
0.34884 0.13665 1.0564 6.0388e-39 337 296 0 0 0 0.10928 0.47036 -0.87568 0.0030787
0.35069 0.13726 1.0564 6.4998e-39 383.5 296 0 0 0 0.10456 0.46746 -0.87781 0.0029225
0.35317 0.13665 1.0564 6.2693e-39 340.5 296 0 0 0 0.10615 0.46961 -0.87647 0.0031058
0.35532 0.13676 1.0573 5.9927e-39 342 296 0 0 0 0.11326 0.47148 -0.87458 0.0036722
0.35695 0.13668 1.0566 6.3615e-39 343.5 296 0 0 0 0.11882 0.48026 -0.86904 0.0041606
0.35873 0.13665 1.0564 6.3154e-39 345 296 0 0 0 0.13298 0.49299 -0.85982 0.0050487
0.36068 0.13655 1.0573 6.2386e-39 331.33 296 0 0 0 0.1505 0.49729 -0.85443 0.0055935
0.36274 0.13614 1.0573 6.0849e-39 303 296 0 0 0 0.16896 0.51075 -0.84296 0.0065778
0.26675 0.13918 1.0568 5.9235e-39 427.5 296 0 0 0 -0.70345 0.40362 -0.58502 0.077411
0.33524 0.1385 1.0564 5.5317e-39 441 296 0 0 0 0.13102 0.50853 -0.85102 0.0027977
0.33709 0.1385 1.0564 5.5778e-39 442.5 296 0 0 0 0.13342 0.49883 -0.85637 0.0027913
0.34101 0.13891 1.0564 5.8698e-39 459.33 296 0 0 0 0.12261 0.47922 -0.86909 0.0035944
0.34328 0.13912 1.0564 6.4998e-39 468 296 0 0 0 0.11251 0.47349 -0.87358 0.0036871
0.34513 0.1385 1.0564 6.5459e-39 449 296 0 0 0 0.10983 0.46991 -0.87586 0.0036168
0.34699 0.1385 1.0564 5.7161e-39 451.5 296 0 0 0 0.10546 0.46182 -0.88068 0.0034091
0.34884 0.1385 1.0564 5.9005e-39 453 296 0 0 0 0.10417 0.45897 -0.88232 0.0030603
0.35069 0.1385 1.0564 6.1771e-39 454.5 296 0 0 0 0.10496 0.45906 -0.88219 0.0029347
0.26687 0.14109 1.0573 5.9927e-39 490.5 296 0 0 0 -0.58852 0.39057 -0.70788 0.055122
0.31547 0.14097 1.0564 4.241e-39 504 296 0 0 0 0.12788 0.54314 -0.82985 0.0037431
0.32041 0.14097 1.0564 6.6381e-39 508 296 0 0 0 0.13294 0.53765 -0.83262 0.0033635
0.31353 0.0074985 1.0582 8.2054e-39 354 254 0 0 0 -0.053051 -0.92106 -0.38578 0.0016517
0.31504 0.0075049 1.0592 8.5742e-39 355 254 0 0 0 -0.05224 -0.92111 -0.38578 0.0015429
0.3169 0.0075049 1.0592 8.2515e-39 356.5 254 0 0 0 -0.047409 -0.92138 -0.38577 0.0015505
0.31938 0.0075049 1.0592 7.7905e-39 361.5 254 0 0 0 -0.044596 -0.92125 -0.3864 0.0016539
0.32123 0.0075049 1.0592 8.2054e-39 366 254 0 0 0 -0.045868 -0.92035 -0.3884 0.0016502
0.3222 0.0074985 1.0582 8.2054e-39 367 254 0 0 0 -0.04494 -0.91985 -0.38969 0.001744
0.32529 0.0074985 1.0582 6.9608e-39 369.5 254 0 0 0 -0.045579 -0.9187 -0.39232 0.0018057
0.32915 0.0075017 1.0587 6.0849e-39 372.5 254 0 0 0 -0.03753 -0.91791 -0.39502 0.0015323
0.33086 0.0074985 1.0582 6.3615e-39 374 254 0 0 0 -0.029287 -0.9174 -0.39689 0.0013169
0.33301 0.0075049 1.0592 6.8225e-39 375.5 254 0 0 0 -0.022796 -0.91806 -0.39578 0.001348
0.36894 0.0075049 1.0592 6.3615e-39 393.5 254 0 0 0 -0.25375 -0.90203 -0.34922 0.0032036
0.37048 0.0074985 1.0582 6.2693e-39 395 254 0 0 0 -0.26597 -0.90072 -0.34345 0.0029661
0.26896 0.0099747 1.0582 5.163e-39 272 255 0 0 0 -0.64772 -0.69817 -0.30498 0.059775
0.27093 0.0087404 1.0587 7.3296e-39 416.5 254 0 0 0 -0.55634 -0.76819 -0.31681 0.060617
0.27391 0.0087366 1.0582 7.9288e-39 419 254 0 0 0 -0.3991 -0.85666 -0.32688 0.056121
0.27515 0.0087366 1.0582 7.7444e-39 420 254 0 0 0 -0.35391 -0.87333 -0.33473 0.055033
0.27713 0.0087404 1.0587 7.3296e-39 421.5 254 0 0 0 -0.27156 -0.90273 -0.33367 0.045821
0.28282 0.0087441 1.0592 7.2835e-39 426 254 0 0 0 -0.083673 -0.94279 -0.32272 0.01376
0.28753 0.0099747 1.0582 5.5317e-39 289 255 0 0 0 0.0082359 -0.94689 -0.32146 0.002052
0.28877 0.0099747 1.0582 5.7161e-39 290 255 0 0 0 0.011154 -0.9471 -0.32073 0.001924
0.29273 0.0087441 1.0592 6.8225e-39 446 254 0 0 0 -0.00041195 -0.94284 -0.33325 0.0021142
0.29496 0.0099747 1.0582 5.9005e-39 295 255 0 0 0 -0.014723 -0.94107 -0.33789 0.0025301
0.29695 0.0093594 1.0587 5.8083e-39 373 254.5 0 0 0 -0.026268 -0.93923 -0.34227 0.0023509
0.29942 0.0087404 1.0587 5.4856e-39 451.5 254 0 0 0 -0.03975 -0.93545 -0.35122 0.0020787
0.30141 0.0087441 1.0592 5.163e-39 453 254 0 0 0 -0.047278 -0.93291 -0.357 0.0017872
0.30363 0.0087366 1.0582 5.2552e-39 455 254 0 0 0 -0.049613 -0.9292 -0.36622 0.0018235
0.30486 0.0087366 1.0582 5.3473e-39 456 254 0 0 0 -0.048413 -0.92854 -0.36807 0.0018022
0.30636 0.0087441 1.0592 5.3473e-39 457 254 0 0 0 -0.054454 -0.92806 -0.36844 0.0016571
0.31056 0.0087404 1.0587 6.0388e-39 460.5 254 0 0 0 -0.051667 -0.92359 -0.37988 0.0016624
0.36506 0.0093594 1.0587 6.6381e-39 310.5 255 0 0 0 -0.23053 -0.90594 -0.35514 0.003967
0.36677 0.0087366 1.0582 7.6522e-39 240 255 0 0 0 -0.24126 -0.90417 -0.35253 0.0034541
0.35345 0.011222 1.0592 5.163e-39 193 256 0 0 0 0.011328 -0.94271 -0.33342 0.008978
0.36182 0.011213 1.0582 5.4395e-39 200 256 0 0 0 -0.23108 -0.90493 -0.35736 0.0039524
0.26671 0.013701 1.0592 5.9927e-39 396 256 0 0 0 -0.7805 -0.55566 -0.28645 0.045967
0.26648 0.014927 1.0582 8.1132e-39 245 257 0 0 0 -0.80359 -0.52064 -0.2884 0.04178
0.26648 0.016165 1.0582 6.2693e-39 388 257 0 0 0 -0.81825 -0.49579 -0.29095 0.042877
0.26547 0.019897 1.0592 7.2835e-39 238 259 0 0 0 -0.88594 -0.37607 -0.27145 0.026716
0.26524 0.021118 1.0582 6.2693e-39 383 259 0 0 0 -0.89541 -0.3534 -0.27083 0.025093
0.26524 0.022975 1.0582 7.1913e-39 316.5 260 0 0 0 -0.91432 -0.29902 -0.27313 0.020289
0.26524 0.024832 1.0582 5.4395e-39 232 261 0 0 0 -0.93322 -0.24156 -0.26598 0.014094
0.26423 0.026712 1.0592 6.6842e-39 411.5 261 0 0 0 -0.95211 -0.17655 -0.24963 0.0080716
0.26288 0.029177 1.0587 6.0849e-39 322 262 0 0 0 -0.96625 -0.10717 -0.23425 0.0052177
0.26401 0.028546 1.0582 5.163e-39 277 262 0 0 0 -0.96559 -0.11642 -0.23254 0.0057753
0.26175 0.031049 1.0592 6.6381e-39 415 262 0 0 0 -0.96704 -0.086781 -0.23937 0.0054993
0.26175 0.032908 1.0592 5.4395e-39 351.5 262.5 0 0 0 -0.9657 -0.069947 -0.25006 0.006156
0.26175 0.034766 1.0592 5.5317e-39 275 263 0 0 0 -0.96225 -0.05627 -0.2663 0.0064539
0.26175 0.036626 1.0592 7.2374e-39 371.5 263 0 0 0 -0.95949 -0.047585 -0.27769 0.0065345
0.26175 0.039104 1.0592 5.5779e-39 315.5 263.5 0 0 0 -0.95646 -0.03641 -0.28958 0.0063672
0.26175 0.040962 1.0592 5.5317e-39 285 264 0 0 0 -0.95634 -0.03275 -0.29041 0.0063779
0.26288 0.04528 1.0587 6.2693e-39 428 265 0 0 0 -0.95983 -0.023773 -0.27957 0.0063805
0.26401 0.047118 1.0582 7.2835e-39 353 266 0 0 0 -0.96237 -0.027342 -0.27038 0.0066347
0.26457 0.049209 1.0589 7.3449e-39 384 266.67 0 0 0 -0.9641 -0.031208 -0.26371 0.0071086
0.26474 0.050853 1.0587 6.0388e-39 456.5 267 0 0 0 -0.96622 -0.037993 -0.25489 0.0077611
0.26299 0.053354 1.0592 4.9786e-39 443 268 0 0 0 -0.96942 -0.027041 -0.2439 0.0081417
0.26457 0.052513 1.0589 6.2386e-39 351 268 0 0 0 -0.96801 -0.033796 -0.24863 0.0079455
0.26277 0.055165 1.0582 4.9786e-39 365 269 0 0 0 -0.97104 -0.023454 -0.23776 0.0087214
0.26401 0.054546 1.0582 5.2552e-39 295 269 0 0 0 -0.97007 -0.026673 -0.24137 0.0083736
0.26175 0.063267 1.0592 4.9786e-39 423 272 0 0 0 -0.97813 0.0229 -0.20671 0.0090346
0.26164 0.065098 1.0587 5.1168e-39 362.5 273 0 0 0 -0.98027 0.026822 -0.19586 0.0086244
0.26299 0.071941 1.0592 5.9927e-39 332 276 0 0 0 -0.98248 0.032107 -0.18359 0.0061301
0.26401 0.073118 1.0582 4.6098e-39 454 276 0 0 0 -0.9833 0.031695 -0.17923 0.0056455
0.2649 0.07479 1.0585 5.9005e-39 348.67 277 0 0 0 -0.98458 0.029043 -0.17253 0.0052669
0.26524 0.076832 1.0582 5.7161e-39 288 278 0 0 0 -0.98528 0.027344 -0.16874 0.0052383
0.26535 0.078723 1.0587 6.2233e-39 350 278.5 0 0 0 -0.98554 0.021691 -0.16806 0.0055381
0.26547 0.081854 1.0592 5.9005e-39 248 280 0 0 0 -0.98494 0.0089568 -0.17264 0.0054305
0.26547 0.083094 1.0592 7.2835e-39 395 280 0 0 0 -0.98405 -0.0040284 -0.17787 0.0052291
0.26535 0.084916 1.0587 6.7303e-39 307 281 0 0 0 -0.98449 -0.0086637 -0.17522 0.0047286
0.26412 0.087393 1.0587 5.9005e-39 271.5 282 0 0 0 -0.98382 -0.012642 -0.17872 0.0045472
0.26288 0.088631 1.0587 5.9466e-39 425.5 282 0 0 0 -0.98396 -0.011133 -0.17802 0.004424
0.26175 0.091148 1.0592 5.6701e-39 380 283 0 0 0 -0.98602 -8.471e-05 -0.16664 0.0047195
0.26175 0.093007 1.0592 7.0069e-39 280 284 0 0 0 -0.98678 0.0059176 -0.16195 0.0050369
0.26277 0.094784 1.0582 5.8544e-39 320.5 284.5 0 0 0 -0.98651 0.0086841 -0.16347 0.0048142
0.26299 0.097344 1.0592 6.3155e-39 432 285 0 0 0 -0.98806 0.012983 -0.15349 0.0049579
0.26401 0.099118 1.0582 7.4678e-39 279 286 0 0 0 -0.98627 0.019183 -0.16405 0.005483
0.26401 0.10097 1.0582 5.9005e-39 295.5 286.5 0 0 0 -0.98655 0.028447 -0.16097 0.0055834
0.26401 0.10283 1.0582 6.6381e-39 339 287 0 0 0 -0.98569 0.03796 -0.16423 0.0059614
0.26423 0.10478 1.0592 6.131e-39 348.5 287.5 0 0 0 -0.98636 0.043893 -0.15865 0.0059766
0.26423 0.11097 1.0592 5.6239e-39 313 289.5 0 0 0 -0.98146 0.069468 -0.17865 0.009133
0.26401 0.11274 1.0582 7.0991e-39 336 290 0 0 0 -0.97632 0.075565 -0.20272 0.013281
0.26299 0.11531 1.0592 5.4395e-39 196 291 0 0 0 -0.9817 0.078033 -0.17372 0.010641
0.26299 0.11717 1.0592 6.1771e-39 389 291 0 0 0 -0.9783 0.088791 -0.18718 0.012746
0.26299 0.11903 1.0592 5.9005e-39 195 292 0 0 0 -0.97326 0.10466 -0.20449 0.015157
0.26401 0.12512 1.0582 5.2552e-39 425 293 0 0 0 -0.93785 0.18689 -0.29242 0.03169
0.26412 0.12703 1.0587 6.7303e-39 228 294 0 0 0 -0.92643 0.23149 -0.29687 0.038066
0.37947 0.1277 1.0592 5.9927e-39 395 294 0 0 0 0.2386 0.53194 -0.81247 0.015009
0.38039 0.12636 1.0582 7.1913e-39 276 294 0 0 0 0.22975 0.53555 -0.81265 0.017434
0.37544 0.12883 1.0582 5.5317e-39 500 294 0 0 0 0.22816 0.52401 -0.82058 0.011839
0.37667 0.12883 1.0582 4.9786e-39 501 294 0 0 0 0.23221 0.52602 -0.81816 0.01257
0.37824 0.12894 1.0592 4.241e-39 502 294 0 0 0 0.23977 0.52578 -0.81613 0.012458
0.37296 0.13131 1.0582 9.5883e-39 349 295 0 0 0 0.22049 0.517 -0.8271 0.0082317
0.37483 0.13056 1.0589 7.4986e-39 273 295 0 0 0 0.23259 0.525 -0.81871 0.010075
0.36862 0.13378 1.0582 5.4395e-39 148.5 296 0 0 0 0.19597 0.51282 -0.83583 0.007211
0.37089 0.13296 1.0582 5.163e-39 337.33 295.33 0 0 0 0.20678 0.51755 -0.83029 0.0084458
0.37287 0.13349 1.0592 5.501e-39 246 295.67 0 0 0 0.22582 0.52197 -0.82252 0.0085417
0.36677 0.13502 1.0582 4.8864e-39 228 296 0 0 0 0.18814 0.5182 -0.83431 0.0072997
0.36879 0.13508 1.0587 4.8864e-39 229.5 296 0 0 0 0.20123 0.51813 -0.83129 0.0075839
0.3708 0.13514 1.0592 4.9786e-39 231 296 0 0 0 0.21503 0.52074 -0.82619 0.007931
0.37204 0.13514 1.0592 5.163e-39 232 296 0 0 0 0.22329 0.52525 -0.82113 0.008297
0.26524 0.13688 1.0582 6.592e-39 272 296 0 0 0 -0.79194 0.36922 -0.48632 0.070405
0.36182 0.1375 1.0582 6.8225e-39 392 296 0 0 0 0.16054 0.49804 -0.85217 0.0063985
0.36305 0.1375 1.0582 6.7303e-39 393 296 0 0 0 0.17564 0.50851 -0.84295 0.0071728
