# .PCD v.7 - Point Cloud Data file format
VERSION .7
FIELDS x y z rgb u v vx vy vz normal_x normal_y normal_z curvature
SIZE 4 4 4 4 4 4 4 4 4 4 4 4 4
TYPE F F F F F F F F F F F F F
COUNT 1 1 1 1 1 1 1 1 1 1 1 1 1
WIDTH 556
HEIGHT 1
VIEWPOINT 0 0 0 1 0 0 0
POINTS 556
DATA ascii
0.26616 -0.041243 1.1773 5.5317e-39 179 254 0 0 0 -0.0080832 -0.8612 -0.5082 0.0022163
0.28269 -0.041243 1.1773 6.0849e-39 191 254 0 0 0 -0.0056196 -0.84541 -0.53409 0.0023001
0.28517 -0.041204 1.1762 6.1771e-39 193 254 0 0 0 -0.0049667 -0.84068 -0.54151 0.0023989
0.28682 -0.041243 1.1773 6.2693e-39 194 254 0 0 0 -0.0049595 -0.84159 -0.54009 0.0024915
0.2893 -0.041204 1.1762 5.6239e-39 196 254 0 0 0 0.0011978 -0.8376 -0.54628 0.0022565
0.29067 -0.041204 1.1762 5.7161e-39 197 254 0 0 0 -0.00012229 -0.83606 -0.54863 0.002252
0.29287 -0.041224 1.1767 6.4076e-39 198.5 254 0 0 0 -9.1577e-05 -0.83454 -0.55095 0.0022928
0.29508 -0.041243 1.1773 6.4537e-39 200 254 0 0 0 0.0027485 -0.831 -0.55626 0.0024216
0.29755 -0.041204 1.1762 5.7161e-39 202 254 0 0 0 0.0071274 -0.82889 -0.55937 0.0026613
0.31819 -0.041204 1.1762 5.9927e-39 217 254 0 0 0 -0.004972 -0.79036 -0.61262 0.014444
0.32507 -0.041204 1.1762 6.2693e-39 222 254 0 0 0 0.10198 -0.74549 -0.65867 0.035818
0.32676 -0.041243 1.1773 6.9147e-39 223 254 0 0 0 0.13598 -0.73949 -0.6593 0.04141
0.32814 -0.041243 1.1773 7.0991e-39 224 254 0 0 0 0.1667 -0.73159 -0.66105 0.047198
0.23585 -0.038489 1.1773 5.8083e-39 413 254 0 0 0 -0.20455 -0.89037 -0.40669 0.01875
0.23976 -0.038452 1.1762 6.0849e-39 416 254 0 0 0 -0.13372 -0.91322 -0.38489 0.0065107
0.24136 -0.038489 1.1773 6.4537e-39 417 254 0 0 0 -0.10924 -0.91945 -0.37772 0.003579
0.24274 -0.038489 1.1773 6.9147e-39 418 254 0 0 0 -0.10058 -0.92068 -0.37713 0.0032542
0.25238 -0.039866 1.1773 6.1771e-39 276 254 0 0 0 -0.056066 -0.89938 -0.43356 0.0058396
0.25514 -0.038489 1.1773 5.9927e-39 428 254 0 0 0 -0.037637 -0.89338 -0.44772 0.0053781
0.25627 -0.038452 1.1762 5.6239e-39 433 254 0 0 0 -0.027706 -0.89263 -0.44993 0.0050836
0.25902 -0.039828 1.1762 7.8366e-39 281 254 0 0 0 -0.021146 -0.88087 -0.47289 0.0044251
0.2604 -0.039828 1.1762 8.482e-39 282 254 0 0 0 -0.010962 -0.87753 -0.47939 0.0041887
0.26258 -0.039847 1.1767 8.482e-39 283.5 254 0 0 0 -0.0085444 -0.87211 -0.48923 0.0033001
0.26521 -0.039828 1.1762 7.514e-39 285.5 254 0 0 0 0.00075127 -0.86885 -0.49507 0.0027363
0.26728 -0.038452 1.1762 5.163e-39 441 254 0 0 0 0.0014081 -0.86511 -0.50158 0.0024927
0.26866 -0.038452 1.1762 4.7942e-39 442 254 0 0 0 -0.00062693 -0.86259 -0.5059 0.002253
0.27112 -0.039395 1.1769 6.6073e-39 341 254 0 0 0 -0.0054928 -0.85788 -0.51382 0.0019235
0.27304 -0.039866 1.1773 7.7444e-39 291 254 0 0 0 -0.0092914 -0.85528 -0.51808 0.0017761
0.27498 -0.039847 1.1767 7.3296e-39 292.5 254 0 0 0 -0.0060707 -0.85359 -0.52091 0.0017573
0.27718 -0.039866 1.1773 7.2835e-39 294 254 0 0 0 -0.0040499 -0.85117 -0.52487 0.0016883
0.27966 -0.038452 1.1762 5.163e-39 157 255 0 0 0 -0.001973 -0.8482 -0.52967 0.0020824
0.28104 -0.039828 1.1762 7.0991e-39 297 254 0 0 0 -0.0063797 -0.84703 -0.53151 0.0021971
0.28379 -0.039828 1.1762 7.7444e-39 338 254 0 0 0 -0.00014052 -0.8425 -0.53869 0.0023203
0.28792 -0.039828 1.1762 7.6522e-39 341 254 0 0 0 0.00039516 -0.83953 -0.54332 0.0023057
0.29921 -0.039866 1.1773 8.1132e-39 349 254 0 0 0 0.0090808 -0.82817 -0.5604 0.0027495
0.30114 -0.039159 1.1767 7.099e-39 264.5 254.5 0 0 0 0.0050319 -0.82802 -0.56067 0.0030048
0.30748 -0.039866 1.1773 8.6664e-39 355 254 0 0 0 -0.01561 -0.82701 -0.56196 0.0043773
0.30886 -0.039866 1.1773 8.6664e-39 356 254 0 0 0 -0.017953 -0.82635 -0.56287 0.0044521
0.31023 -0.039866 1.1773 8.021e-39 357 254 0 0 0 -0.019209 -0.82334 -0.56722 0.0046173
0.31269 -0.038452 1.1762 5.5317e-39 188 255 0 0 0 -0.0013458 -0.80229 -0.59693 0.010687
0.3149 -0.039159 1.1767 6.8224e-39 275 254.5 0 0 0 -0.0059693 -0.79744 -0.60337 0.01213
0.31682 -0.039828 1.1762 7.0991e-39 362 254 0 0 0 -0.0017133 -0.78854 -0.61499 0.014652
0.22267 -0.037093 1.1767 8.1132e-39 232.5 255 0 0 0 -0.56311 -0.57605 -0.59251 0.065754
0.226 -0.037076 1.1762 7.56e-39 235 255 0 0 0 -0.48772 -0.69172 -0.53259 0.060221
0.22737 -0.037076 1.1762 7.4678e-39 236 255 0 0 0 -0.45788 -0.72177 -0.51903 0.060026
0.22875 -0.037076 1.1762 7.4678e-39 237 255 0 0 0 -0.41471 -0.76164 -0.49791 0.056047
0.23013 -0.037076 1.1762 7.6522e-39 238 255 0 0 0 -0.39003 -0.78764 -0.47698 0.053379
0.22187 -0.035012 1.1762 6.4537e-39 298 255.5 0 0 0 -0.64465 -0.48222 -0.5932 0.062937
0.34159 -0.028819 1.1762 7.9288e-39 246 258 0 0 0 0.66461 0.0051821 -0.74717 0.03213
0.34113 -0.026526 1.1762 6.3615e-39 258.33 258.67 0 0 0 0.63131 0.10363 -0.76857 0.023407
0.34329 -0.026092 1.1773 6.2693e-39 195 259 0 0 0 0.60756 0.22047 -0.76306 0.011206
0.33746 -0.024691 1.1762 7.2835e-39 295 259 0 0 0 0.60361 0.14648 -0.78371 0.021036
0.33883 -0.024691 1.1762 7.0069e-39 296 259 0 0 0 0.59977 0.17698 -0.78035 0.017344
0.34053 -0.024715 1.1773 6.7303e-39 297 259 0 0 0 0.59715 0.20957 -0.77427 0.012735
0.33778 -0.023337 1.1773 5.2552e-39 434 259 0 0 0 0.58997 0.21766 -0.77754 0.012107
0.33916 -0.023337 1.1773 5.163e-39 435 259 0 0 0 0.58701 0.24562 -0.77142 0.0088682
0.22187 -0.021251 1.1762 6.1771e-39 218.5 260 0 0 0 -0.82656 -0.019275 -0.56252 0.01536
0.33624 -0.021261 1.1767 7.0529e-39 313 260 0 0 0 0.57187 0.2677 -0.77544 0.0062104
0.22187 -0.019187 1.1762 6.7303e-39 420 260 0 0 0 -0.8337 0.021509 -0.5518 0.010471
0.33471 -0.019187 1.1762 5.8083e-39 202 261 0 0 0 0.56777 0.2898 -0.77049 0.0037828
0.22187 -0.017123 1.1762 7.3296e-39 316 261 0 0 0 -0.83979 0.064587 -0.53906 0.00598
0.33333 -0.016435 1.1762 5.3473e-39 166 262 0 0 0 0.57042 0.29674 -0.76588 0.0028918
0.33487 -0.017131 1.1767 6.8224e-39 262 261.5 0 0 0 0.56996 0.30313 -0.76371 0.0028233
0.22208 -0.015073 1.1773 5.7161e-39 209 262 0 0 0 -0.83923 0.08846 -0.53653 0.0046855
0.33333 -0.015059 1.1762 6.9147e-39 290 262 0 0 0 0.57231 0.29746 -0.76418 0.0027812
0.33503 -0.015073 1.1773 6.7303e-39 291 262 0 0 0 0.57236 0.30011 -0.76311 0.0027844
0.22208 -0.013696 1.1773 6.5459e-39 362 262 0 0 0 -0.83875 0.095054 -0.53616 0.0045457
0.33127 -0.012995 1.1762 7.4218e-39 349 262.5 0 0 0 0.57152 0.29252 -0.76668 0.0030203
0.33296 -0.013008 1.1773 7.3296e-39 350 262.5 0 0 0 0.57564 0.29392 -0.76305 0.0029818
0.33089 -0.010941 1.1773 6.3615e-39 409 263 0 0 0 0.57702 0.27898 -0.76761 0.0032557
0.22325 -0.0081786 1.1762 7.1913e-39 262 264 0 0 0 -0.84753 0.11122 -0.51896 0.0037425
0.22325 -0.0068026 1.1762 7.0991e-39 414 264 0 0 0 -0.84647 0.11274 -0.52036 0.0036678
0.32783 -0.0068026 1.1762 5.7161e-39 173 265 0 0 0 0.58155 0.24624 -0.77535 0.0028182
0.3292 -0.0068026 1.1762 5.3473e-39 174 265 0 0 0 0.58317 0.24786 -0.77361 0.0028167
0.22325 -0.0047385 1.1762 5.9466e-39 298 265 0 0 0 -0.84606 0.11695 -0.52011 0.0038253
0.32714 -0.0047385 1.1762 6.131e-39 377 265 0 0 0 0.57712 0.24274 -0.77975 0.0027755
0.32895 -0.0045117 1.1769 5.7469e-39 403.67 265 0 0 0 0.5833 0.23901 -0.7763 0.0026716
0.22325 -0.0026744 1.1762 5.3473e-39 178 266 0 0 0 -0.84337 0.12994 -0.52139 0.003761
0.32507 -0.0026744 1.1762 8.1132e-39 260 266 0 0 0 0.56462 0.24223 -0.789 0.0025363
0.32676 -0.002677 1.1773 7.7444e-39 261 266 0 0 0 0.57471 0.23788 -0.78302 0.0026705
0.22346 -0.0012996 1.1773 7.1913e-39 336 266 0 0 0 -0.83889 0.13755 -0.52663 0.0036607
0.32538 -0.0012996 1.1773 6.4537e-39 410 266 0 0 0 0.56734 0.24469 -0.78629 0.0027732
0.22346 7.7784e-05 1.1773 4.702e-39 458 266 0 0 0 -0.83687 0.14483 -0.52789 0.0034773
0.22462 0.0014538 1.1762 8.5742e-39 265 267 0 0 0 -0.84158 0.1553 -0.51732 0.0033418
0.32538 0.00076649 1.1773 6.4076e-39 289 267 0 0 0 0.56254 0.25241 -0.78729 0.0032355
0.32676 0.0014552 1.1773 7.6522e-39 369 267 0 0 0 0.56543 0.25347 -0.78489 0.0034563
0.22462 0.0028298 1.1762 6.5459e-39 415 267 0 0 0 -0.83938 0.16345 -0.51838 0.0032148
0.32538 0.0028325 1.1773 4.9786e-39 160 268 0 0 0 0.55447 0.26552 -0.78871 0.0038545
0.32676 0.0028325 1.1773 4.7942e-39 161 268 0 0 0 0.56168 0.25944 -0.78562 0.0037394
0.22473 0.0048966 1.1767 6.3615e-39 288 268 0 0 0 -0.83505 0.17241 -0.52247 0.0029518
0.3237 0.0055819 1.1762 6.7303e-39 447 268 0 0 0 0.53811 0.2921 -0.79064 0.0048667
0.32538 0.0042099 1.1773 6.3615e-39 291 268 0 0 0 0.5491 0.27429 -0.78946 0.0043981
0.22484 0.0069646 1.1773 5.0708e-39 162 269 0 0 0 -0.83112 0.1828 -0.52519 0.0028514
0.32401 0.0069646 1.1773 6.3615e-39 242 269 0 0 0 0.53511 0.30231 -0.78884 0.0054001
0.22542 0.009026 1.1767 5.9928e-39 375 269 0 0 0 -0.82857 0.19707 -0.52405 0.0026792
0.32232 0.0097101 1.1762 5.3473e-39 188 270 0 0 0 0.52388 0.32706 -0.7865 0.0052481
0.32401 0.008342 1.1773 7.3757e-39 400 269 0 0 0 0.53092 0.31677 -0.78599 0.0055966
0.22621 0.011097 1.1773 8.2976e-39 246 270 0 0 0 -0.82514 0.20553 -0.52621 0.0024879
0.32095 0.011086 1.1762 8.943e-39 350 270 0 0 0 0.51879 0.33866 -0.78496 0.0052193
0.32263 0.011097 1.1773 8.6664e-39 351 270 0 0 0 0.52086 0.33745 -0.78411 0.005457
0.31972 0.013156 1.1767 7.9288e-39 367 270.5 0 0 0 0.51355 0.35437 -0.78147 0.0045995
0.32125 0.012474 1.1773 9.7727e-39 472 270 0 0 0 0.51561 0.34779 -0.78306 0.0050753
0.31819 0.015214 1.1762 7.1913e-39 412 271 0 0 0 0.51166 0.36234 -0.77905 0.004101
0.22737 0.017966 1.1762 5.8083e-39 242 272 0 0 0 -0.81659 0.21167 -0.537 0.0029536
0.31508 0.017513 1.1766 5.5932e-39 286.67 272 0 0 0 0.51725 0.36765 -0.77284 0.0032953
0.31712 0.016606 1.1773 5.4395e-39 180 272 0 0 0 0.50908 0.3694 -0.77742 0.0035738
0.22759 0.019361 1.1773 7.9288e-39 398 272 0 0 0 -0.81284 0.20777 -0.54417 0.0029872
0.31299 0.020738 1.1773 5.7161e-39 230 273 0 0 0 0.53282 0.35439 -0.76845 0.0037607
0.22875 0.023471 1.1762 6.9147e-39 453 273 0 0 0 -0.80934 0.1995 -0.55242 0.0032714
0.30994 0.023471 1.1762 5.4395e-39 154 274 0 0 0 0.56099 0.32529 -0.76123 0.0042378
0.31131 0.022095 1.1762 7.0069e-39 383 273 0 0 0 0.5487 0.3402 -0.76367 0.0039413
0.22897 0.02487 1.1773 5.3473e-39 221 274 0 0 0 -0.80797 0.19297 -0.55672 0.0032086
0.23013 0.024847 1.1762 5.8083e-39 223 274 0 0 0 -0.8087 0.19664 -0.55437 0.0034593
0.30994 0.024847 1.1762 6.2693e-39 281 274 0 0 0 0.56536 0.3155 -0.76212 0.0043221
0.23013 0.026911 1.1762 6.131e-39 262 274.5 0 0 0 -0.80724 0.18675 -0.55991 0.0033786
0.30856 0.026911 1.1762 7.4679e-39 321 274.5 0 0 0 0.57739 0.29199 -0.76248 0.0038895
0.23013 0.028975 1.1762 8.2976e-39 270 275 0 0 0 -0.80663 0.17734 -0.56383 0.0034342
0.30719 0.028975 1.1762 7.56e-39 356 275 0 0 0 0.58738 0.27808 -0.76004 0.0033789
0.30886 0.029003 1.1773 7.8366e-39 357 275 0 0 0 0.58091 0.28162 -0.7637 0.0037369
0.23035 0.031069 1.1773 6.3154e-39 303 275.5 0 0 0 -0.80457 0.16971 -0.56909 0.0031149
0.30748 0.031069 1.1773 6.4076e-39 359 275.5 0 0 0 0.58876 0.26799 -0.76259 0.0031295
0.30581 0.033103 1.1762 7.0991e-39 389 276 0 0 0 0.59903 0.25778 -0.7581 0.0024991
0.2315 0.035855 1.1762 6.7303e-39 210 277 0 0 0 -0.79839 0.1731 -0.57672 0.0028323
0.30581 0.035167 1.1762 7.1452e-39 409.5 276.5 0 0 0 0.59771 0.25685 -0.75946 0.0024202
0.2315 0.037231 1.1762 7.8366e-39 361 277 0 0 0 -0.79587 0.1763 -0.57923 0.002887
0.30581 0.037231 1.1762 8.1132e-39 415 277 0 0 0 0.59555 0.25747 -0.76094 0.0023545
0.2315 0.038607 1.1762 3.9644e-39 483 277 0 0 0 -0.79458 0.18022 -0.57979 0.0028592
0.23288 0.039983 1.1762 5.9005e-39 227 278 0 0 0 -0.79239 0.18322 -0.58185 0.0027126
0.30443 0.039983 1.1762 6.8225e-39 279 278 0 0 0 0.59041 0.26849 -0.76114 0.0022505
0.3061 0.038644 1.1773 4.8864e-39 159 278 0 0 0 0.59371 0.26087 -0.76122 0.0025949
0.23172 0.04071 1.1773 6.2232e-39 299.5 278 0 0 0 -0.7947 0.18329 -0.57867 0.0028387
0.23288 0.041359 1.1762 6.5459e-39 374 278 0 0 0 -0.79155 0.18493 -0.58245 0.0026408
0.30443 0.041359 1.1762 8.021e-39 426 278 0 0 0 0.58604 0.27393 -0.76257 0.0022877
0.23172 0.042776 1.1773 6.4537e-39 491 278 0 0 0 -0.79487 0.18956 -0.57641 0.0028208
0.23288 0.042735 1.1762 3.319e-39 518 278 0 0 0 -0.79234 0.18934 -0.57996 0.0026799
0.30306 0.042735 1.1762 4.7942e-39 160 279 0 0 0 0.58074 0.28565 -0.76233 0.0023451
0.30472 0.042776 1.1773 4.7942e-39 161 279 0 0 0 0.58282 0.2816 -0.76224 0.0024961
0.23161 0.044822 1.1767 6.8224e-39 301.5 279 0 0 0 -0.79342 0.19651 -0.57608 0.0027268
0.23288 0.0448 1.1762 6.9147e-39 302.5 279 0 0 0 -0.791 0.19596 -0.57959 0.0027356
0.30168 0.045488 1.1762 6.6381e-39 429 279 0 0 0 0.57282 0.30272 -0.76173 0.0025274
0.30335 0.044154 1.1773 6.5459e-39 280 279 0 0 0 0.57805 0.2928 -0.76166 0.0024443
0.23172 0.046908 1.1773 3.4112e-39 518 279 0 0 0 -0.79364 0.20656 -0.57225 0.0026614
0.23288 0.046864 1.1762 3.78e-39 519 279 0 0 0 -0.79017 0.20539 -0.57745 0.0026067
0.30114 0.046886 1.1767 4.9325e-39 158.5 280 0 0 0 0.56984 0.31236 -0.76007 0.0024282
0.2331 0.048286 1.1773 5.7161e-39 233 280 0 0 0 -0.79177 0.21212 -0.5728 0.0025203
0.23425 0.049616 1.1762 7.0069e-39 383 280 0 0 0 -0.7889 0.21548 -0.5755 0.0024793
0.29893 0.049616 1.1762 6.4537e-39 430 280 0 0 0 0.56285 0.32435 -0.76026 0.0026686
0.3003 0.04824 1.1762 6.4537e-39 282 280 0 0 0 0.56537 0.31929 -0.76054 0.0026699
0.23505 0.051016 1.1767 6.131e-39 520.5 280 0 0 0 -0.78918 0.21713 -0.5745 0.0023875
0.29921 0.05104 1.1773 5.163e-39 156 281 0 0 0 0.56281 0.32903 -0.75828 0.0025339
0.23585 0.052418 1.1773 6.9147e-39 237 281 0 0 0 -0.79007 0.2153 -0.57397 0.0023204
0.23701 0.053056 1.1762 7.5601e-39 310 281 0 0 0 -0.78809 0.21618 -0.57635 0.0022157
0.29755 0.053744 1.1762 7.4678e-39 426 281 0 0 0 0.55292 0.33622 -0.76239 0.0030129
0.23723 0.055173 1.1773 4.1488e-39 510 281 0 0 0 -0.78939 0.21025 -0.57676 0.0023512
0.29701 0.055147 1.1767 7.6061e-39 554.5 281 0 0 0 0.5512 0.3376 -0.76302 0.0030294
0.23723 0.057239 1.1773 6.9608e-39 291.5 282 0 0 0 -0.78957 0.20489 -0.57844 0.0024558
0.23838 0.057184 1.1762 6.8686e-39 292.5 282 0 0 0 -0.78766 0.20708 -0.58027 0.0025526
0.29342 0.057872 1.1762 7.1913e-39 399 282 0 0 0 0.52802 0.348 -0.77466 0.0037572
0.29494 0.057212 1.1767 7.2835e-39 333.5 282 0 0 0 0.53912 0.34496 -0.76835 0.0035328
0.29715 0.05655 1.1773 7.8366e-39 268.5 282 0 0 0 0.55413 0.34175 -0.75904 0.0028982
0.23723 0.059305 1.1773 7.6522e-39 460 282 0 0 0 -0.78945 0.20308 -0.57924 0.0024927
0.23838 0.059248 1.1762 8.1132e-39 461 282 0 0 0 -0.78705 0.20416 -0.58212 0.0026344
0.2937 0.059305 1.1773 4.8864e-39 501 282 0 0 0 0.53065 0.35401 -0.77012 0.0036957
0.23723 0.060682 1.1773 5.3473e-39 156 283 0 0 0 -0.78926 0.20059 -0.58038 0.0025837
0.23838 0.060624 1.1762 5.7161e-39 157 283 0 0 0 -0.78684 0.20149 -0.58334 0.0027063
0.29205 0.060624 1.1762 5.8083e-39 209 283 0 0 0 0.51947 0.35926 -0.7753 0.0040415
0.23919 0.062717 1.1767 7.514e-39 332 283 0 0 0 -0.78744 0.19654 -0.58421 0.0027025
0.29233 0.062059 1.1773 6.9147e-39 336 283 0 0 0 0.52233 0.36645 -0.76999 0.0040142
0.23999 0.064814 1.1773 4.0566e-39 492 283 0 0 0 -0.78613 0.18939 -0.58832 0.0029686
0.24113 0.064752 1.1762 4.702e-39 493 283 0 0 0 -0.78194 0.19247 -0.5929 0.0036558
0.29067 0.064752 1.1762 7.56e-39 529 283 0 0 0 0.50747 0.37608 -0.77527 0.0044675
0.24136 0.06688 1.1773 5.7162e-39 242.5 284 0 0 0 -0.78198 0.18657 -0.59473 0.0037147
0.28792 0.066816 1.1762 7.0991e-39 295.5 284 0 0 0 0.49698 0.38697 -0.7767 0.0047326
0.2893 0.067504 1.1762 8.021e-39 356 284 0 0 0 0.50005 0.38718 -0.77463 0.0046738
0.29095 0.066191 1.1773 5.8083e-39 238 284 0 0 0 0.50927 0.38182 -0.77127 0.0045087
0.24136 0.068946 1.1773 7.0991e-39 409 284 0 0 0 -0.77932 0.18292 -0.59933 0.0044777
0.28888 0.068946 1.1773 7.0069e-39 443.5 284 0 0 0 0.50016 0.39149 -0.77238 0.004452
0.23999 0.071701 1.1773 5.163e-39 173 285 0 0 0 -0.77965 0.17883 -0.60014 0.004532
0.24113 0.070945 1.1762 4.9786e-39 333.5 284.5 0 0 0 -0.76974 0.18808 -0.61002 0.0059673
0.28379 0.071633 1.1762 6.6381e-39 225 285 0 0 0 0.49151 0.38912 -0.77911 0.0047668
0.28544 0.071701 1.1773 6.2693e-39 226 285 0 0 0 0.49493 0.39408 -0.77443 0.004479
0.28654 0.070257 1.1762 7.8366e-39 526 284 0 0 0 0.49367 0.39193 -0.77632 0.0045013
0.23999 0.073078 1.1773 7.8366e-39 261 285 0 0 0 -0.77602 0.18156 -0.60401 0.0051769
0.24113 0.073009 1.1762 8.2054e-39 262 285 0 0 0 -0.76127 0.19183 -0.61941 0.0075974
0.28104 0.073009 1.1762 6.1771e-39 291 285 0 0 0 0.48581 0.38768 -0.78338 0.0051662
0.28269 0.073078 1.1773 5.5317e-39 292 285 0 0 0 0.49528 0.39252 -0.775 0.0047294
0.23999 0.074456 1.1773 7.4678e-39 355 285 0 0 0 -0.77259 0.18405 -0.60764 0.0058367
0.24113 0.075073 1.1762 7.6061e-39 388.5 285 0 0 0 -0.75366 0.19991 -0.62612 0.0092901
0.27966 0.075761 1.1762 8.021e-39 449 285 0 0 0 0.48338 0.40598 -0.77558 0.004962
0.28131 0.074456 1.1773 6.6381e-39 385 285 0 0 0 0.4898 0.39878 -0.77529 0.0048676
0.24136 0.07721 1.1773 8.482e-39 480 285 0 0 0 -0.75531 0.19704 -0.62505 0.0094746
0.27829 0.077137 1.1762 9.3118e-39 507 285 0 0 0 0.48351 0.40735 -0.77478 0.0049512
0.24136 0.078588 1.1773 8.1132e-39 537 285 0 0 0 -0.74938 0.19792 -0.63186 0.010689
0.27718 0.078588 1.1773 5.0708e-39 174 286 0 0 0 0.48678 0.41782 -0.76712 0.0048222
0.24251 0.081265 1.1762 7.2835e-39 272 286 0 0 0 -0.71995 0.21542 -0.65975 0.016962
0.27554 0.081265 1.1762 5.8083e-39 296 286 0 0 0 0.48758 0.42674 -0.76168 0.0047949
0.24251 0.082641 1.1762 8.1132e-39 345 286 0 0 0 -0.70863 0.23521 -0.66522 0.019421
0.27554 0.082641 1.1762 6.9147e-39 369 286 0 0 0 0.48829 0.437 -0.75539 0.0047946
0.24274 0.084097 1.1773 7.1913e-39 388 286 0 0 0 -0.70772 0.24188 -0.6638 0.020547
0.27278 0.085393 1.1762 7.4678e-39 442 286 0 0 0 0.48632 0.44326 -0.75301 0.0059567
0.27479 0.08453 1.1769 7.7444e-39 422 286 0 0 0 0.4926 0.44302 -0.74906 0.0047235
0.24389 0.086769 1.1762 7.0069e-39 446 286 0 0 0 -0.6822 0.28745 -0.6723 0.026197
0.29703 -0.044082 1.1795 7.56e-39 234 253 0 0 0 -0.0010442 -0.83424 -0.5514 0.0033939
0.33259 -0.04404 1.1784 6.6381e-39 260 253 0 0 0 0.18811 -0.76518 -0.61573 0.0493
0.33429 -0.044082 1.1795 6.4537e-39 261 253 0 0 0 0.23431 -0.76186 -0.60387 0.054268
0.25977 -0.042702 1.1795 8.6664e-39 355 253 0 0 0 -0.041609 -0.87068 -0.49008 0.0039349
0.26115 -0.042702 1.1795 8.5742e-39 356 253 0 0 0 -0.0265 -0.86663 -0.49825 0.0033178
0.26667 -0.042702 1.1795 8.2054e-39 360 253 0 0 0 -0.013112 -0.86097 -0.50848 0.0021122
0.28599 -0.042702 1.1795 6.2693e-39 374 253 0 0 0 -0.0085289 -0.84638 -0.53251 0.0025677
0.29082 -0.042702 1.1795 6.2693e-39 377.5 253 0 0 0 -0.0067521 -0.84183 -0.5397 0.0027075
0.29289 -0.042702 1.1795 6.4537e-39 379 253 0 0 0 -0.0077702 -0.83968 -0.54302 0.0028516
0.29496 -0.042702 1.1795 6.6381e-39 380.5 253 0 0 0 -0.0060578 -0.83549 -0.54947 0.0029528
0.29841 -0.042702 1.1795 5.8083e-39 383 253 0 0 0 -8.2544e-05 -0.83083 -0.55652 0.0033011
0.32156 -0.042661 1.1784 5.5317e-39 400 253 0 0 0 0.008982 -0.79983 -0.60016 0.015777
0.32294 -0.042661 1.1784 5.7161e-39 401 253 0 0 0 0.016426 -0.79658 -0.60431 0.018206
0.32432 -0.042661 1.1784 5.9005e-39 402 253 0 0 0 0.038378 -0.79034 -0.61146 0.022513
0.33015 -0.042702 1.1795 6.1771e-39 406 253 0 0 0 0.16118 -0.76332 -0.62559 0.045861
0.25896 -0.041303 1.179 5.3473e-39 173.5 254 0 0 0 -0.041197 -0.87286 -0.48623 0.0041323
0.26309 -0.041303 1.179 5.9927e-39 176.5 254 0 0 0 -0.016503 -0.86487 -0.50173 0.0026882
0.26503 -0.041283 1.1784 5.9005e-39 178 254 0 0 0 -0.012501 -0.86226 -0.50631 0.0023253
0.26943 -0.041322 1.1795 5.2552e-39 181 254 0 0 0 -0.0078538 -0.85777 -0.51398 0.0017545
0.27055 -0.041283 1.1784 5.2552e-39 182 254 0 0 0 -0.0078455 -0.85853 -0.5127 0.001794
0.27288 -0.041322 1.1795 5.8544e-39 183.5 254 0 0 0 -0.010326 -0.85671 -0.51569 0.0016925
0.27495 -0.041322 1.1795 5.9927e-39 185 254 0 0 0 -0.0079251 -0.85584 -0.51717 0.0016645
0.27688 -0.041303 1.179 5.5778e-39 186.5 254 0 0 0 -0.0095855 -0.85281 -0.52213 0.0016586
0.28102 -0.041303 1.179 6.0849e-39 189.5 254 0 0 0 -0.0098146 -0.85054 -0.52582 0.0021093
0.28433 -0.041283 1.1784 5.9927e-39 192 254 0 0 0 -0.0067217 -0.84567 -0.53366 0.0024427
0.28847 -0.041283 1.1784 6.0849e-39 195 254 0 0 0 -0.0028306 -0.84294 -0.53801 0.0025241
0.29979 -0.041322 1.1795 5.6239e-39 203 254 0 0 0 0.0056956 -0.82777 -0.56104 0.0031444
0.30226 -0.041283 1.1784 6.2693e-39 205 254 0 0 0 0.0015531 -0.82854 -0.55993 0.0034148
0.30876 -0.041322 1.1795 5.4856e-39 209.5 254 0 0 0 -0.019243 -0.82914 -0.5587 0.0044962
0.31083 -0.041322 1.1795 5.2552e-39 211 254 0 0 0 -0.024339 -0.82942 -0.5581 0.0046482
0.31773 -0.041322 1.1795 6.1771e-39 216 254 0 0 0 -0.033152 -0.82012 -0.57123 0.0072264
0.32018 -0.041283 1.1784 5.8083e-39 218 254 0 0 0 -0.00017012 -0.79965 -0.60047 0.014021
0.2232 -0.038562 1.1795 5.4856e-39 403.5 254 0 0 0 -0.46594 -0.67046 -0.57739 0.066577
0.22505 -0.038525 1.1784 5.6239e-39 405 254 0 0 0 -0.44851 -0.71857 -0.5315 0.062653
0.22803 -0.038562 1.1795 6.5459e-39 407 254 0 0 0 -0.35493 -0.79187 -0.49695 0.054921
0.23274 -0.038544 1.179 5.9466e-39 410.5 254 0 0 0 -0.25616 -0.86638 -0.42868 0.031764
0.2347 -0.038525 1.1784 5.9005e-39 412 254 0 0 0 -0.22296 -0.8868 -0.40481 0.021047
0.24528 -0.039942 1.1795 6.8225e-39 270.5 254 0 0 0 -0.1012 -0.9149 -0.3908 0.0042099
0.24735 -0.039942 1.1795 6.3615e-39 272 254 0 0 0 -0.1005 -0.91012 -0.40197 0.0050466
0.24849 -0.039904 1.1784 6.0849e-39 273 254 0 0 0 -0.082619 -0.90885 -0.40887 0.0053405
0.25068 -0.039923 1.179 5.9927e-39 274.5 254 0 0 0 -0.070599 -0.89997 -0.4302 0.0059749
0.254 -0.039904 1.1784 6.2693e-39 277 254 0 0 0 -0.053364 -0.89183 -0.44921 0.0055137
0.25701 -0.039942 1.1795 7.0069e-39 279 254 0 0 0 -0.052386 -0.87969 -0.47265 0.0049221
0.25814 -0.039904 1.1784 7.3757e-39 280 254 0 0 0 -0.036569 -0.87901 -0.4754 0.0044456
0.26779 -0.039904 1.1784 7.2835e-39 287 254 0 0 0 -0.0089164 -0.85957 -0.51095 0.0020342
0.26917 -0.039904 1.1784 7.7444e-39 288 254 0 0 0 -0.0062208 -0.85857 -0.51266 0.0018651
0.27882 -0.039904 1.1784 7.56e-39 295 254 0 0 0 -0.0084272 -0.84911 -0.52815 0.0017842
0.2802 -0.039904 1.1784 7.4678e-39 296 254 0 0 0 -0.0086014 -0.84882 -0.52861 0.0019251
0.30117 -0.039942 1.1795 8.5742e-39 350 254 0 0 0 0.0085081 -0.8275 -0.5614 0.003159
0.30364 -0.039904 1.1784 8.1132e-39 352 254 0 0 0 -0.0032138 -0.82727 -0.56179 0.0036482
0.30501 -0.039904 1.1784 8.1132e-39 353 254 0 0 0 -0.011173 -0.82872 -0.55955 0.0039983
0.30639 -0.039904 1.1784 8.3898e-39 354 254 0 0 0 -0.014416 -0.82822 -0.56022 0.0041097
0.31191 -0.039904 1.1784 7.6522e-39 358 254 0 0 0 -0.022321 -0.8237 -0.56658 0.0050583
0.31329 -0.039904 1.1784 7.6522e-39 359 254 0 0 0 -0.025733 -0.82397 -0.56604 0.0057367
0.31497 -0.039942 1.1795 8.1132e-39 360 254 0 0 0 -0.027652 -0.8256 -0.56358 0.0061155
0.22113 -0.037182 1.1795 7.8366e-39 231 255 0 0 0 -0.56338 -0.53264 -0.63159 0.06656
0.22091 -0.035078 1.1784 6.5459e-39 297 255.5 0 0 0 -0.63636 -0.43974 -0.63378 0.065155
0.22091 -0.033011 1.1784 6.4537e-39 363 256 0 0 0 -0.67921 -0.38466 -0.62507 0.06207
0.21975 -0.030972 1.1795 6.6381e-39 243.5 257 0 0 0 -0.72059 -0.28037 -0.63414 0.055788
0.22091 -0.030942 1.1784 6.5459e-39 263 257 0 0 0 -0.72256 -0.29772 -0.62392 0.05747
0.21975 -0.028902 1.1795 4.8864e-39 152 258 0 0 0 -0.75424 -0.18658 -0.62953 0.043735
0.22091 -0.028874 1.1784 4.7942e-39 153 258 0 0 0 -0.76278 -0.20632 -0.61286 0.044792
0.21975 -0.026832 1.1795 6.2232e-39 341.5 258 0 0 0 -0.77168 -0.14083 -0.62022 0.038711
0.22091 -0.026806 1.1784 6.3154e-39 342.5 258 0 0 0 -0.77986 -0.1609 -0.60493 0.04008
0.22091 -0.024738 1.1784 5.9005e-39 221 259 0 0 0 -0.79759 -0.090251 -0.59641 0.028526
0.3431 -0.02475 1.179 6.7764e-39 298.5 259 0 0 0 0.59392 0.27027 -0.75777 0.0085988
0.22113 -0.022692 1.1795 6.4537e-39 261 259.5 0 0 0 -0.80249 -0.046068 -0.59488 0.02295
0.33981 -0.022002 1.1795 7.56e-39 243 260 0 0 0 0.57953 0.29544 -0.75952 0.0046824
0.34119 -0.023382 1.1795 5.0708e-39 436 259 0 0 0 0.58354 0.2858 -0.76014 0.0060771
0.34257 -0.023382 1.1795 4.9786e-39 437 259 0 0 0 0.58196 0.29655 -0.75722 0.0056105
0.22113 -0.020622 1.1795 6.4537e-39 274 260 0 0 0 -0.81314 0.0057243 -0.58203 0.014376
0.33827 -0.021302 1.179 7.1913e-39 314 260 0 0 0 0.57946 0.28916 -0.76198 0.0043923
0.22113 -0.019242 1.1795 6.1771e-39 419 260 0 0 0 -0.82128 0.034339 -0.5695 0.0091728
0.33705 -0.019242 1.1795 5.7161e-39 203 261 0 0 0 0.57433 0.30163 -0.76103 0.003283
0.22113 -0.017862 1.1795 8.021e-39 238 261 0 0 0 -0.82557 0.066619 -0.56035 0.0062516
0.33705 -0.017862 1.1795 8.021e-39 357 261 0 0 0 0.57298 0.30223 -0.76181 0.0030415
0.22229 -0.01233 1.1784 4.9786e-39 176 263 0 0 0 -0.83378 0.10085 -0.5428 0.0041807
0.33397 -0.01233 1.1784 8.5742e-39 258 263 0 0 0 0.5778 0.29072 -0.76264 0.0030616
0.33551 -0.013025 1.179 6.9607e-39 351.5 262.5 0 0 0 0.57504 0.29655 -0.76249 0.0030861
0.22251 -0.010962 1.1795 7.3757e-39 295 263 0 0 0 -0.83201 0.10487 -0.54476 0.0039287
0.33328 -0.010952 1.1784 6.3615e-39 410.5 263 0 0 0 0.58118 0.28198 -0.76336 0.0032442
0.22251 -0.0088921 1.1795 6.592e-39 354.5 263.5 0 0 0 -0.83001 0.10862 -0.54708 0.0036793
0.33137 -0.0088875 1.179 6.4997e-39 295 264 0 0 0 0.5825 0.26094 -0.76981 0.0030607
0.33291 -0.0095821 1.1795 5.5317e-39 218 264 0 0 0 0.58305 0.26861 -0.76674 0.0033453
0.22229 -0.0068156 1.1784 7.2835e-39 413 264 0 0 0 -0.83272 0.11023 -0.54261 0.0035545
0.33153 -0.0068221 1.1795 5.4395e-39 175 265 0 0 0 0.5857 0.24708 -0.77195 0.0027973
0.33291 -0.0068221 1.1795 5.163e-39 176 265 0 0 0 0.58616 0.24856 -0.77112 0.002893
0.22229 -0.0047476 1.1784 6.0389e-39 297 265 0 0 0 -0.83439 0.11739 -0.53852 0.0037624
0.33153 -0.0054421 1.1795 6.7303e-39 304 265 0 0 0 0.58593 0.23848 -0.77448 0.00261
0.22229 -0.0026795 1.1784 5.163e-39 177 266 0 0 0 -0.83245 0.12991 -0.53865 0.0037453
0.32914 -0.0026795 1.1784 7.8827e-39 262.5 266 0 0 0 0.58419 0.23389 -0.77719 0.0025411
0.22251 -0.0013021 1.1795 6.3615e-39 305 266 0 0 0 -0.83099 0.13434 -0.53983 0.003605
0.32707 -0.0013008 1.1784 6.8225e-39 411 266 0 0 0 0.57644 0.23913 -0.78137 0.0027555
0.32845 -0.0013008 1.1784 7.0991e-39 412 266 0 0 0 0.57994 0.23544 -0.7799 0.0026863
0.33015 -0.0013021 1.1795 7.3757e-39 413 266 0 0 0 0.58422 0.23286 -0.77747 0.0025299
0.22309 0.00076722 1.179 7.2835e-39 360.5 266.5 0 0 0 -0.82899 0.15108 -0.53848 0.0033662
0.32707 7.7858e-05 1.1784 5.2552e-39 211 267 0 0 0 0.5725 0.24534 -0.78234 0.0030215
0.32845 0.00076718 1.1784 6.6842e-39 291 267 0 0 0 0.57563 0.24202 -0.78107 0.0030186
0.33015 0.00076792 1.1795 6.9608e-39 292 267 0 0 0 0.58194 0.23942 -0.77719 0.0029569
0.22367 0.0028352 1.1784 7.0069e-39 414 267 0 0 0 -0.83131 0.16239 -0.53156 0.0032022
0.32845 0.0028352 1.1784 5.0708e-39 162 268 0 0 0 0.56808 0.25746 -0.78166 0.0037071
0.22367 0.0049032 1.1784 6.3154e-39 287 268 0 0 0 -0.82997 0.17336 -0.53019 0.0029209
0.32569 0.0055926 1.1784 6.9147e-39 448 268 0 0 0 0.54735 0.28735 -0.78603 0.0051078
0.32707 0.0049032 1.1784 6.7303e-39 370.5 268 0 0 0 0.5572 0.27348 -0.78405 0.0046387
0.32845 0.0049032 1.1784 6.7764e-39 371.5 268 0 0 0 0.56187 0.2656 -0.78343 0.0045355
0.22389 0.0069779 1.1795 4.7942e-39 161 269 0 0 0 -0.82646 0.18229 -0.53267 0.0028065
0.32569 0.0069713 1.1784 7.0069e-39 243 269 0 0 0 0.54196 0.29994 -0.78506 0.0056602
0.32739 0.0069779 1.1795 7.56e-39 244 269 0 0 0 0.55022 0.29075 -0.78276 0.0054511
0.32877 0.0069779 1.1795 8.2054e-39 245 269 0 0 0 0.55623 0.28136 -0.78195 0.0053731
0.22389 0.0083579 1.1795 5.6239e-39 298 269 0 0 0 -0.82605 0.1893 -0.53086 0.0026763
0.22505 0.0097286 1.1784 7.6522e-39 450 269 0 0 0 -0.82634 0.19702 -0.52758 0.0024987
0.32432 0.0097286 1.1784 5.3473e-39 189 270 0 0 0 0.52789 0.32457 -0.78485 0.0058382
0.3267 0.0083579 1.1795 7.6522e-39 401.5 269 0 0 0 0.53797 0.30617 -0.7854 0.0059336
0.32877 0.0083579 1.1795 7.4678e-39 403 269 0 0 0 0.55135 0.29267 -0.78125 0.0058021
0.22527 0.011118 1.1795 8.1132e-39 245 270 0 0 0 -0.8238 0.20063 -0.5302 0.0023513
0.32463 0.011118 1.1795 8.2054e-39 352 270 0 0 0 0.52237 0.33537 -0.784 0.0057701
0.22654 0.013182 1.179 6.4537e-39 291.5 270.5 0 0 0 -0.82151 0.20754 -0.53108 0.0023426
0.32156 0.013865 1.1784 7.2835e-39 264 271 0 0 0 0.51214 0.3533 -0.78288 0.0049019
0.32294 0.012486 1.1784 8.8508e-39 473 270 0 0 0 0.517 0.34562 -0.78311 0.0052959
0.22665 0.015258 1.1795 6.5459e-39 345 271 0 0 0 -0.81935 0.20897 -0.53385 0.0024428
0.32103 0.015251 1.179 6.7303e-39 413.5 271 0 0 0 0.5085 0.35891 -0.78269 0.004572
0.22665 0.016638 1.1795 5.9927e-39 466 271 0 0 0 -0.81854 0.2044 -0.53685 0.0025571
0.3188 0.016622 1.1784 5.3473e-39 181 272 0 0 0 0.50771 0.36786 -0.77905 0.0040201
0.32049 0.016638 1.1795 5.4395e-39 182 272 0 0 0 0.50439 0.36528 -0.78241 0.0043069
0.31466 0.019379 1.1784 7.4678e-39 461 272 0 0 0 0.51599 0.36542 -0.77474 0.0035227
0.31773 0.018018 1.1795 5.3473e-39 342 272 0 0 0 0.50443 0.37202 -0.7792 0.0037321
0.22781 0.020758 1.1784 5.7161e-39 165 273 0 0 0 -0.81141 0.20359 -0.54787 0.0029503
0.22803 0.022848 1.1795 6.6842e-39 372 273 0 0 0 -0.81152 0.19655 -0.55027 0.0030366
0.31191 0.023515 1.1784 5.9005e-39 155 274 0 0 0 0.54741 0.33163 -0.76835 0.0044158
0.31359 0.022158 1.1795 7.0991e-39 384 273 0 0 0 0.52977 0.34655 -0.77411 0.004427
0.31191 0.024894 1.1784 5.8083e-39 282 274 0 0 0 0.55 0.32229 -0.77047 0.0046428
0.22919 0.026963 1.1784 6.131e-39 261 274.5 0 0 0 -0.80737 0.18244 -0.56113 0.0031504
0.31053 0.026963 1.1784 7.0068e-39 322 274.5 0 0 0 0.56686 0.29743 -0.76825 0.0041053
0.31221 0.026298 1.1795 7.2835e-39 441 274 0 0 0 0.55312 0.30774 -0.77418 0.0047076
0.22941 0.029058 1.1795 7.9288e-39 269 275 0 0 0 -0.80869 0.17228 -0.56244 0.0031596
0.31083 0.029058 1.1795 7.6522e-39 358 275 0 0 0 0.56881 0.28288 -0.77229 0.0041382
0.22941 0.030438 1.1795 6.6381e-39 422 275 0 0 0 -0.8087 0.16739 -0.5639 0.0030721
0.30915 0.031098 1.1784 6.2693e-39 360 275.5 0 0 0 0.58123 0.27095 -0.76731 0.0035333
0.31083 0.031128 1.1795 6.3615e-39 361 275.5 0 0 0 0.57191 0.27052 -0.77443 0.0038659
0.23057 0.033166 1.1784 6.4537e-39 305 276 0 0 0 -0.80462 0.16854 -0.56937 0.003006
0.30876 0.033198 1.1795 6.4076e-39 390.5 276 0 0 0 0.58383 0.25966 -0.76924 0.0032835
0.23057 0.035234 1.1784 6.9147e-39 332.5 276.5 0 0 0 -0.80315 0.16992 -0.57103 0.0030188
0.30853 0.035498 1.1795 6.3615e-39 362.33 276.67 0 0 0 0.58568 0.25511 -0.76935 0.0030507
0.23057 0.037302 1.1784 7.4678e-39 360 277 0 0 0 -0.8025 0.17455 -0.57055 0.0030016
0.30876 0.037338 1.1795 7.7905e-39 416.5 277 0 0 0 0.58499 0.25538 -0.76978 0.003198
0.23079 0.038718 1.1795 3.78e-39 482 277 0 0 0 -0.80326 0.17893 -0.56811 0.0029852
0.23079 0.040788 1.1795 6.592e-39 298.5 278 0 0 0 -0.80342 0.18474 -0.56603 0.0029774
0.30654 0.040769 1.179 7.0069e-39 353.5 278 0 0 0 0.58736 0.26531 -0.76461 0.0027733
0.23079 0.042858 1.1795 6.3615e-39 490 278 0 0 0 -0.80345 0.19128 -0.56381 0.0029362
0.23079 0.044238 1.1795 5.9005e-39 227 279 0 0 0 -0.80214 0.1982 -0.56329 0.0028412
0.30364 0.045574 1.1784 6.5459e-39 430 279 0 0 0 0.57445 0.30267 -0.76052 0.0026026
0.30501 0.044196 1.1784 6.1771e-39 281 279 0 0 0 0.57884 0.2923 -0.76125 0.0026468
0.30393 0.046998 1.1795 4.702e-39 160 280 0 0 0 0.57207 0.3108 -0.75904 0.0026112
0.23194 0.049021 1.1784 6.6842e-39 306.5 280 0 0 0 -0.79583 0.21482 -0.56613 0.0026005
0.23332 0.04971 1.1784 7.6522e-39 382 280 0 0 0 -0.7934 0.2167 -0.56883 0.0025097
0.30088 0.04971 1.1784 6.5459e-39 431 280 0 0 0 0.56957 0.32518 -0.75489 0.0022141
0.30291 0.048823 1.1791 6.6996e-39 333 280 0 0 0 0.56882 0.32258 -0.75656 0.0023881
0.23355 0.051138 1.1795 5.0708e-39 519 280 0 0 0 -0.79416 0.22035 -0.56635 0.0024743
0.30117 0.051138 1.1795 5.5317e-39 157 281 0 0 0 0.56826 0.33119 -0.75326 0.0021067
0.23482 0.053183 1.179 7.2835e-39 308 281 0 0 0 -0.79413 0.21555 -0.56824 0.0023945
0.23608 0.053846 1.1784 8.2054e-39 381 281 0 0 0 -0.79188 0.21198 -0.5727 0.0024263
0.2995 0.052468 1.1784 6.2693e-39 283 281 0 0 0 0.56357 0.33599 -0.75465 0.0022258
0.23631 0.055278 1.1795 7.7444e-39 495 281 0 0 0 -0.79443 0.209 -0.57026 0.0024938
0.23631 0.056658 1.1795 7.4678e-39 224 282 0 0 0 -0.79576 0.20453 -0.57003 0.0026009
0.29674 0.057983 1.1784 6.0849e-39 401 282 0 0 0 0.55373 0.34485 -0.75794 0.0028339
0.29812 0.057983 1.1784 6.0849e-39 402 282 0 0 0 0.55995 0.34482 -0.75336 0.0023952
0.23631 0.058728 1.1795 7.2374e-39 408 282 0 0 0 -0.79374 0.20389 -0.57307 0.0024942
0.29565 0.059418 1.1795 4.4254e-39 503 282 0 0 0 0.54927 0.35322 -0.75732 0.0029522
0.29703 0.059418 1.1795 4.8864e-39 504 282 0 0 0 0.55382 0.3495 -0.75573 0.0026148
0.29841 0.059418 1.1795 6.0849e-39 505 282 0 0 0 0.56231 0.34669 -0.75074 0.002128
0.29427 0.060798 1.1795 5.9927e-39 210 283 0 0 0 0.53858 0.35878 -0.76237 0.0033703
0.23757 0.062838 1.179 7.7905e-39 330.5 283 0 0 0 -0.79235 0.19516 -0.57801 0.0025579
0.23884 0.063497 1.1784 6.8225e-39 394 283 0 0 0 -0.79013 0.19271 -0.58186 0.0025492
0.29261 0.063497 1.1784 7.6522e-39 433 283 0 0 0 0.52369 0.3693 -0.7677 0.0039969
0.23769 0.064938 1.1795 5.0708e-39 490 283 0 0 0 -0.79473 0.18816 -0.57707 0.0025944
0.23884 0.064876 1.1784 4.0566e-39 491 283 0 0 0 -0.79016 0.18852 -0.58318 0.0027031
0.29261 0.064876 1.1784 7.9288e-39 530 283 0 0 0 0.52032 0.37436 -0.76754 0.0041815
0.23907 0.067008 1.1795 5.8544e-39 240.5 284 0 0 0 -0.79365 0.18234 -0.58041 0.0026796
0.24022 0.066944 1.1784 5.4856e-39 241.5 284 0 0 0 -0.78821 0.18248 -0.58773 0.0029279
0.29123 0.067633 1.1784 7.3757e-39 357 284 0 0 0 0.50768 0.38702 -0.76972 0.0044222
0.29289 0.066318 1.1795 5.6239e-39 239 284 0 0 0 0.51929 0.37849 -0.76622 0.0040607
0.23907 0.069078 1.1795 7.1913e-39 407 284 0 0 0 -0.79353 0.17472 -0.5829 0.0028667
0.24022 0.069012 1.1784 7.3757e-39 408 284 0 0 0 -0.78666 0.17752 -0.59132 0.0033228
0.29151 0.069078 1.1795 6.5459e-39 445 284 0 0 0 0.50967 0.39258 -0.76559 0.0044574
0.23884 0.07108 1.1784 5.163e-39 331.5 284.5 0 0 0 -0.79061 0.17306 -0.58736 0.0032734
0.24022 0.070391 1.1784 4.8864e-39 492 284 0 0 0 -0.78634 0.17453 -0.59263 0.0034943
0.28709 0.071769 1.1784 6.3615e-39 227 285 0 0 0 0.50092 0.39662 -0.76926 0.0043622
0.28861 0.071114 1.179 7.0068e-39 377.5 284.5 0 0 0 0.50025 0.3962 -0.76992 0.0043832
0.29013 0.070458 1.1795 7.56e-39 528 284 0 0 0 0.50377 0.39627 -0.76759 0.004626
0.23884 0.073148 1.1784 7.6522e-39 260 285 0 0 0 -0.78839 0.17311 -0.59031 0.0037391
0.28516 0.073183 1.179 5.3473e-39 293.5 285 0 0 0 0.49692 0.39794 -0.77118 0.004426
0.23895 0.075253 1.179 7.56e-39 386.5 285 0 0 0 -0.78665 0.17407 -0.59235 0.004246
0.24022 0.075905 1.1784 7.56e-39 420 285 0 0 0 -0.77479 0.18215 -0.60541 0.0058957
0.28185 0.075978 1.1795 8.2976e-39 450 285 0 0 0 0.49432 0.41307 -0.76486 0.0046616
0.28296 0.074527 1.1784 6.6381e-39 386 285 0 0 0 0.49707 0.40146 -0.76925 0.0045183
0.28461 0.074598 1.1795 6.8225e-39 387 285 0 0 0 0.49847 0.40375 -0.76714 0.0044703
0.24045 0.077358 1.1795 8.021e-39 479 285 0 0 0 -0.77483 0.1792 -0.60624 0.0063229
0.2802 0.077284 1.1784 8.1132e-39 508 285 0 0 0 0.4895 0.41599 -0.76638 0.0048254
0.24045 0.078738 1.1795 7.8366e-39 536 285 0 0 0 -0.77553 0.17843 -0.60557 0.0066493
0.27882 0.078663 1.1784 5.4395e-39 175 286 0 0 0 0.48758 0.42339 -0.76355 0.0046467
0.24159 0.08073 1.1784 6.7764e-39 246.5 286 0 0 0 -0.74641 0.19842 -0.63521 0.012484
0.27771 0.080118 1.1795 5.8083e-39 248 286 0 0 0 0.48904 0.43475 -0.7562 0.0045832
0.24183 0.082878 1.1795 8.5742e-39 344 286 0 0 0 -0.75233 0.19805 -0.62832 0.01254
0.24297 0.085556 1.1784 6.4537e-39 423 286 0 0 0 -0.73016 0.23112 -0.64301 0.017472
0.27606 0.085556 1.1784 8.1132e-39 444 286 0 0 0 0.50272 0.44221 -0.74278 0.0045303
0.33354 -0.048314 1.1818 5.6239e-39 182 252 0 0 0 0.029366 -0.82926 -0.5581 0.033013
0.33354 -0.046932 1.1818 8.1132e-39 290 252 0 0 0 0.050074 -0.81969 -0.57061 0.036489
0.33546 -0.046909 1.1812 7.6522e-39 291.5 252 0 0 0 0.12085 -0.81156 -0.57163 0.045868
0.26095 -0.044166 1.1818 5.4856e-39 207.5 253 0 0 0 -0.047358 -0.86601 -0.49779 0.0035128
0.2651 -0.044166 1.1818 5.3012e-39 210.5 253 0 0 0 -0.02046 -0.86043 -0.50917 0.0022755
0.26718 -0.044166 1.1818 5.4395e-39 212 253 0 0 0 -0.014869 -0.85967 -0.51064 0.0020043
0.29068 -0.044166 1.1818 7.7444e-39 229 253 0 0 0 -0.011528 -0.84849 -0.52909 0.0030479
0.29345 -0.044166 1.1818 8.021e-39 231 253 0 0 0 -0.012318 -0.84339 -0.53716 0.0030377
0.29483 -0.044166 1.1818 8.2054e-39 232 253 0 0 0 -0.010637 -0.84238 -0.53877 0.0033806
0.29621 -0.044166 1.1818 8.2054e-39 233 253 0 0 0 -0.0075088 -0.84105 -0.54091 0.0036533
0.29898 -0.044166 1.1818 7.3757e-39 235 253 0 0 0 0.00056764 -0.83786 -0.54588 0.0040291
0.30036 -0.044166 1.1818 7.2835e-39 236 253 0 0 0 0.0024085 -0.83599 -0.54873 0.0040052
0.30283 -0.044124 1.1807 7.9288e-39 238 253 0 0 0 -0.001112 -0.83165 -0.5553 0.0039928
0.30451 -0.044166 1.1818 8.3898e-39 239 253 0 0 0 -0.0066768 -0.83245 -0.55406 0.004198
0.30727 -0.044166 1.1818 8.021e-39 241 253 0 0 0 -0.016206 -0.83261 -0.55362 0.0046855
0.30865 -0.044166 1.1818 7.6522e-39 242 253 0 0 0 -0.014963 -0.83394 -0.55165 0.0047695
0.31004 -0.044166 1.1818 7.6522e-39 243 253 0 0 0 -0.013552 -0.83718 -0.54676 0.0050543
0.33285 -0.044858 1.1818 6.4076e-39 349.5 252.5 0 0 0 0.10742 -0.79498 -0.59705 0.044261
0.33553 -0.045045 1.1807 5.9005e-39 381.67 252.33 0 0 0 0.22026 -0.77541 -0.5918 0.054464
0.2575 -0.042784 1.1818 7.9288e-39 353 253 0 0 0 -0.070891 -0.87268 -0.48312 0.0042789
0.25888 -0.042784 1.1818 8.482e-39 354 253 0 0 0 -0.060691 -0.87198 -0.48576 0.0040986
0.26303 -0.042784 1.1818 8.1132e-39 357 253 0 0 0 -0.028806 -0.86268 -0.50493 0.002706
0.26485 -0.042743 1.1807 7.7444e-39 358.5 253 0 0 0 -0.020289 -0.86074 -0.50864 0.0023135
0.26925 -0.042784 1.1818 7.5601e-39 361.5 253 0 0 0 -0.010498 -0.86018 -0.50988 0.0019132
0.27106 -0.042743 1.1807 6.3615e-39 363 253 0 0 0 -0.0093844 -0.85964 -0.51082 0.0017885
0.27314 -0.042743 1.1807 6.6381e-39 364.5 253 0 0 0 -0.011471 -0.85876 -0.51225 0.001805
0.27547 -0.042784 1.1818 7.0991e-39 366 253 0 0 0 -0.0099703 -0.86117 -0.50822 0.0019302
0.27685 -0.042784 1.1818 7.0069e-39 367 253 0 0 0 -0.0067986 -0.86007 -0.51013 0.0017956
0.27824 -0.042784 1.1818 6.4537e-39 368 253 0 0 0 -0.011988 -0.85925 -0.51142 0.0020536
0.281 -0.042784 1.1818 6.5459e-39 370 253 0 0 0 -0.017687 -0.85658 -0.51572 0.0020139
0.2828 -0.042743 1.1807 6.131e-39 371.5 253 0 0 0 -0.012625 -0.85319 -0.52145 0.0023399
0.28515 -0.042784 1.1818 5.9005e-39 373 253 0 0 0 -0.01291 -0.85209 -0.52324 0.002584
0.28764 -0.042743 1.1807 6.6381e-39 375 253 0 0 0 -0.010392 -0.84767 -0.53042 0.0025625
0.28902 -0.042743 1.1807 6.6381e-39 376 253 0 0 0 -0.0063088 -0.84513 -0.53452 0.0027232
0.3009 -0.042764 1.1812 5.7161e-39 384.5 253 0 0 0 0.0036288 -0.83271 -0.55369 0.0038065
0.30283 -0.042743 1.1807 6.1771e-39 386 253 0 0 0 -7.6244e-05 -0.83087 -0.55646 0.003821
0.3052 -0.042784 1.1818 5.9927e-39 387.5 253 0 0 0 -0.010858 -0.83279 -0.55348 0.0042769
0.30698 -0.042743 1.1807 5.6239e-39 389 253 0 0 0 -0.016854 -0.83095 -0.55609 0.0045632
0.30905 -0.042743 1.1807 5.4856e-39 390.5 253 0 0 0 -0.019237 -0.83236 -0.5539 0.0048249
0.31112 -0.042743 1.1807 5.6239e-39 392 253 0 0 0 -0.017895 -0.8342 -0.55117 0.0051333
0.3128 -0.042784 1.1818 6.2693e-39 393 253 0 0 0 -0.019521 -0.83775 -0.54571 0.0052914
0.31941 -0.042743 1.1807 5.5317e-39 398 253 0 0 0 -0.036425 -0.82632 -0.56202 0.0073994
0.32854 -0.042764 1.1812 5.8083e-39 404.5 253 0 0 0 0.093855 -0.78647 -0.61046 0.034815
0.22293 -0.040018 1.1818 6.2693e-39 254 254 0 0 0 -0.41308 -0.70289 -0.57906 0.061577
0.24091 -0.040018 1.1818 5.9927e-39 267 254 0 0 0 -0.10937 -0.92091 -0.37412 0.0032617
0.24298 -0.040018 1.1818 6.2232e-39 268.5 254 0 0 0 -0.11223 -0.91681 -0.38323 0.0040977
0.2492 -0.041401 1.1818 6.1771e-39 164 254 0 0 0 -0.11201 -0.90009 -0.42106 0.005686
0.25116 -0.041382 1.1812 5.7622e-39 165.5 254 0 0 0 -0.092561 -0.89514 -0.43606 0.0059836
0.25311 -0.041362 1.1807 5.6239e-39 167 254 0 0 0 -0.084231 -0.88814 -0.45179 0.0056366
0.25473 -0.041401 1.1818 5.8083e-39 168 254 0 0 0 -0.080089 -0.88249 -0.46346 0.0053356
0.25668 -0.041382 1.1812 5.3012e-39 171.5 254 0 0 0 -0.06904 -0.87612 -0.47713 0.0044937
0.2683 -0.041362 1.1807 5.4395e-39 180 254 0 0 0 -0.012526 -0.85855 -0.51257 0.0018594
0.27935 -0.041362 1.1807 5.4395e-39 188 254 0 0 0 -0.011503 -0.85484 -0.51876 0.002076
0.30145 -0.041362 1.1807 6.0849e-39 204 254 0 0 0 0.0072808 -0.82841 -0.56008 0.0033699
0.30491 -0.041362 1.1807 5.7161e-39 206.5 254 0 0 0 -0.0079402 -0.8283 -0.56023 0.0039968
0.30698 -0.041362 1.1807 5.4395e-39 208 254 0 0 0 -0.015153 -0.82978 -0.55788 0.0043085
0.31319 -0.041362 1.1807 5.2552e-39 212.5 254 0 0 0 -0.024589 -0.83455 -0.55039 0.0053434
0.31665 -0.041362 1.1807 5.9005e-39 215 254 0 0 0 -0.04103 -0.83039 -0.55567 0.0060114
0.22155 -0.038636 1.1818 5.5317e-39 402 254 0 0 0 -0.47334 -0.62646 -0.61927 0.071202
0.22686 -0.038599 1.1807 6.0849e-39 406 254 0 0 0 -0.36806 -0.77189 -0.51838 0.059524
0.22962 -0.038599 1.1807 6.3615e-39 408 254 0 0 0 -0.30004 -0.82848 -0.47286 0.045689
0.23101 -0.038599 1.1807 5.9927e-39 409 254 0 0 0 -0.26841 -0.8543 -0.44511 0.036776
0.23791 -0.03998 1.1807 6.2693e-39 265 254 0 0 0 -0.13364 -0.91536 -0.3798 0.0052046
0.23929 -0.03998 1.1807 6.1771e-39 266 254 0 0 0 -0.1174 -0.91958 -0.37496 0.0036389
0.25587 -0.03998 1.1807 6.4537e-39 278 254 0 0 0 -0.064655 -0.88282 -0.46525 0.0051882
0.21878 -0.037253 1.1818 7.3757e-39 229 255 0 0 0 -0.5674 -0.4995 -0.65464 0.071312
0.22017 -0.037253 1.1818 7.4678e-39 230 255 0 0 0 -0.54788 -0.52972 -0.64748 0.071246
0.21937 -0.035163 1.1812 6.5229e-39 295.5 255.5 0 0 0 -0.62207 -0.42508 -0.65752 0.068614
0.21937 -0.033089 1.1812 7.2835e-39 361.5 256 0 0 0 -0.66895 -0.3299 -0.66609 0.062402
0.21878 -0.031032 1.1818 6.4076e-39 242.5 257 0 0 0 -0.70615 -0.26332 -0.65728 0.059093
0.21878 -0.028957 1.1818 5.163e-39 151 258 0 0 0 -0.74022 -0.18037 -0.64772 0.04694
0.21878 -0.026883 1.1818 6.0849e-39 340.5 258 0 0 0 -0.76468 -0.1256 -0.63205 0.037961
0.34566 -0.026167 1.1807 6.3615e-39 196 259 0 0 0 0.59953 0.25506 -0.75862 0.010421
0.21937 -0.024797 1.1812 6.3154e-39 219.5 259 0 0 0 -0.77999 -0.065227 -0.62238 0.027864
0.21957 -0.022951 1.1811 6.8839e-39 293 259.33 0 0 0 -0.79416 -0.03581 -0.60665 0.021626
0.34151 -0.022023 1.1807 7.4678e-39 244 260 0 0 0 0.58227 0.30128 -0.75511 0.004917
0.34322 -0.022044 1.1818 7.4678e-39 245 260 0 0 0 0.57307 0.31432 -0.75683 0.0048156
0.3446 -0.023427 1.1818 5.4395e-39 438 259 0 0 0 0.57281 0.31008 -0.75878 0.00575
0.21996 -0.020642 1.1807 5.9927e-39 273 260 0 0 0 -0.80873 0.020114 -0.58783 0.012557
0.34099 -0.020652 1.1812 7.053e-39 387.5 260 0 0 0 0.57954 0.306 -0.75531 0.0041779
0.21996 -0.01926 1.1807 5.9927e-39 418 260 0 0 0 -0.81396 0.047653 -0.57896 0.0084172
0.33875 -0.01926 1.1807 5.9927e-39 204 261 0 0 0 0.57913 0.3026 -0.75699 0.003468
0.34046 -0.019279 1.1818 6.3615e-39 205 261 0 0 0 0.57889 0.3058 -0.75589 0.0038081
0.21996 -0.017879 1.1807 7.6522e-39 237 261 0 0 0 -0.81947 0.075912 -0.56808 0.0058865
0.22076 -0.016506 1.1812 6.2693e-39 391.5 261 0 0 0 -0.82043 0.087165 -0.56506 0.0051648
0.33737 -0.016498 1.1807 5.4395e-39 169 262 0 0 0 0.5754 0.30275 -0.75977 0.0031052
0.33907 -0.017896 1.1818 7.8366e-39 358 261 0 0 0 0.57698 0.3034 -0.75831 0.0033774
0.22076 -0.015123 1.1812 5.67e-39 207.5 262 0 0 0 -0.82325 0.092482 -0.56009 0.004821
0.33769 -0.015131 1.1818 6.8225e-39 292 262 0 0 0 0.57416 0.30198 -0.76102 0.0032504
0.22076 -0.013051 1.1812 5.8775e-39 266.5 262.5 0 0 0 -0.82535 0.097835 -0.55609 0.0044474
0.22076 -0.010978 1.1812 7.4218e-39 293.5 263 0 0 0 -0.82468 0.10481 -0.5558 0.0039449
0.33599 -0.010973 1.1807 6.8225e-39 412 263 0 0 0 0.57573 0.28 -0.76821 0.0035992
0.22076 -0.0089048 1.1812 6.9146e-39 353 263.5 0 0 0 -0.82582 0.10987 -0.55313 0.0036407
0.33322 -0.0082099 1.1807 7.0991e-39 374 264 0 0 0 0.58625 0.2539 -0.76932 0.0030439
0.33477 -0.0089045 1.1812 6.2232e-39 297 264 0 0 0 0.5783 0.26511 -0.77155 0.0034514
0.33631 -0.0096004 1.1818 5.6239e-39 220 264 0 0 0 0.57549 0.26883 -0.77236 0.0037737
0.22076 -0.0068318 1.1812 6.7303e-39 411.5 264 0 0 0 -0.82663 0.11346 -0.55119 0.0034494
0.33493 -0.0068351 1.1818 5.0708e-39 177 265 0 0 0 0.57773 0.24843 -0.7775 0.0031923
0.22076 -0.0047589 1.1812 6.108e-39 295.5 265 0 0 0 -0.82667 0.12064 -0.54961 0.0036146
0.33184 -0.0040659 1.1807 4.9786e-39 456 265 0 0 0 0.58635 0.23213 -0.77608 0.0024833
0.33322 -0.0047566 1.1807 5.6701e-39 396.5 265 0 0 0 0.58666 0.23528 -0.7749 0.0026156
0.22076 -0.0026859 1.1812 5.3934e-39 175.5 266 0 0 0 -0.82613 0.13188 -0.54783 0.0036816
0.33184 -0.0026846 1.1807 8.2054e-39 264 266 0 0 0 0.5857 0.23195 -0.77663 0.0024624
0.33322 -0.0026846 1.1807 8.2054e-39 265 266 0 0 0 0.58584 0.23007 -0.77709 0.0024788
0.22155 -0.0013046 1.1818 6.4537e-39 304 266 0 0 0 -0.82556 0.13786 -0.54721 0.0035388
0.33184 -0.0013033 1.1807 7.1913e-39 414 266 0 0 0 0.58476 0.2312 -0.77756 0.0024796
0.33354 -0.0013046 1.1818 6.7303e-39 415 266 0 0 0 0.58123 0.22951 -0.7807 0.002662
0.22155 0.00076939 1.1818 7.2835e-39 359 266.5 0 0 0 -0.82511 0.15258 -0.54398 0.003248
0.22272 0.0014593 1.1807 8.5742e-39 263 267 0 0 0 -0.82641 0.15589 -0.54106 0.0034159
0.33184 0.00076865 1.1807 6.9147e-39 293 267 0 0 0 0.58255 0.23819 -0.77711 0.0027952
0.33354 0.00076939 1.1818 6.5919e-39 294 267 0 0 0 0.57834 0.23388 -0.78155 0.0029982
0.22155 0.0028434 1.1818 7.3757e-39 412 267 0 0 0 -0.8247 0.16569 -0.54076 0.0031968
0.22272 0.0028406 1.1807 7.2835e-39 413 267 0 0 0 -0.82559 0.16334 -0.54011 0.0032567
0.33115 0.0028406 1.1807 5.3934e-39 163.5 268 0 0 0 0.57862 0.24645 -0.77747 0.0034048
0.33354 0.0028434 1.1818 5.0708e-39 165 268 0 0 0 0.57566 0.2422 -0.781 0.0036156
0.22155 0.0049173 1.1818 6.3615e-39 285 268 0 0 0 -0.82413 0.17794 -0.53772 0.0028827
0.22272 0.0049127 1.1807 6.3154e-39 286 268 0 0 0 -0.82496 0.17519 -0.53735 0.0029061
0.33123 0.004914 1.181 6.4998e-39 373 268 0 0 0 0.57583 0.2561 -0.77642 0.0040722
0.33354 0.0049173 1.1818 6.4076e-39 374.5 268 0 0 0 0.57437 0.24735 -0.78033 0.0041065
0.22272 0.0069846 1.1807 4.8864e-39 160 269 0 0 0 -0.82507 0.18504 -0.53388 0.0028028
0.33078 0.0069913 1.1818 7.9288e-39 246 269 0 0 0 0.56516 0.27115 -0.77915 0.0051468
0.33285 0.0069913 1.1818 7.8366e-39 247.5 269 0 0 0 0.5725 0.26221 -0.77685 0.0047005
0.22282 0.0090612 1.1812 6.8686e-39 372.5 269 0 0 0 -0.82357 0.19405 -0.53299 0.0025538
0.2241 0.0097472 1.1807 7.56e-39 449 269 0 0 0 -0.82481 0.19599 -0.53036 0.002491
0.32701 0.0097472 1.1807 5.3934e-39 190.5 270 0 0 0 0.53513 0.31624 -0.78334 0.0060695
0.32908 0.0097472 1.1807 5.4395e-39 192 270 0 0 0 0.541 0.30589 -0.78342 0.0062918
0.33078 0.0083739 1.1818 6.8225e-39 404 269 0 0 0 0.55842 0.28114 -0.78046 0.0057467
0.33216 0.0083739 1.1818 6.4537e-39 405 269 0 0 0 0.56681 0.27299 -0.77731 0.0053318
0.22293 0.011139 1.1818 6.2693e-39 243 270 0 0 0 -0.82424 0.20347 -0.52842 0.0023674
0.2241 0.011129 1.1807 7.0991e-39 244 270 0 0 0 -0.82369 0.20173 -0.52995 0.0022808
0.32663 0.011139 1.1818 7.6522e-39 353 270 0 0 0 0.52519 0.32725 -0.78555 0.0059883
0.3287 0.011139 1.1818 7.56e-39 354.5 270 0 0 0 0.53242 0.31642 -0.78512 0.0064078
0.22509 0.012974 1.1811 6.5152e-39 327 270.33 0 0 0 -0.82304 0.20499 -0.5297 0.0022289
0.32355 0.013891 1.1807 7.7444e-39 265 271 0 0 0 0.51167 0.34762 -0.78572 0.0054257
0.32509 0.013207 1.1812 7.7444e-39 370 270.5 0 0 0 0.51354 0.34045 -0.78764 0.0056626
0.32663 0.012522 1.1818 7.0069e-39 475 270 0 0 0 0.51891 0.33367 -0.78702 0.0058979
0.3287 0.012522 1.1818 3.6878e-39 544.5 270 0 0 0 0.5249 0.32268 -0.78763 0.0061385
0.2257 0.015287 1.1818 5.7161e-39 344 271 0 0 0 -0.82186 0.20406 -0.53189 0.0023293
0.32386 0.015287 1.1818 6.2693e-39 415 271 0 0 0 0.50291 0.3508 -0.78995 0.0054208
0.2257 0.01667 1.1818 6.9147e-39 465 271 0 0 0 -0.82251 0.19984 -0.53249 0.0024179
0.32217 0.016654 1.1807 5.9005e-39 183 272 0 0 0 0.50187 0.359 -0.78693 0.0047223
0.2257 0.018052 1.1818 6.1771e-39 240 272 0 0 0 -0.82102 0.19916 -0.53504 0.0024439
0.22686 0.018725 1.1807 6.9608e-39 319 272 0 0 0 -0.81675 0.20137 -0.54071 0.0026375
0.31665 0.019416 1.1807 7.2835e-39 462 272 0 0 0 0.5058 0.36845 -0.78 0.0039353
0.31887 0.018735 1.1812 6.3154e-39 403 272 0 0 0 0.49939 0.36816 -0.78426 0.0043339
0.3211 0.018052 1.1818 5.0708e-39 344 272 0 0 0 0.49806 0.36371 -0.78718 0.0044854
0.22708 0.020818 1.1818 5.7161e-39 164 273 0 0 0 -0.81908 0.19429 -0.53977 0.0027546
0.31527 0.020798 1.1807 6.2693e-39 231 273 0 0 0 0.51425 0.36069 -0.77811 0.0041672
0.31695 0.020818 1.1818 6.4537e-39 232 273 0 0 0 0.50418 0.36147 -0.78431 0.0044134
