# .PCD v.7 - Point Cloud Data file format
VERSION .7
FIELDS x y z rgb u v vx vy vz normal_x normal_y normal_z curvature
SIZE 4 4 4 4 4 4 4 4 4 4 4 4 4
TYPE F F F F F F F F F F F F F
COUNT 1 1 1 1 1 1 1 1 1 1 1 1 1
WIDTH 540
HEIGHT 1
VIEWPOINT 0 0 0 1 0 0 0
POINTS 540
DATA ascii
-0.010628 -0.022879 0.98053 5.5317e-39 184.5 262 0 0 0 -0.4567 0.49932 -0.73628 0.0075283
0.030707 -0.022906 0.98169 5.3012e-39 270.5 262 0 0 0 0.45878 0.5001 -0.73445 0.0050734
-0.010636 -0.021748 0.9813 8.6664e-39 343.5 262 0 0 0 -0.45636 0.49212 -0.74131 0.0075527
-0.0089068 -0.021157 0.98053 7.8827e-39 382.5 262 0 0 0 -0.42756 0.50349 -0.75079 0.0079239
-0.0077626 -0.020592 0.98091 7.0991e-39 421 262 0 0 0 -0.40583 0.50909 -0.75904 0.0078808
0.027814 -0.020592 0.98091 5.2552e-39 466 262 0 0 0 0.41099 0.50788 -0.75706 0.0054594
0.028949 -0.021157 0.98053 5.7622e-39 422.5 262 0 0 0 0.42958 0.50718 -0.74715 0.0053369
-0.0069979 -0.019062 0.98091 6.4844e-39 268.67 263 0 0 0 -0.39291 0.50388 -0.76924 0.0076383
-0.0048897 -0.018283 0.98014 8.4359e-39 344.5 263 0 0 0 -0.34897 0.51439 -0.78334 0.0073816
0.02474 -0.01867 0.9804 6.6995e-39 335.33 263 0 0 0 0.35451 0.51349 -0.78144 0.0075443
0.027056 -0.019067 0.98117 6.9147e-39 302.33 263 0 0 0 0.39733 0.50535 -0.766 0.0061692
-0.0047012 -0.016763 0.98065 6.0542e-39 334.67 263.33 0 0 0 -0.34113 0.5088 -0.79041 0.0071966
-0.0031708 -0.016569 0.98053 5.4395e-39 296 263.5 0 0 0 -0.31453 0.51414 -0.79796 0.0077911
0.023214 -0.016569 0.98053 6.6381e-39 346 263.5 0 0 0 0.3222 0.5077 -0.79902 0.008366
0.024965 -0.016589 0.98169 6.8224e-39 347.5 263.5 0 0 0 0.35928 0.49799 -0.78926 0.0079325
-0.0025988 -0.014855 0.98091 5.0247e-39 292.5 264 0 0 0 -0.29921 0.50889 -0.80716 0.0079954
-0.0008762 -0.014843 0.98014 5.163e-39 294 264 0 0 0 -0.27171 0.51713 -0.81164 0.0084426
0.019765 -0.014843 0.98014 7.8366e-39 345 264 0 0 0 0.25505 0.51286 -0.81971 0.010277
0.020911 -0.014843 0.98014 7.56e-39 346 264 0 0 0 0.2817 0.50795 -0.81402 0.0098193
0.022459 -0.015236 0.98091 7.2835e-39 312.67 264 0 0 0 0.30757 0.50308 -0.80766 0.0094133
-0.0020245 -0.013707 0.98091 6.6381e-39 394 264 0 0 0 -0.28434 0.50591 -0.81438 0.0086874
-0.0008769 -0.013132 0.98091 6.1771e-39 432.5 264 0 0 0 -0.26991 0.50527 -0.81966 0.0088852
0.00084419 -0.013128 0.98053 5.7853e-39 437.5 264 0 0 0 -0.2366 0.51452 -0.82419 0.009787
0.0031373 -0.012549 0.98014 4.8403e-39 480.5 264 0 0 0 -0.18437 0.52487 -0.83098 0.011284
0.0060041 -0.012549 0.98014 4.8864e-39 483 264 0 0 0 -0.11873 0.53599 -0.83583 0.01348
0.010591 -0.012549 0.98014 4.8864e-39 487 264 0 0 0 0.016953 0.5444 -0.83866 0.015088
0.014604 -0.012549 0.98014 5.4856e-39 490.5 264 0 0 0 0.11447 0.52879 -0.841 0.013516
0.017093 -0.012935 0.9804 5.8391e-39 466.33 264 0 0 0 0.18021 0.51685 -0.83689 0.012902
0.019207 -0.013133 0.98091 5.7853e-39 291.5 264.5 0 0 0 0.23849 0.50711 -0.82823 0.011478
0.020937 -0.013138 0.9813 5.6239e-39 293 264.5 0 0 0 0.27859 0.50039 -0.81976 0.010699
0.0014195 -0.011421 0.98169 7.2835e-39 267 265 0 0 0 -0.21599 0.50428 -0.83609 0.011365
0.0031398 -0.011411 0.98091 6.9147e-39 268.5 265 0 0 0 -0.17691 0.51309 -0.83991 0.012677
0.0048632 -0.010842 0.9813 6.592e-39 319.5 265 0 0 0 -0.14676 0.5141 -0.84508 0.014226
0.006772 -0.011026 0.98065 6.3615e-39 304.67 265 0 0 0 -0.090999 0.52365 -0.84706 0.015168
0.0086819 -0.010641 0.9804 6.3e-39 339.33 265 0 0 0 -0.050453 0.5208 -0.85219 0.016201
0.011173 -0.010837 0.98091 5.8083e-39 325 265 0 0 0 0.030677 0.52248 -0.8521 0.01547
0.01289 -0.010833 0.98053 5.7162e-39 326.5 265 0 0 0 0.066 0.52323 -0.84963 0.014317
0.014622 -0.010842 0.9813 5.8313e-39 328 265 0 0 0 0.11449 0.51687 -0.84837 0.014588
0.016729 -0.011035 0.98143 5.6239e-39 313.33 265 0 0 0 0.16517 0.50793 -0.84541 0.014338
0.0094517 -0.0091162 0.98091 6.0849e-39 440 265 0 0 0 -0.01833 0.50566 -0.86254 0.016276
0.012905 -0.0091234 0.98169 5.3473e-39 443 265 0 0 0 0.066319 0.49955 -0.86375 0.016212
0.046249 -0.039016 0.98247 6.6381e-39 385 257 0 0 0 0.69731 0.39214 -0.59999 0.021707
-0.029615 -0.037867 0.98247 6.7303e-39 394 257 0 0 0 -0.38459 0.74383 -0.54664 0.028182
0.046249 -0.037867 0.98247 5.0708e-39 456 257 0 0 0 0.6918 0.39766 -0.60273 0.021152
0.0451 -0.035568 0.98247 8.3898e-39 343 258 0 0 0 0.67093 0.41966 -0.61135 0.019234
-0.029247 -0.032903 0.983 6.5152e-39 387 258.33 0 0 0 -0.44638 0.68187 -0.57948 0.028615
-0.022736 -0.033296 0.98326 5.0708e-39 456 258 0 0 0 -0.47731 0.62712 -0.61555 0.020734
-0.021001 -0.032132 0.98286 5.6239e-39 267.5 259 0 0 0 -0.47812 0.60629 -0.63546 0.018661
0.041668 -0.032707 0.98286 8.1593e-39 302 259 0 0 0 0.62992 0.44507 -0.63648 0.01515
0.043207 -0.032903 0.983 8.021e-39 284 259 0 0 0 0.63989 0.43945 -0.63041 0.015363
-0.021586 -0.030995 0.98326 6.0849e-39 379 259 0 0 0 -0.482 0.59694 -0.64136 0.019298
-0.019269 -0.03097 0.98247 6.6381e-39 381 259 0 0 0 -0.47594 0.58721 -0.65472 0.016953
-0.01812 -0.028671 0.98247 5.163e-39 290 260 0 0 0 -0.47594 0.56598 -0.67317 0.015549
0.039352 -0.028671 0.98247 6.3615e-39 376 260 0 0 0 0.57722 0.46915 -0.66837 0.0089095
0.040518 -0.029257 0.98286 5.8083e-39 323.5 260 0 0 0 0.59481 0.46351 -0.65678 0.010604
-0.016978 -0.026958 0.98286 5.7622e-39 288.5 260.5 0 0 0 -0.48633 0.54253 -0.68494 0.013025
-0.015821 -0.026372 0.98247 5.163e-39 181 261 0 0 0 -0.4848 0.531 -0.69499 0.011604
0.035904 -0.026372 0.98247 5.3473e-39 273 261 0 0 0 0.53784 0.48142 -0.69207 0.0059123
0.037054 -0.027522 0.98247 5.163e-39 466 260 0 0 0 0.55319 0.4765 -0.68333 0.0071987
0.038203 -0.027522 0.98247 5.5317e-39 467 260 0 0 0 0.56735 0.47153 -0.67512 0.0079025
-0.015259 -0.024668 0.98326 6.1771e-39 351.5 261 0 0 0 -0.49575 0.50851 -0.70402 0.0099089
0.033044 -0.024083 0.98286 5.3934e-39 466.5 261 0 0 0 0.4952 0.49226 -0.71586 0.005222
0.035357 -0.024668 0.98326 5.9927e-39 424 261 0 0 0 0.5322 0.48395 -0.69466 0.0055471
-0.013522 -0.022924 0.98247 5.3473e-39 182 262 0 0 0 -0.48772 0.49274 -0.72065 0.0083802
0.032482 -0.022942 0.98326 5.2552e-39 272 262 0 0 0 0.48857 0.49192 -0.72063 0.0050986
-0.012373 -0.021775 0.98247 8.021e-39 342 262 0 0 0 -0.48133 0.48626 -0.7293 0.0078184
-0.010653 -0.020634 0.98286 6.7303e-39 418.5 262 0 0 0 -0.46145 0.48571 -0.74239 0.0078203
0.030744 -0.021784 0.98286 6.4537e-39 379.5 262 0 0 0 0.46241 0.49816 -0.7335 0.0049116
-0.0089244 -0.019476 0.98247 5.5317e-39 230 263 0 0 0 -0.43315 0.49072 -0.75603 0.0077837
-0.0077812 -0.018341 0.98326 7.8366e-39 342 263 0 0 0 -0.41036 0.4923 -0.76762 0.0079102
0.02788 -0.018341 0.98326 6.8225e-39 373 263 0 0 0 0.42108 0.49403 -0.76068 0.0062048
0.029019 -0.018909 0.98286 6.4537e-39 321.5 263 0 0 0 0.43575 0.49432 -0.75218 0.0057013
-0.0066255 -0.017177 0.98247 7.1913e-39 413 263 0 0 0 -0.38877 0.49209 -0.77891 0.0081919
-0.0054761 -0.016027 0.98247 4.702e-39 174 264 0 0 0 -0.36367 0.49257 -0.79065 0.007913
0.02673 -0.017191 0.98326 6.0849e-39 451 263 0 0 0 0.40131 0.49296 -0.77198 0.0067141
-0.0043266 -0.014878 0.98247 5.2552e-39 291 264 0 0 0 -0.33271 0.49194 -0.80455 0.008285
0.025004 -0.01489 0.98326 8.021e-39 349.5 264 0 0 0 0.36533 0.48654 -0.7936 0.0092654
-0.0043301 -0.013739 0.98326 5.9927e-39 392 264 0 0 0 -0.33336 0.48891 -0.80612 0.008451
-0.0026025 -0.013153 0.98247 5.9927e-39 430.5 264 0 0 0 -0.29779 0.49925 -0.81368 0.0082869
0.022695 -0.013734 0.98286 6.3615e-39 416.5 264 0 0 0 0.31568 0.48942 -0.81291 0.010787
-0.00087829 -0.01143 0.98247 7.7444e-39 265 265 0 0 0 -0.26631 0.49424 -0.82753 0.0097215
0.00084643 -0.010859 0.98286 7.3757e-39 316 265 0 0 0 -0.2336 0.49253 -0.83836 0.011689
0.0031448 -0.01028 0.98247 6.8686e-39 367.5 265 0 0 0 -0.17919 0.49717 -0.84895 0.013896
0.0060184 -0.01028 0.98247 6.0849e-39 370 265 0 0 0 -0.11104 0.50264 -0.85733 0.016477
0.017527 -0.010288 0.98326 6.4537e-39 380 265 0 0 0 0.19328 0.48873 -0.85076 0.015022
0.01905 -0.011049 0.98273 5.8083e-39 315.33 265 0 0 0 0.23018 0.49108 -0.84016 0.013621
0.020978 -0.011439 0.98326 4.8864e-39 284 265 0 0 0 0.27634 0.48174 -0.8316 0.012649
0.0048728 -0.009138 0.98326 5.2552e-39 436 265 0 0 0 -0.14319 0.48971 -0.86005 0.016082
0.0065956 -0.0091344 0.98286 5.5778e-39 437.5 265 0 0 0 -0.098813 0.49356 -0.86408 0.017434
0.0083173 -0.0091307 0.98247 5.9927e-39 439 265 0 0 0 -0.049643 0.49981 -0.86471 0.017811
0.011195 -0.0091344 0.98286 5.8083e-39 441.5 265 0 0 0 0.022872 0.4952 -0.86848 0.01761
0.01464 -0.0091307 0.98247 5.2552e-39 444.5 265 0 0 0 0.11503 0.49201 -0.86296 0.015916
0.016363 -0.0091307 0.98247 5.4395e-39 446 265 0 0 0 0.1554 0.4878 -0.85902 0.01553
0.0094668 -0.0079812 0.98247 5.163e-39 234 266 0 0 0 -0.023603 0.49211 -0.87021 0.017805
-0.029685 -0.03911 0.98483 8.7586e-39 352 257 0 0 0 -0.36089 0.75843 -0.54271 0.031364
0.046323 -0.036776 0.98404 8.1132e-39 240 258 0 0 0 0.70659 0.39496 -0.58714 0.021017
-0.026805 -0.035077 0.98483 7.6522e-39 307.5 258 0 0 0 -0.457 0.67676 -0.57719 0.025621
-0.025097 -0.034528 0.98561 7.56e-39 357 258 0 0 0 -0.47303 0.65468 -0.58961 0.025351
-0.023905 -0.034473 0.98404 7.3757e-39 358 258 0 0 0 -0.47111 0.64205 -0.60484 0.022839
0.045208 -0.034501 0.98483 7.1913e-39 421 258 0 0 0 0.69585 0.40691 -0.59179 0.019851
-0.03085 -0.032785 0.98522 6.8686e-39 354 258.5 0 0 0 -0.46042 0.69573 -0.55134 0.032955
-0.028533 -0.032197 0.98483 7.0069e-39 261 259 0 0 0 -0.49038 0.65701 -0.5726 0.031306
-0.023357 -0.032786 0.98522 5.4395e-39 360.5 258.5 0 0 0 -0.49273 0.62176 -0.60879 0.023702
0.04402 -0.032171 0.98404 7.9288e-39 362 259 0 0 0 0.65735 0.42832 -0.62003 0.016928
-0.029121 -0.031057 0.98522 6.0849e-39 372.5 259 0 0 0 -0.50179 0.65139 -0.56912 0.032418
-0.022772 -0.031044 0.98483 5.9927e-39 378 259 0 0 0 -0.49872 0.60495 -0.62074 0.022469
-0.020451 -0.03102 0.98404 6.3615e-39 380 259 0 0 0 -0.48448 0.58751 -0.64816 0.018408
0.041718 -0.03102 0.98404 5.8083e-39 461 259 0 0 0 0.62888 0.44401 -0.63826 0.013876
0.042869 -0.03102 0.98404 5.3473e-39 462 259 0 0 0 0.63677 0.44102 -0.63247 0.014295
-0.029709 -0.029916 0.98561 5.163e-39 471 259 0 0 0 -0.52226 0.64577 -0.55698 0.034577
-0.02279 -0.029916 0.98561 5.9005e-39 477 259 0 0 0 -0.51939 0.59418 -0.61415 0.02438
-0.021048 -0.029321 0.98502 5.8313e-39 383 259.5 0 0 0 -0.50156 0.58222 -0.63988 0.02038
-0.019308 -0.029304 0.98444 5.6239e-39 384.5 259.5 0 0 0 -0.48874 0.57354 -0.65741 0.018262
0.041768 -0.029328 0.98522 5.8083e-39 324.5 260 0 0 0 0.62985 0.45369 -0.63045 0.0135
0.04292 -0.029328 0.98522 5.67e-39 325.5 260 0 0 0 0.64515 0.44646 -0.62005 0.014194
-0.018553 -0.027211 0.98509 6.0542e-39 323.33 260.33 0 0 0 -0.49744 0.55644 -0.66553 0.018228
0.037113 -0.026414 0.98404 5.6239e-39 274 261 0 0 0 0.56617 0.47425 -0.67419 0.0078501
0.039042 -0.026805 0.9843 5.7161e-39 339.67 260.67 0 0 0 0.57741 0.47175 -0.66637 0.0082153
0.040631 -0.02761 0.98561 5.4395e-39 469 260 0 0 0 0.62475 0.45909 -0.6316 0.012504
-0.017018 -0.024717 0.98522 5.8544e-39 350 261 0 0 0 -0.51399 0.51283 -0.68762 0.012442
-0.015859 -0.024131 0.98483 6.2693e-39 404 261 0 0 0 -0.50982 0.50506 -0.69642 0.011344
0.03599 -0.024131 0.98483 5.4395e-39 469 261 0 0 0 0.54516 0.48186 -0.68601 0.0061869
0.037142 -0.025283 0.98483 6.8225e-39 381 261 0 0 0 0.56522 0.47758 -0.67263 0.0073019
0.038325 -0.025304 0.98561 6.5459e-39 382 261 0 0 0 0.57627 0.47459 -0.66534 0.0076711
-0.01529 -0.022988 0.98522 5.6239e-39 180.5 262 0 0 0 -0.51782 0.49164 -0.70011 0.010691
0.033659 -0.022961 0.98404 5.4395e-39 273 262 0 0 0 0.51242 0.48812 -0.70652 0.0049761
0.03481 -0.022961 0.98404 5.7161e-39 274 262 0 0 0 0.52401 0.4859 -0.69951 0.0053801
0.036019 -0.022997 0.98561 5.7161e-39 275 262 0 0 0 0.54565 0.48201 -0.68551 0.0060967
-0.014719 -0.021844 0.98561 6.1771e-39 340 262 0 0 0 -0.51707 0.4898 -0.70195 0.010283
-0.013164 -0.021047 0.9843 6.6074e-39 391.33 262 0 0 0 -0.49908 0.48238 -0.71988 0.0085264
0.03078 -0.020658 0.98404 5.67e-39 468.5 262 0 0 0 0.46333 0.49491 -0.73511 0.0052387
0.033116 -0.021255 0.98503 5.8314e-39 426 262 0 0 0 0.50564 0.49135 -0.70916 0.0052225
0.034852 -0.021259 0.98522 5.9005e-39 427.5 262 0 0 0 0.52954 0.48682 -0.69469 0.0057209
-0.012989 -0.019538 0.98561 5.3012e-39 182.5 263 0 0 0 -0.50432 0.47695 -0.71985 0.0089119
-0.010482 -0.019138 0.98483 5.8083e-39 236.33 263 0 0 0 -0.4642 0.48047 -0.74409 0.0084172
-0.0089387 -0.018355 0.98404 7.0991e-39 341 263 0 0 0 -0.43495 0.48389 -0.75939 0.007996
0.030629 -0.019148 0.98535 5.8083e-39 305.33 263 0 0 0 0.47072 0.49168 -0.73258 0.0057616
0.032559 -0.019538 0.98561 5.0708e-39 272 263 0 0 0 0.50184 0.48995 -0.71281 0.006077
-0.0089529 -0.017232 0.98561 6.8225e-39 409 263 0 0 0 -0.44609 0.47356 -0.75944 0.008934
-0.0072148 -0.016635 0.98444 6.085e-39 292.5 263.5 0 0 0 -0.40291 0.48146 -0.77837 0.0084899
0.027541 -0.01645 0.98483 6.9454e-39 315.67 263.67 0 0 0 0.42056 0.49068 -0.76313 0.0074821
0.029089 -0.016648 0.98522 6.4075e-39 351 263.5 0 0 0 0.44786 0.48534 -0.75091 0.0069608
-0.0066467 -0.014925 0.98561 4.8864e-39 289 264 0 0 0 -0.40249 0.47284 -0.78385 0.0095048
-0.0054892 -0.014914 0.98483 4.9786e-39 290 264 0 0 0 -0.37387 0.47829 -0.79464 0.0089198
0.026772 -0.014914 0.98483 8.3898e-39 351 264 0 0 0 0.40735 0.48381 -0.77459 0.008664
-0.0049153 -0.013191 0.98522 5.7161e-39 428.5 264 0 0 0 -0.35762 0.47784 -0.80236 0.009251
-0.0031823 -0.012599 0.98404 5.6239e-39 467 264 0 0 0 -0.3168 0.48383 -0.81581 0.0086801
0.022731 -0.012604 0.98444 5.0708e-39 172.5 265 0 0 0 0.32419 0.4754 -0.81786 0.012461
0.025229 -0.013373 0.98457 5.9005e-39 337.33 264.33 0 0 0 0.37345 0.47431 -0.79722 0.010701
-0.0043405 -0.011466 0.98561 6.8225e-39 262 265 0 0 0 -0.34296 0.46862 -0.81411 0.0096956
-0.0024175 -0.011076 0.98509 7.3756e-39 296.67 265 0 0 0 -0.30296 0.47684 -0.82513 0.009546
-0.0008804 -0.010305 0.98483 7.2835e-39 364 265 0 0 0 -0.27187 0.47827 -0.83507 0.010578
0.00027181 -0.010305 0.98483 7.1913e-39 365 265 0 0 0 -0.24719 0.48216 -0.84049 0.011767
0.019843 -0.010297 0.98404 6.9147e-39 382 265 0 0 0 0.24608 0.47448 -0.84517 0.014603
0.020995 -0.010297 0.98404 6.8225e-39 383 265 0 0 0 0.27688 0.46709 -0.83974 0.013707
0.02256 -0.011079 0.98535 5.6547e-39 318.33 265 0 0 0 0.31956 0.4634 -0.82653 0.013648
0.025641 -0.011466 0.98561 5.3473e-39 288 265 0 0 0 0.38842 0.45432 -0.8017 0.012305
-0.0008811 -0.0091598 0.98561 6.1771e-39 431 265 0 0 0 -0.27558 0.46785 -0.83974 0.01115
0.001424 -0.0091525 0.98483 5.163e-39 433 265 0 0 0 -0.22075 0.47388 -0.85247 0.013673
0.0031523 -0.0085759 0.98483 5.5318e-39 330.25 265.5 0 0 0 -0.17411 0.47829 -0.86077 0.015481
0.0048806 -0.0080003 0.98483 5.7161e-39 230 266 0 0 0 -0.14241 0.47624 -0.8677 0.016665
0.0060328 -0.0080003 0.98483 5.9005e-39 231 266 0 0 0 -0.10336 0.48258 -0.86973 0.018465
0.010642 -0.0080003 0.98483 5.163e-39 235 266 0 0 0 0.01207 0.48446 -0.87473 0.018741
0.014098 -0.0080003 0.98483 5.7161e-39 238 266 0 0 0 0.095131 0.47692 -0.87378 0.017373
0.017562 -0.0085796 0.98522 5.67e-39 344 265.5 0 0 0 0.19615 0.46624 -0.86264 0.015899
0.019096 -0.0087706 0.98509 5.8083e-39 379.67 265.33 0 0 0 0.22864 0.46207 -0.85686 0.015455
0.021028 -0.0091598 0.98561 6.2693e-39 450 265 0 0 0 0.28561 0.45461 -0.84366 0.014953
0.0068025 -0.0072337 0.98509 5.04e-39 273.67 266 0 0 0 -0.084742 0.47067 -0.87823 0.018717
0.0087188 -0.0072301 0.98456 5.4088e-39 275.33 266 0 0 0 -0.036764 0.47883 -0.87714 0.018978
0.011412 -0.0072337 0.98509 4.9786e-39 277.67 266 0 0 0 0.024857 0.47194 -0.88128 0.018921
0.012941 -0.0074211 0.98444 5.7161e-39 268.5 266 0 0 0 0.07478 0.47548 -0.87654 0.018032
0.01487 -0.0072337 0.98509 7.1605e-39 280.67 266 0 0 0 0.12434 0.46623 -0.87588 0.01699
0.016403 -0.0074238 0.98483 6.8224e-39 271.5 266 0 0 0 0.15189 0.46429 -0.87256 0.016784
0.0094932 -0.0051217 0.98522 5.9927e-39 419 266 0 0 0 -0.011852 0.45698 -0.8894 0.019091
0.011803 -0.0057005 0.98561 6.3615e-39 390 266 0 0 0 0.041516 0.45641 -0.8888 0.01828
0.012956 -0.0057005 0.98561 6.7303e-39 391 266 0 0 0 0.076176 0.45224 -0.88864 0.018388
0.047626 -0.040358 0.98719 8.5742e-39 344 257 0 0 0 0.79775 0.31909 -0.51165 0.018455
0.047645 -0.038642 0.98759 5.9928e-39 421.5 257 0 0 0 0.78734 0.34452 -0.51127 0.01856
0.047664 -0.036923 0.98798 7.9288e-39 241 258 0 0 0 0.78584 0.35799 -0.50428 0.017648
-0.026271 -0.034556 0.9864 7.6522e-39 356 258 0 0 0 -0.4826 0.67279 -0.56075 0.029363
0.046471 -0.035161 0.98719 7.9749e-39 383 258 0 0 0 0.76129 0.36874 -0.53336 0.019892
-0.026875 -0.032858 0.98739 6.0619e-39 357.5 258.5 0 0 0 -0.50864 0.64809 -0.56681 0.031697
-0.025127 -0.032838 0.9868 5.8544e-39 359 258.5 0 0 0 -0.50726 0.63658 -0.5809 0.028669
-0.023963 -0.032248 0.9864 6.0849e-39 265 259 0 0 0 -0.50757 0.62776 -0.59017 0.026612
0.045298 -0.032838 0.9868 7.8366e-39 305 259 0 0 0 0.70909 0.41261 -0.5718 0.019381
-0.030912 -0.031119 0.98719 6.2693e-39 371 259 0 0 0 -0.50262 0.67196 -0.54391 0.036332
-0.026313 -0.031144 0.98798 6.4537e-39 375 259 0 0 0 -0.52885 0.62773 -0.5712 0.029886
-0.025157 -0.031144 0.98798 6.5459e-39 376 259 0 0 0 -0.53124 0.61544 -0.58224 0.029969
-0.023982 -0.031119 0.98719 6.0849e-39 377 259 0 0 0 -0.52378 0.60739 -0.59727 0.027292
0.044126 -0.031094 0.9864 5.163e-39 463 259 0 0 0 0.69086 0.42396 -0.58564 0.017822
-0.028602 -0.029964 0.98719 5.4395e-39 472 259 0 0 0 -0.53527 0.63446 -0.55762 0.033309
-0.024579 -0.029988 0.98798 5.7622e-39 475.5 259 0 0 0 -0.53581 0.6031 -0.59092 0.028677
-0.022827 -0.028809 0.98719 5.4395e-39 286 260 0 0 0 -0.53202 0.58336 -0.61372 0.024643
0.044161 -0.029386 0.98719 5.8083e-39 326.5 260 0 0 0 0.6969 0.43061 -0.5735 0.016688
-0.022845 -0.027676 0.98798 6.0849e-39 392 260 0 0 0 -0.53835 0.57551 -0.61561 0.025207
-0.021103 -0.027087 0.98758 5.9927e-39 285 260.5 0 0 0 -0.52988 0.56825 -0.62953 0.022626
-0.019362 -0.026499 0.98719 5.2552e-39 178 261 0 0 0 -0.52977 0.55211 -0.64383 0.021087
0.041455 -0.026877 0.98693 5.3166e-39 341.67 260.67 0 0 0 0.64352 0.4589 -0.61261 0.01336
0.042989 -0.027066 0.9868 5.0708e-39 375 260.5 0 0 0 0.65456 0.45586 -0.60311 0.013996
-0.018587 -0.024952 0.98693 5.7469e-39 331 261 0 0 0 -0.5387 0.53024 -0.65471 0.018292
0.037202 -0.02417 0.9864 5.0708e-39 470 261 0 0 0 0.57124 0.47772 -0.66744 0.0076264
0.039146 -0.024567 0.98693 5.5932e-39 442 261 0 0 0 0.60839 0.46806 -0.64092 0.0099615
0.04129 -0.025354 0.98759 6.2232e-39 384.5 261 0 0 0 0.64739 0.46161 -0.60647 0.012525
-0.018222 -0.023052 0.98798 5.2552e-39 178 262 0 0 0 -0.55866 0.4992 -0.66234 0.014949
-0.017038 -0.023016 0.9864 5.4395e-39 179 262 0 0 0 -0.53712 0.49956 -0.67966 0.013123
0.037231 -0.023034 0.98719 5.4395e-39 276 262 0 0 0 0.57876 0.47967 -0.65952 0.0082598
0.03898 -0.023043 0.98759 5.0708e-39 277.5 262 0 0 0 0.6078 0.47674 -0.63506 0.009561
-0.017059 -0.02131 0.98759 6.8686e-39 356.5 262 0 0 0 -0.55173 0.48777 -0.67652 0.013161
-0.015504 -0.021098 0.98666 6.9454e-39 377.67 262 0 0 0 -0.52964 0.48431 -0.69637 0.010317
0.036655 -0.021302 0.98719 5.8083e-39 429 262 0 0 0 0.56204 0.48756 -0.66813 0.0070404
0.038995 -0.021897 0.98798 5.8083e-39 386.5 262 0 0 0 0.6056 0.48341 -0.63211 0.0096264
-0.017066 -0.019007 0.98798 5.5778e-39 239 263 0 0 0 -0.55779 0.47473 -0.68081 0.012426
-0.01532 -0.018992 0.98719 6.108e-39 240.5 263 0 0 0 -0.53731 0.47264 -0.69851 0.010712
-0.012999 -0.018399 0.9864 7.7444e-39 303.5 263 0 0 0 -0.51104 0.47082 -0.71914 0.0088998
-0.011268 -0.018399 0.9864 7.0069e-39 305 263 0 0 0 -0.48975 0.47293 -0.73245 0.0090035
0.031431 -0.018399 0.9864 6.3615e-39 376 263 0 0 0 0.48961 0.48839 -0.72233 0.0063147
0.033363 -0.018789 0.98666 5.9312e-39 342.67 263 0 0 0 0.51812 0.48786 -0.70253 0.0064621
0.034907 -0.018984 0.9868 5.9927e-39 326.5 263 0 0 0 0.54251 0.48466 -0.68614 0.007411
0.036105 -0.019585 0.98798 5.5317e-39 275 263 0 0 0 0.56271 0.48547 -0.66909 0.008437
-0.014754 -0.017273 0.98798 7.2835e-39 404 263 0 0 0 -0.54291 0.45796 -0.70393 0.010785
-0.013015 -0.016688 0.98758 6.0389e-39 447 263 0 0 0 -0.52263 0.45965 -0.71804 0.0099562
-0.010698 -0.016678 0.98699 5.9005e-39 368.75 263.25 0 0 0 -0.47836 0.46857 -0.74271 0.0097028
-0.0089601 -0.016091 0.9864 4.9786e-39 171 264 0 0 0 -0.45047 0.46947 -0.75939 0.0094384
-0.007806 -0.016091 0.9864 5.2552e-39 172 264 0 0 0 -0.43203 0.47329 -0.76769 0.0093971
0.030879 -0.016681 0.98719 6.3384e-39 353 263.5 0 0 0 0.48923 0.4832 -0.72606 0.0075391
0.033209 -0.016691 0.98778 6.5228e-39 355.75 263.5 0 0 0 0.52163 0.48147 -0.70434 0.0077512
0.034949 -0.017273 0.98798 5.7161e-39 458 263 0 0 0 0.5491 0.47576 -0.68713 0.0089447
-0.01013 -0.014961 0.98798 5.4395e-39 286 264 0 0 0 -0.48352 0.45915 -0.74524 0.010892
-0.0089672 -0.014949 0.98719 5.163e-39 287 264 0 0 0 -0.45173 0.46328 -0.76244 0.0099862
-0.0078123 -0.014949 0.98719 4.8864e-39 288 264 0 0 0 -0.43403 0.46465 -0.77183 0.010011
0.027969 -0.014937 0.9864 8.021e-39 352 264 0 0 0 0.44211 0.47765 -0.7592 0.0093054
0.029123 -0.014937 0.9864 7.56e-39 353 264 0 0 0 0.45273 0.47564 -0.75419 0.009307
0.030326 -0.014961 0.98798 7.3757e-39 354 264 0 0 0 0.48721 0.47033 -0.7358 0.0096348
-0.0089744 -0.013227 0.98798 5.8544e-39 424.5 264 0 0 0 -0.45879 0.4555 -0.76291 0.010728
-0.0072366 -0.013219 0.98739 5.5778e-39 426.5 264 0 0 0 -0.41935 0.4612 -0.78195 0.010176
-0.005498 -0.012629 0.9864 5.2552e-39 465 264 0 0 0 -0.37995 0.4688 -0.79741 0.01003
0.024507 -0.012629 0.9864 4.8864e-39 174 265 0 0 0 0.37615 0.46559 -0.80109 0.011713
0.027215 -0.013405 0.98693 6.2693e-39 339 264.33 0 0 0 0.42996 0.46716 -0.77259 0.010911
0.028769 -0.013027 0.98745 5.4396e-39 259 264.67 0 0 0 0.45734 0.46234 -0.75966 0.011391
0.030326 -0.013805 0.98798 6.5459e-39 423 264 0 0 0 0.4863 0.46501 -0.73978 0.010237
-0.0066626 -0.010916 0.98798 7.2374e-39 309.5 265 0 0 0 -0.41022 0.45322 -0.7914 0.010849
-0.0051177 -0.010714 0.98719 7.1912e-39 327.33 265 0 0 0 -0.36722 0.46055 -0.80811 0.010383
-0.0031899 -0.010321 0.9864 7.56e-39 362 265 0 0 0 -0.32253 0.46781 -0.82288 0.010208
0.023353 -0.010321 0.9864 6.3615e-39 385 265 0 0 0 0.34323 0.4563 -0.82096 0.013932
0.024911 -0.010714 0.98719 5.9005e-39 353.33 265 0 0 0 0.38558 0.44983 -0.80559 0.013279
0.026858 -0.011494 0.98798 5.0708e-39 289 265 0 0 0 0.43099 0.44713 -0.78379 0.012752
0.02917 -0.011494 0.98798 5.4395e-39 291 265 0 0 0 0.46951 0.44451 -0.76287 0.012736
-0.0043491 -0.0086002 0.98759 5.8544e-39 302.5 265.5 0 0 0 -0.34958 0.45649 -0.81817 0.010984
-0.002616 -0.0086002 0.98758 5.7622e-39 304 265.5 0 0 0 -0.31087 0.45999 -0.83172 0.010672
-0.0008818 -0.0080131 0.9864 5.3473e-39 180 266 0 0 0 -0.27984 0.4586 -0.84343 0.011405
0.000657 -0.0083999 0.98666 5.5317e-39 267 265.67 0 0 0 -0.24596 0.46405 -0.85098 0.012888
0.019891 -0.0080131 0.9864 5.8083e-39 243 266 0 0 0 0.2542 0.45032 -0.85592 0.01712
0.021045 -0.0080131 0.9864 6.3615e-39 244 266 0 0 0 0.28588 0.44306 -0.84969 0.015973
0.022794 -0.0085968 0.98719 6.592e-39 348.5 265.5 0 0 0 0.33227 0.4429 -0.83273 0.016121
0.02531 -0.0087941 0.98772 6.2385e-39 385 265.33 0 0 0 0.39613 0.43536 -0.80842 0.013891
-0.00088251 -0.0068646 0.98719 5.4395e-39 288 266 0 0 0 -0.28085 0.45177 -0.84677 0.011796
0.00085003 -0.0068673 0.98759 5.1169e-39 289.5 266 0 0 0 -0.24561 0.45292 -0.85705 0.013566
0.0031574 -0.0068591 0.9864 4.9786e-39 291.5 266 0 0 0 -0.18158 0.45703 -0.87072 0.01619
0.0048884 -0.0068591 0.9864 4.702e-39 293 266 0 0 0 -0.139 0.4602 -0.87687 0.017981
0.017583 -0.0068591 0.9864 6.9147e-39 304 266 0 0 0 0.1981 0.44613 -0.87277 0.016408
0.019322 -0.0068618 0.9868 7.053e-39 305.5 266 0 0 0 0.24006 0.44083 -0.8649 0.016397
0.021062 -0.0068646 0.98719 5.163e-39 331 266 0 0 0 0.28592 0.43263 -0.85503 0.016198
0.022235 -0.00687 0.98798 5.8083e-39 338 266 0 0 0 0.32243 0.42998 -0.8433 0.01748
0.025702 -0.00687 0.98798 7.4678e-39 341 266 0 0 0 0.39711 0.42243 -0.81477 0.014554
-0.00088321 -0.0051363 0.98798 5.8544e-39 410 266 0 0 0 -0.2857 0.44089 -0.85088 0.012162
0.001428 -0.005134 0.98759 6.0389e-39 412 266 0 0 0 -0.22792 0.44096 -0.86811 0.014983
0.0031611 -0.005134 0.98758 6.0158e-39 413.5 266 0 0 0 -0.18399 0.44346 -0.87721 0.016784
0.0048943 -0.005134 0.98759 5.7622e-39 415 266 0 0 0 -0.13866 0.44423 -0.88512 0.018505
0.0066207 -0.0051289 0.9866 5.9927e-39 416.5 266 0 0 0 -0.08762 0.44641 -0.89053 0.018963
0.0083505 -0.005128 0.9864 6.0388e-39 418 266 0 0 0 -0.046436 0.45051 -0.89156 0.019338
0.011044 -0.0049357 0.9864 5.8698e-39 430.67 266 0 0 0 0.019607 0.44866 -0.89349 0.018424
0.012967 -0.004551 0.9864 5.3473e-39 453 266 0 0 0 0.074406 0.44037 -0.89473 0.017741
0.014701 -0.0051289 0.9866 6.0158e-39 423.5 266 0 0 0 0.11963 0.44591 -0.88705 0.017948
0.017017 -0.005131 0.98699 6.4767e-39 425.5 266 0 0 0 0.17364 0.43559 -0.88324 0.01773
0.019334 -0.005133 0.98739 6.3845e-39 427.5 266 0 0 0 0.23366 0.42921 -0.87246 0.016357
0.021079 -0.0051363 0.98798 6.4075e-39 429 266 0 0 0 0.29488 0.42329 -0.85666 0.016747
0.022235 -0.0057142 0.98798 7.8366e-39 399 266 0 0 0 0.32124 0.41843 -0.84954 0.017118
0.0031624 -0.0034024 0.98798 5.67e-39 238.5 267 0 0 0 -0.18256 0.43741 -0.88054 0.016457
0.0048962 -0.0028244 0.98798 6.5919e-39 271.5 267 0 0 0 -0.13739 0.43707 -0.88887 0.017621
0.006626 -0.0028226 0.98739 6.2002e-39 273 267 0 0 0 -0.087165 0.43327 -0.89704 0.01807
0.0089345 -0.002822 0.98719 5.8314e-39 281 267 0 0 0 -0.028337 0.43318 -0.90086 0.017782
0.011245 -0.0028222 0.98719 6.0849e-39 289 267 0 0 0 0.021805 0.43093 -0.90212 0.017029
0.012977 -0.0028222 0.98719 6.9147e-39 291 267 0 0 0 0.072438 0.42832 -0.90072 0.016391
0.014709 -0.002822 0.98719 6.7994e-39 292.5 267 0 0 0 0.11977 0.42575 -0.89688 0.016428
0.017027 -0.0028233 0.98758 6.9147e-39 294.5 267 0 0 0 0.17476 0.42137 -0.88989 0.016163
0.019341 -0.0028238 0.98778 7.537e-39 296.5 267 0 0 0 0.232 0.41789 -0.87838 0.015581
0.021079 -0.0034024 0.98798 7.1913e-39 254 267 0 0 0 0.29264 0.41124 -0.86328 0.016074
0.0066271 -0.0010902 0.98759 6.7764e-39 392.5 267 0 0 0 -0.089395 0.43133 -0.89776 0.016882
0.008938 -0.0010902 0.98759 7.053e-39 394.5 267 0 0 0 -0.030861 0.42538 -0.90449 0.016558
0.011254 -0.0010906 0.98798 7.3757e-39 396.5 267 0 0 0 0.022834 0.42474 -0.90503 0.015395
0.012987 -0.0010906 0.98798 7.56e-39 398 267 0 0 0 0.07435 0.42183 -0.90362 0.015189
0.015299 -0.0010906 0.98798 8.2976e-39 400 267 0 0 0 0.13416 0.41765 -0.89865 0.015003
0.016455 -0.0010906 0.98798 8.2976e-39 401 267 0 0 0 0.1556 0.41399 -0.89688 0.015695
0.007208 6.5276e-05 0.98798 6.1771e-39 457 267 0 0 0 -0.08102 0.4239 -0.90208 0.01598
0.0089418 6.5276e-05 0.98798 5.6239e-39 459.5 267 0 0 0 -0.036849 0.42125 -0.90619 0.01591
0.011254 6.5276e-05 0.98798 5.5317e-39 462.5 267 0 0 0 0.019709 0.41581 -0.90924 0.01511
0.012987 6.5276e-05 0.98798 5.9927e-39 464 267 0 0 0 0.070175 0.41483 -0.90719 0.014638
0.015299 6.5276e-05 0.98798 5.9927e-39 466 267 0 0 0 0.12964 0.41518 -0.90046 0.014553
0.048898 -0.039298 0.98956 6.6381e-39 387 257 0 0 0 0.82492 0.32102 -0.46525 0.015722
0.047702 -0.035218 0.98877 7.9288e-39 384 258 0 0 0 0.79445 0.36894 -0.48241 0.017338
0.047142 -0.033496 0.98917 7.7444e-39 250.5 259 0 0 0 0.78357 0.38446 -0.48806 0.016122
-0.027113 -0.030406 0.98903 5.8698e-39 440.33 259 0 0 0 -0.55721 0.61887 -0.55364 0.034507
0.045407 -0.030602 0.98917 5.3473e-39 369 259.5 0 0 0 0.75278 0.4108 -0.51436 0.016639
-0.028647 -0.028855 0.98877 5.5317e-39 281 260 0 0 0 -0.56227 0.61759 -0.54994 0.034784
-0.026355 -0.028878 0.98956 5.0708e-39 283 260 0 0 0 -0.57007 0.60175 -0.55939 0.032351
-0.024598 -0.028855 0.98877 5.1169e-39 284.5 260 0 0 0 -0.5522 0.59004 -0.589 0.02941
-0.024618 -0.02772 0.98956 5.9927e-39 390.5 260 0 0 0 -0.5668 0.58221 -0.5829 0.029507
-0.022882 -0.026563 0.98956 5.163e-39 175 261 0 0 0 -0.56263 0.56455 -0.60393 0.027282
0.044232 -0.027698 0.98877 5.4395e-39 472 260 0 0 0 0.70836 0.4461 -0.54701 0.015035
-0.022882 -0.025405 0.98956 4.702e-39 292 261 0 0 0 -0.56273 0.55807 -0.60983 0.026557
-0.021128 -0.025385 0.98877 5.3012e-39 293.5 261 0 0 0 -0.55865 0.54603 -0.6243 0.024225
-0.019393 -0.024228 0.98877 6.6381e-39 401 261 0 0 0 -0.56094 0.51418 -0.64882 0.017181
0.04134 -0.024228 0.98877 5.4395e-39 473.5 261 0 0 0 0.66385 0.46619 -0.58478 0.011922
0.043092 -0.024816 0.98917 5.8544e-39 430.5 261 0 0 0 0.6821 0.46541 -0.56404 0.012559
-0.019408 -0.023089 0.98956 5.2552e-39 177 262 0 0 0 -0.5782 0.50262 -0.6427 0.018186
0.04134 -0.023071 0.98877 5.0708e-39 279.5 262 0 0 0 0.64924 0.47465 -0.5943 0.010639
0.043109 -0.023089 0.98956 5.2552e-39 281 262 0 0 0 0.69207 0.4629 -0.55387 0.011524
-0.018822 -0.021344 0.98917 6.4076e-39 354.25 262 0 0 0 -0.58379 0.48631 -0.65014 0.016502
0.039026 -0.020757 0.98877 5.7622e-39 475.5 262 0 0 0 0.61568 0.48076 -0.62435 0.01012
0.041365 -0.021349 0.98936 5.7161e-39 433 262 0 0 0 0.65635 0.47335 -0.58749 0.011209
-0.018822 -0.019029 0.98917 5.2551e-39 237.5 263 0 0 0 -0.58256 0.46978 -0.66327 0.014491
0.036915 -0.018834 0.98903 6.2079e-39 345.67 263 0 0 0 0.58595 0.4817 -0.65164 0.010049
0.038854 -0.019225 0.9893 5.6547e-39 312.33 263 0 0 0 0.61826 0.47774 -0.62411 0.010838
-0.018251 -0.016722 0.98956 6.4537e-39 442.5 263 0 0 0 -0.58261 0.45153 -0.67579 0.014145
-0.017086 -0.016715 0.98917 6.4997e-39 443.5 263 0 0 0 -0.56492 0.45537 -0.68811 0.012512
-0.015541 -0.01652 0.98903 5.9927e-39 458.67 263 0 0 0 -0.55758 0.45271 -0.69582 0.012101
0.034977 -0.01613 0.98877 6.9147e-39 257 264 0 0 0 0.56156 0.47173 -0.67979 0.01032
0.036163 -0.017301 0.98956 5.6239e-39 459 263 0 0 0 0.58558 0.47489 -0.65694 0.010854
-0.015351 -0.014979 0.98917 5.4395e-39 281.5 264 0 0 0 -0.55482 0.44159 -0.70511 0.010947
-0.01303 -0.014973 0.98877 5.2091e-39 283.5 264 0 0 0 -0.52622 0.44932 -0.72195 0.011131
-0.011295 -0.014973 0.98877 5.5317e-39 285 264 0 0 0 -0.50436 0.45348 -0.73484 0.011302
0.031507 -0.014973 0.98877 7.3757e-39 355 264 0 0 0 0.50943 0.46802 -0.7221 0.0096143
0.033242 -0.014973 0.98877 7.6522e-39 356.5 264 0 0 0 0.53763 0.46359 -0.7043 0.010211
0.035005 -0.014985 0.98956 7.9288e-39 358 264 0 0 0 0.57172 0.45907 -0.67999 0.011983
-0.014778 -0.013248 0.98956 6.4998e-39 419.5 264 0 0 0 -0.55011 0.43077 -0.71541 0.011956
-0.013038 -0.013246 0.98936 6.1541e-39 421 264 0 0 0 -0.52529 0.43785 -0.72963 0.011826
-0.010721 -0.013243 0.98917 5.7852e-39 423 264 0 0 0 -0.4953 0.44362 -0.74691 0.011635
0.031121 -0.013045 0.98877 5.6854e-39 261 264.67 0 0 0 0.50534 0.45106 -0.73565 0.011176
0.033263 -0.013246 0.98936 6.2002e-39 304.5 264.5 0 0 0 0.54399 0.44992 -0.70827 0.011838
0.035005 -0.013827 0.98956 7.3757e-39 429 264 0 0 0 0.56956 0.45391 -0.68525 0.012372
-0.01362 -0.011512 0.98956 7.0991e-39 254 265 0 0 0 -0.52518 0.42975 -0.73451 0.011405
-0.010533 -0.011126 0.98956 7.4064e-39 289.67 265 0 0 0 -0.49438 0.43303 -0.75371 0.011873
-0.0089816 -0.010924 0.98877 7.514e-39 307.5 265 0 0 0 -0.45785 0.44219 -0.77126 0.011253
-0.0078248 -0.010924 0.98877 7.4679e-39 308.5 265 0 0 0 -0.43273 0.44806 -0.7823 0.011026
0.02688 -0.010346 0.98877 5.9927e-39 388 265 0 0 0 0.43739 0.43598 -0.78652 0.013364
0.028422 -0.010732 0.98877 5.8083e-39 356.33 265 0 0 0 0.4638 0.44102 -0.76837 0.012942
0.030752 -0.011123 0.9893 5.4703e-39 325.33 265 0 0 0 0.50538 0.43618 -0.74454 0.012108
-0.0089888 -0.0086177 0.98956 5.7162e-39 298.5 265.5 0 0 0 -0.45695 0.43389 -0.77649 0.011007
-0.0072509 -0.0086158 0.98936 5.5778e-39 300 265.5 0 0 0 -0.42273 0.44046 -0.79202 0.011428
-0.0055112 -0.0086108 0.98877 5.7162e-39 301.5 265.5 0 0 0 -0.3784 0.44991 -0.80895 0.010734
0.024566 -0.0080324 0.98877 8.1132e-39 247 266 0 0 0 0.38213 0.42931 -0.81834 0.01517
0.02689 -0.008614 0.98917 6.7303e-39 352 265.5 0 0 0 0.43659 0.42593 -0.79245 0.013904
0.028632 -0.0086158 0.98936 6.7072e-39 353.5 265.5 0 0 0 0.46878 0.42272 -0.7756 0.014007
0.030374 -0.0091965 0.98956 5.8083e-39 458 265 0 0 0 0.49914 0.41953 -0.75819 0.013243
-0.0066733 -0.0068811 0.98956 4.9786e-39 283 266 0 0 0 -0.41318 0.43636 -0.7993 0.011247
-0.004935 -0.0068783 0.98917 4.8864e-39 284.5 266 0 0 0 -0.3664 0.44525 -0.81701 0.011553
-0.0026191 -0.0068755 0.98877 5.4395e-39 286.5 266 0 0 0 -0.32297 0.44744 -0.83396 0.011839
0.023409 -0.0068755 0.98877 6.7303e-39 339 266 0 0 0 0.35566 0.42563 -0.83207 0.015978
0.024586 -0.0068811 0.98956 7.2835e-39 340 266 0 0 0 0.38612 0.41899 -0.8218 0.015243
0.026901 -0.0068811 0.98956 7.8366e-39 342 266 0 0 0 0.4421 0.40989 -0.79783 0.014517
0.028638 -0.0068811 0.98956 8.1132e-39 343.5 266 0 0 0 0.47175 0.4077 -0.78181 0.014126
-0.0066733 -0.0057233 0.98956 6.2693e-39 374 266 0 0 0 -0.41211 0.43486 -0.80066 0.011451
-0.0047426 -0.0053359 0.9893 6.0849e-39 396.33 266 0 0 0 -0.3654 0.43842 -0.82114 0.011409
-0.0026202 -0.0051421 0.98917 6.108e-39 408.5 266 0 0 0 -0.32546 0.4386 -0.83768 0.012013
0.00027289 -0.0051403 0.98877 5.9005e-39 411 266 0 0 0 -0.2603 0.43863 -0.86015 0.013704
0.023023 -0.0049475 0.98877 6.2693e-39 441 266 0 0 0 0.34773 0.41354 -0.84147 0.016913
0.025344 -0.0053346 0.98903 7.3756e-39 422.33 266 0 0 0 0.3938 0.41097 -0.82221 0.014372
-0.0043578 -0.002829 0.98956 5.3012e-39 263.5 267 0 0 0 -0.35149 0.4282 -0.83252 0.011168
-0.0026212 -0.002829 0.98956 5.3934e-39 265 267 0 0 0 -0.33049 0.43121 -0.83954 0.012031
-0.00088392 -0.0028267 0.98877 5.209e-39 266.5 267 0 0 0 -0.29218 0.43376 -0.85234 0.012192
0.0008514 -0.0028278 0.98917 5.3935e-39 268 267 0 0 0 -0.25272 0.43185 -0.86582 0.013421
0.0031649 -0.0022483 0.98877 7.4679e-39 301.5 267 0 0 0 -0.18572 0.43314 -0.88198 0.015688
0.021096 -0.0022483 0.98877 8.2054e-39 342 267 0 0 0 0.28891 0.40895 -0.86561 0.015336
0.02284 -0.0028278 0.98917 7.8136e-39 299.5 267 0 0 0 0.33575 0.40365 -0.85108 0.016759
0.025733 -0.0028276 0.98917 7.0991e-39 302 267 0 0 0 0.3952 0.39359 -0.83 0.013577
-0.0020424 -0.0010924 0.98956 6.5459e-39 385 267 0 0 0 -0.31624 0.42784 -0.84672 0.011853
-0.00088392 -0.0010915 0.98877 6.6381e-39 386 267 0 0 0 -0.28895 0.43012 -0.85528 0.011742
0.0008514 -0.001092 0.98917 6.131e-39 387.5 267 0 0 0 -0.25491 0.43027 -0.86596 0.012639
0.0031649 -0.0010915 0.98877 6.131e-39 389.5 267 0 0 0 -0.18522 0.43175 -0.88277 0.015356
0.0049001 -0.0010915 0.98877 6.7303e-39 391 267 0 0 0 -0.14523 0.43026 -0.89095 0.016226
0.014155 -0.0010915 0.98877 7.8366e-39 399 267 0 0 0 0.10046 0.41759 -0.90306 0.015661
0.017625 -0.0010915 0.98877 8.2976e-39 402 267 0 0 0 0.19637 0.41206 -0.88974 0.015221
0.01936 -0.0010915 0.98877 7.9749e-39 403.5 267 0 0 0 0.23148 0.4097 -0.88236 0.014145
0.021096 -0.0010915 0.98877 7.4678e-39 405 267 0 0 0 0.28283 0.40454 -0.86969 0.014894
0.022849 -0.0010924 0.98956 7.0069e-39 406.5 267 0 0 0 0.33748 0.39503 -0.85444 0.015605
0.025743 -0.0010924 0.98956 6.7303e-39 409 267 0 0 0 0.39435 0.38685 -0.83357 0.012865
-0.00088428 0.00064421 0.98917 6.4998e-39 349 267.5 0 0 0 -0.28844 0.42735 -0.85684 0.010948
0.0008517 0.00064423 0.98936 6.3154e-39 350.5 267.5 0 0 0 -0.25334 0.42718 -0.86795 0.011932
0.0031649 0.00064371 0.98877 6.0619e-39 352.5 267.5 0 0 0 -0.19496 0.42727 -0.88286 0.014155
0.0049001 0.00064371 0.98877 6.1771e-39 354 267.5 0 0 0 -0.15038 0.42448 -0.89286 0.015289
0.0064426 0.00083651 0.98877 6.761e-39 321.67 267.67 0 0 0 -0.10179 0.42167 -0.90102 0.015591
0.008949 0.0012221 0.98877 7.6522e-39 256.5 268 0 0 0 -0.037052 0.41624 -0.9085 0.014928
0.011263 0.0012221 0.98877 7.5601e-39 258.5 268 0 0 0 0.022414 0.41367 -0.91015 0.0141
0.012998 0.0012221 0.98877 6.8225e-39 260 268 0 0 0 0.068042 0.41463 -0.90744 0.013611
0.01454 0.00083651 0.98877 6.5459e-39 329.33 267.67 0 0 0 0.11051 0.41096 -0.90493 0.01398
0.017053 0.00064398 0.98917 6.7303e-39 365.5 267.5 0 0 0 0.17528 0.40633 -0.89675 0.014296
0.019368 0.00064421 0.98917 6.2463e-39 371.75 267.5 0 0 0 0.22842 0.40227 -0.88657 0.013183
0.021112 0.00064424 0.98956 5.6701e-39 377 267.5 0 0 0 0.27946 0.40047 -0.87266 0.013638
0.022656 0.00045129 0.98956 5.3474e-39 415 267.33 0 0 0 0.32631 0.3914 -0.86043 0.015102
0.025743 6.5381e-05 0.98956 5.163e-39 491 267 0 0 0 0.3939 0.37974 -0.83704 0.012248
-0.00088463 0.0029598 0.98956 6.9608e-39 370 268 0 0 0 -0.28864 0.42213 -0.85935 0.010454
0.0014309 0.0023809 0.98956 7.56e-39 339 268 0 0 0 -0.23319 0.4271 -0.87362 0.011941
0.0031674 0.0029598 0.98956 7.6292e-39 373.5 268 0 0 0 -0.20021 0.42705 -0.88179 0.01263
0.0049041 0.0029598 0.98956 7.6522e-39 375 268 0 0 0 -0.15637 0.42353 -0.89228 0.013913
0.0066366 0.0029581 0.98897 7.6292e-39 376.5 268 0 0 0 -0.099732 0.42234 -0.90093 0.01414
0.0089523 0.0029586 0.98917 7.4218e-39 378.5 268 0 0 0 -0.044048 0.41639 -0.90812 0.013843
0.011265 0.0029581 0.98897 7.1221e-39 380.5 268 0 0 0 0.017349 0.41901 -0.90782 0.013127
0.012998 0.0029574 0.98877 6.8686e-39 382.5 268 0 0 0 0.066046 0.41403 -0.90786 0.012419
0.014742 0.0029593 0.98936 7.076e-39 384 268 0 0 0 0.10932 0.40973 -0.90563 0.012836
0.016863 0.0027662 0.9893 7.1298e-39 374.67 268 0 0 0 0.16477 0.40554 -0.8991 0.012372
0.019376 0.0029598 0.98956 7.1452e-39 388 268 0 0 0 0.22756 0.40039 -0.88764 0.011867
0.021112 0.0023809 0.98956 8.3898e-39 356 268 0 0 0 0.27115 0.39796 -0.87642 0.012316
0.02227 0.0023809 0.98956 8.5742e-39 357 268 0 0 0 0.3023 0.39435 -0.86782 0.013149
0.0037463 0.0052752 0.98956 5.5317e-39 386 268.5 0 0 0 -0.18764 0.42827 -0.88396 0.011724
0.0068336 0.0050822 0.98956 5.4702e-39 213.33 269 0 0 0 -0.10779 0.42468 -0.8989 0.012787
0.0089561 0.0052752 0.98956 5.4165e-39 231.5 269 0 0 0 -0.043263 0.42388 -0.90468 0.012775
0.011272 0.0052752 0.98956 5.6009e-39 233.5 269 0 0 0 0.018078 0.41977 -0.90745 0.012206
0.013008 0.0052752 0.98956 5.6701e-39 235 269 0 0 0 0.06622 0.42078 -0.90474 0.011399
0.015324 0.0046963 0.98956 6.0849e-39 188 269 0 0 0 0.12517 0.41418 -0.90155 0.011777
0.016481 0.0046963 0.98956 6.1771e-39 189 269 0 0 0 0.15286 0.40991 -0.89923 0.011214
0.0072195 0.0070118 0.98956 6.4537e-39 369 269 0 0 0 -0.094641 0.43313 -0.89635 0.011808
0.0083773 0.0070118 0.98956 6.6381e-39 370 269 0 0 0 -0.059567 0.42978 -0.90097 0.011896
0.010693 0.0070118 0.98956 6.2693e-39 372 269 0 0 0 0.00046462 0.42891 -0.90335 0.011861
0.0083773 0.0081696 0.98956 5.2552e-39 437 269 0 0 0 -0.063179 0.44082 -0.89537 0.011655
0.048977 -0.04052 0.99115 8.482e-39 345 257 0 0 0 0.85436 0.29274 -0.42939 0.015544
0.048937 -0.038171 0.99035 5.163e-39 458 257 0 0 0 0.82753 0.34396 -0.44372 0.014364
0.048937 -0.037012 0.99035 8.021e-39 242 258 0 0 0 0.82042 0.35135 -0.45106 0.014382
0.048977 -0.035302 0.99115 7.7905e-39 385 258 0 0 0 0.82127 0.3578 -0.4444 0.013479
0.0472 -0.032377 0.99035 7.6061e-39 364.5 259 0 0 0 0.79001 0.3891 -0.47381 0.015462
0.048997 -0.032996 0.99155 7.6983e-39 310 259 0 0 0 0.81361 0.37856 -0.44129 0.013508
0.047237 -0.031244 0.99115 5.163e-39 465.5 259 0 0 0 0.79332 0.39822 -0.4605 0.014211
-0.027535 -0.028901 0.99035 5.2552e-39 282 260 0 0 0 -0.57691 0.60759 -0.5459 0.034307
0.045498 -0.028924 0.99115 6.7303e-39 381 260 0 0 0 0.76734 0.42418 -0.4809 0.015099
-0.026397 -0.027765 0.99115 6.0849e-39 389 260 0 0 0 -0.58244 0.58774 -0.56154 0.031277
-0.024668 -0.026616 0.99155 5.1629e-39 327.5 260.5 0 0 0 -0.59259 0.57161 -0.56754 0.031104
0.044918 -0.027185 0.99115 5.3012e-39 376.5 260.5 0 0 0 0.75016 0.44194 -0.49188 0.013868
-0.024097 -0.025466 0.99194 4.8864e-39 291 261 0 0 0 -0.60733 0.55088 -0.57243 0.030473
-0.022918 -0.024286 0.99115 6.3615e-39 398 261 0 0 0 -0.59709 0.52367 -0.60766 0.023354
-0.021162 -0.024267 0.99035 6.9147e-39 399.5 261 0 0 0 -0.58843 0.5162 -0.62232 0.02086
0.044338 -0.025446 0.99115 6.0849e-39 387 261 0 0 0 0.73734 0.44637 -0.50703 0.01315
-0.022937 -0.023145 0.99194 4.702e-39 174 262 0 0 0 -0.62902 0.50088 -0.59452 0.024098
-0.021187 -0.023136 0.99155 4.9786e-39 175.5 262 0 0 0 -0.60402 0.49787 -0.62232 0.020049
-0.020599 -0.021387 0.99115 6.0388e-39 352 262 0 0 0 -0.60199 0.48443 -0.63478 0.018235
0.043144 -0.02137 0.99035 5.5317e-39 434.5 262 0 0 0 0.68651 0.46174 -0.56169 0.011103
-0.020608 -0.019075 0.99155 4.9786e-39 236 263 0 0 0 -0.62068 0.46473 -0.63149 0.018725
0.039668 -0.018473 0.99035 7.0991e-39 383 263 0 0 0 0.63248 0.47138 -0.61463 0.0112
0.040859 -0.019067 0.99115 5.8084e-39 331.5 263 0 0 0 0.66267 0.46224 -0.58924 0.011427
0.042428 -0.019271 0.99168 5.6239e-39 315.33 263 0 0 0 0.68389 0.45175 -0.57289 0.011626
-0.020616 -0.017342 0.99194 6.8225e-39 399 263 0 0 0 -0.63452 0.45747 -0.62297 0.020637
-0.019432 -0.016742 0.99075 6.2693e-39 441.5 263 0 0 0 -0.6015 0.44801 -0.66143 0.015782
0.036975 -0.016547 0.99062 6.6381e-39 325.67 263.67 0 0 0 0.60055 0.4694 -0.6473 0.011541
0.039136 -0.016755 0.99155 6.1541e-39 361.25 263.5 0 0 0 0.63361 0.45704 -0.62422 0.012259
-0.01886 -0.015009 0.99115 5.2551e-39 278.5 264 0 0 0 -0.6051 0.43547 -0.66649 0.016026
-0.017107 -0.014997 0.99035 5.0708e-39 280 264 0 0 0 -0.57803 0.43697 -0.68916 0.013183
0.036816 -0.015015 0.99155 7.6061e-39 359.5 264 0 0 0 0.61177 0.44834 -0.65171 0.013796
-0.018667 -0.013463 0.99115 6.0234e-39 404 264 0 0 0 -0.59575 0.42221 -0.68324 0.014134
-0.017113 -0.013264 0.99075 6.0849e-39 417.5 264 0 0 0 -0.57628 0.42263 -0.69949 0.013366
-0.015955 -0.013264 0.99075 6.2693e-39 418.5 264 0 0 0 -0.56462 0.4247 -0.7077 0.01202
0.035033 -0.01268 0.99035 5.9005e-39 223 265 0 0 0 0.58264 0.43924 -0.68381 0.014061
0.03625 -0.013861 0.99194 7.1913e-39 430 264 0 0 0 0.60834 0.43822 -0.66172 0.014213
-0.018295 -0.01154 0.99194 7.3757e-39 250 265 0 0 0 -0.59648 0.40231 -0.69452 0.014503
-0.017127 -0.010954 0.99155 7.4679e-39 300.5 265 0 0 0 -0.56725 0.40667 -0.71613 0.011904
-0.015378 -0.010948 0.99095 7.537e-39 302 265 0 0 0 -0.55249 0.41212 -0.72451 0.011839
-0.012858 -0.010749 0.99035 7.2835e-39 320.67 265 0 0 0 -0.52049 0.42313 -0.74166 0.01157
-0.011313 -0.010363 0.99035 7.6522e-39 355 265 0 0 0 -0.50386 0.42892 -0.74977 0.011847
0.031557 -0.010363 0.99035 6.2693e-39 392 265 0 0 0 0.52639 0.42457 -0.73665 0.013747
0.033302 -0.010944 0.99055 5.6239e-39 344 265 0 0 0 0.56028 0.42148 -0.71305 0.013756
0.035076 -0.010954 0.99155 6.0389e-39 345.5 265 0 0 0 0.59119 0.4102 -0.69442 0.015186
-0.017134 -0.0092187 0.99194 6.3615e-39 417 265 0 0 0 -0.56865 0.39572 -0.72114 0.011972
-0.015188 -0.0088248 0.99115 6.0235e-39 444.33 265 0 0 0 -0.54256 0.40328 -0.73688 0.01083
-0.013057 -0.0086278 0.99075 5.8083e-39 295 265.5 0 0 0 -0.51638 0.41594 -0.74856 0.011103
-0.010736 -0.0086262 0.99055 5.7622e-39 297 265.5 0 0 0 -0.49928 0.42053 -0.75755 0.011949
0.03118 -0.0084336 0.99062 6.4844e-39 321.33 265.67 0 0 0 0.52245 0.40812 -0.74865 0.014027
0.033335 -0.008635 0.99155 6.2232e-39 357.5 265.5 0 0 0 0.56054 0.39691 -0.72681 0.014328
0.03509 -0.0092187 0.99194 5.3473e-39 462 265 0 0 0 0.59834 0.38933 -0.70029 0.016067
-0.014801 -0.0068921 0.99115 5.2552e-39 276 266 0 0 0 -0.5317 0.40039 -0.74631 0.009895
-0.013067 -0.0068949 0.99155 5.3473e-39 277.5 266 0 0 0 -0.51711 0.40548 -0.75378 0.01056
-0.010743 -0.0068921 0.99115 5.4395e-39 279.5 266 0 0 0 -0.49496 0.41436 -0.76376 0.011726
-0.008996 -0.0068866 0.99035 5.3473e-39 281 266 0 0 0 -0.45823 0.42803 -0.77899 0.011019
-0.0078373 -0.0068866 0.99035 5.3473e-39 282 266 0 0 0 -0.43869 0.42985 -0.78916 0.011509
0.030991 -0.0068893 0.99075 7.1452e-39 345.5 266 0 0 0 0.51055 0.39614 -0.76316 0.013785
0.032769 -0.0068976 0.99194 6.8225e-39 347 266 0 0 0 0.55635 0.37947 -0.73924 0.014654
-0.014813 -0.0057371 0.99194 6.9147e-39 367 266 0 0 0 -0.53261 0.39446 -0.74882 0.0097222
-0.012879 -0.0053503 0.99194 6.3308e-39 389.33 266 0 0 0 -0.51606 0.40017 -0.75733 0.010254
-0.010749 -0.0051557 0.99174 5.8314e-39 401.5 266 0 0 0 -0.48713 0.41069 -0.77074 0.010771
-0.0089996 -0.0051504 0.99075 5.9467e-39 403 266 0 0 0 -0.45701 0.4203 -0.78389 0.010729
-0.0074511 -0.0049554 0.99035 5.6854e-39 414.67 266 0 0 0 -0.42286 0.42945 -0.79798 0.011255
-0.00552 -0.0045692 0.99035 5.5317e-39 437 266 0 0 0 -0.3888 0.43224 -0.81364 0.01104
0.024605 -0.0045692 0.99035 5.4395e-39 463 266 0 0 0 0.38599 0.40129 -0.83065 0.014836
0.026923 -0.0051486 0.99035 6.9147e-39 434 266 0 0 0 0.44655 0.39407 -0.80331 0.014746
0.02866 -0.0051485 0.99035 6.8455e-39 435.5 266 0 0 0 0.47619 0.38879 -0.78873 0.014177
0.031003 -0.0051525 0.99115 6.5228e-39 437.5 266 0 0 0 0.50751 0.37936 -0.77364 0.013235
-0.010171 -0.003416 0.99194 6.2693e-39 188 267 0 0 0 -0.4727 0.4076 -0.78129 0.01047
-0.0090069 -0.0028344 0.99155 5.3012e-39 257 267 0 0 0 -0.45701 0.41123 -0.78869 0.0098156
-0.0072625 -0.0028328 0.99095 5.1168e-39 261 267 0 0 0 -0.42587 0.42017 -0.80131 0.010301
-0.00552 -0.0028312 0.99035 5.3012e-39 262.5 267 0 0 0 -0.38347 0.42461 -0.82016 0.011251
0.024605 -0.0028312 0.99035 7.3757e-39 301 267 0 0 0 0.38521 0.39471 -0.83416 0.01393
0.026923 -0.0028312 0.99035 7.0069e-39 303 267 0 0 0 0.42316 0.38786 -0.81884 0.012388
0.02866 -0.0028312 0.99035 6.9608e-39 304.5 267 0 0 0 0.46378 0.37058 -0.80472 0.013277
0.030835 -0.0030292 0.99194 7.3757e-39 291.67 267 0 0 0 0.50333 0.35963 -0.7857 0.012192
-0.0090105 -0.001095 0.99194 6.2693e-39 379 267 0 0 0 -0.45174 0.40754 -0.79363 0.0086449
-0.0072669 -0.0010945 0.99155 6.9147e-39 380.5 267 0 0 0 -0.42605 0.41331 -0.80477 0.009615
-0.0049406 -0.0010932 0.99035 6.8686e-39 382.5 267 0 0 0 -0.36824 0.41855 -0.83019 0.010351
-0.0032027 -0.0010932 0.99035 6.3615e-39 384 267 0 0 0 -0.34109 0.42108 -0.84044 0.011122
0.024605 -0.0010932 0.99035 7.0069e-39 408 267 0 0 0 0.37997 0.38638 -0.84044 0.013788
0.026944 -0.0010941 0.99115 7.0069e-39 410 267 0 0 0 0.42452 0.37325 -0.8249 0.011827
0.028683 -0.0010941 0.99115 7.5139e-39 411.5 267 0 0 0 0.4644 0.36146 -0.80851 0.011984
-0.0090105 0.00064582 0.99194 4.9786e-39 342 267.5 0 0 0 -0.44971 0.40239 -0.7974 0.0084054
-0.0072683 0.00064581 0.99174 5.0478e-39 343.5 267.5 0 0 0 -0.42494 0.40773 -0.8082 0.0090335
-0.0049417 0.00064502 0.99055 5.3704e-39 345.5 267.5 0 0 0 -0.36695 0.41384 -0.83312 0.0096362
-0.0026233 0.00064477 0.99035 6.108e-39 347.5 267.5 0 0 0 -0.326 0.42084 -0.84653 0.010628
0.023447 0.0012241 0.99035 6.6381e-39 269 268 0 0 0 0.35119 0.38489 -0.85354 0.013088
0.024998 0.00083821 0.99062 6.1464e-39 343.67 267.67 0 0 0 0.38269 0.37752 -0.84322 0.012049
0.026944 0.00064529 0.99115 6.085e-39 382 267.5 0 0 0 0.41503 0.37062 -0.8309 0.010777
0.028695 0.00064579 0.99155 6.108e-39 383.5 267.5 0 0 0 0.44839 0.35987 -0.81819 0.010468
-0.0066894 0.0023866 0.99194 5.2552e-39 332 268 0 0 0 -0.41352 0.40378 -0.81606 0.0090349
-0.0049457 0.0029652 0.99135 6.8224e-39 366.5 268 0 0 0 -0.37041 0.40941 -0.83377 0.0090717
-0.0026244 0.0029635 0.99075 7.1682e-39 368.5 268 0 0 0 -0.32589 0.41618 -0.84888 0.0097186
0.00065955 0.0031552 0.99035 7.222e-39 382.33 268 0 0 0 -0.26321 0.42296 -0.86708 0.010779
0.017653 0.0035414 0.99035 6.9147e-39 420 268 0 0 0 0.19471 0.40295 -0.89427 0.012356
0.021129 0.0035414 0.99035 6.1771e-39 423 268 0 0 0 0.27716 0.39684 -0.87505 0.011898
0.023061 0.0031552 0.99035 6.6381e-39 402.33 268 0 0 0 0.33049 0.39034 -0.85931 0.011865
0.02519 0.0029628 0.99055 6.3845e-39 393 268 0 0 0 0.37361 0.37725 -0.84741 0.010959
0.026955 0.0029659 0.99155 6.4537e-39 394.5 268 0 0 0 0.41175 0.36601 -0.83457 0.0099733
0.028513 0.0027734 0.99194 6.8839e-39 384.67 268 0 0 0 0.43449 0.35992 -0.82564 0.0098614
-0.0043683 0.0047077 0.99194 4.9786e-39 489 268 0 0 0 -0.3512 0.41236 -0.8406 0.0082136
-0.002626 0.0052849 0.99135 5.8775e-39 380.5 268.5 0 0 0 -0.31851 0.41557 -0.85197 0.0088796
-0.00088569 0.0052818 0.99075 6.085e-39 382 268.5 0 0 0 -0.28858 0.42069 -0.86008 0.0093829
0.00085272 0.0052806 0.99055 5.9927e-39 383.5 268.5 0 0 0 -0.25258 0.42488 -0.8693 0.0097815
0.0025907 0.0052794 0.99035 5.8083e-39 385 268.5 0 0 0 -0.21593 0.42774 -0.87773 0.010932
0.004908 0.0052794 0.99035 5.1629e-39 387 268.5 0 0 0 -0.16105 0.42947 -0.88861 0.012034
0.0060667 0.0058588 0.99035 5.6239e-39 278 269 0 0 0 -0.13308 0.43272 -0.89165 0.012178
0.014563 0.0054726 0.99035 5.3474e-39 252.67 269 0 0 0 0.10147 0.42222 -0.9008 0.011572
0.017272 0.0054741 0.99062 5.7468e-39 255 269 0 0 0 0.18475 0.41459 -0.89105 0.01106
0.019391 0.0052794 0.99035 5.4396e-39 247.5 269 0 0 0 0.22916 0.40836 -0.88359 0.010745
0.021129 0.0052794 0.99035 4.8864e-39 256 269 0 0 0 0.27089 0.40179 -0.87475 0.010451
0.022886 0.0052839 0.99115 5.0707e-39 257.5 269 0 0 0 0.31907 0.39522 -0.86139 0.010616
0.025215 0.0052861 0.99155 5.3934e-39 259.75 269 0 0 0 0.37295 0.38075 -0.84613 0.0097419
0.026966 0.0047077 0.99194 5.6239e-39 227 269 0 0 0 0.40648 0.36939 -0.83566 0.0093681
-0.0020473 0.0070287 0.99194 7.9288e-39 361 269 0 0 0 -0.30638 0.42233 -0.85309 0.0083989
