# .PCD v.7 - Point Cloud Data file format
VERSION .7
FIELDS x y z rgb u v vx vy vz normal_x normal_y normal_z curvature
SIZE 4 4 4 4 4 4 4 4 4 4 4 4 4
TYPE F F F F F F F F F F F F F
COUNT 1 1 1 1 1 1 1 1 1 1 1 1 1
WIDTH 546
HEIGHT 1
VIEWPOINT 0 0 0 1 0 0 0
POINTS 546
DATA ascii
0.019387 0.10754 1.0206 1.0602e-38 195 263 0 0 0 0.35847 0.59584 -0.71866 0.0090264
0.020598 0.10643 1.0215 1.5581e-38 428 262 0 0 0 0.37232 0.59656 -0.71098 0.00917
0.018989 0.10952 1.0206 1.2846e-38 257.33 263.67 0 0 0 0.36083 0.58874 -0.72331 0.0088197
0.018208 0.11121 1.0215 1.5028e-38 398 264 0 0 0 0.3672 0.57497 -0.73115 0.0085168
0.013417 0.11351 1.0206 1.134e-38 382 265 0 0 0 0.36003 0.54858 -0.75461 0.0078374
0.015411 0.11314 1.0209 1.0879e-38 310.67 265 0 0 0 0.36322 0.55836 -0.74586 0.0083092
0.017006 0.11296 1.021 1.0695e-38 275.5 265 0 0 0 0.36599 0.5662 -0.73855 0.008184
0.0092415 0.11594 1.021 1.1063e-38 367.5 266 0 0 0 0.35917 0.52214 -0.77354 0.0066087
0.011029 0.1147 1.0206 1.1432e-38 153 266 0 0 0 0.35724 0.53548 -0.76527 0.0072851
0.012826 0.11475 1.021 1.0418e-38 154.5 266 0 0 0 0.36598 0.53878 -0.7588 0.0075065
0.0074524 0.11719 1.0215 9.9571e-39 457 266 0 0 0 0.33529 0.50951 -0.79245 0.0040497
0.003467 0.11911 1.0209 1.4812e-38 408.33 267 0 0 0 0.31144 0.50007 -0.80804 0.0028296
0.0050581 0.11828 1.0206 1.3922e-38 349 267 0 0 0 0.31466 0.50598 -0.8031 0.0030793
0.0062522 0.11828 1.0206 1.3461e-38 350 267 0 0 0 0.32964 0.50714 -0.79633 0.003744
0.0014758 0.12187 1.0206 1.6134e-38 420 268 0 0 0 0.30622 0.4922 -0.81484 0.0027785
0.0026721 0.12077 1.0215 9.8649e-39 205 268 0 0 0 0.30909 0.49586 -0.81153 0.0028094
-0.00091241 0.12306 1.0206 1.2354e-38 183 269 0 0 0 0.30474 0.48552 -0.81939 0.0029826
0.00087874 0.12306 1.0206 1.2723e-38 184.5 269 0 0 0 0.30742 0.49244 -0.81425 0.0030288
-0.0068829 0.12545 1.0206 1.0234e-38 151 270 0 0 0 0.30542 0.47135 -0.82738 0.0031356
-0.0044947 0.12545 1.0206 1.2262e-38 153 270 0 0 0 0.3064 0.47941 -0.82236 0.0031832
-0.0027049 0.1249 1.021 1.4105e-38 275.5 269.5 0 0 0 0.30566 0.48385 -0.82004 0.0032503
-0.00091316 0.12436 1.0215 1.6595e-38 398 269 0 0 0 0.30895 0.49147 -0.81425 0.0030623
0.00087946 0.12436 1.0215 1.7148e-38 399.5 269 0 0 0 0.30934 0.49661 -0.81098 0.0031183
-0.011659 0.12784 1.0206 1.4014e-38 425 270 0 0 0 0.30095 0.46708 -0.83142 0.0027012
-0.0080837 0.12675 1.0215 9.6805e-39 357 270 0 0 0 0.30561 0.47544 -0.82496 0.0032534
-0.0068886 0.12675 1.0215 9.4961e-39 358 270 0 0 0 0.30723 0.48129 -0.82096 0.0033254
-0.0056935 0.12675 1.0215 9.7727e-39 359 270 0 0 0 0.30677 0.48496 -0.81897 0.0033753
-0.015242 0.12903 1.0206 1.0602e-38 166 271 0 0 0 0.29341 0.46272 -0.83654 0.0023851
-0.021212 0.13142 1.0206 1.5397e-38 405 271 0 0 0 0.30468 0.47171 -0.82744 0.0023614
-0.017644 0.13033 1.0215 9.9571e-39 354 271 0 0 0 0.29323 0.46952 -0.83281 0.002386
-0.038024 0.069497 1.0232 1.3737e-38 363 245 0 0 0 -0.018052 -0.87957 -0.47543 0.0016716
-0.066753 0.071892 1.0232 1.2815e-38 368 246 0 0 0 -0.089693 -0.90314 -0.41988 0.0017932
-0.064359 0.071892 1.0232 1.3553e-38 370 246 0 0 0 -0.083652 -0.90278 -0.42188 0.0017872
-0.06311 0.071832 1.0223 1.3e-38 371 246 0 0 0 -0.076354 -0.90136 -0.42628 0.0019179
-0.060768 0.071892 1.0232 1.3737e-38 373 246 0 0 0 -0.068491 -0.89996 -0.43057 0.0019008
-0.058326 0.071832 1.0223 1.4198e-38 375 246 0 0 0 -0.056542 -0.89685 -0.43871 0.0019233
-0.057129 0.071832 1.0223 1.3461e-38 376 246 0 0 0 -0.051299 -0.89499 -0.44313 0.0019841
-0.052345 0.071832 1.0223 1.2262e-38 378 246 0 0 0 -0.03954 -0.88895 -0.45629 0.0019792
-0.051191 0.070695 1.0232 9.3118e-39 142 246 0 0 0 -0.039502 -0.89236 -0.44958 0.0019724
-0.049376 0.071263 1.0228 1.1432e-38 262 246 0 0 0 -0.033604 -0.88747 -0.45964 0.0019097
-0.046982 0.071263 1.0228 1.1063e-38 264 246 0 0 0 -0.02807 -0.88517 -0.46441 0.0017706
-0.045169 0.071832 1.0223 1.217e-38 384 246 0 0 0 -0.023 -0.88118 -0.47223 0.0015782
-0.043393 0.071263 1.0228 1.134e-38 267 246 0 0 0 -0.02516 -0.88129 -0.4719 0.0015645
-0.040794 0.071453 1.0226 1.1248e-38 308.67 246 0 0 0 -0.024403 -0.87762 -0.47874 0.0014012
-0.039221 0.070695 1.0232 9.4961e-39 152 246 0 0 0 -0.021744 -0.87955 -0.4753 0.0014976
-0.034404 0.070636 1.0223 1.0049e-38 156 246 0 0 0 -0.0062188 -0.87462 -0.48477 0.001462
-0.032623 0.070665 1.0228 9.1273e-39 157.5 246 0 0 0 -0.0019897 -0.8768 -0.48086 0.001548
-0.030816 0.070636 1.0223 8.5742e-39 159 246 0 0 0 0.00097702 -0.87549 -0.48324 0.0014759
-0.029034 0.071264 1.0228 9.2657e-39 278.5 246 0 0 0 0.0036952 -0.87486 -0.48437 0.0014873
-0.026651 0.070695 1.0232 9.4961e-39 162.5 246 0 0 0 0.0089874 -0.87748 -0.47953 0.0016821
-0.024856 0.070695 1.0232 9.1274e-39 164 246 0 0 0 0.014917 -0.87696 -0.48034 0.00168
-0.023061 0.070695 1.0232 1.0141e-38 165.5 246 0 0 0 0.019512 -0.87603 -0.48187 0.001692
-0.020666 0.071892 1.0232 1.0418e-38 403.5 246 0 0 0 0.028583 -0.87174 -0.48914 0.0014116
-0.016463 0.071832 1.0223 1.051e-38 407 246 0 0 0 0.037923 -0.86923 -0.49296 0.0013838
-0.012885 0.071892 1.0232 1.0879e-38 410 246 0 0 0 0.04695 -0.86532 -0.49902 0.0015379
-0.010491 0.071892 1.0232 9.6805e-39 412 246 0 0 0 0.055967 -0.86268 -0.50264 0.0015698
-0.0092941 0.071892 1.0232 9.5883e-39 413 246 0 0 0 0.058162 -0.86172 -0.50405 0.0015395
-0.0069 0.071892 1.0232 1.0879e-38 415 246 0 0 0 0.067836 -0.86028 -0.50529 0.0016151
-0.0033088 0.071892 1.0232 1.0142e-38 418 246 0 0 0 0.076346 -0.86046 -0.50376 0.0018033
-0.00091468 0.071892 1.0232 1.0879e-38 420 246 0 0 0 0.075936 -0.8607 -0.50342 0.001812
0.00028239 0.071892 1.0232 1.1709e-38 421 246 0 0 0 0.076036 -0.86122 -0.50251 0.0018808
-0.073337 0.073089 1.0232 1.0234e-38 149.5 247 0 0 0 -0.099887 -0.9045 -0.41462 0.0016219
-0.071542 0.073089 1.0232 9.3118e-39 151 247 0 0 0 -0.097726 -0.90497 -0.4141 0.0016861
-0.018855 0.073028 1.0223 9.2196e-39 196 247 0 0 0 0.032721 -0.8699 -0.49215 0.0013011
-0.017659 0.073028 1.0223 9.8649e-39 197 247 0 0 0 0.035473 -0.86945 -0.49274 0.0013488
-0.015267 0.073028 1.0223 9.1274e-39 199 247 0 0 0 0.042261 -0.86719 -0.49619 0.0013818
-0.0051001 0.073028 1.0223 1.4336e-38 332.5 247 0 0 0 0.072406 -0.85943 -0.5061 0.0016088
-0.00211 0.073028 1.0223 1.2446e-38 335 247 0 0 0 0.074032 -0.85968 -0.50543 0.0016592
0.0014795 0.073089 1.0232 9.1274e-39 338 247 0 0 0 0.074716 -0.8614 -0.5024 0.001866
0.003275 0.073089 1.0232 9.2656e-39 339.5 247 0 0 0 0.070781 -0.86233 -0.50138 0.0020283
0.0050707 0.073089 1.0232 1.0234e-38 341 247 0 0 0 0.066059 -0.86396 -0.49922 0.0021969
0.0062677 0.073089 1.0232 1.0879e-38 342 247 0 0 0 0.06358 -0.8654 -0.49703 0.0022859
0.0098589 0.073089 1.0232 8.6664e-39 345 247 0 0 0 0.053307 -0.86481 -0.49927 0.0022955
0.019435 0.073089 1.0232 1.0418e-38 353 247 0 0 0 0.052313 -0.84701 -0.529 0.0050462
0.021213 0.073028 1.0223 1.1617e-38 354.5 247 0 0 0 0.068168 -0.83429 -0.5471 0.0076157
0.023027 0.073089 1.0232 1.4106e-38 356 247 0 0 0 0.082886 -0.83085 -0.55029 0.010663
-0.091256 0.075452 1.0228 9.6805e-39 164.5 248 0 0 0 -0.15803 -0.8806 -0.44674 0.0031392
-0.089498 0.075483 1.0232 1.0602e-38 166 248 0 0 0 -0.15541 -0.88214 -0.44462 0.0029117
-0.082879 0.075452 1.0228 1.0188e-38 172 248 0 0 0 -0.13946 -0.89174 -0.43053 0.0023245
-0.081118 0.075483 1.0232 9.8649e-39 175 248 0 0 0 -0.12946 -0.89607 -0.42462 0.001974
-0.079257 0.07542 1.0223 1.0049e-38 176.5 248 0 0 0 -0.12435 -0.89763 -0.42284 0.0019134
-0.076267 0.074224 1.0223 1.1801e-38 387 247 0 0 0 -0.10766 -0.90344 -0.41499 0.0015894
0.0074586 0.074224 1.0223 1.0234e-38 457 247 0 0 0 0.060121 -0.86314 -0.50137 0.0019383
0.0086547 0.074224 1.0223 1.0049e-38 458 247 0 0 0 0.058966 -0.8642 -0.49968 0.0020775
0.011056 0.074286 1.0232 1.051e-38 460 247 0 0 0 0.049794 -0.86472 -0.49978 0.0021883
0.012846 0.074255 1.0228 1.1662e-38 461.5 247 0 0 0 0.04898 -0.86246 -0.50374 0.0024276
0.015239 0.074255 1.0228 1.277e-38 463.5 247 0 0 0 0.050025 -0.85526 -0.51577 0.0031752
0.017027 0.074224 1.0223 1.0326e-38 139 248 0 0 0 0.052252 -0.84693 -0.52913 0.0045225
0.018238 0.074286 1.0232 9.7727e-39 140 248 0 0 0 0.051995 -0.84637 -0.53005 0.0049474
0.024802 0.074224 1.0223 9.7265e-39 145.5 248 0 0 0 0.1374 -0.79301 -0.59351 0.021572
0.027206 0.074255 1.0228 9.6345e-39 147.5 248 0 0 0 0.16836 -0.77351 -0.61101 0.027497
0.030795 0.074853 1.0228 1.0649e-38 273 248 0 0 0 0.22088 -0.74009 -0.6352 0.036062
0.033174 0.074822 1.0223 9.9572e-39 275 248 0 0 0 0.26371 -0.71754 -0.64466 0.038287
0.034968 0.074224 1.0223 9.7727e-39 154 248 0 0 0 0.27261 -0.71409 -0.64479 0.03836
0.037391 0.075483 1.0232 1.1617e-38 401 248 0 0 0 0.31697 -0.68607 -0.65486 0.04427
-0.10027 0.077877 1.0232 8.482e-39 195 249 0 0 0 -0.18365 -0.87033 -0.45695 0.0038107
-0.099074 0.077877 1.0232 9.1274e-39 196 249 0 0 0 -0.17744 -0.87297 -0.45434 0.0037794
-0.094884 0.07668 1.0232 1.0188e-38 408.5 248 0 0 0 -0.16206 -0.87738 -0.4516 0.0035619
0.038557 0.076616 1.0223 8.482e-39 194 249 0 0 0 0.35978 -0.65106 -0.66834 0.046494
0.021223 0.10716 1.0228 1.2677e-38 312.5 262.5 0 0 0 0.37576 0.5923 -0.71273 0.0092539
0.023027 0.10661 1.0232 1.4936e-38 430 262 0 0 0 0.39075 0.59127 -0.70549 0.010675
0.020633 0.109 1.0232 1.4843e-38 414 263 0 0 0 0.37705 0.58731 -0.71617 0.0094822
0.019419 0.1113 1.0223 1.6226e-38 399 264 0 0 0 0.37675 0.57657 -0.725 0.0087409
0.018829 0.11254 1.0228 9.45e-39 167.5 265 0 0 0 0.38157 0.56737 -0.72972 0.0082965
0.01524 0.11494 1.0228 1.1386e-38 156.5 266 0 0 0 0.37549 0.54215 -0.75172 0.0079281
0.017041 0.11499 1.0232 1.0418e-38 158 266 0 0 0 0.38838 0.54841 -0.74055 0.0079716
0.0092568 0.11733 1.0228 9.8188e-39 459 266 0 0 0 0.36569 0.51527 -0.77509 0.0065375
0.011052 0.11673 1.0228 1.0464e-38 415 266 0 0 0 0.37185 0.51984 -0.76908 0.0067533
0.012649 0.11655 1.0229 1.0879e-38 293.33 266.33 0 0 0 0.37842 0.526 -0.76166 0.0070352
0.0050665 0.11968 1.0223 1.3922e-38 440 267 0 0 0 0.32042 0.50273 -0.80287 0.0030342
0.0068606 0.11908 1.0223 1.2908e-38 396 267 0 0 0 0.33852 0.50328 -0.79505 0.0038586
0.0086619 0.11858 1.0232 1.1801e-38 352 267 0 0 0 0.36343 0.51094 -0.77901 0.0060995
0.0038704 0.12087 1.0223 9.2196e-39 206 268 0 0 0 0.31559 0.5008 -0.80598 0.0028351
0.0050707 0.12097 1.0232 8.943e-39 207 268 0 0 0 0.32421 0.50443 -0.80027 0.0030874
0.0062677 0.12097 1.0232 8.6664e-39 208 268 0 0 0 0.33655 0.50628 -0.79398 0.0036307
0.0030748 0.12254 1.0229 1.4013e-38 343 268.33 0 0 0 0.31468 0.50056 -0.80648 0.0029007
0.0050707 0.12217 1.0232 1.4751e-38 423 268 0 0 0 0.32258 0.50661 -0.79955 0.0029731
-0.00211 0.12566 1.0223 1.217e-38 155 270 0 0 0 0.3098 0.49306 -0.81297 0.0032603
-0.00091468 0.12576 1.0232 1.0602e-38 156 270 0 0 0 0.31262 0.50331 -0.80557 0.0031366
0.00088095 0.12576 1.0232 9.911e-39 157.5 270 0 0 0 0.31528 0.51127 -0.7995 0.0029174
-0.0045021 0.12685 1.0223 1.1063e-38 360 270 0 0 0 0.31005 0.4935 -0.8126 0.0032658
-0.0033088 0.12696 1.0232 1.1156e-38 361 270 0 0 0 0.3114 0.50008 -0.80805 0.0032944
-0.012875 0.12924 1.0223 1.0418e-38 168 271 0 0 0 0.30019 0.47661 -0.82627 0.0026826
-0.011086 0.1287 1.0228 1.2446e-38 297.5 270.5 0 0 0 0.30492 0.48339 -0.82059 0.0027933
-0.0086918 0.1281 1.0228 1.4383e-38 427.5 270 0 0 0 0.30843 0.48355 -0.81918 0.0031041
-0.050119 0.069671 1.0257 9.2196e-39 353 245 0 0 0 -0.047015 -0.89914 -0.43513 0.0018345
-0.047119 0.069671 1.0257 1.1109e-38 355.5 245 0 0 0 -0.039113 -0.89444 -0.44547 0.0018459
-0.042919 0.069671 1.0257 1.2723e-38 359 245 0 0 0 -0.033676 -0.88892 -0.45682 0.0017127
-0.041102 0.069642 1.0253 1.2262e-38 360.5 245 0 0 0 -0.031741 -0.88642 -0.46179 0.0016989
-0.038702 0.069042 1.0253 1.1156e-38 404.5 244.5 0 0 0 -0.024336 -0.88664 -0.46181 0.0018011
-0.036888 0.069013 1.0249 1.1709e-38 406 244.5 0 0 0 -0.014934 -0.88301 -0.46912 0.001871
-0.035279 0.069194 1.0246 1.1771e-38 393.33 244.67 0 0 0 -0.011382 -0.88107 -0.47285 0.0018012
-0.032678 0.069584 1.0245 1.2493e-38 367.5 245 0 0 0 -0.0027436 -0.88047 -0.47409 0.0017873
-0.030867 0.069555 1.024 1.3922e-38 369 245 0 0 0 -0.00018733 -0.87938 -0.47612 0.0017435
-0.029094 0.069613 1.0249 1.3645e-38 370.5 245 0 0 0 0.0022753 -0.87963 -0.47565 0.0018232
-0.026696 0.069613 1.0249 1.3092e-38 372.5 245 0 0 0 0.008001 -0.87982 -0.47525 0.0018152
-0.024897 0.069613 1.0249 1.3645e-38 374 245 0 0 0 0.013581 -0.87834 -0.47784 0.0017744
-0.023108 0.069642 1.0253 1.3876e-38 375.5 245 0 0 0 0.018489 -0.87842 -0.47754 0.0018997
-0.070403 0.071951 1.024 1.4014e-38 365 246 0 0 0 -0.097074 -0.90471 -0.41482 0.0016514
-0.068606 0.071951 1.024 1.2861e-38 366.5 246 0 0 0 -0.094494 -0.90422 -0.41649 0.0016457
-0.06692 0.070871 1.0257 9.9571e-39 455 245 0 0 0 -0.092664 -0.90543 -0.41427 0.0014508
-0.065066 0.071411 1.0249 1.1755e-38 413 245.5 0 0 0 -0.087942 -0.90524 -0.41569 0.0015705
-0.062668 0.070812 1.0249 1.0971e-38 458.5 245 0 0 0 -0.080097 -0.90501 -0.41778 0.0015898
-0.060869 0.070812 1.0249 1.3184e-38 460 245 0 0 0 -0.073082 -0.90471 -0.41971 0.0016378
-0.059046 0.070782 1.0245 1.4291e-38 461.5 245 0 0 0 -0.064424 -0.90338 -0.42397 0.0016317
-0.057272 0.070812 1.0249 9.3118e-39 140 246 0 0 0 -0.059554 -0.90256 -0.42643 0.0017181
-0.052432 0.070753 1.024 9.2196e-39 141 246 0 0 0 -0.04565 -0.89522 -0.44327 0.0019496
-0.048838 0.070753 1.024 9.2196e-39 144 246 0 0 0 -0.036745 -0.89159 -0.45135 0.0018832
-0.04764 0.070753 1.024 9.1274e-39 145 246 0 0 0 -0.034012 -0.88944 -0.45579 0.0018344
-0.044645 0.070753 1.024 9.7729e-39 147.5 246 0 0 0 -0.028474 -0.88615 -0.46251 0.0017387
-0.041649 0.070753 1.024 9.6805e-39 150 246 0 0 0 -0.028767 -0.88273 -0.469 0.001574
-0.028471 0.070753 1.024 8.8508e-39 161 246 0 0 0 0.0053603 -0.87876 -0.47723 0.0017075
-0.0207 0.070812 1.0249 1.0925e-38 167.5 246 0 0 0 0.023246 -0.87579 -0.48213 0.0018649
-0.018918 0.070871 1.0257 1.0418e-38 169 246 0 0 0 0.026441 -0.87538 -0.48271 0.0019336
-0.017303 0.071211 1.0249 1.008e-38 249 246 0 0 0 0.031308 -0.87187 -0.48874 0.0017409
-0.014705 0.071411 1.0249 1.0349e-38 290.5 246 0 0 0 0.038201 -0.86706 -0.49674 0.0016048
-0.012917 0.070871 1.0257 9.6805e-39 175 246 0 0 0 0.042573 -0.86739 -0.4958 0.0017353
-0.011308 0.071211 1.0249 9.5577e-39 254.67 246 0 0 0 0.049863 -0.86396 -0.50109 0.0015771
-0.008508 0.071192 1.0246 1.0387e-38 257 246 0 0 0 0.060638 -0.86209 -0.50311 0.0016795
-0.0069115 0.070812 1.0249 1.0418e-38 180 246 0 0 0 0.066601 -0.86177 -0.5029 0.0018045
-0.0051129 0.071411 1.0249 1.0534e-38 299 246 0 0 0 0.074181 -0.86121 -0.5028 0.0018854
-0.0025149 0.071211 1.0249 1.0111e-38 262 246 0 0 0 0.078248 -0.86281 -0.49943 0.0021036
-0.00091696 0.070871 1.0257 9.8649e-39 185 246 0 0 0 0.079755 -0.86583 -0.49395 0.0024255
0.00028309 0.070871 1.0257 9.404e-39 186 246 0 0 0 0.079947 -0.86653 -0.49268 0.0024275
0.036224 0.071951 1.024 9.7727e-39 451 246 0 0 0 0.26201 -0.75106 -0.60601 0.036346
-0.077056 0.07321 1.0249 9.2657e-39 146.5 247 0 0 0 -0.10494 -0.90256 -0.41757 0.0016078
-0.074858 0.07241 1.0249 1.1832e-38 290.33 246.33 0 0 0 -0.10046 -0.9042 -0.41513 0.0016243
-0.07292 0.072071 1.0257 1.4014e-38 363 246 0 0 0 -0.098341 -0.90354 -0.41706 0.0016743
-0.07172 0.072071 1.0257 1.4383e-38 364 246 0 0 0 -0.09847 -0.90493 -0.414 0.0015839
-0.018902 0.072011 1.0249 1.1524e-38 405 246 0 0 0 0.029948 -0.87318 -0.48648 0.0017351
0.0014819 0.072011 1.0249 1.1248e-38 422 246 0 0 0 0.078774 -0.8652 -0.49521 0.0023585
0.0032805 0.072011 1.0249 1.0464e-38 423.5 246 0 0 0 0.07424 -0.86687 -0.49297 0.0026546
0.0050791 0.072011 1.0249 1.0602e-38 425 246 0 0 0 0.068283 -0.86818 -0.49153 0.0028428
0.0070775 0.07241 1.0249 1.0971e-38 398.67 246.33 0 0 0 0.063825 -0.86934 -0.49007 0.0029163
0.0092763 0.07261 1.0249 9.9112e-39 386.5 246.5 0 0 0 0.055983 -0.87035 -0.48923 0.0028402
0.011074 0.07321 1.0249 8.482e-39 346 247 0 0 0 0.048621 -0.87121 -0.48851 0.0027249
0.012873 0.07321 1.0249 8.943e-39 347.5 247 0 0 0 0.043633 -0.87016 -0.49083 0.0025999
0.015271 0.07321 1.0249 1.0003e-38 349.5 247 0 0 0 0.04172 -0.86597 -0.49835 0.0027605
0.017069 0.07261 1.0249 1.0096e-38 393 246.5 0 0 0 0.036208 -0.8637 -0.5027 0.0032621
0.018877 0.072641 1.0253 1.0095e-38 394.5 246.5 0 0 0 0.036547 -0.86281 -0.50421 0.0036079
0.021266 0.072011 1.0249 9.1274e-39 438.5 246 0 0 0 0.044996 -0.85531 -0.51616 0.0052703
0.023084 0.072071 1.0257 9.5883e-39 440 246 0 0 0 0.056769 -0.85264 -0.51941 0.0069181
0.024864 0.07321 1.0249 1.4336e-38 357.5 247 0 0 0 0.09882 -0.82808 -0.55183 0.014372
0.027062 0.07281 1.0249 1.1801e-38 387.33 246.67 0 0 0 0.11861 -0.81716 -0.56408 0.018533
0.02906 0.07261 1.0249 1.1063e-38 403 246.5 0 0 0 0.14406 -0.8029 -0.57844 0.022511
0.030871 0.073241 1.0253 1.3553e-38 362.5 247 0 0 0 0.17739 -0.78418 -0.59464 0.029799
0.033256 0.07261 1.0249 1.1893e-38 406.5 246.5 0 0 0 0.22644 -0.77096 -0.59527 0.032225
0.035055 0.07261 1.0249 1.1156e-38 408 246.5 0 0 0 0.23805 -0.7615 -0.60287 0.0342
-0.096921 0.075671 1.0257 8.7586e-39 160 248 0 0 0 -0.16222 -0.87642 -0.45339 0.0031276
-0.095041 0.075608 1.0249 9.6807e-39 161.5 248 0 0 0 -0.15933 -0.87697 -0.45336 0.0031828
-0.092643 0.075008 1.0249 1.2355e-38 268.5 247.5 0 0 0 -0.15689 -0.87813 -0.45197 0.0030016
-0.090845 0.074409 1.0249 1.4106e-38 375 247 0 0 0 -0.15275 -0.87962 -0.45049 0.002805
-0.089047 0.075008 1.0249 1.1939e-38 271.5 247.5 0 0 0 -0.14821 -0.88149 -0.44834 0.002679
-0.086684 0.075039 1.0253 1.134e-38 273.5 247.5 0 0 0 -0.14121 -0.88583 -0.44199 0.0022792
-0.085379 0.075545 1.024 9.7727e-39 169.5 248 0 0 0 -0.14704 -0.88693 -0.43787 0.0025736
-0.083085 0.07444 1.0253 1.3507e-38 381.5 247 0 0 0 -0.13153 -0.89208 -0.43231 0.0020364
-0.080687 0.07444 1.0253 1.2124e-38 383.5 247 0 0 0 -0.12218 -0.89651 -0.42585 0.0018324
-0.07892 0.074471 1.0257 1.1524e-38 385 247 0 0 0 -0.11246 -0.89962 -0.42194 0.0017453
-0.077591 0.074347 1.024 1.1432e-38 386 247 0 0 0 -0.11151 -0.90157 -0.41801 0.0015823
0.031432 0.074347 1.024 9.3118e-39 151 248 0 0 0 0.21991 -0.7502 -0.62357 0.034122
0.03263 0.074347 1.024 9.8649e-39 152 248 0 0 0 0.23717 -0.74496 -0.62353 0.035602
0.037422 0.074347 1.024 1.0049e-38 156 248 0 0 0 0.30195 -0.71511 -0.63042 0.041108
0.038621 0.075545 1.024 1.0695e-38 402 248 0 0 0 0.34587 -0.68192 -0.64448 0.044715
-0.098721 0.076871 1.0257 1.0833e-38 404.5 248 0 0 0 -0.1727 -0.87256 -0.45696 0.0033044
-0.097359 0.077342 1.024 1.0602e-38 302 248.5 0 0 0 -0.16501 -0.87557 -0.45403 0.003763
0.024264 0.10558 1.0249 8.2976e-39 212 262 0 0 0 0.41217 0.5904 -0.69394 0.011098
0.021848 0.10789 1.024 1.0418e-38 197 263 0 0 0 0.3862 0.59019 -0.70889 0.0098742
0.023065 0.10798 1.0249 1.0879e-38 198 263 0 0 0 0.39605 0.58799 -0.70527 0.010469
0.021848 0.10909 1.024 1.4475e-38 415 263 0 0 0 0.38579 0.58616 -0.71244 0.010131
0.023084 0.10927 1.0257 1.4567e-38 416 263 0 0 0 0.40182 0.58238 -0.70667 0.011045
0.021267 0.11098 1.0249 1.3483e-38 291 264 0 0 0 0.39412 0.57505 -0.71692 0.0095294
0.018853 0.11388 1.024 1.0234e-38 386.5 265 0 0 0 0.39512 0.5589 -0.72905 0.0082015
0.020684 0.11287 1.0257 9.2196e-39 169 265 0 0 0 0.40096 0.56319 -0.72253 0.0090652
0.018869 0.11518 1.0249 1.0096e-38 159.5 266 0 0 0 0.40373 0.552 -0.72958 0.0082463
0.013461 0.11748 1.024 9.3118e-39 140 267 0 0 0 0.38836 0.51958 -0.76106 0.0071321
0.015268 0.11695 1.0246 9.7266e-39 257 266.5 0 0 0 0.39322 0.53171 -0.75011 0.0072749
0.017069 0.11697 1.0249 9.8649e-39 258.5 266.5 0 0 0 0.4073 0.5374 -0.73845 0.0073807
0.018884 0.11647 1.0257 1.028e-38 375.5 266 0 0 0 0.41687 0.54279 -0.72911 0.0079848
0.007471 0.11987 1.024 1.2723e-38 442 267 0 0 0 0.35188 0.50592 -0.78754 0.0046738
0.0094705 0.11951 1.0243 1.2047e-38 413.33 267 0 0 0 0.37328 0.5099 -0.77502 0.0066336
0.011074 0.11937 1.0249 1.2031e-38 399.5 267 0 0 0 0.38399 0.51236 -0.76814 0.0066772
0.012677 0.1192 1.0252 1.1586e-38 385.67 267 0 0 0 0.39424 0.51644 -0.76018 0.0067821
0.014684 0.11887 1.0257 9.6805e-39 357 267 0 0 0 0.40611 0.52338 -0.7491 0.0067766
0.007471 0.12107 1.024 7.9288e-39 209 268 0 0 0 0.3464 0.50586 -0.79001 0.0037238
0.0092798 0.12122 1.0253 8.2976e-39 210.5 268 0 0 0 0.37638 0.51555 -0.76977 0.0063275
0.011084 0.12127 1.0257 9.1274e-39 212 268 0 0 0 0.3899 0.52088 -0.75938 0.0065487
0.012884 0.12067 1.0257 1.0418e-38 330 267.5 0 0 0 0.40267 0.51955 -0.75361 0.0066668
0.0038768 0.12347 1.024 1.1617e-38 187 269 0 0 0 0.32288 0.50898 -0.79793 0.0028562
0.0050749 0.12347 1.024 1.1432e-38 188 269 0 0 0 0.32384 0.51417 -0.7942 0.0028822
0.0068779 0.12297 1.0249 1.3023e-38 307 268.5 0 0 0 0.34221 0.51911 -0.78321 0.0035118
0.0092834 0.12247 1.0257 1.4844e-38 426.5 268 0 0 0 0.37549 0.52266 -0.7654 0.0059168
0.0032793 0.12472 1.0245 1.701e-38 401.5 269 0 0 0 0.32278 0.51804 -0.79212 0.002714
0.0050833 0.12487 1.0257 1.5581e-38 403 269 0 0 0 0.33109 0.5285 -0.7817 0.0027611
0.0062833 0.12487 1.0257 1.5212e-38 404 269 0 0 0 0.34178 0.53593 -0.77199 0.0029484
-0.0021135 0.12706 1.024 9.8649e-39 362 270 0 0 0 0.31221 0.51241 -0.79997 0.0031331
-0.0009162 0.12717 1.0249 9.1274e-39 363 270 0 0 0 0.31723 0.5201 -0.79301 0.0028233
0.00088238 0.12717 1.0249 8.5742e-39 364.5 270 0 0 0 0.32126 0.52703 -0.78679 0.0026283
0.0026832 0.12607 1.0257 1.0142e-38 159 270 0 0 0 0.32505 0.53196 -0.7819 0.002461
-0.0069057 0.12826 1.024 1.4843e-38 429 270 0 0 0 0.31071 0.49929 -0.80881 0.0031512
-0.0051105 0.12832 1.0245 1.3553e-38 430.5 270 0 0 0 0.31421 0.5066 -0.80288 0.003075
-0.062223 0.069787 1.0274 9.0352e-39 348 245 0 0 0 -0.079972 -0.90887 -0.40934 0.0012634
-0.059819 0.069787 1.0274 9.8649e-39 350 245 0 0 0 -0.072902 -0.90907 -0.41022 0.0012836
-0.052563 0.069729 1.0266 1.051e-38 351 245 0 0 0 -0.054066 -0.90405 -0.424 0.0016893
-0.051362 0.069729 1.0266 1.0142e-38 352 245 0 0 0 -0.050207 -0.90232 -0.42813 0.0017063
-0.04896 0.069729 1.0266 9.2196e-39 354 245 0 0 0 -0.046614 -0.89876 -0.43596 0.0017705
-0.046596 0.068584 1.0274 9.7727e-39 440 244 0 0 0 -0.044938 -0.89945 -0.43471 0.0016648
-0.044756 0.069729 1.0266 1.3046e-38 357.5 245 0 0 0 -0.036763 -0.8924 -0.44975 0.0017874
-0.04299 0.068584 1.0274 1.0695e-38 443 244 0 0 0 -0.037532 -0.89684 -0.44077 0.0017967
-0.041187 0.068584 1.0274 9.7725e-39 444.5 244 0 0 0 -0.034967 -0.89475 -0.4452 0.001871
-0.039384 0.068584 1.0274 9.404e-39 446 244 0 0 0 -0.029556 -0.89287 -0.44934 0.0020026
-0.034547 0.068527 1.0266 9.4961e-39 450 244 0 0 0 -0.0097071 -0.89009 -0.45568 0.0022134
-0.032746 0.068527 1.0266 1.0049e-38 451.5 244 0 0 0 -0.0027211 -0.88962 -0.4567 0.0022042
-0.030944 0.068527 1.0266 1.0879e-38 453 244 0 0 0 -0.00098219 -0.88838 -0.45912 0.0022914
-0.029154 0.068556 1.027 1.0233e-38 454.5 244 0 0 0 0.0027038 -0.89014 -0.45568 0.0023998
-0.026741 0.068527 1.0266 1.0141e-38 456.5 244 0 0 0 0.0088676 -0.88888 -0.45805 0.0024033
-0.024959 0.068584 1.0274 1.1432e-38 458 244 0 0 0 0.011932 -0.88821 -0.45929 0.0024065
-0.023156 0.068584 1.0274 1.3046e-38 459.5 244 0 0 0 0.015086 -0.88747 -0.46062 0.0025765
-0.020744 0.069758 1.027 1.2769e-38 377.5 245 0 0 0 0.020366 -0.88059 -0.47345 0.0023877
-0.018949 0.069787 1.0274 1.2907e-38 379 245 0 0 0 0.020983 -0.87956 -0.47532 0.0024331
-0.017139 0.069758 1.027 1.3461e-38 380.5 245 0 0 0 0.025275 -0.87409 -0.4851 0.0020489
-0.014141 0.069787 1.0274 1.2078e-38 383 245 0 0 0 0.034783 -0.87132 -0.48949 0.0020288
-0.012939 0.069787 1.0274 1.1893e-38 384 245 0 0 0 0.038268 -0.87019 -0.49123 0.002051
-0.011131 0.069758 1.027 1.2308e-38 385.5 245 0 0 0 0.047439 -0.8676 -0.49499 0.0019345
-0.0087245 0.069729 1.0266 1.3046e-38 387.5 245 0 0 0 0.056021 -0.86572 -0.49738 0.0019933
-0.006923 0.069729 1.0266 1.134e-38 389 245 0 0 0 0.06766 -0.86538 -0.49652 0.0021978
-0.0051257 0.069787 1.0274 9.8188e-39 390.5 245 0 0 0 0.074197 -0.86891 -0.48937 0.0024753
-0.0027201 0.069758 1.027 1.1294e-38 392.5 245 0 0 0 0.081101 -0.86815 -0.48963 0.0025993
-0.00091848 0.069787 1.0274 1.1524e-38 394 245 0 0 0 0.080963 -0.87132 -0.48398 0.0028106
0.00028356 0.069787 1.0274 1.1063e-38 395 245 0 0 0 0.082915 -0.87245 -0.48162 0.0028661
-0.074243 0.070989 1.0274 9.3118e-39 449 245 0 0 0 -0.097139 -0.90215 -0.42034 0.0017707
-0.073041 0.070989 1.0274 9.2196e-39 450 245 0 0 0 -0.095715 -0.9025 -0.41992 0.0018033
-0.071208 0.070959 1.027 9.9111e-39 451.5 245 0 0 0 -0.097805 -0.90344 -0.41741 0.0016907
-0.068777 0.07093 1.0266 1.1018e-38 453.5 245 0 0 0 -0.095972 -0.90515 -0.41412 0.0014935
-0.065829 0.070989 1.0274 9.4961e-39 456 245 0 0 0 -0.090159 -0.9066 -0.41224 0.0013514
0.0014844 0.07093 1.0266 9.404e-39 187 246 0 0 0 0.080987 -0.86811 -0.48973 0.002611
0.003286 0.07093 1.0266 1.0003e-38 188.5 246 0 0 0 0.076291 -0.87055 -0.48613 0.0029966
0.0050875 0.07093 1.0266 9.9571e-39 190 246 0 0 0 0.070327 -0.87134 -0.48562 0.0031659
0.0062886 0.07093 1.0266 9.0352e-39 191 246 0 0 0 0.068399 -0.87312 -0.48268 0.0032372
0.021319 0.070989 1.0274 1.2861e-38 327.5 246 0 0 0 0.029071 -0.8713 -0.48989 0.0037611
0.029133 0.070989 1.0274 1.4475e-38 334 246 0 0 0 0.10125 -0.83827 -0.53577 0.015386
0.030335 0.070989 1.0274 1.3829e-38 335 246 0 0 0 0.11975 -0.83064 -0.54378 0.017739
0.033326 0.070959 1.027 1.0234e-38 337.5 246 0 0 0 0.1564 -0.81831 -0.55308 0.01989
0.036315 0.07093 1.0266 9.3118e-39 340 246 0 0 0 0.19571 -0.79971 -0.56759 0.024313
-0.091072 0.073393 1.0274 1.0602e-38 459 246 0 0 0 -0.14445 -0.88138 -0.44978 0.002273
-0.086264 0.073393 1.0274 9.9571e-39 139 247 0 0 0 -0.13369 -0.88556 -0.44487 0.0019036
-0.083224 0.073362 1.027 9.1735e-39 141.5 247 0 0 0 -0.12466 -0.89107 -0.43641 0.002097
-0.080821 0.073362 1.027 9.6344e-39 143.5 247 0 0 0 -0.11542 -0.89517 -0.43053 0.0020309
-0.079051 0.073393 1.0274 9.5883e-39 145 247 0 0 0 -0.10578 -0.89798 -0.42713 0.0017974
-0.077216 0.072161 1.027 1.2723e-38 359.5 246 0 0 0 -0.099524 -0.90006 -0.42424 0.001774
0.0086907 0.072131 1.0266 1.0971e-38 428 246 0 0 0 0.060358 -0.87403 -0.48212 0.0033178
0.011093 0.072131 1.0266 9.8649e-39 430 246 0 0 0 0.047516 -0.87606 -0.47985 0.0031122
0.012895 0.072131 1.0266 1.028e-38 431.5 246 0 0 0 0.041631 -0.87551 -0.48141 0.0028914
0.015297 0.072131 1.0266 9.7268e-39 433.5 246 0 0 0 0.033982 -0.874 -0.48474 0.0025758
0.018299 0.072131 1.0266 8.943e-39 436 246 0 0 0 0.031556 -0.86937 -0.49316 0.0031483
0.024905 0.072131 1.0266 1.0372e-38 441.5 246 0 0 0 0.075883 -0.84698 -0.52618 0.010377
0.027931 0.072191 1.0274 9.2196e-39 444 246 0 0 0 0.099111 -0.83677 -0.53851 0.014926
0.030923 0.072161 1.027 9.6345e-39 446.5 246 0 0 0 0.13214 -0.81871 -0.55879 0.020333
-0.098284 0.075797 1.0274 8.7586e-39 159 248 0 0 0 -0.16872 -0.87692 -0.45005 0.0030776
-0.097082 0.074595 1.0274 1.3737e-38 370 247 0 0 0 -0.16165 -0.87703 -0.45242 0.0029316
-0.09524 0.074564 1.027 1.3092e-38 371.5 247 0 0 0 -0.15621 -0.87752 -0.45338 0.0028224
-0.093398 0.074533 1.0266 1.3737e-38 373 247 0 0 0 -0.15186 -0.87787 -0.45419 0.002642
-0.088594 0.074533 1.0266 1.2539e-38 377 247 0 0 0 -0.14312 -0.88384 -0.44535 0.0023204
-0.087393 0.074533 1.0266 1.2446e-38 378 247 0 0 0 -0.13869 -0.88393 -0.44657 0.0021441
-0.084991 0.074533 1.0266 1.3645e-38 380 247 0 0 0 -0.1323 -0.88888 -0.43863 0.0020756
-0.1006 0.076935 1.0266 1.0234e-38 403 248 0 0 0 -0.18528 -0.87232 -0.45247 0.0030582
0.023113 0.11121 1.027 1.3783e-38 292.5 264 0 0 0 0.42398 0.56841 -0.70509 0.010837
0.021902 0.11297 1.0266 9.8649e-39 170 265 0 0 0 0.41384 0.56379 -0.71476 0.0098916
0.021311 0.11482 1.027 1.0879e-38 275 265.5 0 0 0 0.42164 0.558 -0.71474 0.009497
0.0189 0.11777 1.0266 1.1017e-38 144.5 267 0 0 0 0.4269 0.5384 -0.72656 0.0081579
0.020709 0.11722 1.027 1.0464e-38 261.5 266.5 0 0 0 0.43202 0.54546 -0.71821 0.0086799
0.015897 0.11897 1.0266 9.5883e-39 358 267 0 0 0 0.41363 0.52867 -0.74123 0.0069722
0.017098 0.11897 1.0266 1.0142e-38 359 267 0 0 0 0.42388 0.53069 -0.73396 0.0070295
0.018915 0.11907 1.0274 1.0649e-38 360.5 267 0 0 0 0.43847 0.53424 -0.72272 0.0076273
0.013495 0.12137 1.0266 7.6522e-39 214 268 0 0 0 0.40846 0.52409 -0.74732 0.006999
0.015105 0.12064 1.0271 1.051e-38 370.67 267.33 0 0 0 0.41635 0.52668 -0.74112 0.0069184
0.017112 0.12027 1.0274 1.0602e-38 450 267 0 0 0 0.43083 0.53056 -0.72999 0.0073147
0.0092912 0.12378 1.0266 1.1017e-38 191.5 269 0 0 0 0.37539 0.538 -0.75474 0.0052858
0.011098 0.12323 1.027 1.3691e-38 310.5 268.5 0 0 0 0.39736 0.53366 -0.74653 0.0064624
0.012701 0.12304 1.0271 1.469e-38 351 268.33 0 0 0 0.41127 0.53168 -0.74039 0.0068956
0.0074896 0.12498 1.0266 1.512e-38 405 269 0 0 0 0.3507 0.54013 -0.76503 0.0030656
0.0086979 0.12508 1.0274 1.5212e-38 406 269 0 0 0 0.36744 0.55144 -0.74893 0.0039511
0.0038865 0.12618 1.0266 9.9571e-39 160 270 0 0 0 0.32955 0.5378 -0.77599 0.0023104
0.0050875 0.12618 1.0266 1.1248e-38 161 270 0 0 0 0.33415 0.54365 -0.76992 0.00213
0.0062938 0.12628 1.0274 1.1893e-38 162 270 0 0 0 0.34647 0.55192 -0.75851 0.0023034
-0.046713 0.067551 1.03 1.2815e-38 329 244 0 0 0 -0.050639 -0.90602 -0.4202 0.0014838
-0.043098 0.067551 1.03 1.429e-38 332 244 0 0 0 -0.041821 -0.90454 -0.42433 0.0016513
-0.041274 0.067523 1.0295 1.3368e-38 333.5 244 0 0 0 -0.038864 -0.90237 -0.42921 0.0017662
-0.038832 0.067467 1.0287 1.3783e-38 335.5 244 0 0 0 -0.028191 -0.89992 -0.43513 0.0020663
-0.037011 0.067439 1.0283 1.2446e-38 337 244 0 0 0 -0.01902 -0.89859 -0.43839 0.0022505
-0.035207 0.067439 1.0283 9.5882e-39 338.5 244 0 0 0 -0.012926 -0.8989 -0.43796 0.0023538
-0.032827 0.067495 1.0291 9.7265e-39 340.5 244 0 0 0 -0.0064444 -0.90009 -0.43566 0.0025051
-0.030995 0.067439 1.0283 1.0695e-38 342 244 0 0 0 -0.0034221 -0.89721 -0.44159 0.0025729
-0.029227 0.067523 1.0295 9.7729e-39 343.5 244 0 0 0 0.00073708 -0.89883 -0.4383 0.0026865
-0.026796 0.067467 1.0287 8.9891e-39 345.5 244 0 0 0 0.0051008 -0.89387 -0.44831 0.002688
-0.025001 0.067495 1.0291 8.943e-39 347 244 0 0 0 0.01042 -0.89337 -0.4492 0.0027076
-0.023195 0.067495 1.0291 9.2196e-39 348.5 244 0 0 0 0.011701 -0.89077 -0.4543 0.0029331
-0.020805 0.067551 1.03 1.0003e-38 350.5 244 0 0 0 0.011257 -0.89008 -0.45567 0.003312
-0.018997 0.067551 1.03 9.9571e-39 352 244 0 0 0 0.012153 -0.88771 -0.46024 0.0031727
-0.017182 0.067523 1.0295 9.3118e-39 353.5 244 0 0 0 0.017802 -0.88433 -0.46652 0.0028983
-0.014779 0.067551 1.03 1.1064e-38 355.5 244 0 0 0 0.023367 -0.88071 -0.47307 0.0029003
-0.012961 0.067495 1.0291 1.2078e-38 357 244 0 0 0 0.032203 -0.87741 -0.47866 0.0026915
-0.011159 0.067523 1.0295 1.24e-38 358.5 244 0 0 0 0.041901 -0.8769 -0.47885 0.0028168
-0.0089496 0.067112 1.0294 1.1125e-38 390 243.67 0 0 0 0.056475 -0.8767 -0.4777 0.003068
-0.006946 0.067551 1.03 1.2631e-38 362 244 0 0 0 0.069722 -0.87888 -0.47192 0.0033542
-0.0051385 0.067551 1.03 1.3921e-38 363.5 244 0 0 0 0.075429 -0.88 -0.46894 0.0034319
-0.0027269 0.067523 1.0295 1.3138e-38 365.5 244 0 0 0 0.081304 -0.8788 -0.47021 0.0033432
-0.00092078 0.067551 1.03 1.2631e-38 367 244 0 0 0 0.086712 -0.88232 -0.46259 0.0034458
0.00028427 0.067551 1.03 1.3184e-38 368 244 0 0 0 0.087036 -0.88315 -0.46095 0.0034957
-0.072622 0.069961 1.03 9.1735e-39 339.5 245 0 0 0 -0.092894 -0.89914 -0.42769 0.0021305
-0.070814 0.069961 1.03 1.0142e-38 341 245 0 0 0 -0.092962 -0.90071 -0.42436 0.0019796
-0.069007 0.069961 1.03 1.0602e-38 342.5 245 0 0 0 -0.091041 -0.90259 -0.42076 0.0017914
-0.067143 0.069903 1.0291 9.1274e-39 344 245 0 0 0 -0.089397 -0.90501 -0.41589 0.0015932
-0.064735 0.069903 1.0291 8.7586e-39 346 245 0 0 0 -0.084421 -0.90796 -0.41046 0.0013072
-0.063478 0.069845 1.0283 8.8508e-39 347 245 0 0 0 -0.082695 -0.90785 -0.41106 0.001289
-0.061072 0.069845 1.0283 9.3118e-39 349 245 0 0 0 -0.076604 -0.90901 -0.40967 0.0012202
-0.059968 0.068756 1.03 9.7727e-39 429 244 0 0 0 -0.07308 -0.91079 -0.40636 0.0010945
-0.056956 0.068756 1.03 1.0326e-38 431.5 244 0 0 0 -0.065988 -0.91194 -0.40498 0.0010102
-0.055148 0.068756 1.03 9.6805e-39 433 244 0 0 0 -0.064193 -0.91077 -0.4079 0.0011921
-0.053319 0.068728 1.0295 9.1274e-39 434.5 244 0 0 0 -0.063974 -0.90989 -0.4099 0.0013086
-0.050866 0.06867 1.0287 9.2656e-39 436.5 244 0 0 0 -0.057779 -0.90618 -0.41894 0.0015579
-0.049082 0.068699 1.0291 8.8508e-39 438 244 0 0 0 -0.054985 -0.90612 -0.41942 0.0015149
-0.047838 0.068642 1.0283 8.943e-39 439 244 0 0 0 -0.049065 -0.90309 -0.42664 0.0016498
-0.044868 0.068699 1.0291 1.0741e-38 441.5 244 0 0 0 -0.043465 -0.90123 -0.43116 0.0016955
-0.020778 0.06867 1.0287 1.1386e-38 300.5 244.5 0 0 0 0.01612 -0.88681 -0.46186 0.0028683
-0.018981 0.068699 1.0291 9.1274e-39 141 245 0 0 0 0.016365 -0.88417 -0.46688 0.0029222
-0.017168 0.06867 1.0287 9.3118e-39 142.5 245 0 0 0 0.02153 -0.87804 -0.47811 0.0025155
-0.014963 0.069081 1.0288 1.051e-38 223.67 245 0 0 0 0.027469 -0.87768 -0.47845 0.002493
-0.01295 0.068642 1.0283 9.1274e-39 146 245 0 0 0 0.036318 -0.87313 -0.48613 0.0021796
-0.01115 0.06867 1.0287 9.773e-39 147.5 245 0 0 0 0.042139 -0.87251 -0.48678 0.0023827
-0.0087391 0.068642 1.0283 9.819e-39 149.5 245 0 0 0 0.056816 -0.8715 -0.4871 0.002568
-0.0069345 0.068642 1.0283 8.943e-39 151 245 0 0 0 0.067195 -0.87148 -0.48581 0.0027032
-0.0051299 0.068642 1.0283 9.2196e-39 152.5 245 0 0 0 0.073512 -0.87249 -0.48308 0.0028105
-0.0027238 0.068642 1.0283 1.0326e-38 154.5 245 0 0 0 0.080965 -0.87414 -0.47888 0.0030532
-0.00091925 0.068642 1.0283 1.0418e-38 156 245 0 0 0 0.084234 -0.8755 -0.47582 0.0030987
0.0010867 0.0691 1.0291 9.6498e-39 237 245 0 0 0 0.088634 -0.87707 -0.47212 0.0031359
0.0030935 0.069501 1.0291 9.3732e-39 318 245 0 0 0 0.080639 -0.87888 -0.47018 0.0035784
0.0051002 0.069903 1.0291 9.6805e-39 399 245 0 0 0 0.074407 -0.8804 -0.46836 0.0037622
0.0069095 0.069932 1.0295 9.911e-39 400.5 245 0 0 0 0.06958 -0.88361 -0.46302 0.0040136
0.01354 0.069961 1.03 1.0695e-38 406 245 0 0 0 0.038649 -0.88863 -0.457 0.003574
0.017155 0.069961 1.03 1.0418e-38 409 245 0 0 0 0.020328 -0.88928 -0.45692 0.0027241
0.018962 0.069961 1.03 1.0694e-38 410.5 245 0 0 0 0.016559 -0.88738 -0.46074 0.0025776
0.021562 0.069521 1.0294 9.4961e-39 333.67 245 0 0 0 0.015845 -0.88312 -0.46888 0.0028217
0.02318 0.069961 1.03 9.8649e-39 414 245 0 0 0 0.021079 -0.8806 -0.47338 0.0033546
0.026795 0.069961 1.03 1.051e-38 417 245 0 0 0 0.035609 -0.86971 -0.49228 0.0056987
0.029181 0.069903 1.0291 1.0142e-38 419 245 0 0 0 0.075255 -0.85498 -0.51317 0.01154
0.030385 0.069903 1.0291 1.0787e-38 420 245 0 0 0 0.085329 -0.84919 -0.52114 0.012616
0.033381 0.069874 1.0287 1.0556e-38 422.5 245 0 0 0 0.13836 -0.83439 -0.53353 0.017963
0.035231 0.069961 1.03 1.0787e-38 424 245 0 0 0 0.13341 -0.83532 -0.53333 0.017205
0.036406 0.069903 1.0291 1.1156e-38 425 245 0 0 0 0.16417 -0.82124 -0.54645 0.021028
-0.084069 0.071166 1.03 1.0418e-38 441 245 0 0 0 -0.11666 -0.88462 -0.45149 0.0023902
-0.082864 0.071166 1.03 1.0695e-38 442 245 0 0 0 -0.11187 -0.88642 -0.44916 0.002425
-0.081056 0.071166 1.03 9.9112e-39 443.5 245 0 0 0 -0.10647 -0.88933 -0.4447 0.0022535
-0.077345 0.071077 1.0287 9.4962e-39 446.5 245 0 0 0 -0.095834 -0.89779 -0.42988 0.0020436
-0.075508 0.071048 1.0283 9.4961e-39 448 245 0 0 0 -0.096721 -0.89997 -0.42508 0.0019242
0.0075021 0.071048 1.0283 8.482e-39 192 246 0 0 0 0.065627 -0.87736 -0.47533 0.0037935
0.0093067 0.071048 1.0283 8.0671e-39 193.5 246 0 0 0 0.058355 -0.87888 -0.47347 0.0038159
0.01112 0.071107 1.0291 8.021e-39 195 246 0 0 0 0.047524 -0.88425 -0.46458 0.0038128
0.012921 0.071077 1.0287 9.2196e-39 196.5 246 0 0 0 0.041367 -0.88073 -0.47182 0.0033306
0.015335 0.071107 1.0291 9.2196e-39 198.5 246 0 0 0 0.031992 -0.8838 -0.46677 0.0029569
0.017126 0.071048 1.0283 8.6664e-39 200 246 0 0 0 0.025164 -0.88151 -0.4715 0.0026693
0.018931 0.071048 1.0283 1.1801e-38 325.5 246 0 0 0 0.020952 -0.88042 -0.47373 0.0026884
0.023142 0.071048 1.0283 1.3368e-38 329 246 0 0 0 0.032408 -0.87135 -0.48958 0.0041156
0.024967 0.071107 1.0291 1.4291e-38 330.5 246 0 0 0 0.037672 -0.86873 -0.49385 0.0051055
0.027364 0.071077 1.0287 1.4383e-38 332.5 246 0 0 0 0.07155 -0.85245 -0.51788 0.01154
0.031589 0.071107 1.0291 1.2354e-38 336 246 0 0 0 0.11846 -0.83678 -0.53457 0.017088
0.035172 0.071048 1.0283 9.1274e-39 339 246 0 0 0 0.16978 -0.81757 -0.55023 0.020999
-0.096642 0.073515 1.0291 1.0649e-38 454.5 246 0 0 0 -0.16699 -0.877 -0.45054 0.0030681
-0.094836 0.072912 1.0292 9.3579e-39 400.5 246 0 0 0 -0.15609 -0.87739 -0.45368 0.0027176
-0.09303 0.072912 1.0292 9.3118e-39 402 246 0 0 0 -0.1495 -0.87895 -0.45288 0.0025028
-0.090659 0.072341 1.0295 9.2196e-39 348.5 246 0 0 0 -0.14128 -0.87898 -0.45545 0.0023554
-0.089217 0.073113 1.0291 1.1739e-38 423.67 246 0 0 0 -0.13925 -0.88161 -0.45097 0.0021916
-0.08721 0.072712 1.0291 1.1709e-38 388.33 246 0 0 0 -0.13638 -0.88319 -0.44875 0.0021
-0.085168 0.072883 1.0287 9.4961e-39 246.5 246.5 0 0 0 -0.12448 -0.88651 -0.44564 0.0021065
-0.083328 0.072251 1.0283 1.0188e-38 354.5 246 0 0 0 -0.11934 -0.88959 -0.4409 0.0022118
-0.080922 0.072251 1.0283 1.3645e-38 356.5 246 0 0 0 -0.11147 -0.89325 -0.43553 0.0021316
-0.079183 0.072311 1.0291 1.3922e-38 358 246 0 0 0 -0.10115 -0.89497 -0.43451 0.0020142
-0.10086 0.075923 1.0291 9.7727e-39 157 248 0 0 0 -0.20221 -0.87197 -0.44585 0.0029064
-0.099009 0.07529 1.0287 1.134e-38 263.5 247.5 0 0 0 -0.18713 -0.87364 -0.44914 0.0029646
0.024345 0.10714 1.0283 1.4659e-38 431 262 0 0 0 0.43246 0.57731 -0.6926 0.011675
0.024375 0.10908 1.0295 1.3138e-38 308 263 0 0 0 0.44802 0.56883 -0.68971 0.01285
0.023161 0.11325 1.0291 1.0602e-38 171 265 0 0 0 0.44607 0.55971 -0.69839 0.011473
0.02318 0.11515 1.03 1.1064e-38 276.5 265.5 0 0 0 0.46206 0.54299 -0.70119 0.011063
0.021939 0.11737 1.0283 1.0464e-38 262.5 266.5 0 0 0 0.44632 0.54239 -0.71176 0.0097106
0.02318 0.11696 1.03 1.1893e-38 379 266 0 0 0 0.46457 0.54251 -0.6999 0.011262
0.021355 0.11927 1.0292 9.3578e-39 362.5 267 0 0 0 0.45475 0.53683 -0.71064 0.0096151
0.015923 0.12158 1.0283 6.7303e-39 216 268 0 0 0 0.43169 0.53128 -0.72896 0.0077523
0.017126 0.12158 1.0283 1.1524e-38 344 268 0 0 0 0.43603 0.53142 -0.72627 0.0079787
0.018943 0.12105 1.0289 1.1179e-38 398.5 267.5 0 0 0 0.44564 0.53212 -0.7199 0.0087433
0.020753 0.12047 1.0291 1.0326e-38 453 267 0 0 0 0.45267 0.53402 -0.71408 0.0098443
0.015329 0.12283 1.0287 1.4798e-38 431.5 268 0 0 0 0.42877 0.53292 -0.72948 0.0079886
0.017141 0.12288 1.0291 1.4567e-38 433 268 0 0 0 0.44149 0.53385 -0.72117 0.0088456
0.01836 0.12298 1.03 1.4659e-38 434 268 0 0 0 0.4494 0.5327 -0.71713 0.010138
0.0099082 0.12518 1.0283 1.5397e-38 407 269 0 0 0 0.38304 0.5545 -0.73879 0.0054707
0.011111 0.12518 1.0283 1.5858e-38 408 269 0 0 0 0.39603 0.55445 -0.73195 0.0062566
0.013529 0.12409 1.0291 1.217e-38 195 269 0 0 0 0.41656 0.54385 -0.7285 0.0073392
0.015341 0.12414 1.0295 1.0694e-38 196.5 269 0 0 0 0.43004 0.54028 -0.7233 0.0087355
0.017155 0.12419 1.03 9.8649e-39 198 269 0 0 0 0.44186 0.53741 -0.71829 0.0098382
0.0075021 0.12639 1.0283 1.1985e-38 163 270 0 0 0 0.35397 0.55582 -0.75217 0.0027415
-0.012993 0.06525 1.0317 1.4659e-38 331 243 0 0 0 0.026321 -0.88935 -0.45648 0.0037558
-0.0087683 0.06525 1.0317 1.2861e-38 334.5 243 0 0 0 0.057883 -0.88742 -0.45732 0.0042065
-0.0051471 0.06525 1.0317 1.1893e-38 337.5 243 0 0 0 0.078851 -0.88811 -0.45281 0.0039636
-0.0033365 0.06525 1.0317 9.404e-39 339 243 0 0 0 0.084221 -0.88805 -0.45197 0.0039104
-0.05524 0.067664 1.0317 7.6522e-39 200 244 0 0 0 -0.066731 -0.91215 -0.40439 0.0010425
-0.052826 0.067664 1.0317 1.1432e-38 324 244 0 0 0 -0.066246 -0.91157 -0.40577 0.0012098
-0.050973 0.067607 1.0309 1.1801e-38 325.5 244 0 0 0 -0.063007 -0.91052 -0.40864 0.0012982
-0.049205 0.067664 1.0317 1.1985e-38 327 244 0 0 0 -0.060003 -0.91072 -0.40864 0.001322
-0.047958 0.067607 1.0309 1.2262e-38 328 244 0 0 0 -0.054918 -0.90937 -0.41235 0.0013913
-0.044961 0.067635 1.0313 1.4198e-38 330.5 244 0 0 0 -0.046354 -0.90901 -0.41419 0.0014765
-0.041359 0.066457 1.0317 1.0464e-38 422.5 243 0 0 0 -0.037824 -0.91085 -0.411 0.0017191
-0.038912 0.066401 1.0309 1.0971e-38 424.5 243 0 0 0 -0.028798 -0.90912 -0.41554 0.0018566
-0.037103 0.066401 1.0309 1.0602e-38 426 243 0 0 0 -0.021998 -0.90856 -0.41717 0.0020301
-0.035294 0.066401 1.0309 1.0049e-38 427.5 243 0 0 0 -0.015343 -0.90773 -0.41928 0.0022175
-0.032882 0.066401 1.0309 9.2657e-39 429.5 243 0 0 0 -0.010299 -0.90589 -0.42339 0.0024216
-0.031073 0.066401 1.0309 9.4961e-39 431 243 0 0 0 -0.0061278 -0.90603 -0.42316 0.0026849
-0.029276 0.066429 1.0313 9.5422e-39 432.5 243 0 0 0 0.0013182 -0.90615 -0.42294 0.002854
-0.026852 0.066401 1.0309 8.943e-39 434.5 243 0 0 0 0.003283 -0.9032 -0.4292 0.003089
-0.025043 0.066401 1.0309 9.6805e-39 436 243 0 0 0 0.0042387 -0.90042 -0.435 0.0032797
-0.023254 0.066457 1.0317 9.0352e-39 437.5 243 0 0 0 0.0059684 -0.9017 -0.43232 0.0037253
-0.020838 0.066457 1.0317 9.404e-39 439.5 243 0 0 0 0.0075875 -0.89625 -0.44349 0.003759
-0.019028 0.066457 1.0317 1.0142e-38 441 243 0 0 0 0.0089065 -0.89221 -0.45153 0.0035382
-0.017211 0.066429 1.0313 1.0649e-38 442.5 243 0 0 0 0.013121 -0.88857 -0.45854 0.0033055
-0.014803 0.066457 1.0317 1.0003e-38 444.5 243 0 0 0 0.02004 -0.88898 -0.45751 0.0035025
-0.012982 0.066401 1.0309 9.4961e-39 446 243 0 0 0 0.027383 -0.88411 -0.46647 0.003209
-0.011173 0.066401 1.0309 9.3579e-39 447.5 243 0 0 0 0.038789 -0.88465 -0.46464 0.0035383
-0.0081579 0.066401 1.0309 9.5883e-39 450 243 0 0 0 0.063102 -0.8834 -0.46435 0.0036926
-0.0069518 0.066401 1.0309 9.5883e-39 451 243 0 0 0 0.069836 -0.88412 -0.46201 0.0037251
-0.0051428 0.066401 1.0309 1.0602e-38 452.5 243 0 0 0 0.076521 -0.88405 -0.46108 0.0036469
-0.0027316 0.066429 1.0313 1.0418e-38 454.5 243 0 0 0 0.083636 -0.88613 -0.45582 0.0036856
-0.00092232 0.066457 1.0317 1.0787e-38 456 243 0 0 0 0.090483 -0.88665 -0.4535 0.0036566
0.00088827 0.067061 1.0317 1.2861e-38 413 243.5 0 0 0 0.089832 -0.88679 -0.45335 0.0036469
0.021399 0.067635 1.0313 1.217e-38 382.5 244 0 0 0 0.0026129 -0.8925 -0.45104 0.0023712
-0.063034 0.068813 1.0309 1.0971e-38 426.5 244 0 0 0 -0.079866 -0.90959 -0.40777 0.0012379
-0.061225 0.068813 1.0309 1.0326e-38 428 244 0 0 0 -0.075458 -0.91076 -0.40597 0.0011413
-0.058812 0.068813 1.0309 9.4961e-39 430 244 0 0 0 -0.068656 -0.91192 -0.40458 0.00099439
0.0039027 0.068813 1.0309 9.3118e-39 160 245 0 0 0 0.079467 -0.88648 -0.4559 0.004165
0.0051087 0.068813 1.0309 8.943e-39 161 245 0 0 0 0.076667 -0.88797 -0.45347 0.0042952
0.006921 0.068842 1.0313 8.943e-39 162.5 245 0 0 0 0.070251 -0.88997 -0.45058 0.0043997
0.013562 0.068871 1.0317 1.1063e-38 168 245 0 0 0 0.036901 -0.8943 -0.44594 0.0038159
0.015977 0.068871 1.0317 9.7727e-39 170 245 0 0 0 0.028138 -0.89432 -0.44654 0.0032794
0.017169 0.068813 1.0309 9.5883e-39 171 245 0 0 0 0.019823 -0.89297 -0.44968 0.0028092
0.018994 0.068871 1.0317 1.0141e-38 172.5 245 0 0 0 0.0092726 -0.89429 -0.4474 0.0024479
0.020788 0.068813 1.0309 9.3118e-39 175 245 0 0 0 0.0099694 -0.89041 -0.45505 0.0024743
0.0232 0.068813 1.0309 9.2196e-39 177 245 0 0 0 0.011078 -0.88729 -0.46108 0.0028891
0.025029 0.068871 1.0317 1.0556e-38 179.5 245 0 0 0 0.013132 -0.88524 -0.46495 0.0032585
0.02684 0.068871 1.0317 1.0418e-38 182 245 0 0 0 0.021647 -0.87946 -0.47548 0.0043692
0.028639 0.068842 1.0313 1.0003e-38 183.5 245 0 0 0 0.026764 -0.87553 -0.48241 0.0048226
0.030436 0.068813 1.0309 9.4961e-39 185 245 0 0 0 0.047538 -0.86893 -0.49264 0.0062148
0.032848 0.068813 1.0309 9.7727e-39 187 245 0 0 0 0.078595 -0.8589 -0.50607 0.0092202
0.034054 0.068813 1.0309 1.0049e-38 188 245 0 0 0 0.10604 -0.85121 -0.51401 0.013955
-0.095074 0.071285 1.0317 1.0879e-38 432 245 0 0 0 -0.16339 -0.87496 -0.45579 0.0033391
-0.092659 0.071285 1.0317 9.3118e-39 434 245 0 0 0 -0.15657 -0.87643 -0.45536 0.0029579
-0.090849 0.071285 1.0317 9.1274e-39 435.5 245 0 0 0 -0.14384 -0.87663 -0.45917 0.0024464
-0.087191 0.071256 1.0313 9.0352e-39 438.5 245 0 0 0 -0.1311 -0.88009 -0.45635 0.0022407
-0.084778 0.070652 1.0313 1.1755e-38 385 245 0 0 0 -0.11693 -0.88229 -0.45596 0.0024204
-0.083003 0.070078 1.0317 1.4751e-38 331 245 0 0 0 -0.11094 -0.88325 -0.45559 0.0025323
-0.081192 0.070078 1.0317 1.4198e-38 332.5 245 0 0 0 -0.10172 -0.88595 -0.45248 0.0024316
-0.078745 0.070652 1.0313 1.1801e-38 390 245 0 0 0 -0.091344 -0.8919 -0.44292 0.0021191
-0.076903 0.07002 1.0309 1.3553e-38 336 245 0 0 0 -0.090964 -0.89425 -0.43824 0.0022344
-0.075126 0.070049 1.0313 1.0695e-38 337.5 245 0 0 0 -0.090713 -0.89478 -0.4372 0.0022651
-0.066049 0.07002 1.0309 8.943e-39 345 245 0 0 0 -0.085417 -0.90642 -0.41364 0.0015606
0.00933 0.07002 1.0309 9.9112e-39 402.5 245 0 0 0 0.060273 -0.88772 -0.45643 0.0043574
0.011139 0.07002 1.0309 1.1156e-38 404 245 0 0 0 0.050611 -0.88956 -0.45401 0.0041791
0.012345 0.07002 1.0309 1.1524e-38 405 245 0 0 0 0.046429 -0.88946 -0.45464 0.0038596
0.01536 0.07002 1.0309 9.957e-39 407.5 245 0 0 0 0.027752 -0.89099 -0.45317 0.0032144
0.025009 0.07002 1.0309 1.0694e-38 415.5 245 0 0 0 0.023404 -0.87914 -0.47598 0.0039099
0.028024 0.07002 1.0309 1.0234e-38 418 245 0 0 0 0.03678 -0.87122 -0.48951 0.0058347
0.031642 0.07002 1.0309 1.1432e-38 421 245 0 0 0 0.088469 -0.85284 -0.51463 0.012897
-0.098695 0.073699 1.0317 1.1248e-38 453 246 0 0 0 -0.19799 -0.87227 -0.44715 0.003352
-0.096844 0.072462 1.0313 9.8648e-39 343.5 246 0 0 0 -0.1746 -0.87388 -0.4537 0.0033889
-0.10111 0.074906 1.0317 1.2631e-38 367 247 0 0 0 -0.21838 -0.87023 -0.44159 0.0032658
-0.099818 0.074844 1.0309 1.3276e-38 368 247 0 0 0 -0.20003 -0.87266 -0.44547 0.0032692
0.024406 0.11103 1.0309 1.1801e-38 184 264 0 0 0 0.46829 0.55988 -0.68355 0.013338
0.024426 0.11233 1.0317 1.5397e-38 403 264 0 0 0 0.48721 0.54272 -0.68416 0.012775
0.0232 0.11826 1.0309 9.8649e-39 148 267 0 0 0 0.47945 0.53113 -0.69859 0.011362
0.021391 0.12128 1.0309 1.2124e-38 400.5 267.5 0 0 0 0.46234 0.53188 -0.70947 0.011462
0.019581 0.12309 1.0309 1.4843e-38 435 268 0 0 0 0.45435 0.53183 -0.71465 0.012079
-0.039615 0.065359 1.0334 8.482e-39 189 243 0 0 0 -0.032071 -0.91723 -0.39707 0.0017033
-0.035383 0.065359 1.0334 8.1593e-39 192.5 243 0 0 0 -0.016294 -0.91741 -0.39761 0.0021245
-0.032951 0.065332 1.033 8.1593e-39 194.5 243 0 0 0 -0.011462 -0.91763 -0.39727 0.0024482
-0.031125 0.065304 1.0326 8.943e-39 196 243 0 0 0 -0.0076859 -0.91397 -0.4057 0.0026813
-0.029325 0.065332 1.033 8.8969e-39 197.5 243 0 0 0 0.0014988 -0.91491 -0.40365 0.0030306
-0.026909 0.065332 1.033 8.2054e-39 199.5 243 0 0 0 0.0028788 -0.91375 -0.40627 0.0034862
-0.025085 0.065304 1.0326 8.1132e-39 201 243 0 0 0 0.0043211 -0.90674 -0.42168 0.0035926
-0.023292 0.065359 1.0334 1.0095e-38 262.5 243 0 0 0 0.004456 -0.90782 -0.41934 0.0039231
-0.020269 0.065359 1.0334 1.1801e-38 325 243 0 0 0 0.001372 -0.90383 -0.42789 0.0040657
-0.01906 0.065359 1.0334 1.1709e-38 326 243 0 0 0 0.0040316 -0.9025 -0.43067 0.0039633
-0.017239 0.065332 1.033 1.2077e-38 327.5 243 0 0 0 0.0086299 -0.89822 -0.43947 0.0037231
-0.014829 0.065359 1.0334 1.3322e-38 329.5 243 0 0 0 0.014235 -0.89781 -0.44016 0.0038976
-0.013015 0.06415 1.0334 1.1248e-38 418 242 0 0 0 0.022118 -0.89847 -0.43848 0.004186
-0.011192 0.065304 1.0326 1.3737e-38 332.5 243 0 0 0 0.038515 -0.89188 -0.45063 0.0039755
-0.0069635 0.065304 1.0326 1.3276e-38 336 243 0 0 0 0.070351 -0.8896 -0.45128 0.0042102
-0.0045511 0.06415 1.0334 9.9571e-39 422 242 0 0 0 0.078563 -0.897 -0.43499 0.0043036
-0.0027374 0.064755 1.0334 9.773e-39 381.5 242.5 0 0 0 0.085915 -0.89611 -0.43545 0.004105
-0.00092386 0.065359 1.0334 1.0142e-38 341 243 0 0 0 0.092494 -0.89547 -0.43541 0.0041277
0.00028522 0.065359 1.0334 1.0602e-38 342 243 0 0 0 0.094427 -0.89604 -0.43381 0.0041431
-0.062587 0.067777 1.0334 8.1132e-39 194 244 0 0 0 -0.072454 -0.90902 -0.41041 0.0014997
-0.060773 0.067777 1.0334 8.6203e-39 195.5 244 0 0 0 -0.069237 -0.91147 -0.4055 0.0012206
-0.05896 0.067777 1.0334 9.0352e-39 197 244 0 0 0 -0.067473 -0.91216 -0.40425 0.0010485
-0.057099 0.06772 1.0326 8.2976e-39 198.5 244 0 0 0 -0.067191 -0.9124 -0.40375 0.00099379
-0.054078 0.06772 1.0326 8.021e-39 201 244 0 0 0 -0.067168 -0.9116 -0.40555 0.0011148
-0.051101 0.066568 1.0334 1.0141e-38 414.5 243 0 0 0 -0.064201 -0.914 -0.4006 0.0012698
-0.048078 0.066568 1.0334 1.0326e-38 417 243 0 0 0 -0.058676 -0.91372 -0.40209 0.0012498
-0.04683 0.066512 1.0326 1.0602e-38 418 243 0 0 0 -0.054236 -0.91211 -0.40635 0.0012801
-0.045056 0.066568 1.0334 1.0556e-38 419.5 243 0 0 0 -0.047704 -0.91471 -0.40128 0.0012609
-0.043206 0.066512 1.0326 1.0418e-38 421 243 0 0 0 -0.044756 -0.91193 -0.40789 0.001521
0.0014943 0.066568 1.0334 1.2354e-38 458 243 0 0 0 0.091961 -0.89443 -0.43765 0.0042793
