# .PCD v.7 - Point Cloud Data file format
VERSION .7
FIELDS x y z rgb u v vx vy vz normal_x normal_y normal_z curvature
SIZE 4 4 4 4 4 4 4 4 4 4 4 4 4
TYPE F F F F F F F F F F F F F
COUNT 1 1 1 1 1 1 1 1 1 1 1 1 1
WIDTH 546
HEIGHT 1
VIEWPOINT 0 0 0 1 0 0 0
POINTS 546
DATA ascii
-0.059177 0.050152 1.0702 8.2976e-39 313.5 234 0 0 0 0.0051528 -0.87585 -0.48255 0.0030968
-0.056697 0.050174 1.0706 8.3437e-39 315.5 234 0 0 0 -0.00341 -0.87665 -0.48111 0.0032667
-0.054795 0.050152 1.0702 8.2976e-39 317 234 0 0 0 -0.017223 -0.87671 -0.4807 0.00322
-0.05294 0.050174 1.0706 8.2515e-39 318.5 234 0 0 0 -0.036033 -0.87635 -0.48032 0.0031521
-0.051038 0.050152 1.0702 8.3898e-39 320 234 0 0 0 -0.047373 -0.87399 -0.48362 0.0027316
-0.04916 0.050152 1.0702 8.8969e-39 321.5 234 0 0 0 -0.058682 -0.87231 -0.48542 0.0022832
-0.017233 0.050152 1.0702 1.7148e-38 345 234 0 0 0 0.1007 -0.86464 -0.4922 0.002525
-0.015981 0.050152 1.0702 1.6687e-38 346 234 0 0 0 0.095777 -0.86436 -0.49368 0.0026793
-0.010983 0.050196 1.0711 1.3368e-38 350 234 0 0 0 0.076413 -0.86653 -0.49325 0.0034082
-0.0090986 0.051427 1.0706 1.1202e-38 188.5 235 0 0 0 0.060024 -0.8714 -0.48688 0.0038619
0.0011306 0.051017 1.0708 1.1893e-38 251 234.67 0 0 0 0.020426 -0.87794 -0.47833 0.0035999
0.0027994 0.051405 1.0702 9.6805e-39 198 235 0 0 0 0.02634 -0.87865 -0.47673 0.0043886
0.0046775 0.051405 1.0702 9.8651e-39 199.5 235 0 0 0 0.03132 -0.8785 -0.47671 0.0045601
0.0073925 0.051002 1.0705 1.3153e-38 256 234.67 0 0 0 0.039008 -0.87656 -0.47971 0.0049299
0.0090675 0.050196 1.0711 1.7702e-38 366 234 0 0 0 0.046569 -0.87369 -0.48425 0.0047144
0.010938 0.051405 1.0702 1.4797e-38 204.5 235 0 0 0 0.058334 -0.87432 -0.48183 0.0049265
0.012821 0.050801 1.0706 1.6181e-38 287.5 234.5 0 0 0 0.072154 -0.8762 -0.47651 0.0045496
0.0147 0.0508 1.0706 1.5212e-38 289 234.5 0 0 0 0.083572 -0.87558 -0.47579 0.0037796
0.017205 0.0508 1.0706 1.6388e-38 291 234.5 0 0 0 0.095002 -0.87533 -0.47409 0.0030595
0.019093 0.051449 1.0711 1.429e-38 211 235 0 0 0 0.10101 -0.87533 -0.47286 0.0026124
-0.11688 0.053955 1.0711 1.5996e-38 460.5 235 0 0 0 -0.19134 -0.89344 -0.40639 0.0051083
-0.11489 0.053909 1.0702 1.429e-38 462 235 0 0 0 -0.16174 -0.89589 -0.41378 0.0061527
-0.11114 0.053909 1.0702 1.4014e-38 465 235 0 0 0 -0.11891 -0.8905 -0.43916 0.0072917
-0.10931 0.05268 1.0706 8.2976e-39 264.5 235 0 0 0 -0.10014 -0.88579 -0.45315 0.0071785
-0.10684 0.052702 1.0711 8.7125e-39 266.5 235 0 0 0 -0.080794 -0.88048 -0.46716 0.0064746
-0.103 0.052657 1.0702 8.1593e-39 269.5 235 0 0 0 -0.053563 -0.87661 -0.47822 0.0049005
-0.10112 0.052657 1.0702 8.3898e-39 271 235 0 0 0 -0.050789 -0.875 -0.48145 0.004481
-0.099285 0.05268 1.0706 8.6664e-39 272.5 235 0 0 0 -0.049784 -0.8743 -0.48283 0.004159
-0.096779 0.05268 1.0706 8.7125e-39 274.5 235 0 0 0 -0.058192 -0.87237 -0.48538 0.0044617
-0.09486 0.053909 1.0702 1.0787e-38 139 236 0 0 0 -0.06691 -0.87229 -0.48439 0.0044864
-0.093022 0.053305 1.0706 9.8189e-39 209 235.5 0 0 0 -0.073712 -0.87555 -0.47747 0.0052565
-0.091183 0.052702 1.0711 9.3118e-39 279 235 0 0 0 -0.084212 -0.87617 -0.47458 0.0052696
-0.089265 0.05268 1.0706 9.2657e-39 280.5 235 0 0 0 -0.095515 -0.87522 -0.47421 0.0049043
-0.0072169 0.052657 1.0702 1.9638e-38 367 235 0 0 0 0.047812 -0.87599 -0.47995 0.0040274
-0.0053409 0.05268 1.0706 1.8485e-38 368.5 235 0 0 0 0.035968 -0.87836 -0.47665 0.0040393
-0.0028363 0.05268 1.0706 1.8254e-38 370.5 235 0 0 0 0.024863 -0.8775 -0.47894 0.0037213
-0.00095669 0.052657 1.0702 1.9177e-38 372 235 0 0 0 0.018096 -0.87954 -0.47548 0.0037419
0.00029536 0.052657 1.0702 1.9361e-38 373 235 0 0 0 0.02054 -0.87987 -0.47478 0.0038193
0.019076 0.052657 1.0702 1.6687e-38 388 235 0 0 0 0.098763 -0.87761 -0.4691 0.0028439
0.020751 0.053089 1.0705 1.2047e-38 337 235.33 0 0 0 0.10455 -0.87744 -0.46815 0.0026951
0.022842 0.053305 1.0706 1.0833e-38 312.5 235.5 0 0 0 0.11844 -0.87803 -0.46371 0.002943
0.024732 0.053955 1.0711 8.7586e-39 235.5 236 0 0 0 0.13113 -0.87737 -0.46155 0.00336
0.027226 0.053932 1.0706 8.3898e-39 237.5 236 0 0 0 0.13837 -0.88176 -0.45094 0.0039993
0.029092 0.053909 1.0702 7.9288e-39 239 236 0 0 0 0.14051 -0.88366 -0.44655 0.0040492
0.03097 0.053909 1.0702 8.1593e-39 240.5 236 0 0 0 0.14783 -0.88592 -0.43964 0.0043865
0.032877 0.053955 1.0711 8.5742e-39 242 236 0 0 0 0.15052 -0.88696 -0.43663 0.0046101
0.03413 0.053955 1.0711 8.7586e-39 243 236 0 0 0 0.15202 -0.88931 -0.4313 0.0046783
-0.11865 0.055161 1.0702 9.1274e-39 280 236 0 0 0 -0.20044 -0.89738 -0.39311 0.0047722
0.039143 0.055208 1.0711 1.4936e-38 466 236 0 0 0 0.16042 -0.8922 -0.42219 0.0049619
-0.1306 0.057064 1.0706 1.512e-38 257.5 237 0 0 0 -0.23646 -0.90535 -0.35275 0.004353
-0.12878 0.056462 1.0711 1.1617e-38 149 237 0 0 0 -0.23068 -0.90493 -0.35762 0.0035942
-0.12684 0.056437 1.0706 1.1386e-38 150.5 237 0 0 0 -0.22933 -0.90541 -0.35727 0.0029663
-0.12491 0.056413 1.0702 1.1801e-38 152 237 0 0 0 -0.2254 -0.90355 -0.36441 0.0028774
-0.1224 0.056413 1.0702 1.1801e-38 154 237 0 0 0 -0.22111 -0.90222 -0.37029 0.0033415
-0.1199 0.056413 1.0702 1.1432e-38 156 237 0 0 0 -0.21136 -0.89899 -0.38361 0.0042197
0.042902 0.056462 1.0711 1.4751e-38 350 237 0 0 0 0.20929 -0.88555 -0.41472 0.0055184
0.044155 0.056462 1.0711 1.6687e-38 351 237 0 0 0 0.21548 -0.88322 -0.41652 0.0055083
0.047267 0.057064 1.0706 1.3415e-38 272.5 237.5 0 0 0 0.35553 -0.8451 -0.39925 0.021512
0.049168 0.057715 1.0711 9.404e-39 193 238 0 0 0 0.39253 -0.83515 -0.38529 0.023592
-0.14507 0.058968 1.0711 9.9571e-39 197 238 0 0 0 -0.25984 -0.8954 -0.36158 0.01293
-0.14244 0.058917 1.0702 9.9571e-39 199 238 0 0 0 -0.25039 -0.89991 -0.35702 0.0099438
-0.14131 0.058968 1.0711 9.7727e-39 200 238 0 0 0 -0.24683 -0.9028 -0.35218 0.0091275
-0.13367 0.058917 1.0702 1.3829e-38 209 238 0 0 0 -0.24154 -0.90551 -0.34887 0.0056334
-0.14632 0.060221 1.0711 1.5212e-38 452 238 0 0 0 -0.2602 -0.89345 -0.36613 0.014562
-0.14494 0.060169 1.0702 1.4751e-38 453 238 0 0 0 -0.2609 -0.89426 -0.36363 0.012778
-0.14369 0.060169 1.0702 1.429e-38 454 238 0 0 0 -0.25839 -0.89528 -0.36292 0.011457
-0.1393 0.060169 1.0702 1.3277e-38 457.5 238 0 0 0 -0.24136 -0.90444 -0.35176 0.0080478
-0.13686 0.060195 1.0706 1.5166e-38 459.5 238 0 0 0 -0.239 -0.90668 -0.34757 0.0070706
-0.13493 0.060169 1.0702 1.5028e-38 461 238 0 0 0 -0.24079 -0.90575 -0.34877 0.0062374
-0.14619 0.065177 1.0702 1.4567e-38 435 241 0 0 0 -0.2626 -0.88799 -0.37751 0.016525
0.050377 0.077697 1.0702 1.3922e-38 440 250 0 0 0 -0.99981 0.016261 -0.011082 0.012259
0.050377 0.078949 1.0702 1.3553e-38 418 251 0 0 0 -0.9999 -0.010721 -0.0095943 0.012693
0.050377 0.080828 1.0702 1.4475e-38 385.5 252.5 0 0 0 0.92492 0.33321 -0.18304 0.015546
-0.080044 0.047773 1.073 9.7727e-39 306 233 0 0 0 -0.095495 -0.89251 -0.44081 0.00628
-0.078788 0.047773 1.073 1.0418e-38 307 233 0 0 0 -0.09079 -0.89287 -0.44107 0.0066403
-0.076938 0.047794 1.0734 1.0971e-38 308.5 233 0 0 0 -0.078863 -0.90372 -0.4208 0.0077956
-0.074957 0.047731 1.072 1.0602e-38 310 233 0 0 0 -0.062482 -0.89518 -0.4413 0.0073212
-0.073349 0.047354 1.073 1.1186e-38 264.33 233 0 0 0 -0.0443 -0.89869 -0.43634 0.0072824
-0.070858 0.046949 1.0733 1.1248e-38 219.33 233 0 0 0 -0.014203 -0.89622 -0.44339 0.0064775
-0.069144 0.04734 1.0726 1.0571e-38 267.67 233 0 0 0 0.0046338 -0.88926 -0.45738 0.005366
-0.066892 0.047166 1.0734 1.0211e-38 246 233 0 0 0 0.016769 -0.88526 -0.4648 0.0046139
-0.06498 0.047145 1.073 9.7265e-39 247.5 233 0 0 0 0.022588 -0.87829 -0.47759 0.0037235
-0.063097 0.047773 1.073 9.8188e-39 319.5 233 0 0 0 0.015971 -0.87764 -0.47905 0.0036048
-0.061267 0.047814 1.0739 1.051e-38 321 233 0 0 0 0.017183 -0.87487 -0.48405 0.0034332
-0.058754 0.047814 1.0739 1.2262e-38 323 233 0 0 0 -0.00056519 -0.87736 -0.47984 0.0036877
-0.056242 0.047814 1.0739 1.0879e-38 325 233 0 0 0 -0.0041509 -0.87726 -0.48 0.0038266
-0.054985 0.047814 1.0739 1.0142e-38 327 233 0 0 0 -0.014241 -0.87825 -0.47799 0.0038371
-0.049332 0.047814 1.0739 1.3553e-38 331.5 233 0 0 0 -0.053134 -0.88069 -0.47071 0.0031195
-0.046819 0.047814 1.0739 1.2077e-38 333.5 233 0 0 0 -0.064488 -0.88059 -0.46946 0.0023413
-0.044895 0.047773 1.073 1.2354e-38 335 233 0 0 0 -0.068974 -0.87568 -0.47794 0.0017053
-0.043012 0.047773 1.073 1.4936e-38 336.5 233 0 0 0 -0.069254 -0.87618 -0.47698 0.0014004
-0.041129 0.047773 1.073 1.5765e-38 338 233 0 0 0 -0.061117 -0.87651 -0.47749 0.0015015
-0.039839 0.047731 1.072 1.3829e-38 339 233 0 0 0 -0.050409 -0.87446 -0.48248 0.0016953
-0.036076 0.047731 1.072 1.2446e-38 340 233 0 0 0 -0.021134 -0.87472 -0.48416 0.0024545
-0.034883 0.046558 1.0739 1.1801e-38 198 233 0 0 0 -0.0083995 -0.8877 -0.46035 0.0028104
-0.03297 0.046517 1.073 1.2032e-38 199.5 233 0 0 0 0.0038744 -0.88225 -0.47076 0.0030436
-0.031114 0.046558 1.0739 1.2631e-38 201 233 0 0 0 0.01639 -0.88105 -0.47273 0.0032733
-0.029204 0.046517 1.073 1.406e-38 202.5 233 0 0 0 0.035164 -0.87244 -0.48746 0.0031655
-0.026693 0.046517 1.073 1.5028e-38 204.5 233 0 0 0 0.061162 -0.86543 -0.49729 0.0030668
-0.024832 0.046558 1.0739 1.429e-38 206 233 0 0 0 0.079649 -0.8634 -0.4982 0.0033667
-0.022718 0.046935 1.073 1.3829e-38 255.33 233 0 0 0 0.097349 -0.85951 -0.50176 0.0030826
-0.021044 0.047145 1.073 1.5166e-38 280.5 233 0 0 0 0.10668 -0.85813 -0.50223 0.002793
-0.019161 0.047773 1.073 1.7287e-38 353.5 233 0 0 0 0.11105 -0.85726 -0.50276 0.0025826
-0.016665 0.047814 1.0739 1.6733e-38 355.5 233 0 0 0 0.10125 -0.85893 -0.50199 0.0027713
-0.014768 0.047773 1.073 1.5028e-38 357 233 0 0 0 0.093083 -0.85832 -0.5046 0.0030088
-0.013524 0.047814 1.0739 1.3553e-38 358 233 0 0 0 0.091094 -0.85808 -0.50538 0.0031452
-0.10524 0.049071 1.0739 1.4475e-38 462 233 0 0 0 -0.079062 -0.87461 -0.47834 0.0053964
-0.082483 0.048985 1.072 1.1063e-38 141 234 0 0 0 -0.10364 -0.88674 -0.45051 0.0058235
-0.081299 0.049028 1.073 1.1524e-38 142 234 0 0 0 -0.10223 -0.88821 -0.44791 0.0059998
-0.063042 0.048985 1.072 1.0649e-38 156.5 234 0 0 0 0.022727 -0.87495 -0.48368 0.0031428
-0.061214 0.049028 1.073 1.0049e-38 158 234 0 0 0 0.016745 -0.87419 -0.4853 0.0032922
-0.059306 0.049006 1.0725 9.9109e-39 159.5 234 0 0 0 0.002142 -0.8763 -0.48176 0.0033878
-0.056821 0.049028 1.073 9.5423e-39 161.5 234 0 0 0 -0.0052418 -0.8755 -0.48319 0.0034581
-0.05489 0.048985 1.072 1.0049e-38 163 234 0 0 0 -0.018459 -0.87615 -0.48168 0.0034234
-0.053077 0.04905 1.0734 9.6344e-39 164.5 234 0 0 0 -0.031268 -0.87838 -0.47694 0.0036545
-0.051171 0.049028 1.073 1.0142e-38 166 234 0 0 0 -0.046129 -0.87633 -0.4795 0.0033097
-0.049246 0.048985 1.072 1.0556e-38 167.5 234 0 0 0 -0.056524 -0.87587 -0.47923 0.0026471
-0.046737 0.048985 1.072 1.0695e-38 169.5 234 0 0 0 -0.064637 -0.8747 -0.48033 0.0020919
-0.012246 0.048985 1.072 1.217e-38 195 234 0 0 0 0.081136 -0.86451 -0.49602 0.0032951
-0.010992 0.048985 1.072 1.1524e-38 196 234 0 0 0 0.077086 -0.86534 -0.49522 0.0035226
-0.0091266 0.049071 1.0739 1.0649e-38 197.5 234 0 0 0 0.064583 -0.8656 -0.49655 0.0039284
-0.007242 0.049071 1.0739 1.051e-38 199 234 0 0 0 0.057274 -0.86537 -0.49785 0.0036864
-0.0022164 0.049071 1.0739 1.4475e-38 203 234 0 0 0 0.025835 -0.87062 -0.49128 0.0033761
-0.00096001 0.049071 1.0739 1.5028e-38 204 234 0 0 0 0.019633 -0.87077 -0.49129 0.0032622
0.0009239 0.04905 1.0734 1.5074e-38 205.5 234 0 0 0 0.018984 -0.87275 -0.4878 0.0030886
0.0028067 0.049028 1.073 1.3829e-38 207 234 0 0 0 0.024451 -0.87285 -0.48737 0.0033286
0.0046915 0.04905 1.0734 1.383e-38 208.5 234 0 0 0 0.029823 -0.87323 -0.4864 0.0036269
0.0072004 0.049028 1.073 1.406e-38 210.5 234 0 0 0 0.038662 -0.87328 -0.48569 0.0040715
0.0090833 0.049028 1.073 1.3461e-38 212 234 0 0 0 0.049264 -0.87513 -0.48137 0.0045223
0.010976 0.049071 1.0739 1.2908e-38 213.5 234 0 0 0 0.061992 -0.87366 -0.48258 0.0044022
0.012849 0.049028 1.073 1.2446e-38 215 234 0 0 0 0.07378 -0.87333 -0.4815 0.0040401
0.014739 0.04905 1.0734 1.1985e-38 216.5 234 0 0 0 0.084356 -0.87422 -0.47815 0.0036179
0.017242 0.049028 1.073 1.1894e-38 218.5 234 0 0 0 0.098842 -0.87439 -0.47505 0.0029053
-0.11404 0.051583 1.0739 1.3092e-38 449 234 0 0 0 -0.16993 -0.88279 -0.43795 0.0052382
-0.11278 0.051583 1.0739 1.4198e-38 450 234 0 0 0 -0.16156 -0.88198 -0.44273 0.005611
-0.11022 0.050933 1.0734 1.0603e-38 356.5 234 0 0 0 -0.12886 -0.87861 -0.45982 0.006282
-0.10892 0.050283 1.073 8.2054e-39 262 234 0 0 0 -0.11396 -0.87799 -0.46492 0.0063346
-0.10706 0.050922 1.0732 1.1294e-38 359 234 0 0 0 -0.094474 -0.8775 -0.47017 0.0061507
-0.10515 0.050283 1.073 8.2976e-39 265 234 0 0 0 -0.07722 -0.875 -0.47792 0.0054682
-0.10344 0.050687 1.0727 1.048e-38 330 234 0 0 0 -0.063787 -0.8744 -0.48099 0.0047915
-0.10076 0.05091 1.073 1.2285e-38 364 234 0 0 0 -0.050096 -0.87265 -0.48577 0.0039388
-0.098873 0.051539 1.073 1.5858e-38 461 234 0 0 0 -0.047607 -0.87389 -0.48379 0.0042166
-0.096948 0.051516 1.0725 1.4291e-38 462.5 234 0 0 0 -0.050659 -0.8757 -0.4802 0.004762
-0.09519 0.051583 1.0739 1.3922e-38 464 234 0 0 0 -0.054806 -0.87789 -0.47572 0.0054588
-0.093266 0.051561 1.0734 1.3876e-38 465.5 234 0 0 0 -0.066232 -0.87887 -0.47243 0.0060662
-0.090714 0.051539 1.073 1.4383e-38 467.5 234 0 0 0 -0.078787 -0.87947 -0.46938 0.0062169
-0.088754 0.051494 1.072 1.5765e-38 469 234 0 0 0 -0.095973 -0.87492 -0.47466 0.0051187
-0.086948 0.050283 1.073 9.1274e-39 280.5 234 0 0 0 -0.09832 -0.88482 -0.45543 0.0062534
-0.0091108 0.05024 1.072 1.6088e-38 351.5 234 0 0 0 0.063855 -0.8667 -0.49473 0.0037465
-0.0072325 0.050889 1.0725 1.4659e-38 271.5 234.5 0 0 0 0.054299 -0.86856 -0.4926 0.003804
-0.0053515 0.0509 1.0727 1.4359e-38 273 234.5 0 0 0 0.042282 -0.87001 -0.49122 0.0037317
-0.0028409 0.050889 1.0725 1.3437e-38 275 234.5 0 0 0 0.028 -0.87142 -0.48974 0.0034134
-0.00095877 0.050889 1.0725 1.2677e-38 276.5 234.5 0 0 0 0.017814 -0.87387 -0.48583 0.0033115
0.00029613 0.050283 1.073 1.3829e-38 359 234 0 0 0 0.019754 -0.87379 -0.48591 0.0031956
0.0028043 0.05024 1.072 1.6872e-38 361 234 0 0 0 0.024041 -0.87274 -0.48759 0.0034852
0.0046856 0.05024 1.072 1.6088e-38 362.5 234 0 0 0 0.028021 -0.87237 -0.48804 0.0035836
0.006567 0.05024 1.072 1.4567e-38 364 234 0 0 0 0.03776 -0.87274 -0.48672 0.0040984
0.010957 0.05024 1.072 1.89e-38 367.5 234 0 0 0 0.061388 -0.87405 -0.48194 0.004366
0.019126 0.050283 1.073 1.9638e-38 374 234 0 0 0 0.10454 -0.87581 -0.47121 0.002626
0.021013 0.050922 1.0732 1.6273e-38 294 234.5 0 0 0 0.11289 -0.8749 -0.47096 0.0024039
0.022892 0.051539 1.073 1.2723e-38 214 235 0 0 0 0.1245 -0.87572 -0.46649 0.0029006
0.025424 0.051583 1.0739 1.1248e-38 216 235 0 0 0 0.14345 -0.87704 -0.45849 0.0035896
0.026681 0.051583 1.0739 1.051e-38 217 235 0 0 0 0.15098 -0.87697 -0.45621 0.0036292
0.029194 0.051583 1.0739 8.943e-39 219 235 0 0 0 0.15413 -0.88052 -0.44824 0.004139
-0.11718 0.05284 1.0739 8.0671e-39 254.5 235 0 0 0 -0.20706 -0.88348 -0.42022 0.0042697
-0.11519 0.052794 1.073 8.3898e-39 260 235 0 0 0 -0.17945 -0.88555 -0.42849 0.0051597
-0.11321 0.052748 1.072 8.482e-39 261.5 235 0 0 0 -0.15097 -0.89005 -0.43013 0.0061752
-0.11133 0.052748 1.072 8.2054e-39 263 235 0 0 0 -0.13011 -0.88627 -0.44452 0.0067765
-0.095025 0.052748 1.072 8.8508e-39 276 235 0 0 0 -0.060158 -0.87604 -0.47846 0.0051547
-0.09377 0.052748 1.072 8.7586e-39 277 235 0 0 0 -0.069888 -0.87528 -0.47853 0.0052304
0.024764 0.052771 1.0725 1.3737e-38 392.5 235 0 0 0 0.13743 -0.87613 -0.46207 0.0034305
0.027274 0.052771 1.0725 1.157e-38 394.5 235 0 0 0 0.14648 -0.87929 -0.4532 0.0039265
0.029143 0.052748 1.072 1.0234e-38 396 235 0 0 0 0.14939 -0.88014 -0.45059 0.0040224
0.031052 0.052794 1.073 1.0649e-38 397.5 235 0 0 0 0.15682 -0.8821 -0.4442 0.0042195
0.032934 0.052794 1.073 1.1709e-38 399 235 0 0 0 0.15638 -0.88416 -0.44023 0.0044708
0.034847 0.05284 1.0739 1.2677e-38 400.5 235 0 0 0 0.15657 -0.88316 -0.44216 0.0044354
0.036732 0.05284 1.0739 1.2262e-38 402 235 0 0 0 0.15712 -0.88394 -0.44042 0.0046225
-0.1266 0.055353 1.0739 8.6664e-39 274 236 0 0 0 -0.2342 -0.89798 -0.37253 0.0031438
-0.12472 0.055353 1.0739 8.7586e-39 275.5 236 0 0 0 -0.23782 -0.89577 -0.37556 0.0032204
-0.12272 0.055304 1.073 8.5742e-39 277 236 0 0 0 -0.23412 -0.89397 -0.38211 0.003229
-0.12078 0.05528 1.0725 8.7586e-39 278.5 236 0 0 0 -0.22717 -0.89165 -0.3916 0.0037026
-0.11896 0.054049 1.073 1.5581e-38 459 235 0 0 0 -0.21759 -0.88868 -0.40362 0.004188
0.035414 0.054002 1.072 8.7586e-39 244 236 0 0 0 0.15288 -0.88828 -0.43311 0.0047533
0.037295 0.054002 1.072 8.1132e-39 245.5 236 0 0 0 0.15449 -0.88949 -0.43004 0.0048276
0.039245 0.054096 1.0739 8.3898e-39 253 236 0 0 0 0.16306 -0.88688 -0.43226 0.0047097
0.043014 0.055353 1.0739 1.5304e-38 469 236 0 0 0 0.19342 -0.88436 -0.42485 0.0049214
0.044232 0.055304 1.073 1.5765e-38 470 236 0 0 0 0.20999 -0.88256 -0.42071 0.0048801
-0.1472 0.057815 1.073 1.4982e-38 354.5 237 0 0 0 -0.25694 -0.89735 -0.35882 0.015571
-0.1449 0.057396 1.073 1.3676e-38 394.67 236.67 0 0 0 -0.25526 -0.89892 -0.35606 0.013113
-0.14268 0.057765 1.072 1.3184e-38 358 237 0 0 0 -0.25025 -0.90169 -0.35261 0.010624
-0.14168 0.057865 1.0739 1.3461e-38 359 237 0 0 0 -0.24463 -0.90327 -0.35251 0.0096851
-0.13402 0.057815 1.073 1.4383e-38 365 237 0 0 0 -0.24377 -0.90258 -0.35487 0.005469
-0.13265 0.057765 1.072 1.6411e-38 366 237 0 0 0 -0.24407 -0.90282 -0.35405 0.0051804
-0.13151 0.05656 1.073 1.2078e-38 147 237 0 0 0 -0.23981 -0.90171 -0.35974 0.0044523
-0.12387 0.056511 1.072 1.1893e-38 153 237 0 0 0 -0.2284 -0.90047 -0.37011 0.0030921
0.041058 0.056511 1.072 1.2953e-38 348.5 237 0 0 0 0.17798 -0.88824 -0.42351 0.0052399
0.045448 0.056511 1.072 1.7609e-38 352 237 0 0 0 0.23629 -0.87985 -0.41234 0.0051231
-0.1472 0.05907 1.073 9.8188e-39 195.5 238 0 0 0 -0.25826 -0.89669 -0.35952 0.015645
-0.14394 0.059019 1.072 9.8649e-39 198 238 0 0 0 -0.2541 -0.89953 -0.35537 0.011511
-0.1403 0.05907 1.073 9.8649e-39 201 238 0 0 0 -0.24186 -0.90429 -0.35181 0.0084865
-0.13904 0.05907 1.073 1.051e-38 202 238 0 0 0 -0.24178 -0.90512 -0.34972 0.0076537
-0.13716 0.05907 1.073 1.2723e-38 203.5 238 0 0 0 -0.23955 -0.90508 -0.35134 0.0068396
-0.13528 0.05907 1.073 1.3092e-38 205 238 0 0 0 -0.24152 -0.90338 -0.35436 0.0060075
-0.15047 0.061635 1.0739 1.7978e-38 391 239 0 0 0 -0.2435 -0.89786 -0.36682 0.024954
-0.14916 0.06098 1.0734 1.7056e-38 421 238.5 0 0 0 -0.25347 -0.8957 -0.36534 0.020775
-0.14776 0.060927 1.0725 1.6964e-38 422 238.5 0 0 0 -0.25693 -0.89525 -0.36404 0.016904
-0.15034 0.062836 1.073 1.051e-38 200 240 0 0 0 -0.2482 -0.89179 -0.37829 0.027284
-0.1477 0.062782 1.072 1.0971e-38 201 240 0 0 0 -0.25662 -0.89302 -0.36967 0.019224
-0.15034 0.064719 1.073 1.1617e-38 287 241 0 0 0 -0.24402 -0.89293 -0.37833 0.028991
-0.1477 0.06529 1.072 1.4383e-38 434 241 0 0 0 -0.25314 -0.89116 -0.37649 0.021078
-0.14896 0.066544 1.072 1.6595e-38 391 242 0 0 0 -0.24479 -0.89062 -0.38324 0.02526
-0.1477 0.066544 1.072 1.7425e-38 392 242 0 0 0 -0.25053 -0.88874 -0.3839 0.023267
0.046743 0.081666 1.073 1.3092e-38 371 253 0 0 0 0.84465 0.47557 -0.24576 0.018934
0.046702 0.082849 1.072 1.2078e-38 186 254 0 0 0 0.84465 0.47557 -0.24576 0.018934
0.046783 0.08425 1.0739 1.2815e-38 162 255 0 0 0 0.85432 0.46918 -0.22363 0.027013
-0.070184 0.04538 1.0758 1.3368e-38 343 232 0 0 0 -0.022897 -0.9096 -0.41485 0.0075094
-0.068925 0.04538 1.0758 1.5581e-38 344 232 0 0 0 -0.0051145 -0.89951 -0.43687 0.0067321
-0.067038 0.04538 1.0758 1.6042e-38 345.5 232 0 0 0 0.0077283 -0.88853 -0.45876 0.0055443
-0.065093 0.045341 1.0748 1.4475e-38 347 232 0 0 0 0.017713 -0.88263 -0.46974 0.0045687
-0.031168 0.04538 1.0758 1.4475e-38 365 232 0 0 0 0.0096343 -0.89205 -0.45183 0.0031624
-0.029268 0.04536 1.0753 1.6872e-38 366.5 232 0 0 0 0.029516 -0.88396 -0.46662 0.0035582
-0.026751 0.04536 1.0753 1.7194e-38 368.5 232 0 0 0 0.058113 -0.87469 -0.48119 0.0035471
-0.024875 0.04538 1.0758 1.7241e-38 370 232 0 0 0 0.078167 -0.86943 -0.48784 0.0037119
-0.022987 0.04538 1.0758 1.7471e-38 371.5 232 0 0 0 0.097298 -0.86628 -0.49 0.0034301
-0.08277 0.047897 1.0758 1.0326e-38 299 233 0 0 0 -0.10045 -0.89866 -0.42699 0.0072936
-0.080847 0.047247 1.0753 9.5883e-39 235 233 0 0 0 -0.095997 -0.90271 -0.4194 0.0069872
-0.078925 0.046598 1.0748 9.5883e-39 166 233 0 0 0 -0.08769 -0.90535 -0.41552 0.007062
-0.077073 0.046618 1.0753 1.0049e-38 167.5 233 0 0 0 -0.079383 -0.91058 -0.40565 0.0076545
-0.075153 0.046598 1.0748 1.0787e-38 169 233 0 0 0 -0.066345 -0.911 -0.40703 0.007906
-0.072638 0.046598 1.0748 1.1617e-38 171 233 0 0 0 -0.040219 -0.90888 -0.4151 0.0078037
-0.063207 0.046598 1.0748 1.0326e-38 178.5 233 0 0 0 0.016891 -0.87655 -0.48101 0.0037999
-0.060063 0.047856 1.0748 1.1709e-38 322 233 0 0 0 0.0096614 -0.87611 -0.48202 0.0036058
-0.058857 0.046639 1.0758 9.8649e-39 182 233 0 0 0 0.0019574 -0.87884 -0.47712 0.0039735
-0.056944 0.047247 1.0753 1.0833e-38 254 233 0 0 0 -0.005669 -0.87786 -0.47888 0.0039981
-0.055081 0.046639 1.0758 1.0142e-38 185 233 0 0 0 -0.011311 -0.88017 -0.47452 0.0042613
-0.05317 0.047876 1.0753 1.0787e-38 328.5 233 0 0 0 -0.027663 -0.88015 -0.47389 0.0040071
-0.050654 0.047247 1.0753 1.1893e-38 259.5 233 0 0 0 -0.046356 -0.88286 -0.46733 0.0036146
-0.048788 0.046639 1.0758 1.1524e-38 190 233 0 0 0 -0.055474 -0.88693 -0.45857 0.0028836
-0.0469 0.046639 1.0758 1.1663e-38 191.5 233 0 0 0 -0.063625 -0.88688 -0.4576 0.0024547
-0.044973 0.046598 1.0748 1.1617e-38 193 233 0 0 0 -0.067837 -0.88437 -0.46184 0.001722
-0.043087 0.046598 1.0748 1.2446e-38 194.5 233 0 0 0 -0.068285 -0.88416 -0.46216 0.0013456
-0.041201 0.046598 1.0748 1.2907e-38 196 233 0 0 0 -0.060164 -0.88504 -0.46162 0.0012707
-0.039943 0.046598 1.0748 1.2262e-38 197 233 0 0 0 -0.054328 -0.88577 -0.46093 0.001285
-0.019194 0.046598 1.0748 1.4567e-38 210.5 233 0 0 0 0.1138 -0.8573 -0.50208 0.0026404
-0.016694 0.046639 1.0758 1.3415e-38 212.5 233 0 0 0 0.10104 -0.85733 -0.50475 0.0030834
-0.014793 0.046598 1.0748 1.3645e-38 214 233 0 0 0 0.095308 -0.85677 -0.50682 0.0033181
-0.012278 0.047856 1.0748 1.3645e-38 359 233 0 0 0 0.084932 -0.85936 -0.50427 0.0034307
-0.011021 0.047856 1.0748 1.4751e-38 360 233 0 0 0 0.080109 -0.86102 -0.50222 0.0037417
-0.00096169 0.047897 1.0758 1.4843e-38 365 233 0 0 0 0.021438 -0.86921 -0.49399 0.0033738
0.0009255 0.047876 1.0753 1.7701e-38 366.5 233 0 0 0 0.017986 -0.86983 -0.49303 0.0030239
0.0028116 0.047856 1.0748 1.8255e-38 368 233 0 0 0 0.023254 -0.87071 -0.49125 0.0033082
0.0046997 0.047876 1.0753 1.7102e-38 369.5 233 0 0 0 0.030843 -0.87017 -0.49179 0.0035311
0.0072129 0.047856 1.0748 1.7518e-38 371.5 233 0 0 0 0.038371 -0.87252 -0.48707 0.0039326
0.0090991 0.047856 1.0748 1.9084e-38 373 233 0 0 0 0.049084 -0.87327 -0.48475 0.0043392
0.010995 0.047897 1.0758 1.8992e-38 374.5 233 0 0 0 0.065768 -0.87577 -0.47823 0.0044342
0.012872 0.047856 1.0748 1.8347e-38 376 233 0 0 0 0.075348 -0.87372 -0.48056 0.003993
0.014764 0.047876 1.0753 1.7195e-38 377.5 233 0 0 0 0.086842 -0.87764 -0.47139 0.0037425
0.017281 0.047876 1.0753 1.5397e-38 379.5 233 0 0 0 0.10222 -0.8782 -0.46725 0.0031936
-0.11046 0.049156 1.0758 1.4936e-38 458 233 0 0 0 -0.14743 -0.87829 -0.45482 0.00564
-0.10911 0.049113 1.0748 1.5765e-38 459 233 0 0 0 -0.12856 -0.87737 -0.46227 0.0058522
-0.10727 0.049135 1.0753 1.5858e-38 460.5 233 0 0 0 -0.10545 -0.87541 -0.47174 0.0058724
-0.10408 0.049113 1.0748 1.4383e-38 463 233 0 0 0 -0.072178 -0.87594 -0.477 0.0051268
-0.10282 0.049113 1.0748 1.4475e-38 464 233 0 0 0 -0.05914 -0.87596 -0.47875 0.0046115
-0.10102 0.049156 1.0758 1.3921e-38 465.5 233 0 0 0 -0.050105 -0.87859 -0.47495 0.0043985
-0.087137 0.049135 1.0753 1.1847e-38 307 233.5 0 0 0 -0.083252 -0.89689 -0.43435 0.0080749
-0.085213 0.049113 1.0748 1.0787e-38 139 234 0 0 0 -0.094604 -0.89634 -0.43316 0.007513
-0.083955 0.049113 1.0748 1.0787e-38 140 234 0 0 0 -0.096426 -0.8961 -0.43326 0.0074066
-0.005362 0.049113 1.0748 1.1801e-38 200.5 234 0 0 0 0.04512 -0.86596 -0.49807 0.0037507
-0.0034758 0.049113 1.0748 1.3276e-38 202 234 0 0 0 0.032876 -0.86821 -0.49511 0.0035495
0.019159 0.049113 1.0748 1.1801e-38 220 234 0 0 0 0.10663 -0.8769 -0.46869 0.0028056
0.021693 0.049156 1.0758 9.3118e-39 222 234 0 0 0 0.12002 -0.87686 -0.46553 0.0027854
-0.11801 0.051673 1.0758 1.0418e-38 446 234 0 0 0 -0.21834 -0.87923 -0.42343 0.0036786
-0.11675 0.051673 1.0758 1.1617e-38 447 234 0 0 0 -0.21017 -0.8788 -0.42842 0.0036782
-0.11539 0.051628 1.0748 1.2078e-38 448 234 0 0 0 -0.19332 -0.88246 -0.42883 0.004251
-0.11162 0.051628 1.0748 1.4014e-38 451 234 0 0 0 -0.15132 -0.87954 -0.45112 0.005709
-0.099045 0.050371 1.0748 7.9288e-39 270 234 0 0 0 -0.043244 -0.87722 -0.47814 0.0043254
-0.097159 0.050371 1.0748 8.0671e-39 272.5 234 0 0 0 -0.046012 -0.87946 -0.47375 0.0052149
-0.094727 0.050415 1.0758 8.2515e-39 274.5 234 0 0 0 -0.048601 -0.88401 -0.46494 0.0063698
-0.092839 0.050415 1.0758 8.3898e-39 276 234 0 0 0 -0.060456 -0.88439 -0.46282 0.0071358
-0.090951 0.050415 1.0758 8.7125e-39 277.5 234 0 0 0 -0.063969 -0.88693 -0.45746 0.0073467
-0.088985 0.050371 1.0748 9.2196e-39 279 234 0 0 0 -0.081522 -0.88807 -0.45242 0.0072123
0.022932 0.050371 1.0748 1.7148e-38 377 234 0 0 0 0.12672 -0.87789 -0.46179 0.0031215
0.024829 0.051022 1.0753 1.4383e-38 297 234.5 0 0 0 0.14347 -0.87759 -0.45744 0.0037783
0.027344 0.051022 1.0753 1.323e-38 299 234.5 0 0 0 0.15451 -0.87862 -0.45183 0.0038787
0.029244 0.050415 1.0758 1.5581e-38 382 234 0 0 0 0.15778 -0.87936 -0.44926 0.004034
0.030904 0.051224 1.0751 1.0971e-38 274.67 234.67 0 0 0 0.15942 -0.87817 -0.451 0.0041181
0.032991 0.051628 1.0748 8.2054e-39 222 235 0 0 0 0.15929 -0.88097 -0.44556 0.004276
0.034908 0.051673 1.0758 8.4359e-39 223.5 235 0 0 0 0.16182 -0.8794 -0.44774 0.0044414
0.036796 0.051673 1.0758 8.021e-39 225 235 0 0 0 0.16031 -0.87993 -0.44724 0.0044576
-0.11917 0.052886 1.0748 8.2054e-39 253 235 0 0 0 -0.23002 -0.88047 -0.41455 0.0035315
0.038021 0.052886 1.0748 1.3092e-38 403 235 0 0 0 0.16029 -0.8836 -0.43996 0.0045256
-0.13111 0.055401 1.0748 8.5281e-39 270.5 236 0 0 0 -0.23808 -0.89896 -0.36769 0.004144
-0.12923 0.055401 1.0748 9.0352e-39 272 236 0 0 0 -0.23342 -0.89839 -0.37205 0.0037678
-0.12797 0.055401 1.0748 8.8508e-39 273 236 0 0 0 -0.2317 -0.89884 -0.37203 0.0032587
-0.12304 0.05419 1.0758 1.3922e-38 456 235 0 0 0 -0.24895 -0.88429 -0.39504 0.0028192
-0.12105 0.054143 1.0748 1.3921e-38 457.5 235 0 0 0 -0.24091 -0.88375 -0.40118 0.0032855
0.041165 0.055401 1.0748 1.4244e-38 467.5 236 0 0 0 0.17911 -0.88519 -0.42937 0.0047305
0.044347 0.05419 1.0758 8.7586e-39 262 236 0 0 0 0.20682 -0.87868 -0.43029 0.0049844
-0.14444 0.056708 1.0758 1.3553e-38 472 236 0 0 0 -0.2502 -0.90205 -0.35172 0.012842
-0.14318 0.056708 1.0758 1.1432e-38 138 237 0 0 0 -0.24664 -0.9029 -0.35204 0.011278
-0.14066 0.057966 1.0758 1.4659e-38 360 237 0 0 0 -0.2442 -0.90306 -0.35334 0.009371
-0.13941 0.057966 1.0758 1.6411e-38 361 237 0 0 0 -0.24156 -0.9033 -0.35455 0.0082402
-0.13689 0.057966 1.0758 1.4936e-38 363 237 0 0 0 -0.24043 -0.90199 -0.3586 0.0069923
-0.135 0.057337 1.0758 1.2631e-38 254.5 237 0 0 0 -0.24367 -0.89945 -0.3628 0.0060864
-0.133 0.056658 1.0748 1.1617e-38 146 237 0 0 0 -0.24607 -0.89897 -0.36236 0.0053301
-0.14934 0.059173 1.0748 9.7727e-39 194 238 0 0 0 -0.25357 -0.8993 -0.35631 0.020405
-0.074089 0.045459 1.0776 1.2446e-38 340 232 0 0 0 -0.059928 -0.92478 -0.37576 0.0076931
-0.071505 0.04542 1.0767 1.217e-38 342 232 0 0 0 -0.036886 -0.92132 -0.38705 0.008117
-0.065263 0.044199 1.0776 1.2631e-38 234 232 0 0 0 0.011192 -0.88662 -0.46236 0.0049397
-0.063317 0.04542 1.0767 1.2953e-38 348.5 232 0 0 0 0.010452 -0.88034 -0.47424 0.004486
-0.056438 0.045459 1.0776 1.4198e-38 352 232 0 0 0 -0.0055281 -0.88464 -0.46624 0.0042458
-0.055177 0.045459 1.0776 1.5581e-38 353 232 0 0 0 -0.010397 -0.88513 -0.46522 0.0042449
-0.045091 0.045459 1.0776 1.6042e-38 361 232 0 0 0 -0.064999 -0.89409 -0.44314 0.0017269
-0.04318 0.045439 1.0771 1.4798e-38 362.5 232 0 0 0 -0.066246 -0.89234 -0.44647 0.0012272
-0.034974 0.04542 1.0767 1.3368e-38 364 232 0 0 0 -0.014042 -0.90059 -0.43444 0.0022259
-0.028701 0.044199 1.0776 9.8649e-39 250 232 0 0 0 0.030447 -0.8923 -0.45042 0.0036687
-0.021117 0.04542 1.0767 1.7886e-38 373 232 0 0 0 0.11103 -0.86295 -0.49294 0.0030222
-0.019236 0.045439 1.0771 1.8162e-38 374.5 232 0 0 0 0.11104 -0.85957 -0.4988 0.0028902
-0.016093 0.045459 1.0776 1.7517e-38 377 232 0 0 0 0.10088 -0.85788 -0.50384 0.0034088
-0.014819 0.04542 1.0767 1.678e-38 378 232 0 0 0 0.096651 -0.85723 -0.50578 0.0035104
-0.11065 0.047981 1.0776 8.6664e-39 277 233 0 0 0 -0.15322 -0.87734 -0.45475 0.0054847
-0.10871 0.04796 1.0771 9.1735e-39 278.5 233 0 0 0 -0.13192 -0.87844 -0.45929 0.0056659
-0.10678 0.047939 1.0767 9.3118e-39 280 233 0 0 0 -0.10448 -0.8786 -0.46599 0.0056959
-0.10489 0.047939 1.0767 9.7727e-39 281.5 233 0 0 0 -0.083546 -0.87695 -0.47327 0.0054925
-0.10305 0.04733 1.0771 1.0971e-38 215 233 0 0 0 -0.065233 -0.87984 -0.47077 0.0052115
-0.10111 0.047939 1.0767 9.9572e-39 284.5 233 0 0 0 -0.045704 -0.88029 -0.47224 0.0045983
-0.098044 0.047981 1.0776 9.404e-39 287 233 0 0 0 -0.036247 -0.8867 -0.46092 0.0056918
-0.096783 0.047981 1.0776 9.4961e-39 288 233 0 0 0 -0.034241 -0.88881 -0.45699 0.0061271
-0.087327 0.047981 1.0776 8.943e-39 295.5 233 0 0 0 -0.07087 -0.90219 -0.42548 0.0090591
-0.084806 0.047981 1.0776 9.3117e-39 297.5 233 0 0 0 -0.090141 -0.90427 -0.41734 0.0081653
-0.060798 0.046679 1.0767 1.1064e-38 180.5 233 0 0 0 0.011564 -0.8781 -0.47833 0.0040197
-0.057648 0.046679 1.0767 9.7727e-39 183 233 0 0 0 -0.00146 -0.87969 -0.47555 0.0041081
-0.053263 0.0467 1.0771 1.1801e-38 186.5 233 0 0 0 -0.022675 -0.88542 -0.46424 0.0040218
-0.05135 0.046679 1.0767 1.1801e-38 188 233 0 0 0 -0.035447 -0.88711 -0.4602 0.0038515
-0.012929 0.046679 1.0767 1.3184e-38 215.5 233 0 0 0 0.092322 -0.85733 -0.50642 0.0036114
-0.01104 0.046679 1.0767 1.2262e-38 218 233 0 0 0 0.082777 -0.85931 -0.50472 0.0040468
-0.0097803 0.047939 1.0767 1.6411e-38 361 233 0 0 0 0.072583 -0.86079 -0.50375 0.0042902
-0.0047457 0.047981 1.0776 1.6319e-38 362 233 0 0 0 0.035269 -0.86593 -0.49893 0.0041998
-0.0028521 0.047939 1.0767 1.4429e-38 363.5 233 0 0 0 0.028751 -0.86738 -0.49681 0.0036049
-0.00096336 0.04672 1.0776 1.1248e-38 223 233 0 0 0 0.021019 -0.86786 -0.49637 0.0037551
0.00092711 0.0467 1.0771 1.0095e-38 225 233 0 0 0 0.018948 -0.86965 -0.4933 0.0034845
0.0028165 0.046679 1.0767 9.6805e-39 227 233 0 0 0 0.023215 -0.87159 -0.48969 0.0036148
0.0047061 0.046679 1.0767 8.8969e-39 228.5 233 0 0 0 0.030288 -0.87205 -0.48848 0.0037169
0.0072255 0.046679 1.0767 8.3437e-39 230.5 233 0 0 0 0.040486 -0.87574 -0.48109 0.0042314
0.009115 0.046679 1.0767 8.943e-39 232 233 0 0 0 0.051805 -0.87576 -0.47996 0.004422
0.011014 0.04672 1.0776 9.3579e-39 233.5 233 0 0 0 0.070029 -0.88207 -0.46588 0.0048108
0.012894 0.046679 1.0767 9.3118e-39 235 233 0 0 0 0.08066 -0.88139 -0.46546 0.0043722
0.014166 0.04672 1.0776 8.5742e-39 236 233 0 0 0 0.087637 -0.88509 -0.4571 0.0042056
0.017318 0.04672 1.0776 7.9749e-39 238.5 233 0 0 0 0.10366 -0.88681 -0.45036 0.0037848
0.019192 0.047939 1.0767 1.4843e-38 381 233 0 0 0 0.11131 -0.88056 -0.46067 0.0030919
0.021731 0.047981 1.0776 1.6134e-38 383 233 0 0 0 0.12135 -0.8833 -0.45284 0.0033433
-0.099218 0.049199 1.0767 1.3553e-38 467 233 0 0 0 -0.038165 -0.88012 -0.47322 0.0048164
-0.097328 0.049199 1.0767 1.5166e-38 468.5 233 0 0 0 -0.037435 -0.88309 -0.46772 0.0055452
-0.094892 0.049242 1.0776 1.429e-38 470.5 233 0 0 0 -0.040418 -0.88794 -0.45819 0.006663
-0.093001 0.049242 1.0776 1.4475e-38 472 233 0 0 0 -0.047796 -0.88803 -0.4573 0.007408
-0.091109 0.049242 1.0776 1.4429e-38 473.5 233 0 0 0 -0.049731 -0.89422 -0.44485 0.0082142
-0.089218 0.049242 1.0776 1.2907e-38 475 233 0 0 0 -0.063458 -0.89844 -0.43448 0.0091475
0.020452 0.049199 1.0767 1.051e-38 221 234 0 0 0 0.11644 -0.87915 -0.4621 0.002891
0.022971 0.049199 1.0767 8.943e-39 223 234 0 0 0 0.13282 -0.87862 -0.45868 0.0036023
0.025513 0.049242 1.0776 8.2054e-39 225 234 0 0 0 0.15427 -0.88003 -0.44916 0.0039436
0.029295 0.049242 1.0776 8.482e-39 228 234 0 0 0 0.15675 -0.8792 -0.44994 0.0042168
0.030556 0.049242 1.0776 8.2976e-39 229 234 0 0 0 0.1584 -0.87907 -0.44961 0.0042449
-0.11948 0.051763 1.0776 8.6664e-39 445 234 0 0 0 -0.24175 -0.87303 -0.42353 0.0028702
-0.11501 0.050481 1.0771 7.9288e-39 255.5 234 0 0 0 -0.20183 -0.87664 -0.43676 0.0036756
-0.11307 0.050459 1.0767 8.2976e-39 258 234 0 0 0 -0.17602 -0.8778 -0.44551 0.0047987
-0.11181 0.050459 1.0767 8.2054e-39 260 234 0 0 0 -0.16193 -0.87767 -0.45108 0.005298
0.024231 0.050459 1.0767 1.6319e-38 378 234 0 0 0 0.14584 -0.87799 -0.45591 0.0039179
0.02801 0.050459 1.0767 1.6134e-38 381 234 0 0 0 0.15653 -0.87943 -0.44956 0.0039868
0.031789 0.050459 1.0767 1.5581e-38 384 234 0 0 0 0.16163 -0.8786 -0.44937 0.0041319
0.033049 0.050459 1.0767 1.5581e-38 385 234 0 0 0 0.16094 -0.87882 -0.44919 0.0043171
0.034969 0.050503 1.0776 1.6779e-38 386.5 234 0 0 0 0.16001 -0.8784 -0.45035 0.0046243
0.03686 0.050503 1.0776 1.5212e-38 388 234 0 0 0 0.16356 -0.87781 -0.45022 0.0044815
0.038088 0.051718 1.0767 7.8366e-39 226 235 0 0 0 0.1651 -0.87779 -0.4497 0.0045267
-0.12326 0.053024 1.0776 8.2054e-39 245 235 0 0 0 -0.25776 -0.87845 -0.40236 0.0027043
-0.12132 0.053001 1.0771 8.3898e-39 249 235 0 0 0 -0.25087 -0.87795 -0.40777 0.0029313
0.039347 0.052978 1.0767 1.4936e-38 404 235 0 0 0 0.16655 -0.88078 -0.44327 0.0047083
-0.13272 0.054916 1.0776 1.0418e-38 359 235.5 0 0 0 -0.24261 -0.89217 -0.38102 0.0051451
-0.13082 0.054285 1.0776 1.3092e-38 450 235 0 0 0 -0.23113 -0.89436 -0.38303 0.0038367
-0.12956 0.054285 1.0776 1.3184e-38 451 235 0 0 0 -0.23143 -0.89439 -0.38276 0.0037431
-0.12704 0.054285 1.0776 1.3645e-38 453 235 0 0 0 -0.24378 -0.8901 -0.3851 0.0034772
-0.12504 0.054238 1.0767 1.4705e-38 454.5 235 0 0 0 -0.24873 -0.88753 -0.38784 0.0031501
0.041273 0.054285 1.0776 8.3437e-39 257 236 0 0 0 0.17862 -0.87893 -0.44224 0.0050424
0.043126 0.054238 1.0767 8.7586e-39 261 236 0 0 0 0.19449 -0.87903 -0.43529 0.0048793
-0.14205 0.056757 1.0767 1.0971e-38 139 237 0 0 0 -0.24277 -0.90304 -0.35436 0.010145
-0.13827 0.058017 1.0767 1.6595e-38 362 237 0 0 0 -0.24206 -0.90179 -0.35801 0.0076133
0.046906 0.08573 1.0767 1.3e-38 480 255 0 0 0 0.86791 0.45806 -0.19215 0.044253
-0.075415 0.045499 1.0786 1.3645e-38 339 232 0 0 0 -0.062205 -0.93052 -0.36093 0.0071125
-0.072892 0.045499 1.0786 1.1985e-38 341 232 0 0 0 -0.051197 -0.93205 -0.35869 0.0078193
-0.066582 0.044237 1.0786 1.2907e-38 233 232 0 0 0 -0.026635 -0.9151 -0.40235 0.0083918
-0.062851 0.044276 1.0795 1.2078e-38 235 232 0 0 0 -0.003906 -0.89789 -0.4402 0.0065821
-0.061535 0.045499 1.0786 1.2631e-38 350 232 0 0 0 0.0049025 -0.88769 -0.46041 0.0050828
-0.057749 0.045499 1.0786 1.3e-38 351 232 0 0 0 -0.00035154 -0.88645 -0.46282 0.0045682
-0.053356 0.045519 1.0791 1.595e-38 354.5 232 0 0 0 -0.019506 -0.891 -0.45359 0.0041831
-0.050809 0.045499 1.0786 1.4244e-38 356.5 232 0 0 0 -0.035485 -0.89235 -0.44994 0.0037735
-0.048916 0.045499 1.0786 1.3e-38 358 232 0 0 0 -0.047744 -0.89416 -0.4452 0.0031053
-0.047023 0.045499 1.0786 1.3921e-38 359.5 232 0 0 0 -0.054168 -0.89491 -0.44295 0.0025635
-0.04517 0.044276 1.0795 1.2354e-38 247 232 0 0 0 -0.058074 -0.89962 -0.4328 0.001496
-0.031249 0.044237 1.0786 1.1709e-38 248 232 0 0 0 0.0069442 -0.9115 -0.41125 0.0031368
-0.029988 0.044237 1.0786 1.0418e-38 249 232 0 0 0 0.013855 -0.90366 -0.42803 0.0029719
-0.017369 0.045499 1.0786 1.8163e-38 376 232 0 0 0 0.10546 -0.86035 -0.49867 0.0032077
-0.012958 0.045519 1.0791 1.4613e-38 379.5 232 0 0 0 0.092514 -0.86001 -0.50183 0.0039734
-0.011069 0.045539 1.0795 1.3737e-38 381 232 0 0 0 0.080899 -0.86204 -0.50034 0.0046656
0.00029794 0.045539 1.0795 9.3118e-39 388 232 0 0 0 0.018843 -0.87033 -0.49211 0.0040102
0.0028215 0.045499 1.0786 7.3757e-39 389 232 0 0 0 0.021469 -0.87137 -0.49016 0.0038269
0.004716 0.045519 1.0791 6.7764e-39 390.5 232 0 0 0 0.028807 -0.87653 -0.48049 0.0043461
0.007869 0.045499 1.0786 7.8366e-39 392 232 0 0 0 0.047956 -0.88401 -0.46501 0.004901
0.0091309 0.045499 1.0786 9.3118e-39 393 232 0 0 0 0.059138 -0.88634 -0.45924 0.0050764
0.011665 0.045539 1.0795 1.3553e-38 395 232 0 0 0 0.079559 -0.89207 -0.44483 0.0049626
0.012928 0.045539 1.0795 1.7517e-38 396 232 0 0 0 0.086309 -0.89332 -0.44105 0.00476
0.014191 0.045539 1.0795 2.185e-38 397 232 0 0 0 0.092259 -0.89439 -0.43767 0.004565
0.016717 0.045539 1.0795 2.1113e-38 399 232 0 0 0 0.10536 -0.8949 -0.43365 0.004203
-0.10891 0.046781 1.0791 1.2031e-38 142.5 233 0 0 0 -0.1347 -0.87903 -0.45735 0.0057048
-0.10696 0.046761 1.0786 1.1617e-38 144 233 0 0 0 -0.11031 -0.88251 -0.45718 0.0058901
-0.10507 0.046761 1.0786 1.1202e-38 145.5 233 0 0 0 -0.084221 -0.88337 -0.46104 0.0059629
-0.10128 0.046761 1.0786 1.134e-38 148.5 233 0 0 0 -0.041287 -0.88886 -0.45632 0.0055221
-0.098215 0.046802 1.0795 1.0879e-38 151 233 0 0 0 -0.028827 -0.89213 -0.45086 0.005977
-0.096952 0.046802 1.0795 1.1156e-38 152 233 0 0 0 -0.025879 -0.89301 -0.44929 0.0063729
-0.095689 0.046802 1.0795 1.1617e-38 153 233 0 0 0 -0.028561 -0.89319 -0.44876 0.0067425
-0.082987 0.046761 1.0786 9.4961e-39 163 233 0 0 0 -0.088312 -0.91085 -0.40318 0.0083613
-0.081796 0.046802 1.0795 9.3118e-39 164 233 0 0 0 -0.090242 -0.91453 -0.39433 0.0080628
-0.0097974 0.046761 1.0786 1.3e-38 219 233 0 0 0 0.072127 -0.86094 -0.50356 0.0046085
-0.004754 0.046802 1.0795 1.3368e-38 220 233 0 0 0 0.035649 -0.86591 -0.49893 0.0045395
-0.002857 0.046761 1.0786 1.2216e-38 221.5 233 0 0 0 0.027228 -0.86621 -0.49893 0.0039956
0.01544 0.046761 1.0786 8.1132e-39 237 233 0 0 0 0.095533 -0.88794 -0.44994 0.0040821
0.019243 0.046802 1.0795 7.9288e-39 240 233 0 0 0 0.11346 -0.89099 -0.43962 0.0037946
-0.11463 0.049328 1.0795 1.3829e-38 455 233 0 0 0 -0.20369 -0.87516 -0.43887 0.0034561
-0.11264 0.049285 1.0786 1.4336e-38 456.5 233 0 0 0 -0.18064 -0.87678 -0.44568 0.004509
-0.099391 0.048023 1.0786 9.1274e-39 286 233 0 0 0 -0.032164 -0.88959 -0.45563 0.0054088
-0.094975 0.048023 1.0786 8.8969e-39 289.5 233 0 0 0 -0.034465 -0.89176 -0.45119 0.0066332
-0.093163 0.048065 1.0795 8.6664e-39 291 233 0 0 0 -0.030128 -0.9011 -0.43256 0.0081496
-0.091189 0.048023 1.0786 9.2657e-39 292.5 233 0 0 0 -0.040668 -0.90079 -0.43235 0.0085672
-0.089374 0.048065 1.0795 8.943e-39 294 233 0 0 0 -0.051024 -0.90489 -0.42257 0.0092233
0.020506 0.048065 1.0795 1.5304e-38 382 233 0 0 0 0.11957 -0.88961 -0.44078 0.0038628
0.023032 0.048065 1.0795 1.5581e-38 384 233 0 0 0 0.13775 -0.88824 -0.43824 0.0049118
0.024274 0.049285 1.0786 8.482e-39 224 234 0 0 0 0.14654 -0.88669 -0.43852 0.0047282
0.026797 0.049285 1.0786 8.2054e-39 226 234 0 0 0 0.15597 -0.88149 -0.4457 0.0043268
0.028703 0.048675 1.0791 9.3578e-39 308 233.5 0 0 0 0.15669 -0.88225 -0.44394 0.0044373
0.031227 0.048675 1.0791 8.5281e-39 310 233.5 0 0 0 0.15697 -0.88066 -0.44699 0.0048545
0.033107 0.049285 1.0786 7.8366e-39 231 234 0 0 0 0.15918 -0.87861 -0.45023 0.004817
0.035016 0.049306 1.0791 7.8827e-39 232.5 234 0 0 0 0.16319 -0.87552 -0.4548 0.0045389
0.036925 0.049328 1.0795 8.021e-39 234 234 0 0 0 0.16185 -0.87538 -0.45554 0.0047284
-0.12221 0.051854 1.0795 1.6687e-38 406 234 0 0 0 -0.2642 -0.87118 -0.41381 0.0022089
-0.12095 0.051854 1.0795 1.3553e-38 407 234 0 0 0 -0.26337 -0.87088 -0.41498 0.0023025
-0.11832 0.050547 1.0786 8.021e-39 253 234 0 0 0 -0.23203 -0.87341 -0.42815 0.0029119
-0.11706 0.050547 1.0786 7.8366e-39 254 234 0 0 0 -0.22123 -0.87514 -0.43033 0.0031778
0.038802 0.051201 1.0791 1.0741e-38 308 234.5 0 0 0 0.16557 -0.87773 -0.44964 0.0046372
-0.12531 0.053094 1.0791 8.8969e-39 243.5 235 0 0 0 -0.25798 -0.87857 -0.40194 0.0028815
0.04324 0.053117 1.0795 1.2539e-38 407 235 0 0 0 0.19535 -0.87207 -0.4487 0.0051474
0.044464 0.05307 1.0786 1.2539e-38 408 235 0 0 0 0.21274 -0.86928 -0.4462 0.0050857
-0.13484 0.055643 1.0795 8.5742e-39 268 236 0 0 0 -0.24599 -0.88905 -0.3861 0.0063008
-0.12841 0.054332 1.0786 1.2815e-38 452 235 0 0 0 -0.23682 -0.88993 -0.38979 0.0038972
-0.14103 0.056856 1.0786 1.0879e-38 140 237 0 0 0 -0.24642 -0.90072 -0.35773 0.0092443
-0.13977 0.056856 1.0786 1.0787e-38 141 237 0 0 0 -0.24471 -0.90112 -0.35792 0.0084474
-0.13725 0.056856 1.0786 1.1524e-38 143 237 0 0 0 -0.24429 -0.89775 -0.36656 0.0071957
-0.13599 0.056856 1.0786 1.134e-38 144 237 0 0 0 -0.24422 -0.89506 -0.37313 0.006587
-0.10977 0.045619 1.0814 1.2631e-38 313 232 0 0 0 -0.15226 -0.88407 -0.44187 0.0056065
-0.10724 0.045619 1.0814 1.3276e-38 315 232 0 0 0 -0.11044 -0.89107 -0.44023 0.0063873
-0.10526 0.045579 1.0805 1.3322e-38 316.5 232 0 0 0 -0.088653 -0.8905 -0.44627 0.0064323
-0.10272 0.045579 1.0805 1.1479e-38 318.5 232 0 0 0 -0.051967 -0.89408 -0.44489 0.0062874
-0.10083 0.045579 1.0805 1.1156e-38 320 232 0 0 0 -0.036087 -0.89477 -0.44507 0.0060585
-0.098301 0.045579 1.0805 1.3461e-38 322 232 0 0 0 -0.02553 -0.89619 -0.44294 0.0062595
-0.097037 0.045579 1.0805 1.3922e-38 323 232 0 0 0 -0.021649 -0.89748 -0.44052 0.006492
-0.095857 0.045619 1.0814 1.3092e-38 324 232 0 0 0 -0.015965 -0.90154 -0.4324 0.0071526
-0.080604 0.045579 1.0805 1.2262e-38 335 232 0 0 0 -0.080859 -0.92674 -0.36689 0.0080526
-0.078708 0.045579 1.0805 1.4567e-38 336.5 232 0 0 0 -0.072233 -0.93311 -0.35225 0.0077725
-0.076879 0.045619 1.0814 1.5489e-38 338 232 0 0 0 -0.062893 -0.94149 -0.33113 0.0068249
-0.056636 0.044353 1.0814 9.7727e-39 238 232 0 0 0 -0.013309 -0.90003 -0.43562 0.0052853
-0.05537 0.044353 1.0814 9.5883e-39 239 232 0 0 0 -0.0095738 -0.89596 -0.44403 0.004073
-0.050943 0.044353 1.0814 1.134e-38 242.5 232 0 0 0 -0.029731 -0.90031 -0.43423 0.0036268
-0.049044 0.044353 1.0814 1.2262e-38 244 232 0 0 0 -0.036831 -0.90348 -0.42705 0.003025
-0.047146 0.044353 1.0814 1.1478e-38 245.5 232 0 0 0 -0.044614 -0.90497 -0.42312 0.0026908
-0.019945 0.044353 1.0814 1.0602e-38 251 232 0 0 0 0.078827 -0.90235 -0.42374 0.006285
-0.0091905 0.045619 1.0814 1.4705e-38 382.5 232 0 0 0 0.067282 -0.86595 -0.49559 0.0053151
-0.002863 0.045599 1.081 1.2032e-38 385.5 232 0 0 0 0.024679 -0.871 -0.49067 0.0044362
-0.00096589 0.045579 1.0805 1.134e-38 387 232 0 0 0 0.021803 -0.87028 -0.49208 0.0042226
0.00029846 0.044353 1.0814 1.0418e-38 259 232 0 0 0 0.018494 -0.87719 -0.47978 0.0047291
0.0028289 0.044353 1.0814 1.1156e-38 260 232 0 0 0 0.025532 -0.88252 -0.46959 0.0047222
0.0047267 0.044353 1.0814 1.1986e-38 261.5 232 0 0 0 0.032126 -0.89145 -0.45198 0.0053543
0.010411 0.045579 1.0805 1.1248e-38 394 232 0 0 0 0.072571 -0.8964 -0.43726 0.0053653
0.015467 0.045579 1.0805 2.3141e-38 398 232 0 0 0 0.10083 -0.89952 -0.42508 0.0045207
0.017996 0.045579 1.0805 1.9545e-38 400 232 0 0 0 0.10721 -0.90111 -0.42012 0.0044386
-0.11094 0.046843 1.0805 1.1156e-38 141 233 0 0 0 -0.16876 -0.87841 -0.44713 0.0049883
-0.099565 0.046843 1.0805 1.1156e-38 150 233 0 0 0 -0.033518 -0.89368 -0.44746 0.0058927
-0.094509 0.046843 1.0805 1.1893e-38 154 233 0 0 0 -0.014354 -0.90193 -0.43165 0.0078004
-0.093245 0.046843 1.0805 1.1524e-38 155 233 0 0 0 -0.017239 -0.90381 -0.42759 0.0081192
-0.091349 0.046843 1.0805 1.0234e-38 156.5 233 0 0 0 -0.028807 -0.90733 -0.41944 0.0088176
-0.088859 0.046864 1.081 9.8648e-39 158.5 233 0 0 0 -0.041175 -0.91315 -0.40553 0.010066
-0.087 0.046884 1.0814 9.9571e-39 160 233 0 0 0 -0.053891 -0.91492 -0.40003 0.010266
-0.085102 0.046884 1.0814 9.5422e-39 161.5 233 0 0 0 -0.074151 -0.91588 -0.39455 0.009707
0.021165 0.046864 1.081 8.2976e-39 241.5 233 0 0 0 0.1202 -0.89887 -0.4214 0.0044831
-0.11737 0.049414 1.0814 1.2815e-38 453 233 0 0 0 -0.23122 -0.87282 -0.42979 0.0025121
-0.11541 0.04876 1.081 1.0925e-38 364 233 0 0 0 -0.21545 -0.87363 -0.4363 0.0029985
-0.11289 0.048128 1.081 8.482e-39 275.5 233 0 0 0 -0.18945 -0.87772 -0.44013 0.0041163
0.024958 0.048128 1.081 1.4383e-38 385.5 233 0 0 0 0.14875 -0.89072 -0.42953 0.0052231
0.026844 0.048107 1.0805 1.4383e-38 387 233 0 0 0 0.1517 -0.8879 -0.4343 0.0051815
0.028133 0.048149 1.0814 1.2539e-38 388 233 0 0 0 0.14792 -0.88882 -0.43373 0.0054458
0.031901 0.048107 1.0805 8.1132e-39 391 233 0 0 0 0.15547 -0.88073 -0.44737 0.0050567
0.033165 0.048107 1.0805 7.1913e-39 392 233 0 0 0 0.15487 -0.88106 -0.44694 0.0051715
0.035061 0.048107 1.0805 7.0069e-39 393.5 233 0 0 0 0.1593 -0.87875 -0.4499 0.004982
0.036989 0.048149 1.0814 8.2054e-39 395 233 0 0 0 0.15956 -0.87731 -0.45263 0.0051793
0.038221 0.049371 1.0805 8.6664e-39 235 234 0 0 0 0.16342 -0.875 -0.45571 0.0048622
-0.12496 0.051945 1.0814 2.1113e-38 404 234 0 0 0 -0.26632 -0.8724 -0.40986 0.0024145
-0.12358 0.051899 1.0805 1.9822e-38 405 234 0 0 0 -0.26716 -0.87068 -0.41297 0.0022174
-0.11979 0.050635 1.0805 8.2976e-39 252 234 0 0 0 -0.25598 -0.86892 -0.42362 0.002311
0.044541 0.051899 1.0805 7.9288e-39 231 235 0 0 0 0.2056 -0.86764 -0.45269 0.0052769
-0.13243 0.053163 1.0805 8.2054e-39 238 235 0 0 0 -0.22833 -0.89102 -0.39237 0.004196
-0.13059 0.053186 1.081 8.021e-39 239.5 235 0 0 0 -0.23293 -0.8884 -0.39558 0.0042066
-0.12749 0.05321 1.0814 8.5742e-39 242 235 0 0 0 -0.25158 -0.88025 -0.40234 0.0035538
0.040785 0.05321 1.0814 1.595e-38 405 235 0 0 0 0.17615 -0.87191 -0.45689 0.0050805
0.042013 0.053163 1.0805 1.5397e-38 406 235 0 0 0 0.18228 -0.87216 -0.454 0.0051188
-0.14014 0.05574 1.0814 8.1132e-39 264 236 0 0 0 -0.25013 -0.89545 -0.36824 0.0085693
-0.1337 0.054427 1.0805 1.2631e-38 448 235 0 0 0 -0.23764 -0.88951 -0.39025 0.0051865
-0.13875 0.056956 1.0805 1.1063e-38 142 237 0 0 0 -0.24499 -0.896 -0.37035 0.0083406
-0.051032 0.043164 1.0833 1.429e-38 468.5 231 0 0 0 -0.024406 -0.91221 -0.40899 0.003729
-0.04913 0.043164 1.0833 1.4198e-38 470 231 0 0 0 -0.030984 -0.91062 -0.41208 0.002984
-0.047863 0.043164 1.0833 1.3276e-38 471 231 0 0 0 -0.028235 -0.91146 -0.41042 0.0031353
-0.045288 0.043126 1.0824 1.3553e-38 473 231 0 0 0 -0.046042 -0.91091 -0.41003 0.0025866
0.0015664 0.043164 1.0833 1.0602e-38 151 232 0 0 0 0.025266 -0.89262 -0.45011 0.0052675
-0.11123 0.045699 1.0833 1.2539e-38 312 232 0 0 0 -0.17846 -0.88251 -0.43512 0.0051056
-0.1086 0.045659 1.0824 1.217e-38 314 232 0 0 0 -0.13142 -0.89001 -0.43659 0.0061442
-0.10616 0.044431 1.0833 1.429e-38 203 232 0 0 0 -0.096538 -0.90129 -0.42232 0.0069475
-0.1049 0.044431 1.0833 1.4475e-38 204 232 0 0 0 -0.077395 -0.90415 -0.42014 0.0076413
-0.103 0.044431 1.0833 1.3691e-38 205.5 232 0 0 0 -0.050896 -0.90666 -0.41878 0.0074616
-0.10101 0.044392 1.0824 1.3461e-38 207 232 0 0 0 -0.032827 -0.90364 -0.42703 0.0067871
-0.09915 0.045045 1.0828 1.3184e-38 265 232 0 0 0 -0.017562 -0.90608 -0.42274 0.0068427
-0.097292 0.044431 1.0833 1.4383e-38 210 232 0 0 0 -0.0051626 -0.91242 -0.40922 0.0071132
-0.094674 0.045659 1.0824 1.1709e-38 325 232 0 0 0 -0.0047587 -0.90849 -0.41788 0.0079518
-0.092775 0.045659 1.0824 1.1064e-38 326.5 232 0 0 0 -0.0039614 -0.9117 -0.41085 0.0088187
-0.090955 0.045699 1.0833 1.1063e-38 328 232 0 0 0 -0.0045549 -0.91926 -0.39362 0.0098187
-0.061805 0.044431 1.0833 1.0602e-38 236 232 0 0 0 -0.05438 -0.92595 -0.37372 0.0086611
-0.057952 0.044392 1.0824 9.9571e-39 237 232 0 0 0 -0.029568 -0.9105 -0.41245 0.006442
-0.054153 0.044392 1.0824 9.404e-39 240 232 0 0 0 -0.022093 -0.90499 -0.42487 0.0052699
-0.052886 0.044392 1.0824 9.6805e-39 241 232 0 0 0 -0.016926 -0.90509 -0.42488 0.0043584
-0.01743 0.044392 1.0824 1.1801e-38 252 232 0 0 0 0.068261 -0.90558 -0.41865 0.0072222
-0.008573 0.044431 1.0833 1.3092e-38 254 232 0 0 0 0.055641 -0.87304 -0.48447 0.0056102
-0.0047665 0.045659 1.0824 1.4106e-38 384 232 0 0 0 0.031699 -0.87183 -0.48877 0.0049295
-0.0028681 0.044412 1.0828 1.0464e-38 256.5 232 0 0 0 0.022672 -0.87466 -0.48421 0.0046921
-0.00096759 0.044392 1.0824 1.0234e-38 258 232 0 0 0 0.01739 -0.8752 -0.48344 0.0045236
0.0091629 0.044392 1.0824 1.1063e-38 263 232 0 0 0 0.068554 -0.90863 -0.41193 0.0054054
0.011067 0.044412 1.0828 1.3276e-38 264.5 232 0 0 0 0.082921 -0.91388 -0.39742 0.0049036
0.012962 0.044392 1.0824 1.4751e-38 266 232 0 0 0 0.090508 -0.91207 -0.39992 0.004643
0.014241 0.044431 1.0833 1.4659e-38 267 232 0 0 0 0.095095 -0.91652 -0.38853 0.0042214
0.016775 0.044431 1.0833 1.512e-38 269 232 0 0 0 0.10574 -0.91413 -0.3914 0.0042917
0.019293 0.045659 1.0824 1.9361e-38 401 232 0 0 0 0.11061 -0.9046 -0.41167 0.0044248
0.021845 0.045699 1.0833 2.3049e-38 403 232 0 0 0 0.11671 -0.90562 -0.40771 0.0048963
-0.11313 0.046966 1.0833 1.0879e-38 139.5 233 0 0 0 -0.20224 -0.8766 -0.43665 0.0038725
