# .PCD v.7 - Point Cloud Data file format
VERSION .7
FIELDS x y z rgb u v vx vy vz normal_x normal_y normal_z curvature
SIZE 4 4 4 4 4 4 4 4 4 4 4 4 4
TYPE F F F F F F F F F F F F F
COUNT 1 1 1 1 1 1 1 1 1 1 1 1 1
WIDTH 560
HEIGHT 1
VIEWPOINT 0 0 0 1 0 0 0
POINTS 560
DATA ascii
-0.20796 -0.0013939 1.2628 9.4961e-39 463 241 0 0 0 0.64764 0.27063 -0.71227 0.010288
-0.21239 0.0015608 1.2628 1.0234e-38 206 242 0 0 0 0.6732 0.2801 -0.68436 0.010248
-0.21091 0.00082212 1.2628 8.7123e-39 179 242 0 0 0 0.66467 0.27573 -0.6944 0.010221
-0.20944 8.3431e-05 1.2628 8.1132e-39 152 242 0 0 0 0.65467 0.27564 -0.70387 0.010216
-0.21239 0.0030382 1.2628 1.0787e-38 374 242 0 0 0 0.67746 0.28457 -0.67829 0.010436
-0.21239 0.0052542 1.2628 8.8046e-39 454.5 242 0 0 0 0.67913 0.28026 -0.67841 0.010543
-0.21387 0.0074702 1.2628 1.3276e-38 166 243 0 0 0 0.69421 0.27733 -0.66419 0.010753
-0.21387 0.0089476 1.2628 9.404e-39 217 243 0 0 0 0.6975 0.27399 -0.66214 0.011165
-0.21535 0.017073 1.2628 1.0649e-38 197 244 0 0 0 0.71711 0.30285 -0.62772 0.010989
-0.21682 0.019289 1.2628 1.0695e-38 372 244 0 0 0 0.72348 0.31984 -0.61179 0.0099158
-0.21535 0.019289 1.2628 1.0695e-38 373 244 0 0 0 0.71996 0.31333 -0.61926 0.010663
-0.21904 0.020766 1.2628 1.2861e-38 403.5 244 0 0 0 0.72042 0.34816 -0.59981 0.0094546
-0.21904 0.022244 1.2628 9.9572e-39 436.5 244 0 0 0 0.71942 0.36032 -0.59381 0.0093854
-0.18747 -0.056114 1.264 1.1156e-38 344 232 0 0 0 0.54933 0.2676 -0.7916 0.0062306
-0.18534 -0.056143 1.2647 1.1708e-38 345.5 232 0 0 0 0.54121 0.25945 -0.79986 0.0058854
-0.18322 -0.056911 1.2653 1.0418e-38 268 232 0 0 0 0.5357 0.25592 -0.80469 0.0064288
-0.18683 -0.054663 1.2647 1.3368e-38 410.5 232 0 0 0 0.55104 0.2561 -0.79421 0.0062606
-0.1847 -0.054691 1.2653 1.3553e-38 412 232 0 0 0 0.54269 0.24429 -0.80362 0.0059793
-0.18692 -0.05321 1.2653 1.0234e-38 477.5 232 0 0 0 0.5491 0.24292 -0.79967 0.005512
-0.1847 -0.05321 1.2653 1.0418e-38 479 232 0 0 0 0.54361 0.23279 -0.80641 0.0056266
-0.18895 -0.050198 1.264 1.2815e-38 373 233 0 0 0 0.57151 0.24247 -0.78395 0.0060849
-0.18692 -0.05099 1.2653 1.1202e-38 291.5 233 0 0 0 0.55069 0.23749 -0.80021 0.0053099
-0.1847 -0.05173 1.2653 1.0142e-38 210 233 0 0 0 0.54586 0.23225 -0.80504 0.0054369
-0.19043 -0.048719 1.264 1.2631e-38 440 233 0 0 0 0.57404 0.24699 -0.78069 0.0059123
-0.18895 -0.048719 1.264 1.1801e-38 441 233 0 0 0 0.57133 0.24191 -0.78426 0.0057206
-0.19043 -0.04724 1.264 5.5317e-39 508 233 0 0 0 0.57206 0.24003 -0.7843 0.005462
-0.18895 -0.04724 1.264 5.5317e-39 509 233 0 0 0 0.56894 0.23525 -0.78801 0.0052815
-0.19092 -0.044776 1.264 1.0818e-38 345.67 234 0 0 0 0.57428 0.23243 -0.78497 0.0051525
-0.18895 -0.045022 1.264 1.0602e-38 368 234 0 0 0 0.56762 0.229 -0.7908 0.0048584
-0.19126 -0.042826 1.2647 1.0187e-38 470.5 234 0 0 0 0.57251 0.22817 -0.78751 0.0047786
-0.18914 -0.042848 1.2653 9.9571e-39 472 234 0 0 0 0.5692 0.22782 -0.79001 0.0046539
-0.19126 -0.041346 1.2647 1.0971e-38 192.5 235 0 0 0 0.5736 0.22448 -0.78778 0.0046874
-0.18914 -0.041367 1.2653 1.1617e-38 194 235 0 0 0 0.57027 0.2254 -0.78993 0.0047474
-0.19126 -0.039127 1.2647 1.0925e-38 399.5 235 0 0 0 0.5744 0.22321 -0.78755 0.0046982
-0.18914 -0.039146 1.2653 1.1294e-38 401 235 0 0 0 0.57203 0.22227 -0.78954 0.0047031
-0.19126 -0.036907 1.2647 5.9005e-39 504.5 235 0 0 0 0.57634 0.22142 -0.78665 0.0047447
-0.18914 -0.036926 1.2653 5.3473e-39 506 235 0 0 0 0.57481 0.22404 -0.78702 0.0049816
-0.19126 -0.035427 1.2647 1.0234e-38 223.5 236 0 0 0 0.57896 0.22201 -0.78455 0.0048964
-0.18914 -0.035446 1.2653 9.6805e-39 225 236 0 0 0 0.57664 0.22577 -0.78518 0.0053645
-0.19486 -0.033191 1.264 9.7729e-39 429 236 0 0 0 0.59031 0.22111 -0.7763 0.0050366
-0.19274 -0.033208 1.2647 9.6346e-39 430.5 236 0 0 0 0.5829 0.22109 -0.78189 0.0051423
-0.19634 -0.030973 1.264 1.1524e-38 177 237 0 0 0 0.59136 0.21913 -0.77606 0.0050409
-0.19486 -0.030973 1.264 1.1617e-38 178 237 0 0 0 0.58905 0.21897 -0.77787 0.0052246
-0.19274 -0.030989 1.2647 1.217e-38 179.5 237 0 0 0 0.58923 0.22356 -0.77642 0.0058547
-0.19683 -0.028508 1.264 1.1555e-38 392.67 237 0 0 0 0.59511 0.21119 -0.7754 0.005232
-0.19486 -0.028755 1.264 1.1156e-38 383 237 0 0 0 0.59244 0.21612 -0.77608 0.0057692
-0.19279 -0.028777 1.265 1.194e-38 384.5 237 0 0 0 0.59289 0.22382 -0.77355 0.0068644
-0.19708 -0.026536 1.264 1.0694e-38 479.5 237 0 0 0 0.60196 0.20521 -0.77171 0.0060096
-0.19486 -0.026536 1.264 9.7727e-39 481 237 0 0 0 0.59639 0.20947 -0.77488 0.0062462
-0.19284 -0.026563 1.2653 1.0003e-38 482.5 237 0 0 0 0.60259 0.21646 -0.76813 0.0080789
-0.1993 -0.025057 1.264 1.1248e-38 186 238 0 0 0 0.60619 0.19901 -0.77002 0.0063659
-0.19708 -0.025057 1.264 1.1893e-38 187.5 238 0 0 0 0.60339 0.20417 -0.77087 0.0066072
-0.19506 -0.025083 1.2653 1.134e-38 189 238 0 0 0 0.60285 0.2097 -0.76981 0.0073701
-0.19358 -0.025083 1.2653 1.1156e-38 190 238 0 0 0 0.61024 0.21547 -0.76235 0.0086937
-0.1993 -0.022839 1.264 1.134e-38 384 238 0 0 0 0.60889 0.20418 -0.76653 0.0074757
-0.19708 -0.022839 1.264 1.0787e-38 385.5 238 0 0 0 0.61191 0.20389 -0.7642 0.0076434
-0.19506 -0.022862 1.2653 1.0879e-38 387 238 0 0 0 0.61449 0.21401 -0.75934 0.0087234
-0.19358 -0.022862 1.2653 1.1202e-38 388 238 0 0 0 0.61766 0.22 -0.75505 0.0094591
-0.1993 -0.020621 1.264 9.404e-39 474 238 0 0 0 0.61005 0.20808 -0.76455 0.0074244
-0.19708 -0.020621 1.264 9.6345e-39 475.5 238 0 0 0 0.61379 0.21103 -0.76074 0.0079333
-0.19506 -0.020642 1.2653 1.0787e-38 477 238 0 0 0 0.6229 0.22001 -0.75072 0.0090534
-0.20078 -0.019142 1.264 1.4106e-38 174 239 0 0 0 0.60721 0.21089 -0.76604 0.007679
-0.19866 -0.019152 1.2647 1.3692e-38 175.5 239 0 0 0 0.61788 0.21473 -0.75638 0.0079897
-0.19654 -0.019161 1.2653 1.3e-38 177 239 0 0 0 0.6241 0.21949 -0.74988 0.0089033
-0.20226 -0.016184 1.264 1.2078e-38 398 239 0 0 0 0.62505 0.22 -0.74894 0.0097389
-0.20078 -0.016924 1.264 1.0925e-38 369.5 239 0 0 0 0.61638 0.21825 -0.7566 0.0086223
-0.19876 -0.016941 1.2653 1.1663e-38 371 239 0 0 0 0.62353 0.22138 -0.7498 0.0088131
-0.19654 -0.017681 1.2653 1.0787e-38 343 239 0 0 0 0.62422 0.22451 -0.74829 0.0087583
-0.203 -0.014705 1.264 9.0813e-39 456.5 239 0 0 0 0.62514 0.22469 -0.74748 0.0099866
-0.20078 -0.014705 1.264 9.4961e-39 458 239 0 0 0 0.61409 0.22247 -0.75723 0.0086908
-0.1995 -0.01472 1.2653 1.0234e-38 459 239 0 0 0 0.61792 0.22541 -0.75324 0.0088288
-0.203 -0.013226 1.264 1.5074e-38 150.5 240 0 0 0 0.62101 0.2319 -0.74871 0.0099856
-0.20078 -0.013226 1.264 1.1063e-38 152 240 0 0 0 0.61622 0.22565 -0.75456 0.009189
-0.1995 -0.01324 1.2653 9.5883e-39 153 240 0 0 0 0.62033 0.22848 -0.75033 0.0092465
-0.20521 -0.011008 1.264 1.0003e-38 293 240 0 0 0 0.6314 0.23247 -0.73979 0.011001
-0.2031 -0.011013 1.2647 1.028e-38 294.5 240 0 0 0 0.6137 0.23236 -0.75457 0.0092418
-0.20098 -0.011019 1.2653 1.0556e-38 296 240 0 0 0 0.61911 0.23399 -0.74964 0.009321
-0.1995 -0.011019 1.2653 1.0326e-38 297 240 0 0 0 0.61919 0.23339 -0.74976 0.009287
-0.20542 -0.0087987 1.2653 1.0049e-38 437 240 0 0 0 0.62462 0.23906 -0.74344 0.0096812
-0.2032 -0.0087987 1.2653 1.0141e-38 438.5 240 0 0 0 0.61599 0.24089 -0.75002 0.008854
-0.20098 -0.0087987 1.2653 9.6805e-39 440 240 0 0 0 0.62282 0.23822 -0.74522 0.0090703
-0.1995 -0.0087987 1.2653 8.7586e-39 441 240 0 0 0 0.62206 0.24146 -0.74481 0.0092372
-0.20542 -0.0073183 1.2653 1.0879e-38 496 240 0 0 0 0.62258 0.24325 -0.74379 0.0091884
-0.2032 -0.0073183 1.2653 1.0694e-38 497.5 240 0 0 0 0.61884 0.24427 -0.74657 0.0085986
-0.20098 -0.0073183 1.2653 9.5883e-39 499 240 0 0 0 0.61946 0.24679 -0.74522 0.00846
-0.20669 -0.0043531 1.264 9.404e-39 348 241 0 0 0 0.63604 0.25981 -0.7266 0.0095627
-0.20542 -0.0050978 1.2653 1.1063e-38 265 241 0 0 0 0.6239 0.25629 -0.73828 0.0088688
-0.20246 -0.005838 1.2653 1.1248e-38 183 241 0 0 0 0.6181 0.25207 -0.74459 0.0082023
-0.20669 -0.0028742 1.264 1.3276e-38 407 241 0 0 0 0.63724 0.26827 -0.72246 0.0097877
-0.20542 -0.0028772 1.2653 1.2723e-38 408 241 0 0 0 0.61947 0.26575 -0.73867 0.0085057
-0.20669 -0.0013954 1.264 9.5883e-39 464 241 0 0 0 0.6345 0.26696 -0.72536 0.0096802
-0.20542 -0.0013968 1.2653 1.0234e-38 465 241 0 0 0 0.62112 0.26572 -0.7373 0.0085582
-0.20866 0.0010694 1.264 9.4039e-39 190 242 0 0 0 0.64608 0.27419 -0.71232 0.0096114
-0.2068 0.00082376 1.2647 1.0556e-38 182 242 0 0 0 0.63032 0.27193 -0.72715 0.009426
-0.21113 0.0030413 1.264 1.1432e-38 375 242 0 0 0 0.65741 0.27941 -0.69981 0.010333
-0.20891 0.0030413 1.264 1.1432e-38 376.5 242 0 0 0 0.64455 0.27676 -0.71271 0.0096235
-0.20691 0.0030444 1.2653 1.1248e-38 378 242 0 0 0 0.62966 0.26943 -0.72865 0.0088999
-0.21113 0.0052596 1.264 9.0351e-39 455.5 242 0 0 0 0.65416 0.28124 -0.70212 0.010632
-0.20891 0.0052596 1.264 9.6576e-39 458.5 242 0 0 0 0.64278 0.28211 -0.71222 0.00986
-0.20691 0.0045248 1.2653 9.6805e-39 432 242 0 0 0 0.62853 0.26932 -0.72967 0.0089132
-0.21261 0.0074779 1.264 1.4383e-38 167 243 0 0 0 0.67951 0.27626 -0.67967 0.011372
-0.21113 0.0074779 1.264 1.4383e-38 168 243 0 0 0 0.66186 0.27671 -0.69669 0.011129
-0.20913 0.0074855 1.2653 1.3276e-38 169.5 243 0 0 0 0.63138 0.27346 -0.72566 0.0096401
-0.20691 0.0060052 1.2653 9.6805e-39 491 242 0 0 0 0.62806 0.27257 -0.72886 0.0090163
-0.21261 0.0089568 1.264 9.9571e-39 222 243 0 0 0 0.68109 0.27368 -0.67913 0.012134
-0.21135 0.0089659 1.2653 8.7586e-39 339 243 0 0 0 0.65559 0.27087 -0.70486 0.011324
-0.20913 0.0089659 1.2653 9.2195e-39 340.5 243 0 0 0 0.63299 0.27072 -0.72528 0.0095254
-0.21409 0.011176 1.264 1.0971e-38 406 243 0 0 0 0.69589 0.27551 -0.6632 0.012169
-0.21272 0.011181 1.2647 1.0971e-38 407 243 0 0 0 0.67792 0.27122 -0.68327 0.013011
-0.21135 0.010446 1.2653 1.3184e-38 386 243 0 0 0 0.65233 0.2667 -0.70946 0.011689
-0.20913 0.010446 1.2653 1.3921e-38 387.5 243 0 0 0 0.6398 0.2619 -0.72253 0.010507
-0.21431 0.013407 1.2653 9.8649e-39 470 243 0 0 0 0.6952 0.27659 -0.66347 0.013253
-0.21431 0.014887 1.2653 4.6098e-39 142 244 0 0 0 0.69751 0.27818 -0.66037 0.012977
-0.21431 0.017108 1.2653 1.0741e-38 259.5 244 0 0 0 0.7056 0.29288 -0.64526 0.012955
-0.21705 0.020788 1.264 1.3461e-38 405 244 0 0 0 0.72572 0.32938 -0.60402 0.010325
-0.21557 0.020788 1.264 1.3737e-38 406 244 0 0 0 0.71942 0.31948 -0.61674 0.01123
-0.21705 0.022267 1.264 9.1274e-39 438 244 0 0 0 0.72509 0.34512 -0.59593 0.010278
-0.17914 -0.059253 1.2679 9.3118e-39 475 231 0 0 0 0.54732 0.27586 -0.79015 0.010603
-0.17692 -0.059253 1.2679 9.6805e-39 476.5 231 0 0 0 0.55514 0.28615 -0.78099 0.012599
-0.18211 -0.056286 1.2679 9.9571e-39 348 232 0 0 0 0.55106 0.24237 -0.79849 0.0084574
-0.181 -0.057236 1.267 9.8649e-39 243.33 232 0 0 0 0.54534 0.2515 -0.7996 0.0084953
-0.17914 -0.057028 1.2679 9.7727e-39 271 232 0 0 0 0.55825 0.26459 -0.78635 0.010701
-0.17667 -0.057275 1.2679 1.051e-38 246.33 232 0 0 0 0.5673 0.27176 -0.77738 0.012396
-0.18276 -0.054775 1.2673 1.2908e-38 413.5 232 0 0 0 0.55347 0.23479 -0.79909 0.00767
-0.18063 -0.054803 1.2679 1.2354e-38 415 232 0 0 0 0.55994 0.23925 -0.79324 0.0090705
-0.17914 -0.054803 1.2679 1.2446e-38 416 232 0 0 0 0.56716 0.25178 -0.78418 0.010278
-0.17618 -0.054803 1.2679 1.2078e-38 418 232 0 0 0 0.5793 0.26002 -0.77253 0.012047
-0.18276 -0.053293 1.2673 1.0003e-38 480.5 232 0 0 0 0.55891 0.22956 -0.79682 0.0076515
-0.18063 -0.05332 1.2679 1.0142e-38 482 232 0 0 0 0.56829 0.23309 -0.78913 0.0089731
-0.17914 -0.05332 1.2679 1.0234e-38 483 232 0 0 0 0.57498 0.23984 -0.78222 0.0098645
-0.18489 -0.050301 1.2666 1.1617e-38 376 233 0 0 0 0.55647 0.2348 -0.797 0.0060105
-0.18304 -0.051324 1.2675 9.7112e-39 266.67 233 0 0 0 0.56405 0.23036 -0.79296 0.0073268
-0.18063 -0.051836 1.2679 9.0352e-39 213 233 0 0 0 0.57219 0.23808 -0.7848 0.008532
-0.17914 -0.051836 1.2679 9.6805e-39 214 233 0 0 0 0.5808 0.24401 -0.77661 0.0095958
-0.18711 -0.048819 1.2666 9.957e-39 442.5 233 0 0 0 0.55359 0.23636 -0.79854 0.0050091
-0.18489 -0.048819 1.2666 9.0352e-39 444 233 0 0 0 0.5558 0.23555 -0.79724 0.0056716
-0.1836 -0.048869 1.2679 9.404e-39 445 233 0 0 0 0.5679 0.23988 -0.78737 0.0068896
-0.18711 -0.047337 1.2666 2.2173e-38 167.5 234 0 0 0 0.55605 0.23624 -0.79687 0.004823
-0.18489 -0.047337 1.2666 1.973e-38 169 234 0 0 0 0.55881 0.23984 -0.79385 0.0055609
-0.1836 -0.047386 1.2679 1.7886e-38 170 234 0 0 0 0.57213 0.24726 -0.782 0.0069968
-0.18721 -0.045138 1.2673 1.0579e-38 369.5 234 0 0 0 0.5639 0.23846 -0.79067 0.0050206
-0.18489 -0.045115 1.2666 1.0234e-38 371 234 0 0 0 0.56243 0.24367 -0.79013 0.0057483
-0.18721 -0.042914 1.2673 1.0372e-38 473.5 234 0 0 0 0.57074 0.23497 -0.78679 0.0051987
-0.18508 -0.042936 1.2679 9.8649e-39 475 234 0 0 0 0.57759 0.24457 -0.77883 0.0065235
-0.18721 -0.041431 1.2673 1.1109e-38 195.5 235 0 0 0 0.57605 0.23051 -0.78424 0.0054209
-0.18508 -0.041452 1.2679 1.0142e-38 197 235 0 0 0 0.58403 0.24177 -0.77489 0.0066409
-0.18721 -0.039207 1.2673 1.1502e-38 402.5 235 0 0 0 0.58081 0.23136 -0.78047 0.0057334
-0.18508 -0.039227 1.2679 1.1386e-38 404 235 0 0 0 0.59159 0.24304 -0.76873 0.0071215
-0.18721 -0.036983 1.2673 5.4856e-39 507.5 235 0 0 0 0.58796 0.23461 -0.77412 0.0065749
-0.18805 -0.034035 1.2679 1.2262e-38 399 236 0 0 0 0.59794 0.24062 -0.76457 0.0078825
-0.18721 -0.035501 1.2673 9.7266e-39 226.5 236 0 0 0 0.59398 0.23902 -0.76815 0.0073269
-0.19082 -0.033259 1.2666 9.6804e-39 432 236 0 0 0 0.58541 0.2307 -0.77722 0.00651
-0.1889 -0.033023 1.267 1.0295e-38 445 236 0 0 0 0.59022 0.2348 -0.77234 0.0071895
-0.19082 -0.031036 1.2666 1.217e-38 181 237 0 0 0 0.59349 0.23238 -0.77056 0.0074935
-0.18869 -0.031052 1.2673 1.1524e-38 182.5 237 0 0 0 0.60152 0.24119 -0.76158 0.0085908
-0.19082 -0.028813 1.2666 1.2262e-38 386 237 0 0 0 0.60164 0.23372 -0.76381 0.0086583
-0.18874 -0.028835 1.2676 1.0602e-38 387.5 237 0 0 0 0.61435 0.25242 -0.74757 0.010356
-0.19082 -0.026591 1.2666 1.0049e-38 484 237 0 0 0 0.61354 0.23331 -0.75442 0.010305
-0.18879 -0.026618 1.2679 9.6344e-39 485.5 237 0 0 0 0.6247 0.25197 -0.7391 0.011149
-0.1923 -0.025109 1.2666 1.0695e-38 191 238 0 0 0 0.61806 0.22753 -0.75249 0.010259
-0.19082 -0.025109 1.2666 1.0695e-38 192 238 0 0 0 0.61864 0.23275 -0.75041 0.010911
-0.18953 -0.025135 1.2679 1.0326e-38 193 238 0 0 0 0.63083 0.24697 -0.73557 0.011945
-0.1923 -0.022886 1.2666 1.111e-38 389 238 0 0 0 0.62528 0.22807 -0.74633 0.010504
-0.19091 -0.022898 1.2673 1.0925e-38 390 238 0 0 0 0.63591 0.23808 -0.73412 0.01225
-0.19304 -0.020663 1.2666 1.1294e-38 478.5 238 0 0 0 0.63005 0.22756 -0.74247 0.010532
-0.19101 -0.020684 1.2679 1.0879e-38 480 238 0 0 0 0.64776 0.24314 -0.722 0.012162
-0.19526 -0.019181 1.2666 1.1801e-38 178 239 0 0 0 0.6315 0.22695 -0.74141 0.0096113
-0.19314 -0.019191 1.2673 1.1801e-38 179.5 239 0 0 0 0.64443 0.23509 -0.72763 0.011105
-0.19674 -0.016217 1.2666 1.2815e-38 402 239 0 0 0 0.63377 0.22906 -0.73883 0.0095217
-0.19526 -0.016958 1.2666 1.157e-38 373.5 239 0 0 0 0.63838 0.23195 -0.73394 0.010142
-0.19349 -0.017223 1.2679 1.1555e-38 365 239 0 0 0 0.65076 0.24152 -0.71985 0.011198
-0.19823 -0.014735 1.2666 1.0879e-38 460 239 0 0 0 0.63209 0.2254 -0.74139 0.0095184
-0.19674 -0.014735 1.2666 1.0787e-38 461 239 0 0 0 0.63519 0.22978 -0.73739 0.010037
-0.19526 -0.014735 1.2666 1.0049e-38 462 239 0 0 0 0.64368 0.23165 -0.72939 0.010847
-0.19823 -0.013253 1.2666 9.3118e-39 154 240 0 0 0 0.63358 0.23012 -0.73866 0.010016
-0.19674 -0.013253 1.2666 8.482e-39 155 240 0 0 0 0.63661 0.23358 -0.73497 0.010602
-0.19526 -0.013253 1.2666 7.4678e-39 156 240 0 0 0 0.64419 0.2344 -0.72806 0.01119
-0.19823 -0.011031 1.2666 1.1017e-38 298 240 0 0 0 0.63531 0.23553 -0.73546 0.010528
-0.19684 -0.011036 1.2673 1.1663e-38 299 240 0 0 0 0.64366 0.23469 -0.72844 0.010718
-0.19536 -0.011036 1.2673 1.1386e-38 300 240 0 0 0 0.6517 0.23648 -0.72067 0.011382
-0.19823 -0.0088078 1.2666 8.8508e-39 442 240 0 0 0 0.63324 0.23989 -0.73584 0.010184
-0.19695 -0.0088168 1.2679 9.5883e-39 443 240 0 0 0 0.64905 0.24376 -0.72063 0.010943
-0.19546 -0.0088168 1.2679 1.0234e-38 444 240 0 0 0 0.65463 0.24266 -0.71594 0.011203
-0.19897 -0.0073258 1.2666 9.6344e-39 500.5 240 0 0 0 0.6301 0.24617 -0.73646 0.0093665
-0.19695 -0.0073334 1.2679 9.3118e-39 502 240 0 0 0 0.64801 0.24788 -0.72016 0.010893
-0.19546 -0.0073334 1.2679 8.8508e-39 503 240 0 0 0 0.65737 0.25067 -0.71065 0.011482
-0.20415 -0.005103 1.2666 1.1156e-38 266 241 0 0 0 0.61747 0.25713 -0.74338 0.0080111
-0.20267 -0.004362 1.2666 1.1248e-38 351 241 0 0 0 0.61842 0.25875 -0.74203 0.0077646
-0.20119 -0.005103 1.2666 1.1156e-38 268 241 0 0 0 0.61728 0.25806 -0.74321 0.0077205
-0.19907 -0.0051056 1.2673 1.0625e-38 269.5 241 0 0 0 0.63122 0.2576 -0.73158 0.0095205
-0.19695 -0.0058499 1.2679 1.1156e-38 187 241 0 0 0 0.64598 0.2534 -0.72007 0.010688
-0.19546 -0.0058499 1.2679 1.1156e-38 188 241 0 0 0 0.65946 0.25073 -0.70869 0.011523
-0.20415 -0.0028801 1.2666 1.2815e-38 409 241 0 0 0 0.61462 0.26483 -0.74304 0.0076894
-0.20267 -0.0028801 1.2666 1.3461e-38 410 241 0 0 0 0.61552 0.2636 -0.74273 0.0076281
-0.20119 -0.0028801 1.2666 1.4198e-38 411 241 0 0 0 0.61626 0.263 -0.74233 0.0075309
-0.19971 -0.0028801 1.2666 1.4106e-38 412 241 0 0 0 0.61536 0.26329 -0.74297 0.0078735
-0.20415 -0.0013982 1.2666 1.0602e-38 466 241 0 0 0 0.61506 0.2658 -0.74233 0.0077365
-0.20267 -0.0013982 1.2666 9.8649e-39 467 241 0 0 0 0.61473 0.26491 -0.74292 0.0076897
-0.20119 -0.0013982 1.2666 9.2196e-39 468 241 0 0 0 0.61604 0.26665 -0.74121 0.0077139
-0.19991 -0.0013997 1.2679 9.404e-39 469 241 0 0 0 0.61904 0.2683 -0.73811 0.0088452
-0.20495 0.00082504 1.2669 1.0902e-38 183.5 242 0 0 0 0.61376 0.27048 -0.74171 0.0079212
-0.20288 0.00082549 1.2679 1.0603e-38 185 242 0 0 0 0.60985 0.27234 -0.74426 0.0076809
-0.2014 0.00082549 1.2679 1.0603e-38 186 242 0 0 0 0.61122 0.27174 -0.74335 0.0081796
-0.19991 0.00082549 1.2679 1.1063e-38 187 242 0 0 0 0.61817 0.27807 -0.73522 0.0093463
-0.205 0.003049 1.2673 1.1893e-38 379.5 242 0 0 0 0.6134 0.27066 -0.74194 0.0081675
-0.20288 0.0030506 1.2679 1.2539e-38 381 242 0 0 0 0.61079 0.2739 -0.74291 0.0080554
-0.2014 0.0030506 1.2679 1.1985e-38 382 242 0 0 0 0.60446 0.27698 -0.74694 0.008075
-0.205 0.0045317 1.2673 9.1735e-39 433.5 242 0 0 0 0.61064 0.27117 -0.74404 0.007938
-0.20288 0.0045341 1.2679 1.0234e-38 435 242 0 0 0 0.61013 0.27459 -0.7432 0.0081441
-0.2014 0.0045341 1.2679 1.0326e-38 436 242 0 0 0 0.60532 0.27583 -0.74667 0.0082796
-0.20712 0.0074932 1.2666 1.2354e-38 171 243 0 0 0 0.62187 0.2696 -0.73525 0.0087924
-0.205 0.0067557 1.2673 1.1409e-38 332.75 242.5 0 0 0 0.6086 0.27093 -0.74579 0.0077517
-0.20712 0.0089751 1.2666 9.5883e-39 342 243 0 0 0 0.622 0.26724 -0.73601 0.0087472
-0.20585 0.0089843 1.2679 9.7727e-39 343 243 0 0 0 0.6057 0.26846 -0.74903 0.0078208
-0.21082 0.011939 1.2666 9.2657e-39 430.5 243 0 0 0 0.63899 0.26667 -0.72151 0.010999
-0.2086 0.011939 1.2666 1.0418e-38 432 243 0 0 0 0.62185 0.26529 -0.73683 0.0093727
-0.20722 0.011204 1.2673 1.1847e-38 411 243 0 0 0 0.61332 0.26278 -0.74484 0.0082876
-0.20585 0.01121 1.2679 1.134e-38 412 243 0 0 0 0.60311 0.26438 -0.75257 0.0075148
-0.21304 0.013421 1.2666 1.0971e-38 471 243 0 0 0 0.65352 0.26735 -0.70812 0.012394
-0.21093 0.013428 1.2673 1.1755e-38 472.5 243 0 0 0 0.64048 0.26711 -0.72003 0.011562
-0.2086 0.013421 1.2666 1.1524e-38 474 243 0 0 0 0.62145 0.26397 -0.73764 0.0094875
-0.20733 0.013435 1.2679 1.1156e-38 475 243 0 0 0 0.60438 0.25587 -0.75449 0.007942
-0.21304 0.014903 1.2666 5.5317e-39 143 244 0 0 0 0.66442 0.2692 -0.6972 0.01292
-0.21093 0.014911 1.2673 6.3615e-39 144.5 244 0 0 0 0.63891 0.26852 -0.72089 0.012074
-0.20881 0.014918 1.2679 7.0069e-39 146 244 0 0 0 0.61317 0.26542 -0.74403 0.0091847
-0.21304 0.017126 1.2666 1.0879e-38 260.5 244 0 0 0 0.67308 0.27798 -0.68534 0.013882
-0.21156 0.016385 1.2666 1.2631e-38 182 244 0 0 0 0.65079 0.2757 -0.70743 0.013104
-0.17487 -0.059314 1.2692 1.0234e-38 478 231 0 0 0 0.56749 0.29913 -0.76712 0.014569
-0.17784 -0.056344 1.2692 9.4961e-39 351 232 0 0 0 0.57209 0.26098 -0.77756 0.011669
-0.17487 -0.057829 1.2692 1.1524e-38 195 232 0 0 0 0.57541 0.28923 -0.76502 0.01412
-0.17784 -0.054859 1.2692 1.2262e-38 417 232 0 0 0 0.57517 0.25836 -0.77616 0.011223
-0.1771 -0.053374 1.2692 9.9109e-39 484.5 232 0 0 0 0.58184 0.25656 -0.77178 0.011148
-0.1823 -0.050405 1.2692 1.0049e-38 378 233 0 0 0 0.57579 0.24274 -0.78073 0.0080871
-0.18081 -0.050405 1.2692 9.8649e-39 379 233 0 0 0 0.58138 0.24508 -0.77584 0.00857
-0.17933 -0.050405 1.2692 1.0049e-38 380 233 0 0 0 0.58887 0.253 -0.76761 0.0094114
-0.1771 -0.051889 1.2692 9.5884e-39 215.5 233 0 0 0 0.58766 0.25935 -0.76642 0.010912
-0.1823 -0.04892 1.2692 9.6805e-39 446 233 0 0 0 0.57924 0.24726 -0.77675 0.0079996
-0.18081 -0.04892 1.2692 9.5883e-39 447 233 0 0 0 0.58423 0.25351 -0.77098 0.008314
-0.17933 -0.04892 1.2692 9.8649e-39 448 233 0 0 0 0.58923 0.25637 -0.76621 0.0089129
-0.18378 -0.045208 1.2692 1.0326e-38 372 234 0 0 0 0.58223 0.25666 -0.77145 0.007501
-0.18378 -0.04298 1.2692 1.0234e-38 476 234 0 0 0 0.58776 0.25399 -0.76813 0.0075559
-0.18378 -0.041495 1.2692 9.7727e-39 198 235 0 0 0 0.59506 0.25607 -0.7618 0.007733
-0.18527 -0.03704 1.2692 5.6239e-39 509 235 0 0 0 0.60812 0.25067 -0.75323 0.0080684
-0.18675 -0.03407 1.2692 1.3092e-38 400 236 0 0 0 0.61318 0.25558 -0.74745 0.0088029
-0.18527 -0.034813 1.2692 1.1294e-38 314.5 236 0 0 0 0.61853 0.25845 -0.74204 0.0088641
-0.18675 -0.032585 1.2692 1.0602e-38 470 236 0 0 0 0.61817 0.2541 -0.74384 0.0092473
-0.18824 -0.02516 1.2692 1.0326e-38 194 238 0 0 0 0.64585 0.26189 -0.71714 0.012591
-0.18923 -0.02318 1.2692 1.1371e-38 381.33 238 0 0 0 0.65264 0.25509 -0.71343 0.01275
-0.18972 -0.020705 1.2692 1.0142e-38 481 238 0 0 0 0.66389 0.25823 -0.70183 0.012561
-0.19121 -0.019221 1.2692 1.1709e-38 181 239 0 0 0 0.66621 0.25071 -0.70236 0.012218
-0.19269 -0.016251 1.2692 1.3553e-38 405 239 0 0 0 0.66835 0.2469 -0.70167 0.011757
-0.19121 -0.017736 1.2692 9.6805e-39 347 239 0 0 0 0.67129 0.25392 -0.69634 0.012107
-0.19418 -0.014766 1.2692 9.4961e-39 463 239 0 0 0 0.6643 0.23893 -0.70825 0.012092
-0.19269 -0.014766 1.2692 9.6805e-39 464 239 0 0 0 0.67361 0.24361 -0.69778 0.011824
-0.19418 -0.013281 1.2692 7.56e-39 157 240 0 0 0 0.66834 0.24034 -0.70396 0.012008
-0.19269 -0.013281 1.2692 8.482e-39 158 240 0 0 0 0.67712 0.24194 -0.69496 0.012364
-0.19418 -0.011054 1.2692 1.1248e-38 301 240 0 0 0 0.67279 0.24376 -0.69853 0.012105
-0.19269 -0.011054 1.2692 1.1478e-38 302 240 0 0 0 0.68338 0.24444 -0.68793 0.012087
-0.19418 -0.0088259 1.2692 1.0049e-38 445 240 0 0 0 0.67326 0.24944 -0.69606 0.011835
-0.19418 -0.0073409 1.2692 7.0991e-39 504 240 0 0 0 0.67627 0.25177 -0.69229 0.011784
-0.19715 -0.004371 1.2692 1.0049e-38 355 241 0 0 0 0.65329 0.25817 -0.71173 0.01135
-0.19492 -0.0051135 1.2692 1.0833e-38 272.5 241 0 0 0 0.6702 0.25405 -0.69734 0.012235
-0.19863 -0.002886 1.2692 1.3276e-38 413 241 0 0 0 0.64174 0.26344 -0.72026 0.010944
-0.19863 -0.0014011 1.2692 9.8649e-39 470 241 0 0 0 0.63917 0.2682 -0.72078 0.010708
-0.19863 0.00082633 1.2692 1.134e-38 188 242 0 0 0 0.62693 0.27715 -0.72812 0.010814
-0.20012 0.0030538 1.2692 1.2631e-38 383 242 0 0 0 0.61526 0.28285 -0.73583 0.010091
-0.19863 0.0030538 1.2692 1.3461e-38 384 242 0 0 0 0.62395 0.2857 -0.72736 0.011385
-0.20012 0.0045387 1.2692 9.5883e-39 437 242 0 0 0 0.6168 0.28574 -0.73342 0.010295
-0.19863 0.0045387 1.2692 9.3118e-39 438 242 0 0 0 0.62062 0.29094 -0.72814 0.011092
-0.20309 0.0067661 1.2692 1.134e-38 334.5 242.5 0 0 0 0.60682 0.27512 -0.74571 0.0084506
-0.20111 0.0065187 1.2692 1.0971e-38 389.33 242.33 0 0 0 0.61095 0.28533 -0.73847 0.0095764
-0.20457 0.0089936 1.2692 9.7727e-39 344 243 0 0 0 0.60601 0.27095 -0.74789 0.0078116
-0.20457 0.011221 1.2692 1.1709e-38 413 243 0 0 0 0.60118 0.26816 -0.75278 0.0074875
-0.20606 0.013448 1.2692 1.0971e-38 476 243 0 0 0 0.60041 0.2616 -0.7557 0.0074835
-0.20457 0.013448 1.2692 1.0787e-38 477 243 0 0 0 0.596 0.26411 -0.75831 0.0071396
-0.17505 -0.056402 1.2705 1.0879e-38 353 232 0 0 0 0.58249 0.27582 -0.76461 0.013218
-0.17291 -0.057175 1.2712 1.1709e-38 275.5 232 0 0 0 0.5847 0.29654 -0.75511 0.013993
-0.17068 -0.057175 1.2712 1.1202e-38 277 232 0 0 0 0.59384 0.31499 -0.74036 0.015399
-0.17505 -0.054916 1.2705 1.217e-38 419 232 0 0 0 0.58803 0.27647 -0.76012 0.013047
-0.17292 -0.054944 1.2712 1.217e-38 420.5 232 0 0 0 0.59767 0.28846 -0.74805 0.013836
-0.17077 -0.054972 1.2719 1.1709e-38 422 232 0 0 0 0.60773 0.29679 -0.7366 0.014649
-0.17505 -0.053429 1.2705 9.6805e-39 486 232 0 0 0 0.59483 0.27166 -0.75656 0.012375
-0.17292 -0.053457 1.2712 1.0141e-38 487.5 232 0 0 0 0.60182 0.28119 -0.74749 0.012796
-0.17077 -0.053484 1.2719 9.8649e-39 489 232 0 0 0 0.61691 0.28791 -0.73248 0.014126
-0.17803 -0.050456 1.2705 1.0234e-38 381 233 0 0 0 0.59248 0.25914 -0.76277 0.0099289
-0.17654 -0.050456 1.2705 1.0879e-38 382 233 0 0 0 0.5967 0.26553 -0.75726 0.01035
-0.17514 -0.051225 1.2712 1.0418e-38 300 233 0 0 0 0.60069 0.26978 -0.75259 0.01126
-0.17357 -0.051943 1.2705 8.7586e-39 218 233 0 0 0 0.60085 0.2749 -0.75061 0.012032
-0.17803 -0.04897 1.2705 9.8649e-39 449 233 0 0 0 0.59456 0.26457 -0.75927 0.009395
-0.17672 -0.04902 1.2719 9.9571e-39 450 233 0 0 0 0.60262 0.27366 -0.74964 0.0097683
-0.18249 -0.047483 1.2705 1.4936e-38 171 234 0 0 0 0.58373 0.25408 -0.77117 0.0078968
-0.181 -0.047483 1.2705 1.1709e-38 172 234 0 0 0 0.59035 0.26252 -0.76326 0.0082288
-0.17864 -0.04702 1.2714 8.6357e-39 229.33 234 0 0 0 0.59735 0.27499 -0.75336 0.0087232
-0.17672 -0.047532 1.2719 7.0991e-39 175 234 0 0 0 0.60267 0.27664 -0.74851 0.0092103
-0.18249 -0.045254 1.2705 1.0418e-38 373 234 0 0 0 0.5909 0.26381 -0.76239 0.0080957
-0.181 -0.045254 1.2705 1.0649e-38 374 234 0 0 0 0.59514 0.27073 -0.75665 0.0080983
-0.17908 -0.045021 1.271 1.2047e-38 387 234 0 0 0 0.6019 0.27692 -0.74902 0.0085871
-0.17672 -0.044556 1.2719 1.4014e-38 412 234 0 0 0 0.6094 0.29139 -0.73738 0.0087269
-0.18249 -0.043024 1.2705 1.0602e-38 477 234 0 0 0 0.59836 0.26782 -0.75514 0.0082439
-0.181 -0.043024 1.2705 1.0326e-38 478 234 0 0 0 0.6027 0.27453 -0.74926 0.008579
-0.17886 -0.043046 1.2712 9.8188e-39 479.5 234 0 0 0 0.60959 0.28398 -0.74011 0.0084925
-0.18298 -0.040547 1.2705 1.091e-38 313.33 235 0 0 0 0.60723 0.26656 -0.74848 0.0083343
-0.181 -0.040794 1.2705 1.0649e-38 286 235 0 0 0 0.61121 0.27837 -0.7409 0.0084842
-0.17951 -0.040794 1.2705 1.0649e-38 287 235 0 0 0 0.61578 0.28279 -0.73542 0.0085478
-0.18323 -0.038565 1.2705 1.0049e-38 440.5 235 0 0 0 0.61527 0.26835 -0.74124 0.0085108
-0.181 -0.038565 1.2705 9.0352e-39 442 235 0 0 0 0.62363 0.27728 -0.7309 0.008763
-0.17951 -0.038565 1.2705 8.6664e-39 443 235 0 0 0 0.6287 0.28678 -0.72283 0.0083627
-0.18332 -0.037097 1.2712 2.1943e-38 159.5 236 0 0 0 0.62832 0.27217 -0.72879 0.0086732
-0.181 -0.037078 1.2705 1.8347e-38 161 236 0 0 0 0.63147 0.27944 -0.7233 0.0085876
-0.1797 -0.037116 1.2719 1.8347e-38 162 236 0 0 0 0.63559 0.29194 -0.7147 0.0080582
-0.18332 -0.034866 1.2712 1.0441e-38 342.25 236 0 0 0 0.63942 0.27716 -0.71717 0.0086537
-0.1811 -0.034866 1.2712 1.0003e-38 370 236 0 0 0 0.64391 0.28852 -0.70861 0.0082805
-0.1797 -0.035628 1.2719 8.021e-39 337 236 0 0 0 0.6435 0.29697 -0.70549 0.0080862
-0.18481 -0.032636 1.2712 9.819e-39 471.5 236 0 0 0 0.64219 0.27604 -0.71512 0.0091953
-0.18695 -0.031132 1.2705 1.134e-38 184 237 0 0 0 0.63372 0.26941 -0.72513 0.010209
-0.18546 -0.031132 1.2705 1.1156e-38 185 237 0 0 0 0.64237 0.27387 -0.71579 0.0099439
-0.18695 -0.028903 1.2705 1.0234e-38 389 237 0 0 0 0.64571 0.2756 -0.71211 0.011104
-0.18565 -0.028932 1.2719 9.9108e-39 390 237 0 0 0 0.65673 0.28525 -0.6981 0.010462
-0.18695 -0.026673 1.2705 9.6805e-39 487 237 0 0 0 0.65362 0.27372 -0.70559 0.011765
-0.18565 -0.0267 1.2719 1.0326e-38 488 237 0 0 0 0.66788 0.28971 -0.68557 0.010791
-0.18714 -0.025212 1.2719 1.0049e-38 195 238 0 0 0 0.66793 0.28314 -0.68827 0.011466
-0.18843 -0.022213 1.2705 1.0971e-38 422 238 0 0 0 0.66767 0.26996 -0.69379 0.012521
-0.18714 -0.023724 1.2719 1.0787e-38 363 238 0 0 0 0.67319 0.28078 -0.68409 0.011703
-0.18843 -0.020727 1.2705 9.7727e-39 482 238 0 0 0 0.67439 0.27024 -0.68715 0.012514
-0.18927 -0.01925 1.2712 1.1662e-38 182.5 239 0 0 0 0.68524 0.26634 -0.67788 0.011851
-0.19076 -0.017019 1.2712 1.1479e-38 377 239 0 0 0 0.68718 0.2613 -0.67787 0.011839
-0.19141 -0.014781 1.2705 1.0234e-38 465 239 0 0 0 0.68785 0.25253 -0.6805 0.011732
-0.19141 -0.013294 1.2705 9.8649e-39 159 240 0 0 0 0.69108 0.25118 -0.67772 0.011739
-0.19141 -0.011064 1.2705 1.1893e-38 303 240 0 0 0 0.70081 0.24983 -0.66817 0.011631
-0.19289 -0.0088349 1.2705 9.7727e-39 446 240 0 0 0 0.69297 0.2524 -0.67534 0.01124
-0.19141 -0.0088349 1.2705 9.1274e-39 447 240 0 0 0 0.70372 0.25326 -0.66381 0.011078
-0.19289 -0.0073485 1.2705 4.4254e-39 505 240 0 0 0 0.69559 0.25371 -0.67215 0.01117
-0.1916 -0.007356 1.2719 3.5956e-39 506 240 0 0 0 0.70791 0.25748 -0.6577 0.011077
-0.19458 -0.00438 1.2719 1.0971e-38 357 241 0 0 0 0.69099 0.25854 -0.67505 0.011829
-0.19289 -0.005862 1.2705 1.0602e-38 190 241 0 0 0 0.6955 0.25782 -0.67068 0.011349
-0.19735 -0.002889 1.2705 1.2262e-38 414 241 0 0 0 0.65939 0.26077 -0.70512 0.012042
-0.19522 -0.0028905 1.2712 1.1985e-38 415.5 241 0 0 0 0.68259 0.25773 -0.68384 0.012288
-0.19735 -0.0014025 1.2705 1.0787e-38 471 241 0 0 0 0.65463 0.26626 -0.70751 0.012285
-0.19586 -0.0014025 1.2705 1.1248e-38 472 241 0 0 0 0.6684 0.26358 -0.69553 0.012505
-0.19671 0.00082759 1.2712 1.1064e-38 189.5 242 0 0 0 0.66206 0.27362 -0.69772 0.012859
-0.19671 0.0030585 1.2712 1.3092e-38 385.5 242 0 0 0 0.65287 0.29216 -0.69886 0.013027
-0.19671 0.0045458 1.2712 9.4961e-39 439.5 242 0 0 0 0.64964 0.30003 -0.69853 0.013149
-0.20032 0.0075163 1.2705 1.1156e-38 176 243 0 0 0 0.61461 0.29456 -0.73177 0.010844
-0.19894 0.006777 1.2712 1.1017e-38 337.5 242.5 0 0 0 0.62721 0.30196 -0.71794 0.012479
-0.19745 0.006777 1.2712 1.0833e-38 338.5 242.5 0 0 0 0.63256 0.30623 -0.7114 0.013389
-0.2033 0.0090028 1.2705 9.4961e-39 345 243 0 0 0 0.60888 0.27498 -0.74408 0.0088636
-0.20107 0.0090028 1.2705 9.3118e-39 346.5 243 0 0 0 0.61303 0.28581 -0.73655 0.0099306
-0.2033 0.011232 1.2705 1.24e-38 414 243 0 0 0 0.60465 0.27173 -0.7487 0.007771
-0.20117 0.010495 1.2712 1.4936e-38 393.5 243 0 0 0 0.61008 0.28337 -0.73994 0.0096624
-0.16946 -0.058008 1.2732 1.1248e-38 199 232 0 0 0 0.59171 0.33703 -0.73232 0.014846
-0.16946 -0.056519 1.2732 9.8649e-39 357 232 0 0 0 0.60126 0.31853 -0.73282 0.014601
-0.16946 -0.055029 1.2732 1.2078e-38 423 232 0 0 0 0.60995 0.30677 -0.73066 0.014151
-0.17244 -0.05205 1.2732 9.4961e-39 219 233 0 0 0 0.61282 0.28284 -0.73787 0.012191
-0.17095 -0.05205 1.2732 1.0142e-38 220 233 0 0 0 0.61866 0.28639 -0.7316 0.01265
-0.16946 -0.05354 1.2732 9.5883e-39 490 232 0 0 0 0.61327 0.29728 -0.73179 0.013523
-0.17393 -0.05056 1.2732 1.1709e-38 384 233 0 0 0 0.61007 0.27806 -0.74195 0.011028
-0.17541 -0.049071 1.2732 9.2196e-39 451 233 0 0 0 0.60721 0.28202 -0.74281 0.010067
-0.17393 -0.049071 1.2732 8.7586e-39 452 233 0 0 0 0.61087 0.28187 -0.73985 0.010326
-0.1769 -0.046092 1.2732 9.5883e-39 342 234 0 0 0 0.60794 0.29393 -0.73758 0.0090625
-0.17541 -0.047581 1.2732 7.0069e-39 176 234 0 0 0 0.60975 0.28639 -0.73905 0.0095177
-0.17541 -0.044602 1.2732 1.3645e-38 413 234 0 0 0 0.61408 0.30003 -0.72999 0.0089169
-0.1769 -0.043113 1.2732 9.9571e-39 481 234 0 0 0 0.61568 0.29718 -0.72981 0.0084796
-0.17839 -0.040879 1.2732 1.0833e-38 288 235 0 0 0 0.6209 0.29658 -0.72562 0.0079876
-0.1769 -0.041623 1.2732 1.051e-38 203 235 0 0 0 0.62126 0.30013 -0.72385 0.0081068
-0.17839 -0.038644 1.2732 9.3118e-39 444 235 0 0 0 0.62839 0.30104 -0.71728 0.0078413
-0.17839 -0.037155 1.2732 1.7609e-38 163 236 0 0 0 0.63494 0.30321 -0.71058 0.0080182
-0.17988 -0.034175 1.2732 1.217e-38 405 236 0 0 0 0.65114 0.30406 -0.69539 0.0078626
-0.18286 -0.032686 1.2732 9.4961e-39 473 236 0 0 0 0.65267 0.29295 -0.69871 0.0082962
-0.18137 -0.032686 1.2732 9.404e-39 474 236 0 0 0 0.65538 0.30045 -0.69297 0.0078415
-0.18435 -0.031196 1.2732 1.0971e-38 186 237 0 0 0 0.6585 0.29234 -0.69348 0.0088563
-0.18435 -0.029707 1.2732 9.3118e-39 358 237 0 0 0 0.66603 0.29827 -0.68369 0.0088799
-0.18584 -0.025238 1.2732 9.8649e-39 196 238 0 0 0 0.67826 0.29543 -0.67282 0.010427
-0.18733 -0.022259 1.2732 1.1248e-38 423 238 0 0 0 0.68743 0.28468 -0.66813 0.011309
-0.18584 -0.023749 1.2732 9.9571e-39 364 238 0 0 0 0.68696 0.2925 -0.66523 0.010413
-0.19031 -0.016301 1.2732 1.3e-38 407 239 0 0 0 0.70113 0.26423 -0.66227 0.011111
-0.18882 -0.01779 1.2732 9.7727e-39 349 239 0 0 0 0.69955 0.2715 -0.661 0.010861
-0.19031 -0.014811 1.2732 1.051e-38 466 239 0 0 0 0.7066 0.26427 -0.65641 0.010714
-0.19031 -0.013322 1.2732 1.0787e-38 160 240 0 0 0 0.70953 0.26029 -0.65485 0.010582
-0.19031 -0.011087 1.2732 1.1847e-38 304 240 0 0 0 0.71606 0.2558 -0.64948 0.010337
-0.19329 -0.0043845 1.2732 1.1709e-38 358 241 0 0 0 0.70509 0.25424 -0.66197 0.011393
-0.1918 -0.0058741 1.2732 1.0234e-38 191 241 0 0 0 0.71307 0.25332 -0.65373 0.011147
-0.19478 -0.0014054 1.2732 1.1063e-38 473 241 0 0 0 0.69299 0.25881 -0.67289 0.012267
-0.19478 0.00082891 1.2732 1.1202e-38 191 242 0 0 0 0.69125 0.26657 -0.67165 0.012306
-0.19478 0.0030632 1.2732 1.3461e-38 387 242 0 0 0 0.68648 0.28099 -0.67066 0.012945
-0.19627 0.0060423 1.2732 9.7727e-39 500 242 0 0 0 0.66403 0.30417 -0.68304 0.01408
-0.19925 0.0090214 1.2732 9.3118e-39 348 243 0 0 0 0.63023 0.31493 -0.70967 0.01357
-0.19776 0.0090214 1.2732 9.7727e-39 349 243 0 0 0 0.63882 0.32099 -0.6992 0.014052
-0.16981 -0.052158 1.2758 9.8649e-39 221 233 0 0 0 0.62656 0.29052 -0.7232 0.012159
-0.17261 -0.050613 1.2745 1.0787e-38 385 233 0 0 0 0.61662 0.28438 -0.73411 0.011457
-0.1713 -0.050665 1.2758 1.0695e-38 386 233 0 0 0 0.6203 0.29203 -0.72797 0.011695
-0.17279 -0.049172 1.2758 8.6664e-39 453 233 0 0 0 0.62177 0.29791 -0.72433 0.010921
-0.17485 -0.046884 1.2745 8.8971e-39 260 234 0 0 0 0.61408 0.29655 -0.73141 0.0094856
-0.17428 -0.044694 1.2758 1.2815e-38 414 234 0 0 0 0.623 0.31028 -0.71805 0.0088411
-0.1756 -0.043157 1.2745 1.0326e-38 482 234 0 0 0 0.62117 0.30958 -0.71993 0.0084355
-0.17709 -0.040175 1.2745 1.1985e-38 375 235 0 0 0 0.62926 0.30945 -0.71293 0.0079875
-0.17569 -0.040941 1.2752 1.1202e-38 290 235 0 0 0 0.62868 0.31202 -0.71233 0.0079562
-0.17709 -0.038684 1.2745 1.0326e-38 445 235 0 0 0 0.6339 0.3114 -0.70795 0.0079397
-0.17578 -0.038724 1.2758 1.0602e-38 446 235 0 0 0 0.63901 0.31878 -0.70003 0.0078147
-0.17709 -0.037193 1.2745 1.4567e-38 164 236 0 0 0 0.64226 0.31413 -0.69916 0.0077836
-0.17858 -0.034956 1.2745 1.0372e-38 372 236 0 0 0 0.65098 0.31483 -0.69074 0.0076262
-0.17727 -0.035739 1.2758 8.7586e-39 339 236 0 0 0 0.65066 0.32486 -0.68638 0.0078046
-0.18007 -0.03272 1.2745 9.5883e-39 475 236 0 0 0 0.66355 0.31039 -0.68071 0.0074208
-0.18305 -0.031229 1.2745 1.1432e-38 187 237 0 0 0 0.6649 0.30589 -0.68143 0.0081795
-0.18156 -0.031229 1.2745 1.1524e-38 188 237 0 0 0 0.66527 0.31169 -0.67843 0.0075098
-0.18454 -0.028246 1.2745 1.1063e-38 424 237 0 0 0 0.67526 0.3074 -0.67047 0.0089497
-0.18324 -0.029768 1.2758 9.404e-39 359 237 0 0 0 0.67544 0.31929 -0.66471 0.0075086
-0.18175 -0.029768 1.2758 9.8649e-39 360 237 0 0 0 0.67801 0.32562 -0.659 0.0072899
-0.18454 -0.026755 1.2745 1.0602e-38 489 237 0 0 0 0.68336 0.30821 -0.66183 0.0088569
-0.18454 -0.025264 1.2745 9.3118e-39 197 238 0 0 0 0.69238 0.30967 -0.6517 0.0087614
-0.18623 -0.022305 1.2758 1.1801e-38 424 238 0 0 0 0.70468 0.30468 -0.64077 0.0090433
-0.18473 -0.023798 1.2758 1.0142e-38 365 238 0 0 0 0.7053 0.31543 -0.63487 0.0078889
-0.18752 -0.020791 1.2745 9.7727e-39 483 238 0 0 0 0.7014 0.29214 -0.65015 0.010388
-0.18772 -0.01932 1.2758 1.2262e-38 184 239 0 0 0 0.71382 0.29282 -0.63618 0.0090713
-0.18902 -0.016318 1.2745 1.2539e-38 408 239 0 0 0 0.71506 0.27324 -0.64345 0.0093343
-0.18902 -0.014827 1.2745 9.6805e-39 467 239 0 0 0 0.71875 0.27225 -0.63975 0.0093785
-0.18921 -0.013349 1.2758 1.0602e-38 161 240 0 0 0 0.73246 0.26727 -0.62615 0.0085472
-0.18921 -0.01111 1.2758 1.1663e-38 305 240 0 0 0 0.73634 0.26272 -0.62353 0.0087975
-0.19051 -0.0088623 1.2745 8.8508e-39 448 240 0 0 0 0.72602 0.25596 -0.63826 0.010276
-0.19051 -0.0073712 1.2745 3.6878e-39 507 240 0 0 0 0.72726 0.25675 -0.63654 0.010308
-0.1922 -0.0043936 1.2758 1.0142e-38 361 241 0 0 0 0.72616 0.25146 -0.6399 0.010588
-0.1907 -0.0058862 1.2758 9.8649e-39 192 241 0 0 0 0.73532 0.2529 -0.62877 0.010033
-0.19349 -0.002898 1.2745 1.2539e-38 417 241 0 0 0 0.71185 0.2564 -0.65386 0.011255
-0.19369 -0.0014083 1.2758 1.0418e-38 474 241 0 0 0 0.71703 0.25513 -0.64867 0.011253
-0.19369 0.0008306 1.2758 1.1202e-38 192 242 0 0 0 0.71478 0.26365 -0.64775 0.01154
-0.19369 0.0030695 1.2758 1.3922e-38 388 242 0 0 0 0.71219 0.27767 -0.64473 0.0119
-0.19498 0.0045575 1.2745 9.404e-39 441 242 0 0 0 0.69028 0.29337 -0.6614 0.013093
-0.19369 0.0045622 1.2758 9.5883e-39 442 242 0 0 0 0.71151 0.2862 -0.64175 0.011637
-0.19647 0.0075396 1.2745 1.1893e-38 179 243 0 0 0 0.66921 0.32075 -0.67029 0.01359
-0.19498 0.0060485 1.2745 9.4961e-39 501 242 0 0 0 0.68909 0.30269 -0.65843 0.01314
-0.19667 0.00904 1.2758 1.051e-38 350 243 0 0 0 0.6758 0.33376 -0.65719 0.013685
-0.16849 -0.0552 1.2771 1.2354e-38 424 232 0 0 0 0.61545 0.32445 -0.7183 0.012917
-0.16849 -0.053706 1.2771 9.3118e-39 491 232 0 0 0 0.62451 0.30523 -0.71891 0.013046
-0.17148 -0.049223 1.2771 9.0352e-39 454 233 0 0 0 0.62256 0.30093 -0.7224 0.011198
-0.17447 -0.046235 1.2771 1.134e-38 344 234 0 0 0 0.62151 0.30627 -0.72106 0.0094976
-0.17297 -0.047729 1.2771 8.5742e-39 178 234 0 0 0 0.62164 0.30486 -0.72154 0.010396
-0.17297 -0.044741 1.2771 1.2446e-38 415 234 0 0 0 0.62707 0.31747 -0.71133 0.0091342
-0.17447 -0.043246 1.2771 1.0602e-38 483 234 0 0 0 0.62656 0.31968 -0.7108 0.008311
-0.17596 -0.03727 1.2771 1.134e-38 165 236 0 0 0 0.64469 0.3321 -0.68854 0.0076226
-0.17745 -0.034281 1.2771 1.217e-38 407 236 0 0 0 0.65732 0.33092 -0.67707 0.0076136
-0.17596 -0.035776 1.2771 8.8508e-39 340 236 0 0 0 0.65341 0.33244 -0.6801 0.0075809
-0.17895 -0.032787 1.2771 1.0049e-38 476 236 0 0 0 0.66443 0.32923 -0.67092 0.0075085
-0.18044 -0.031293 1.2771 1.1156e-38 189 237 0 0 0 0.6697 0.33534 -0.66261 0.007247
-0.18343 -0.028305 1.2771 1.1248e-38 425 237 0 0 0 0.68751 0.3297 -0.64702 0.0069921
-0.18194 -0.028305 1.2771 1.0879e-38 426 237 0 0 0 0.68771 0.33862 -0.64217 0.0064812
-0.18343 -0.026811 1.2771 1.0418e-38 490 237 0 0 0 0.69909 0.33028 -0.63419 0.0065599
-0.18194 -0.026811 1.2771 1.051e-38 491 237 0 0 0 0.69457 0.33753 -0.63534 0.0065369
-0.18492 -0.022328 1.2771 1.1617e-38 425 238 0 0 0 0.71709 0.31543 -0.62152 0.0074529
-0.18642 -0.020834 1.2771 9.6805e-39 484 238 0 0 0 0.72306 0.30677 -0.61894 0.0078737
-0.18791 -0.017846 1.2771 1.0695e-38 350 239 0 0 0 0.73242 0.29035 -0.61583 0.0073764
-0.18941 -0.0088806 1.2771 9.2196e-39 449 240 0 0 0 0.74491 0.26176 -0.61367 0.0088298
-0.18941 -0.0073865 1.2771 4.0566e-39 508 240 0 0 0 0.74897 0.25672 -0.61085 0.0086415
-0.1924 -0.002904 1.2771 1.2815e-38 418 241 0 0 0 0.73248 0.25315 -0.63197 0.01047
-0.1924 -0.0014098 1.2771 9.9571e-39 475 241 0 0 0 0.73153 0.25474 -0.63243 0.010713
-0.1924 0.00083144 1.2771 1.1248e-38 193 242 0 0 0 0.73132 0.26257 -0.62946 0.010575
-0.19538 0.0075552 1.2771 1.2539e-38 180 243 0 0 0 0.70295 0.31758 -0.6364 0.011969
-0.19389 0.006061 1.2771 9.4961e-39 502 242 0 0 0 0.71734 0.30294 -0.62741 0.0114
-0.16866 -0.056753 1.2784 9.6805e-39 358 232 0 0 0 0.60774 0.3345 -0.72025 0.014078
-0.16717 -0.055257 1.2784 1.1801e-38 425 232 0 0 0 0.6098 0.33062 -0.7203 0.013174
-0.16866 -0.052265 1.2784 9.3118e-39 222 233 0 0 0 0.63013 0.30452 -0.71428 0.012354
-0.16725 -0.053041 1.2791 9.3578e-39 357.5 232.5 0 0 0 0.62215 0.3174 -0.71567 0.012276
-0.16576 -0.053041 1.2791 9.4961e-39 358.5 232.5 0 0 0 0.62153 0.3292 -0.71086 0.011914
-0.17033 -0.050822 1.2798 1.1248e-38 387 233 0 0 0 0.63323 0.30242 -0.71244 0.011694
-0.17033 -0.049325 1.2798 9.4961e-39 455 233 0 0 0 0.63608 0.30689 -0.70797 0.011133
-0.17315 -0.046283 1.2784 1.1709e-38 345 234 0 0 0 0.62524 0.31447 -0.71427 0.0096919
-0.17104 -0.047067 1.2794 1.1063e-38 263 234 0 0 0 0.63682 0.31454 -0.70394 0.010088
-0.17108 -0.044833 1.2798 1.3138e-38 416.5 234 0 0 0 0.63457 0.32571 -0.70088 0.0093047
-0.17315 -0.043291 1.2784 1.0326e-38 484 234 0 0 0 0.63061 0.32554 -0.70453 0.008592
-0.17183 -0.043336 1.2798 9.7727e-39 485 234 0 0 0 0.63365 0.33207 -0.69873 0.0085812
-0.17474 -0.041069 1.2791 1.051e-38 291 235 0 0 0 0.63486 0.33053 -0.69836 0.0081423
-0.17324 -0.041069 1.2791 1.0142e-38 292 235 0 0 0 0.63714 0.33136 -0.69588 0.0080353
-0.17465 -0.038804 1.2784 1.0326e-38 447 235 0 0 0 0.64249 0.33272 -0.69029 0.0078184
-0.17483 -0.037347 1.2798 9.3118e-39 166 236 0 0 0 0.64939 0.34368 -0.67836 0.0075617
-0.17614 -0.034317 1.2784 1.217e-38 408 236 0 0 0 0.65948 0.33616 -0.67237 0.0074992
-0.17698 -0.032838 1.2791 1.0694e-38 477.5 236 0 0 0 0.66448 0.34366 -0.66361 0.0072572
-0.17913 -0.031326 1.2784 1.0971e-38 190 237 0 0 0 0.66975 0.34353 -0.65835 0.0070147
-0.17782 -0.031358 1.2798 1.0695e-38 191 237 0 0 0 0.66909 0.35458 -0.65314 0.0069121
-0.18073 -0.029096 1.2791 1.0787e-38 394 237 0 0 0 0.68769 0.34926 -0.63648 0.0060592
-0.17932 -0.029112 1.2798 1.1294e-38 395 237 0 0 0 0.68193 0.35753 -0.63808 0.0064516
-0.18082 -0.026866 1.2798 1.0049e-38 492 237 0 0 0 0.70126 0.35776 -0.61664 0.0053916
-0.18287 -0.025343 1.2784 9.2196e-39 198.5 238 0 0 0 0.70863 0.33898 -0.61882 0.0057157
-0.18325 -0.023364 1.2793 1.1248e-38 386.33 238 0 0 0 0.72405 0.33623 -0.60225 0.0055775
-0.18512 -0.020856 1.2784 9.4961e-39 485 238 0 0 0 0.73013 0.31971 -0.6039 0.0062883
-0.18661 -0.01936 1.2784 1.1709e-38 185 239 0 0 0 0.73529 0.30382 -0.60584 0.006547
-0.18512 -0.01936 1.2784 1.134e-38 186 239 0 0 0 0.73751 0.31361 -0.5981 0.0060987
-0.18811 -0.016368 1.2784 1.2723e-38 409 239 0 0 0 0.74419 0.28713 -0.60311 0.0062299
-0.1868 -0.017134 1.2798 1.2447e-38 380.5 239 0 0 0 0.75219 0.29853 -0.58744 0.0054295
-0.18531 -0.017883 1.2798 1.1801e-38 352 239 0 0 0 0.74976 0.30901 -0.58513 0.0053583
-0.18811 -0.014873 1.2784 9.2196e-39 468 239 0 0 0 0.74889 0.28053 -0.60039 0.0061466
-0.1883 -0.013391 1.2798 1.0602e-38 162 240 0 0 0 0.76309 0.27747 -0.58369 0.0053467
-0.1883 -0.011145 1.2798 1.1755e-38 306 240 0 0 0 0.76949 0.26859 -0.57943 0.0054281
-0.1883 -0.008899 1.2798 9.8649e-39 450 240 0 0 0 0.77379 0.25934 -0.57792 0.0056958
-0.1883 -0.0074018 1.2798 4.6098e-39 509 240 0 0 0 0.77474 0.25462 -0.57875 0.0058982
-0.1911 -0.0044027 1.2784 1.051e-38 362 241 0 0 0 0.7433 0.2534 -0.6191 0.0096518
-0.1897 -0.0051528 1.2791 1.028e-38 278 241 0 0 0 0.75992 0.25294 -0.59878 0.0076781
-0.1913 -0.00291 1.2798 1.2631e-38 419 241 0 0 0 0.75557 0.24928 -0.60578 0.0084073
-0.1913 -0.0014127 1.2798 1.0049e-38 476 241 0 0 0 0.75444 0.25613 -0.60433 0.0086829
-0.1913 0.00083318 1.2798 1.1479e-38 194 242 0 0 0 0.75481 0.26313 -0.60085 0.0090787
-0.19259 0.0030759 1.2784 1.3461e-38 389 242 0 0 0 0.73531 0.27684 -0.61861 0.010713
-0.1913 0.0030791 1.2798 1.2907e-38 390 242 0 0 0 0.75529 0.27479 -0.59501 0.0095143
-0.19259 0.0045716 1.2784 1.0234e-38 443 242 0 0 0 0.73445 0.28685 -0.61506 0.010861
-0.1913 0.0045763 1.2798 1.0142e-38 444 242 0 0 0 0.75133 0.27767 -0.59867 0.010054
-0.19409 0.007563 1.2784 1.2446e-38 181 243 0 0 0 0.72419 0.30918 -0.61641 0.010858
-0.19269 0.0068191 1.2791 1.0787e-38 342.5 242.5 0 0 0 0.7378 0.30126 -0.60407 0.010294
-0.16901 -0.050875 1.2811 1.0787e-38 388 233 0 0 0 0.6305 0.30901 -0.71203 0.011736
-0.16677 -0.050875 1.2811 9.7266e-39 389.5 233 0 0 0 0.63399 0.32118 -0.70349 0.0113
-0.16901 -0.049376 1.2811 9.7727e-39 456 233 0 0 0 0.63536 0.3161 -0.70455 0.011328
-0.16751 -0.049376 1.2811 9.7727e-39 457 233 0 0 0 0.64178 0.32249 -0.69579 0.011026
-0.16901 -0.047877 1.2811 1.1709e-38 181 234 0 0 0 0.64249 0.32012 -0.69622 0.010834
-0.16751 -0.047128 1.2811 1.0141e-38 265.5 234 0 0 0 0.65038 0.32529 -0.68643 0.010727
-0.16751 -0.04488 1.2811 1.3368e-38 419 234 0 0 0 0.65198 0.3326 -0.68139 0.010369
-0.17051 -0.043381 1.2811 9.5883e-39 486 234 0 0 0 0.64243 0.33786 -0.68784 0.008954
-0.17201 -0.041882 1.2811 9.7727e-39 207 235 0 0 0 0.64143 0.33937 -0.68804 0.0083473
-0.17051 -0.041882 1.2811 9.0352e-39 208 235 0 0 0 0.64381 0.3418 -0.6846 0.008779
-0.17351 -0.038885 1.2811 9.3118e-39 448 235 0 0 0 0.64688 0.34534 -0.67991 0.0079697
-0.17351 -0.037386 1.2811 8.2054e-39 167 236 0 0 0 0.64971 0.34899 -0.67533 0.0078735
-0.17501 -0.035137 1.2811 1.0879e-38 375 236 0 0 0 0.65706 0.34857 -0.66841 0.0073116
-0.17651 -0.031391 1.2811 1.0602e-38 192 237 0 0 0 0.66931 0.36201 -0.64883 0.006783
-0.17801 -0.029892 1.2811 1.051e-38 363 237 0 0 0 0.67404 0.36558 -0.64189 0.0064187
-0.1795 -0.026894 1.2811 9.6805e-39 493 237 0 0 0 0.69163 0.37057 -0.61993 0.0055277
-0.181 -0.025395 1.2811 9.3118e-39 200 238 0 0 0 0.70735 0.36219 -0.60703 0.0051545
-0.1825 -0.022398 1.2811 1.051e-38 427 238 0 0 0 0.72592 0.34364 -0.59577 0.0059546
-0.18325 -0.020899 1.2811 9.4962e-39 486.5 238 0 0 0 0.73726 0.33496 -0.58673 0.0056406
-0.184 -0.0194 1.2811 1.1893e-38 187 239 0 0 0 0.74617 0.32377 -0.58173 0.0055523
-0.1855 -0.016402 1.2811 1.3553e-38 411 239 0 0 0 0.76009 0.3013 -0.57574 0.0050312
-0.187 -0.014904 1.2811 9.1274e-39 469 239 0 0 0 0.76687 0.28767 -0.57372 0.0048775
-0.1855 -0.014904 1.2811 9.6805e-39 470 239 0 0 0 0.76561 0.29637 -0.57098 0.0047806
-0.187 -0.013405 1.2811 1.1063e-38 163 240 0 0 0 0.77482 0.28123 -0.56619 0.00467
-0.187 -0.011906 1.2811 9.8649e-39 222 240 0 0 0 0.77742 0.2757 -0.56534 0.004804
-0.1885 -0.0059106 1.2811 9.4961e-39 194 241 0 0 0 0.78377 0.25183 -0.5677 0.005328
-0.19 -0.002913 1.2811 1.1709e-38 420 241 0 0 0 0.77497 0.24967 -0.58059 0.0063697
-0.19 -0.0014142 1.2811 1.0326e-38 477 241 0 0 0 0.77346 0.25443 -0.58054 0.0067933
-0.19 0.00083407 1.2811 1.2124e-38 195 242 0 0 0 0.77278 0.2588 -0.57951 0.0074861
-0.19 0.0030823 1.2811 1.3184e-38 391 242 0 0 0 0.77388 0.26903 -0.57335 0.0076691
-0.19 0.0045811 1.2811 9.4961e-39 445 242 0 0 0 0.77344 0.27805 -0.56964 0.0080632
-0.19149 0.0068293 1.2811 1.0095e-38 343.5 242.5 0 0 0 0.7568 0.30407 -0.57862 0.0087176
-0.16619 -0.049428 1.2824 1.0142e-38 458 233 0 0 0 0.65149 0.32814 -0.68402 0.010633
-0.16919 -0.046427 1.2824 9.7727e-39 348 234 0 0 0 0.64668 0.32906 -0.68813 0.010356
-0.16619 -0.047177 1.2824 1.005e-38 266.5 234 0 0 0 0.65689 0.33057 -0.67766 0.010442
-0.16328 -0.047201 1.2831 1.0879e-38 268 234 0 0 0 0.6541 0.34164 -0.67486 0.012347
-0.16919 -0.044926 1.2824 1.3553e-38 418 234 0 0 0 0.64824 0.33494 -0.68381 0.010111
-0.16619 -0.044926 1.2824 1.2723e-38 420 234 0 0 0 0.66584 0.3367 -0.6658 0.01043
-0.16336 -0.044973 1.2838 1.2078e-38 421 234 0 0 0 0.6595 0.34527 -0.66771 0.011874
-0.16919 -0.043426 1.2824 1.0049e-38 487 234 0 0 0 0.65055 0.33887 -0.67967 0.0097072
-0.16702 -0.043449 1.2831 1.0602e-38 488.5 234 0 0 0 0.66487 0.34229 -0.66392 0.0097822
-0.17219 -0.040425 1.2824 1.051e-38 379 235 0 0 0 0.646 0.34734 -0.67973 0.008757
-0.17069 -0.040425 1.2824 1.1432e-38 380 235 0 0 0 0.64939 0.34815 -0.67608 0.0087995
-0.16928 -0.041197 1.2831 1.0003e-38 295 235 0 0 0 0.65702 0.3483 -0.66859 0.0094118
-0.16702 -0.041197 1.2831 1.0072e-38 296.5 235 0 0 0 0.671 0.34673 -0.65539 0.010135
-0.17219 -0.038925 1.2824 8.8508e-39 449 235 0 0 0 0.65021 0.35118 -0.67372 0.0085257
-0.17069 -0.038925 1.2824 8.7586e-39 450 235 0 0 0 0.65159 0.35253 -0.67168 0.0088547
-0.16936 -0.038965 1.2838 8.7586e-39 451 235 0 0 0 0.65869 0.35581 -0.66297 0.0093633
-0.16786 -0.038965 1.2838 8.482e-39 452 235 0 0 0 0.66994 0.35299 -0.65313 0.0096964
-0.16336 -0.038965 1.2838 9.4961e-39 455 235 0 0 0 0.65164 0.34214 -0.67698 0.011555
-0.17219 -0.037425 1.2824 7.9288e-39 168 236 0 0 0 0.65325 0.3543 -0.66913 0.008223
-0.17087 -0.037463 1.2838 8.021e-39 169 236 0 0 0 0.65629 0.3597 -0.66325 0.0087558
-0.16936 -0.037463 1.2838 8.5742e-39 170 236 0 0 0 0.66135 0.35672 -0.65983 0.0091079
-0.17308 -0.035202 1.2835 1.1732e-38 376.5 236 0 0 0 0.66154 0.35828 -0.65879 0.0077391
-0.17087 -0.035211 1.2838 1.2723e-38 378 236 0 0 0 0.6616 0.36345 -0.65589 0.0084887
-0.17519 -0.032923 1.2824 1.0602e-38 479 236 0 0 0 0.6622 0.35931 -0.65756 0.0069619
-0.17387 -0.032958 1.2838 1.0326e-38 480 236 0 0 0 0.66646 0.36641 -0.64929 0.0073724
