# .PCD v.7 - Point Cloud Data file format
VERSION .7
FIELDS x y z rgb u v vx vy vz normal_x normal_y normal_z curvature
SIZE 4 4 4 4 4 4 4 4 4 4 4 4 4
TYPE F F F F F F F F F F F F F
COUNT 1 1 1 1 1 1 1 1 1 1 1 1 1
WIDTH 551
HEIGHT 1
VIEWPOINT 0 0 0 1 0 0 0
POINTS 551
DATA ascii
0.21303 0.10537 0.92317 1.0718e-38 402.5 272.5 0 0 0 -0.31423 0.37088 -0.8739 0.0028508
0.21474 0.1055 0.92277 1.1955e-38 389.33 272.67 0 0 0 -0.31129 0.37147 -0.87471 0.0027389
0.21531 0.10705 0.92369 9.2196e-39 140 274 0 0 0 -0.30922 0.37384 -0.87443 0.0027177
0.21661 0.10689 0.92231 9.3579e-39 141.5 274 0 0 0 -0.30706 0.37379 -0.87521 0.0025688
0.21876 0.10743 0.92231 1.323e-38 258.5 274 0 0 0 -0.30403 0.37592 -0.87536 0.0024801
0.217 0.10844 0.92323 1.346e-38 299.33 274.33 0 0 0 -0.30697 0.37632 -0.87416 0.0026097
0.2188 0.1088 0.92323 1.2938e-38 228.67 274.67 0 0 0 -0.3057 0.37496 -0.87519 0.002495
0.22038 0.10905 0.92231 1.0879e-38 158 275 0 0 0 -0.30034 0.37516 -0.87696 0.0023683
0.22254 0.10905 0.92231 1.0049e-38 160 275 0 0 0 -0.29444 0.37702 -0.87816 0.0022782
0.22109 0.11075 0.923 1.2515e-38 282 275.5 0 0 0 -0.30016 0.37666 -0.87637 0.0024345
0.22317 0.11071 0.92265 1.2354e-38 284 275.5 0 0 0 -0.29496 0.3763 -0.87829 0.0021972
0.22578 0.1112 0.92231 8.482e-39 178 276 0 0 0 -0.29008 0.37533 -0.88033 0.0022486
0.22179 0.11245 0.92369 1.2723e-38 407 276 0 0 0 -0.29871 0.37796 -0.87631 0.0023494
0.22354 0.11278 0.92346 1.0541e-38 336.33 276.33 0 0 0 -0.29492 0.37663 -0.87817 0.002272
0.22532 0.11286 0.92265 1.0026e-38 302 276.5 0 0 0 -0.29054 0.37524 -0.88022 0.0023298
0.22728 0.11303 0.92254 1.0695e-38 267.67 276.67 0 0 0 -0.28748 0.37459 -0.8815 0.002532
0.22503 0.11461 0.92369 1.1156e-38 428 277 0 0 0 -0.29327 0.37768 -0.87827 0.0024533
0.2272 0.11461 0.92369 1.0418e-38 430 277 0 0 0 -0.288 0.37545 -0.88096 0.0025494
0.22883 0.11489 0.923 9.742e-39 358.67 277.33 0 0 0 -0.2821 0.37381 -0.88356 0.0026839
0.23063 0.11498 0.92231 8.6433e-39 324 277.5 0 0 0 -0.28032 0.37311 -0.88443 0.0028256
0.23116 0.11713 0.92369 1.1155e-38 420.67 278.33 0 0 0 -0.28086 0.37454 -0.88365 0.0026552
0.23297 0.11732 0.92231 1.1033e-38 393.67 278.67 0 0 0 -0.28182 0.3735 -0.88379 0.0027432
0.23297 0.11885 0.923 1.0603e-38 148.5 280 0 0 0 -0.28316 0.37535 -0.88257 0.0026462
0.23441 0.1193 0.92231 1.2078e-38 269.5 280 0 0 0 -0.28173 0.37537 -0.88302 0.0026099
0.23314 0.12002 0.92369 1.3599e-38 387.5 280 0 0 0 -0.28343 0.37817 -0.88128 0.002505
0.23522 0.12105 0.92334 9.2657e-39 174.5 281 0 0 0 -0.28492 0.3757 -0.88186 0.0025771
0.23711 0.12092 0.92231 9.0352e-39 176.5 281 0 0 0 -0.28681 0.3734 -0.88222 0.002676
0.23873 0.12092 0.92231 8.7586e-39 178 281 0 0 0 -0.28929 0.37298 -0.88159 0.0026541
0.23584 0.12218 0.92369 1.0602e-38 414 281 0 0 0 -0.2855 0.37878 -0.88035 0.0025081
0.23752 0.12248 0.92323 9.7419e-39 343.67 281.33 0 0 0 -0.28999 0.37735 -0.87949 0.0025364
0.23926 0.12281 0.923 9.1274e-39 273.33 281.67 0 0 0 -0.29066 0.3758 -0.87994 0.0024857
0.24106 0.12479 0.923 1.3138e-38 398.5 282.5 0 0 0 -0.29088 0.37887 -0.87855 0.0023053
0.24304 0.12523 0.92231 1.6872e-38 359 283 0 0 0 -0.29367 0.37811 -0.87795 0.0022693
0.24277 0.12699 0.92335 1.0003e-38 262 284 0 0 0 -0.29474 0.3787 -0.87734 0.0021669
0.24421 0.1269 0.92265 9.45e-39 263.5 284 0 0 0 -0.29497 0.37983 -0.87677 0.0021908
0.24515 0.12899 0.92346 1.0572e-38 242 285 0 0 0 -0.29697 0.37617 -0.87767 0.0021688
0.24696 0.12908 0.92283 1.0994e-38 283 285 0 0 0 -0.29701 0.3742 -0.8785 0.0022225
0.24737 0.13118 0.92369 1.0142e-38 257.67 286 0 0 0 -0.29871 0.37143 -0.8791 0.0022167
0.24907 0.13122 0.92265 1.0487e-38 298.5 286 0 0 0 -0.29859 0.3684 -0.88041 0.0022837
0.25114 0.13171 0.92231 1.1617e-38 417.5 286 0 0 0 -0.29601 0.36595 -0.8823 0.0024329
0.24926 0.13293 0.92334 9.7269e-39 196.5 287 0 0 0 -0.30133 0.36717 -0.87999 0.0022558
0.25123 0.13338 0.92265 1.1386e-38 317 287 0 0 0 -0.2987 0.36381 -0.88228 0.0024309
0.25329 0.13386 0.92231 1.0464e-38 437.5 287 0 0 0 -0.2914 0.3629 -0.88509 0.0026152
0.24989 0.13406 0.92369 9.8649e-39 434 287 0 0 0 -0.30347 0.36825 -0.87881 0.0022293
0.25259 0.13515 0.92369 9.865e-39 220.5 288 0 0 0 -0.29731 0.36428 -0.88256 0.0025122
0.25504 0.13501 0.92277 1.3645e-38 309 288 0 0 0 -0.28578 0.36357 -0.88665 0.002732
0.25707 0.13494 0.92231 1.4383e-38 354 288 0 0 0 -0.27021 0.3633 -0.89163 0.0028427
0.2552 0.13671 0.92334 9.496e-39 410.5 288.5 0 0 0 -0.28504 0.36869 -0.88477 0.002721
0.25667 0.13664 0.92283 9.2196e-39 412 288.5 0 0 0 -0.27386 0.36925 -0.88806 0.0028104
0.25815 0.1371 0.92231 9.6805e-39 369 289 0 0 0 -0.26442 0.36881 -0.8911 0.0028714
0.25703 0.13871 0.92346 1.1094e-38 228 290 0 0 0 -0.27418 0.37703 -0.88469 0.0028526
0.25879 0.13877 0.92265 9.6115e-39 268.5 290 0 0 0 -0.26245 0.37662 -0.88841 0.0029241
0.25745 0.14055 0.92369 1.1893e-38 165 291 0 0 0 -0.27129 0.39169 -0.87919 0.0029566
0.25903 0.14106 0.92352 1.0879e-38 282 291 0 0 0 -0.26206 0.3924 -0.88167 0.0030874
0.26095 0.14093 0.92265 1.1847e-38 284 291 0 0 0 -0.25228 0.38552 -0.88754 0.0032198
0.26247 0.14142 0.92231 9.404e-39 401 291 0 0 0 -0.2411 0.38489 -0.89092 0.0036336
0.26114 0.14266 0.92334 1.0603e-38 184.5 292 0 0 0 -0.25388 0.39979 -0.88074 0.0033425
0.2631 0.14309 0.92265 9.9802e-39 302.5 292 0 0 0 -0.2442 0.39724 -0.88463 0.0038018
0.26516 0.14358 0.92231 9.1735e-39 420.5 292 0 0 0 -0.22578 0.39635 -0.88991 0.0049657
0.26678 0.14358 0.92231 9.2196e-39 422 292 0 0 0 -0.216 0.39446 -0.89317 0.0055162
0.26335 0.14538 0.92352 1.028e-38 318.5 293 0 0 0 -0.24517 0.41231 -0.87743 0.0044337
0.26526 0.14525 0.92265 1.0119e-38 320.5 293 0 0 0 -0.23123 0.40673 -0.8838 0.0051146
0.26714 0.14537 0.92231 1.0418e-38 360.67 293 0 0 0 -0.21911 0.40431 -0.88799 0.0057894
0.2711 0.14573 0.92231 9.7727e-39 441 293 0 0 0 -0.1831 0.40559 -0.89553 0.0075004
0.27272 0.14573 0.92231 1.0603e-38 442.5 293 0 0 0 -0.16207 0.40663 -0.8991 0.0078798
0.27434 0.14573 0.92231 1.0326e-38 444 293 0 0 0 -0.13623 0.40753 -0.90298 0.0076396
0.26394 0.14703 0.92369 1.0602e-38 217 294 0 0 0 -0.24623 0.42362 -0.87173 0.0049326
0.26502 0.14703 0.92369 1.0142e-38 218 294 0 0 0 -0.23778 0.42224 -0.87474 0.0053415
0.26654 0.14697 0.92334 9.1734e-39 219.5 294 0 0 0 -0.22616 0.41976 -0.87901 0.0060926
0.2685 0.14686 0.92265 1.1617e-38 346.5 294 0 0 0 -0.20753 0.41619 -0.88528 0.0070882
0.27056 0.14681 0.92231 1.0833e-38 348.5 294 0 0 0 -0.18716 0.41484 -0.89044 0.007768
0.27272 0.14681 0.92231 9.865e-39 350.5 294 0 0 0 -0.1617 0.41387 -0.89586 0.0080775
0.27487 0.14681 0.92231 1.1064e-38 352.5 294 0 0 0 -0.12916 0.41175 -0.9021 0.0078099
0.27703 0.14789 0.92231 1.0142e-38 457.5 294 0 0 0 -0.092716 0.41711 -0.90411 0.0075163
0.26718 0.14811 0.92369 1.1063e-38 447 294 0 0 0 -0.22293 0.43007 -0.87484 0.0066249
0.26891 0.14843 0.92346 1.0172e-38 418 294.33 0 0 0 -0.2095 0.42803 -0.87915 0.0074263
0.27076 0.148 0.923 9.0813e-39 450.5 294 0 0 0 -0.1919 0.42233 -0.8859 0.0077844
0.27312 0.14811 0.92369 1.0279e-38 452.5 294 0 0 0 -0.16727 0.42425 -0.88996 0.0082111
0.27518 0.14806 0.92334 1.0326e-38 455 294 0 0 0 -0.13268 0.4209 -0.89735 0.0080685
0.27745 0.14919 0.92369 9.5421e-39 364.5 295 0 0 0 -0.097748 0.42262 -0.90102 0.0074973
0.2794 0.148 0.923 9.2657e-39 139.5 295 0 0 0 -0.058155 0.41875 -0.90624 0.0072763
0.26325 0.033612 0.92507 1.0695e-38 350 238 0 0 0 -0.043271 -0.73552 -0.67612 0.017315
0.26315 0.035222 0.92472 8.482e-39 312.5 238.5 0 0 0 -0.04168 -0.73468 -0.67713 0.016319
0.26456 0.035398 0.92461 8.2976e-39 274 238.67 0 0 0 -0.025535 -0.72942 -0.68358 0.015497
0.23691 0.03797 0.92577 1.0649e-38 446.5 239 0 0 0 -0.10563 -0.78817 -0.60632 0.012548
0.23836 0.037941 0.92507 9.9571e-39 448 239 0 0 0 -0.093165 -0.7862 -0.61091 0.012259
0.24125 0.03797 0.92577 1.4798e-38 452.5 239 0 0 0 -0.070398 -0.79469 -0.60292 0.013939
0.24305 0.037913 0.92438 1.2216e-38 454.5 239 0 0 0 -0.061808 -0.79061 -0.60919 0.013018
0.24702 0.037941 0.92507 3.5034e-39 458 239 0 0 0 -0.053458 -0.78922 -0.61178 0.013297
0.24918 0.037941 0.92507 2.9503e-39 460 239 0 0 0 -0.046095 -0.78811 -0.61381 0.013156
0.25081 0.0374 0.92507 8.5281e-39 420 239 0 0 0 -0.041996 -0.78983 -0.61188 0.013193
0.25316 0.036887 0.92577 1.2953e-38 380.5 239 0 0 0 -0.036532 -0.79241 -0.60889 0.014227
0.25533 0.036887 0.92577 1.3138e-38 382.5 239 0 0 0 -0.031953 -0.7854 -0.61816 0.014272
0.25712 0.03722 0.92507 1.2047e-38 305 239.33 0 0 0 -0.027187 -0.78657 -0.6169 0.014412
0.25873 0.037913 0.92438 8.2976e-39 148 240 0 0 0 -0.027783 -0.77505 -0.63129 0.013761
0.23475 0.039053 0.92577 1.3507e-38 329.5 240 0 0 0 -0.11743 -0.78867 -0.6035 0.013344
0.23665 0.039009 0.92472 1.4153e-38 331.5 240 0 0 0 -0.10383 -0.78256 -0.61386 0.01186
0.23926 0.038994 0.92438 1.2631e-38 334 240 0 0 0 -0.089141 -0.78376 -0.61463 0.011647
0.19196 0.041219 0.92577 8.7586e-39 147 241 0 0 0 -0.34072 -0.87786 -0.33655 0.035338
0.19344 0.041188 0.92507 8.8508e-39 148.5 241 0 0 0 -0.28663 -0.89115 -0.3517 0.034031
0.19738 0.040136 0.92577 1.3e-38 382 240 0 0 0 -0.10708 -0.93297 -0.34366 0.018499
0.19955 0.041219 0.92577 9.6805e-39 154 241 0 0 0 -0.064178 -0.93766 -0.34157 0.01496
0.20589 0.041188 0.92507 1.0234e-38 160 241 0 0 0 0.012485 -0.9446 -0.328 0.0080721
0.23312 0.040677 0.92577 9.5421e-39 300 240.5 0 0 0 -0.11136 -0.8088 -0.57744 0.015725
0.23457 0.040647 0.92507 9.404e-39 301.5 240.5 0 0 0 -0.11045 -0.79729 -0.59341 0.014541
0.23602 0.040616 0.92438 9.911e-39 303 240.5 0 0 0 -0.092537 -0.80473 -0.58638 0.013681
0.28468 0.041157 0.92438 9.7727e-39 344 241 0 0 0 0.070563 -0.89042 -0.44964 0.0080564
0.28706 0.041188 0.92507 8.8508e-39 346 241 0 0 0 0.057578 -0.90154 -0.42884 0.0060872
0.28879 0.041203 0.92542 8.5742e-39 347.5 241 0 0 0 0.042248 -0.90633 -0.42045 0.0050066
0.21068 0.042255 0.92472 1.3046e-38 374.5 241 0 0 0 0.0084561 -0.94497 -0.32705 0.0093922
0.21293 0.04227 0.92507 1.406e-38 376.5 241 0 0 0 -0.0092528 -0.94336 -0.33163 0.012786
0.21455 0.04227 0.92507 1.3645e-38 378 241 0 0 0 -0.029092 -0.93959 -0.34106 0.016512
0.22771 0.043385 0.92577 9.6805e-39 159 242 0 0 0 -0.093718 -0.86609 -0.49102 0.025218
0.23096 0.043385 0.92577 9.2196e-39 162 242 0 0 0 -0.11406 -0.81703 -0.5652 0.01834
0.23273 0.042703 0.92507 1.0234e-38 302.4 241.4 0 0 0 -0.099637 -0.81749 -0.56725 0.017373
0.23494 0.042239 0.92438 9.7727e-39 397 241 0 0 0 -0.095679 -0.80933 -0.5795 0.015349
0.29063 0.042239 0.92438 1.0925e-38 443.5 241 0 0 0 0.024989 -0.9098 -0.41429 0.0043561
0.29226 0.042239 0.92438 1.0602e-38 445 241 0 0 0 0.031061 -0.9128 -0.40722 0.0033472
0.29518 0.042271 0.92507 9.7266e-39 447.5 241 0 0 0 0.01534 -0.91832 -0.39554 0.0024208
0.22429 0.044435 0.92507 1.3829e-38 367 242 0 0 0 -0.069219 -0.90485 -0.42007 0.025617
0.22628 0.044402 0.92438 1.4567e-38 369 242 0 0 0 -0.063181 -0.89155 -0.4485 0.026044
0.22925 0.044451 0.92542 1.4198e-38 371.5 242 0 0 0 -0.092843 -0.84956 -0.51925 0.023778
0.17992 0.07041 0.92507 1.0049e-38 191 255 0 0 0 -0.43137 0.32694 -0.84085 0.0060334
0.18005 0.071546 0.92577 1.3184e-38 435 255 0 0 0 -0.4396 0.33285 -0.83424 0.0055811
0.18093 0.073088 0.92472 1.3737e-38 398.5 256 0 0 0 -0.4317 0.33709 -0.83667 0.0051476
0.18154 0.074739 0.92507 1.3691e-38 360.5 257 0 0 0 -0.43018 0.34329 -0.83492 0.0047932
0.18208 0.075822 0.92507 9.6805e-39 140 258 0 0 0 -0.43491 0.34626 -0.83124 0.0049062
0.18255 0.077416 0.92472 1.0326e-38 262.5 258.5 0 0 0 -0.44035 0.3503 -0.82667 0.0046554
0.18465 0.077928 0.92438 1.0695e-38 154.5 259 0 0 0 -0.41216 0.35051 -0.84099 0.0048808
0.18253 0.078747 0.92554 1.0633e-38 306.33 259 0 0 0 -0.44748 0.35672 -0.82007 0.0044004
0.18465 0.079009 0.92438 1.1617e-38 385.5 259 0 0 0 -0.41935 0.3525 -0.83659 0.004854
0.1833 0.080211 0.92577 1.2815e-38 162 260 0 0 0 -0.44759 0.36062 -0.8183 0.0046255
0.18501 0.080532 0.9253 1.177e-38 240.33 260 0 0 0 -0.42523 0.35751 -0.83148 0.0047565
0.18688 0.082826 0.92472 1.1478e-38 287 261 0 0 0 -0.40948 0.3617 -0.83756 0.0051253
0.18709 0.084543 0.92577 1.1386e-38 176.5 262 0 0 0 -0.42058 0.36886 -0.82889 0.0054204
0.18857 0.085021 0.92507 1.2493e-38 292 262 0 0 0 -0.39802 0.36798 -0.84034 0.0055259
0.18959 0.087154 0.92472 1.2861e-38 300 263 0 0 0 -0.39391 0.37281 -0.84015 0.0056602
0.19121 0.087694 0.92472 1.4844e-38 416.5 263 0 0 0 -0.38086 0.37337 -0.8459 0.0055478
0.1898 0.088876 0.92577 1.134e-38 199 264 0 0 0 -0.40223 0.37702 -0.83431 0.0057903
0.19142 0.088876 0.92577 1.1755e-38 200.5 264 0 0 0 -0.38594 0.37478 -0.84296 0.0056269
0.19317 0.089486 0.92461 1.4045e-38 361.67 264 0 0 0 -0.36716 0.37455 -0.85141 0.0054124
0.19507 0.089891 0.92507 1.4475e-38 443 264 0 0 0 -0.35574 0.37034 -0.85808 0.0052459
0.19352 0.091008 0.92542 9.3579e-39 360.5 265 0 0 0 -0.36986 0.37464 -0.8502 0.0053786
0.1956 0.090973 0.92507 9.5882e-39 362.5 265 0 0 0 -0.35076 0.37278 -0.85907 0.0049328
0.19708 0.091987 0.92438 1.0049e-38 160 266 0 0 0 -0.34053 0.37305 -0.86306 0.0045083
0.19817 0.091987 0.92438 1.0234e-38 161 266 0 0 0 -0.33452 0.37227 -0.86574 0.0043816
0.19677 0.092632 0.92542 1.4014e-38 279.5 266 0 0 0 -0.34781 0.37525 -0.85919 0.0045429
0.19846 0.093208 0.92577 1.7609e-38 401 266 0 0 0 -0.33906 0.37512 -0.86274 0.0043038
0.19947 0.094797 0.92542 1.2769e-38 312.5 267 0 0 0 -0.33158 0.37602 -0.86525 0.0039831
0.20102 0.094762 0.92507 1.2584e-38 314 267 0 0 0 -0.32311 0.37439 -0.86916 0.0038126
0.20264 0.095303 0.92507 1.4936e-38 434 267 0 0 0 -0.31638 0.37374 -0.87191 0.0037153
0.20337 0.096746 0.92507 1.3123e-38 383.67 268 0 0 0 -0.31748 0.37269 -0.87196 0.0034052
0.20466 0.097394 0.92438 1.0602e-38 457 268 0 0 0 -0.31591 0.37085 -0.87331 0.0033881
0.20388 0.098624 0.92577 1.0418e-38 370 269 0 0 0 -0.32002 0.37128 -0.87163 0.0032397
0.20481 0.09855 0.92507 1.051e-38 371 269 0 0 0 -0.31834 0.36934 -0.87307 0.0032831
0.20574 0.10064 0.92438 1.5304e-38 396 270 0 0 0 -0.3193 0.36961 -0.8726 0.0031266
0.20697 0.1018 0.92507 1.1924e-38 184 271 0 0 0 -0.32183 0.3683 -0.87223 0.0029912
0.20898 0.10172 0.92438 1.134e-38 186 271 0 0 0 -0.32054 0.36568 -0.8738 0.0030156
0.20744 0.10284 0.92472 1.3967e-38 423.5 271 0 0 0 -0.32182 0.36998 -0.87152 0.0029462
0.20873 0.10357 0.92484 9.3424e-39 281.33 271.67 0 0 0 -0.32046 0.3692 -0.87235 0.0029525
0.20713 0.10404 0.92577 8.3898e-39 208 272 0 0 0 -0.32532 0.37443 -0.86832 0.0028747
0.20875 0.10512 0.92577 1.0511e-38 442.5 272 0 0 0 -0.32202 0.37439 -0.86956 0.0028168
0.21022 0.10504 0.92507 1.1524e-38 444 272 0 0 0 -0.32019 0.37246 -0.87106 0.0028217
0.2113 0.10667 0.92507 1.157e-38 405.5 273 0 0 0 -0.32016 0.37623 -0.86945 0.0027683
0.21293 0.10721 0.92507 1.1617e-38 456.5 273 0 0 0 -0.31676 0.37652 -0.87057 0.0026684
0.21439 0.10713 0.92438 9.4961e-39 139 274 0 0 0 -0.31105 0.37631 -0.87272 0.002716
0.21308 0.10837 0.92577 1.5812e-38 367.5 274 0 0 0 -0.31877 0.38116 -0.86782 0.0027121
0.21522 0.10862 0.92484 1.3922e-38 297.33 274.33 0 0 0 -0.31024 0.37824 -0.87217 0.0026852
0.21655 0.10929 0.92438 1.2078e-38 154 275 0 0 0 -0.31057 0.37825 -0.87205 0.0026729
0.21579 0.11054 0.92577 1.595e-38 385 275 0 0 0 -0.31377 0.38271 -0.86895 0.0027404
0.21734 0.11104 0.92542 1.3022e-38 278 275.5 0 0 0 -0.31005 0.38067 -0.87118 0.0026712
0.21942 0.111 0.92507 1.2239e-38 280 275.5 0 0 0 -0.30647 0.37948 -0.87297 0.0025556
0.21742 0.1127 0.92577 1.5074e-38 402.5 276 0 0 0 -0.31293 0.38565 -0.86796 0.0028311
0.21904 0.1127 0.92577 1.429e-38 404 276 0 0 0 -0.30957 0.38359 -0.87007 0.0026812
0.221 0.11314 0.9249 1.2193e-38 297.5 276.5 0 0 0 -0.3057 0.38007 -0.87298 0.002454
0.22304 0.11362 0.92438 9.2196e-39 191 277 0 0 0 -0.29788 0.37899 -0.87615 0.0023954
0.22121 0.11487 0.92577 1.2078e-38 424 277 0 0 0 -0.30886 0.3807 -0.87159 0.0026269
0.22296 0.1152 0.92554 1.1494e-38 352.67 277.33 0 0 0 -0.30119 0.38008 -0.87454 0.0025977
0.22454 0.11545 0.92461 1.1494e-38 281.33 277.67 0 0 0 -0.29733 0.37746 -0.87699 0.0025668
0.2267 0.11545 0.92461 9.8648e-39 283.33 277.67 0 0 0 -0.29161 0.37611 -0.87949 0.0025551
0.22845 0.11578 0.92438 9.0352e-39 212 278 0 0 0 -0.28537 0.37499 -0.88202 0.0025843
0.22491 0.11699 0.92542 9.8649e-39 443.5 278 0 0 0 -0.29655 0.38222 -0.87519 0.0024913
0.22708 0.11699 0.92542 9.5423e-39 445.5 278 0 0 0 -0.29307 0.38008 -0.87729 0.0024972
0.22923 0.11725 0.92461 1.1401e-38 418.67 278.33 0 0 0 -0.28599 0.37682 -0.88103 0.0024391
0.23061 0.11794 0.92438 1.3922e-38 362 279 0 0 0 -0.28438 0.37896 -0.88063 0.0024612
0.225 0.11866 0.92577 1.2516e-38 248.5 279.5 0 0 0 -0.30041 0.38809 -0.87129 0.0025692
0.22708 0.11862 0.92542 1.3691e-38 250.5 279.5 0 0 0 -0.29532 0.38553 -0.87416 0.0024582
0.22904 0.11878 0.9253 1.3584e-38 216.33 279.67 0 0 0 -0.28904 0.38154 -0.878 0.0023777
0.23115 0.11902 0.92438 1.1109e-38 146.5 280 0 0 0 -0.2857 0.37881 -0.88027 0.0024111
0.22771 0.12029 0.92577 1.4383e-38 382 280 0 0 0 -0.2956 0.38935 -0.87237 0.0024041
0.22925 0.12025 0.92542 1.3461e-38 383.5 280 0 0 0 -0.29097 0.38544 -0.87565 0.0022901
0.23114 0.12056 0.92507 1.2293e-38 313.67 280.33 0 0 0 -0.28819 0.38246 -0.87788 0.0023545
0.23289 0.12125 0.92484 1.0111e-38 172 281 0 0 0 -0.28633 0.38133 -0.87898 0.0023874
0.23312 0.12245 0.92577 1.1985e-38 411 281 0 0 0 -0.28932 0.38544 -0.8762 0.0022475
0.23481 0.12275 0.92531 1.1094e-38 340.67 281.33 0 0 0 -0.28839 0.38314 -0.87752 0.0023413
0.23665 0.12339 0.92472 1.0833e-38 198.5 282 0 0 0 -0.28927 0.38187 -0.87778 0.0023503
0.23728 0.12452 0.92507 1.0234e-38 436 282 0 0 0 -0.29054 0.38358 -0.87662 0.0023039
0.23899 0.12511 0.92542 1.2838e-38 396 282.5 0 0 0 -0.29161 0.38272 -0.87664 0.0021916
0.24034 0.12551 0.92438 1.5397e-38 356 283 0 0 0 -0.29366 0.38253 -0.87604 0.0021434
0.24119 0.12702 0.92484 9.7728e-39 220.33 284 0 0 0 -0.29551 0.38182 -0.87572 0.0020305
0.24179 0.12895 0.92577 1.0418e-38 160 285 0 0 0 -0.29779 0.38126 -0.87519 0.0020484
0.24314 0.12935 0.92472 1.0211e-38 279 285 0 0 0 -0.2958 0.37924 -0.87674 0.0021043
0.24467 0.12984 0.92438 9.5883e-39 398 285 0 0 0 -0.29887 0.37709 -0.87663 0.0020799
0.24341 0.13112 0.92577 1.1386e-38 175.5 286 0 0 0 -0.29922 0.37815 -0.87606 0.002047
0.24545 0.13131 0.92461 1.0418e-38 255.67 286 0 0 0 -0.30073 0.37404 -0.8773 0.0020972
0.24683 0.132 0.92438 9.404e-39 413 286 0 0 0 -0.30156 0.37167 -0.87802 0.0021976
0.24341 0.1322 0.92577 1.1524e-38 409.5 286 0 0 0 -0.30104 0.37805 -0.87547 0.0020475
0.24549 0.13269 0.92542 1.0372e-38 302 286.5 0 0 0 -0.30309 0.37486 -0.87614 0.0020266
0.24737 0.13308 0.92438 9.5423e-39 194.5 287 0 0 0 -0.30189 0.37157 -0.87795 0.0021804
0.24666 0.13437 0.92577 1.1109e-38 430.5 287 0 0 0 -0.30597 0.37512 -0.87503 0.0020475
0.24864 0.13481 0.92507 9.3809e-39 324.5 287.5 0 0 0 -0.30714 0.3708 -0.87645 0.0020851
0.25071 0.1353 0.92472 9.7266e-39 218.5 288 0 0 0 -0.30428 0.36977 -0.87789 0.0022175
0.24937 0.13653 0.92577 9.8649e-39 449 288 0 0 0 -0.30725 0.37668 -0.87391 0.0021454
0.25095 0.13705 0.92559 1.0165e-38 406 288.5 0 0 0 -0.30705 0.3776 -0.87358 0.0023105
0.25288 0.13692 0.92472 9.3118e-39 408 288.5 0 0 0 -0.30103 0.37188 -0.87811 0.002484
0.2544 0.13687 0.92438 9.5884e-39 409.5 288.5 0 0 0 -0.29072 0.37035 -0.88223 0.0027034
0.2537 0.1387 0.92577 9.5883e-39 147 290 0 0 0 -0.29696 0.38313 -0.87465 0.002569
0.25518 0.13916 0.92525 9.6576e-39 264.5 290 0 0 0 -0.28827 0.38529 -0.87661 0.0026931
0.25657 0.13957 0.92438 9.6805e-39 382 290 0 0 0 -0.27877 0.38449 -0.88003 0.0027885
0.25587 0.14086 0.92577 1.1156e-38 163 291 0 0 0 -0.2836 0.39993 -0.87157 0.0029488
0.25712 0.14148 0.92507 9.2502e-39 318.33 291 0 0 0 -0.27469 0.40014 -0.87432 0.0029242
0.25765 0.14282 0.92438 1.0234e-38 181 292 0 0 0 -0.27171 0.40913 -0.87108 0.0030934
0.25927 0.14282 0.92438 9.2196e-39 182.5 292 0 0 0 -0.26488 0.40558 -0.87484 0.0031143
0.26143 0.1439 0.92438 1.0188e-38 416.5 292 0 0 0 -0.25541 0.40952 -0.87582 0.0034837
0.25848 0.1446 0.92542 1.0026e-38 306 292.5 0 0 0 -0.27199 0.4232 -0.86425 0.0032753
0.26072 0.14477 0.92472 1.1248e-38 254.5 292.75 0 0 0 -0.2607 0.41896 -0.86977 0.0034672
0.25912 0.14682 0.92577 8.5281e-39 320.5 293.5 0 0 0 -0.27644 0.44139 -0.85367 0.0035023
0.26065 0.14676 0.92542 8.4128e-39 322 293.5 0 0 0 -0.26711 0.43576 -0.85951 0.0037671
0.26247 0.14685 0.92484 9.4654e-39 287.67 293.67 0 0 0 -0.25746 0.42986 -0.86541 0.0043798
0.26325 0.14834 0.92507 9.5883e-39 443 294 0 0 0 -0.25619 0.44335 -0.85896 0.0049943
0.26488 0.14887 0.92507 1.0257e-38 398.5 294.5 0 0 0 -0.2468 0.44171 -0.86254 0.0058248
0.26686 0.14906 0.92507 1.0787e-38 385 294.67 0 0 0 -0.23296 0.44046 -0.86702 0.0067054
0.26866 0.14942 0.92507 1.0326e-38 356 295 0 0 0 -0.22007 0.43904 -0.8711 0.0075449
0.27117 0.14931 0.92438 9.6808e-39 358.5 295 0 0 0 -0.19496 0.43284 -0.88014 0.0080441
0.27299 0.14942 0.92507 9.3118e-39 360 295 0 0 0 -0.18306 0.43454 -0.88185 0.0082664
0.27452 0.14936 0.92472 9.1274e-39 361.5 295 0 0 0 -0.16377 0.43003 -0.88784 0.0083808
0.27603 0.14931 0.92438 8.7586e-39 363 295 0 0 0 -0.13641 0.4264 -0.89419 0.0080762
0.27928 0.14931 0.92438 1.0971e-38 366 295 0 0 0 -0.073145 0.42377 -0.90281 0.0073844
0.26985 0.1511 0.92542 9.7268e-39 407 295.5 0 0 0 -0.21668 0.45099 -0.86583 0.008102
0.27132 0.15094 0.92554 9.6191e-39 424.67 295.33 0 0 0 -0.20725 0.44745 -0.86996 0.0085267
0.27284 0.15134 0.92577 8.7893e-39 286.67 296 0 0 0 -0.19479 0.44582 -0.87367 0.0087898
0.27482 0.15116 0.92577 9.3117e-39 251.5 296 0 0 0 -0.17095 0.44483 -0.87915 0.0091052
0.27694 0.15113 0.92559 9.8419e-39 253.5 296 0 0 0 -0.13876 0.44087 -0.88678 0.0088349
0.2784 0.1505 0.92507 1.0049e-38 144 296 0 0 0 -0.094315 0.43443 -0.89576 0.0077925
0.27284 0.15314 0.92577 9.2196e-39 420.67 296.33 0 0 0 -0.20725 0.45515 -0.86596 0.0090219
0.27428 0.15386 0.92577 8.8508e-39 350 297 0 0 0 -0.1949 0.45679 -0.86796 0.0096004
0.23582 0.035884 0.92785 8.5742e-39 172 239 0 0 0 -0.11681 -0.8043 -0.58263 0.015598
0.25319 0.035884 0.92785 9.2196e-39 188 239 0 0 0 -0.031855 -0.81086 -0.58437 0.017555
0.25517 0.035857 0.92716 8.1132e-39 190 239 0 0 0 -0.033445 -0.79408 -0.6069 0.016325
0.25679 0.035857 0.92716 8.021e-39 191.5 239 0 0 0 -0.033291 -0.78567 -0.61775 0.01616
0.23365 0.03697 0.92785 1.1432e-38 362 239 0 0 0 -0.13045 -0.79571 -0.59147 0.014158
0.23505 0.037477 0.92698 1.0694e-38 404 239 0 0 0 -0.1216 -0.79285 -0.59716 0.013563
0.23727 0.036942 0.92716 1.0049e-38 365.5 239 0 0 0 -0.099921 -0.79367 -0.60009 0.013939
0.23935 0.03747 0.92681 1.1893e-38 408.5 239 0 0 0 -0.08578 -0.79946 -0.59457 0.014995
0.24125 0.03697 0.92785 1.3553e-38 369 239 0 0 0 -0.071985 -0.80722 -0.58584 0.016729
0.24279 0.036956 0.92751 1.3829e-38 370.5 239 0 0 0 -0.059459 -0.80159 -0.59491 0.015934
0.24495 0.036956 0.92751 1.2999e-38 372.5 239 0 0 0 -0.058422 -0.79793 -0.59991 0.016182
0.24667 0.03697 0.92785 1.3e-38 374 239 0 0 0 -0.054595 -0.79731 -0.60109 0.01582
0.24939 0.03697 0.92785 1.4383e-38 376.5 239 0 0 0 -0.048717 -0.80108 -0.59657 0.015506
0.25083 0.036942 0.92716 1.4843e-38 378 239 0 0 0 -0.042755 -0.7957 -0.60418 0.01458
0.22822 0.039141 0.92785 1.2539e-38 323 240 0 0 0 -0.1584 -0.81371 -0.55927 0.01759
0.23148 0.039141 0.92785 1.3e-38 326 240 0 0 0 -0.14171 -0.80339 -0.57834 0.01565
0.23293 0.038569 0.92716 1.1225e-38 385 239.5 0 0 0 -0.13324 -0.79417 -0.5929 0.014501
0.19551 0.040196 0.92716 1.2815e-38 380 240 0 0 0 -0.14086 -0.93083 -0.33723 0.020183
0.19644 0.040166 0.92646 1.2907e-38 381 240 0 0 0 -0.1167 -0.93335 -0.33948 0.019218
0.20093 0.041281 0.92716 9.7727e-39 155 241 0 0 0 -0.026838 -0.94486 -0.32638 0.0096333
0.20217 0.041312 0.92785 9.1274e-39 156 241 0 0 0 0.0032709 -0.94799 -0.31828 0.0075766
0.20472 0.041281 0.92716 9.45e-39 158.5 241 0 0 0 0.019423 -0.95022 -0.31097 0.0067068
0.20744 0.041281 0.92716 9.4961e-39 161 241 0 0 0 0.017765 -0.95008 -0.3115 0.0075684
0.20868 0.041312 0.92785 9.2196e-39 162 241 0 0 0 0.0060248 -0.94956 -0.31353 0.0093401
0.22805 0.040739 0.92716 1.0649e-38 295 240.5 0 0 0 -0.12551 -0.84304 -0.523 0.021306
0.23085 0.040754 0.92751 1.0418e-38 297.5 240.5 0 0 0 -0.13918 -0.8091 -0.57095 0.016841
0.23221 0.040708 0.92646 9.819e-39 299 240.5 0 0 0 -0.12281 -0.80534 -0.57996 0.015588
0.28575 0.040226 0.92785 8.021e-39 457 240 0 0 0 0.084247 -0.89894 -0.4299 0.00616
0.28728 0.040211 0.92751 4.8403e-39 458.5 240 0 0 0 0.073931 -0.90568 -0.41746 0.0050211
0.28901 0.040226 0.92785 3.4112e-39 460 240 0 0 0 0.036725 -0.91678 -0.39769 0.0039321
0.29129 0.04125 0.92646 8.5281e-39 349.5 241 0 0 0 0.032778 -0.9152 -0.40166 0.0033568
0.29357 0.041266 0.92681 9.1735e-39 351.5 241 0 0 0 0.025181 -0.9182 -0.39531 0.0027197
0.2953 0.041281 0.92716 9.404e-39 353 241 0 0 0 0.0088679 -0.92199 -0.3871 0.0022449
0.2977 0.041312 0.92785 9.3118e-39 355 241 0 0 0 0.011141 -0.92474 -0.38042 0.0017846
0.29856 0.041281 0.92716 9.4961e-39 356 241 0 0 0 0.010173 -0.92414 -0.38192 0.0018119
0.21595 0.042334 0.92646 1.3276e-38 379 241 0 0 0 -0.046203 -0.93596 -0.34907 0.018753
0.21704 0.042334 0.92646 1.3461e-38 380 241 0 0 0 -0.05319 -0.93384 -0.3537 0.019842
0.21883 0.042366 0.92716 1.3276e-38 381.5 241 0 0 0 -0.07726 -0.92339 -0.37601 0.022424
0.22108 0.042924 0.92751 1.1063e-38 268 241.5 0 0 0 -0.086785 -0.90989 -0.40567 0.025025
0.22346 0.04311 0.92762 1.1002e-38 231.67 241.67 0 0 0 -0.10671 -0.89152 -0.44024 0.025209
0.22525 0.043434 0.92681 9.1735e-39 156.5 242 0 0 0 -0.10052 -0.88415 -0.45627 0.025553
0.22696 0.042637 0.92716 1.2124e-38 331.25 241.25 0 0 0 -0.11111 -0.86206 -0.49448 0.023671
0.22922 0.042924 0.92751 1.194e-38 275.5 241.5 0 0 0 -0.13633 -0.82498 -0.54848 0.01993
0.23052 0.042717 0.92693 1.2231e-38 315.33 241.33 0 0 0 -0.12513 -0.8199 -0.55867 0.018988
0.18019 0.072684 0.92646 1.4014e-38 343 256 0 0 0 -0.44534 0.3392 -0.82862 0.0050928
0.18127 0.075935 0.92646 9.5883e-39 139 258 0 0 0 -0.4584 0.3487 -0.81748 0.0044938
0.18093 0.077106 0.92751 9.7727e-39 370.5 258 0 0 0 -0.47791 0.35346 -0.80416 0.0039427
0.18094 0.078734 0.92751 1.0441e-38 266 259 0 0 0 -0.48232 0.3575 -0.79973 0.0038898
0.18154 0.080392 0.92785 1.1432e-38 160 260 0 0 0 -0.47997 0.36099 -0.79957 0.0038766
0.18271 0.080994 0.92646 1.1278e-38 314.67 260 0 0 0 -0.45935 0.36092 -0.81163 0.0043673
0.18452 0.081355 0.92646 1.2078e-38 393 260 0 0 0 -0.44406 0.36283 -0.81925 0.0047041
0.1831 0.083075 0.92751 1.134e-38 283 261 0 0 0 -0.47086 0.36557 -0.8029 0.0045554
0.1851 0.082997 0.92664 1.2331e-38 285 261 0 0 0 -0.44084 0.36676 -0.81924 0.0049436
0.18371 0.084734 0.92785 1.1248e-38 173 262 0 0 0 -0.46418 0.37007 -0.80473 0.0048734
0.18527 0.085244 0.92751 1.1109e-38 288.5 262 0 0 0 -0.44584 0.37232 -0.81401 0.0051399
0.18723 0.085691 0.92646 1.1755e-38 404.5 262 0 0 0 -0.42388 0.37408 -0.82486 0.005526
0.18588 0.086905 0.92785 1.134e-38 181 263 0 0 0 -0.44682 0.37369 -0.81284 0.005496
0.18737 0.087382 0.92716 1.3829e-38 297.5 263 0 0 0 -0.42655 0.37741 -0.82196 0.0057428
0.18886 0.087316 0.92646 1.3368e-38 299 263 0 0 0 -0.40733 0.37792 -0.83142 0.0056294
0.18683 0.089009 0.92716 1.051e-38 196 264 0 0 0 -0.43191 0.37649 -0.81958 0.0058253
0.18853 0.089042 0.92751 1.0879e-38 197.5 264 0 0 0 -0.41936 0.379 -0.82492 0.0059752
0.18697 0.090704 0.92785 1.406e-38 394.5 264.5 0 0 0 -0.43277 0.37908 -0.81793 0.006164
0.18904 0.090382 0.92733 1.5166e-38 416.75 264.25 0 0 0 -0.41486 0.38011 -0.82668 0.0058371
0.19076 0.090794 0.92693 1.2876e-38 384.67 264.67 0 0 0 -0.39984 0.38129 -0.83352 0.0057591
0.19218 0.090602 0.92681 1.2861e-38 399.5 264.5 0 0 0 -0.38545 0.37834 -0.8416 0.0056455
0.18914 0.092333 0.92785 1.1524e-38 152 266 0 0 0 -0.41946 0.38177 -0.82359 0.006067
0.19059 0.092695 0.92785 1.2477e-38 233.33 266 0 0 0 -0.40589 0.3827 -0.82994 0.0057335
0.19302 0.092648 0.92739 1.2477e-38 235.67 266 0 0 0 -0.38432 0.38207 -0.84043 0.0051384
0.19489 0.092771 0.92681 1.3807e-38 277.5 266 0 0 0 -0.36706 0.37783 -0.85001 0.0050438
0.19644 0.093278 0.92646 1.7886e-38 399 266 0 0 0 -0.35343 0.37661 -0.8563 0.0046479
0.19511 0.094504 0.92785 1.2078e-38 189.5 267 0 0 0 -0.37113 0.38436 -0.8453 0.0045525
0.19714 0.094975 0.92716 1.3714e-38 310 267 0 0 0 -0.3532 0.38042 -0.85471 0.0043967
0.19868 0.09494 0.92681 1.3368e-38 311.5 267 0 0 0 -0.34078 0.37751 -0.86102 0.0039954
0.19747 0.097037 0.92785 8.5128e-39 293 268 0 0 0 -0.35662 0.38647 -0.85057 0.0038583
0.1993 0.097145 0.92716 9.8186e-39 365.75 268 0 0 0 -0.34043 0.38197 -0.85919 0.003631
0.20136 0.09709 0.92664 1.1409e-38 399.5 268 0 0 0 -0.32763 0.37616 -0.8667 0.0034247
0.20295 0.097614 0.92646 1.2078e-38 455 268 0 0 0 -0.32147 0.37339 -0.87019 0.0033469
0.19964 0.099208 0.92785 9.8034e-39 294.33 269.33 0 0 0 -0.34583 0.38317 -0.8565 0.003272
0.201 0.099351 0.92751 1.1248e-38 260 269.5 0 0 0 -0.33693 0.37999 -0.86144 0.0032544
0.20264 0.099351 0.92751 1.1478e-38 261.5 269.5 0 0 0 -0.32914 0.37679 -0.86585 0.0031502
0.20458 0.099781 0.92646 1.0233e-38 156.5 270 0 0 0 -0.32184 0.37246 -0.87046 0.0032026
0.2048 0.10098 0.92751 1.512e-38 394.5 270 0 0 0 -0.32529 0.3733 -0.86881 0.0030492
0.20434 0.10264 0.92785 1.2446e-38 300.5 271 0 0 0 -0.33055 0.38058 -0.86365 0.002837
0.2062 0.10303 0.92646 1.4475e-38 422 271 0 0 0 -0.32435 0.3757 -0.86813 0.0028885
0.20661 0.10487 0.92669 1.008e-38 362.67 272 0 0 0 -0.32836 0.38031 -0.86461 0.0027841
0.20718 0.10678 0.92762 9.6499e-39 384.67 273 0 0 0 -0.33326 0.38963 -0.85856 0.0026912
0.20906 0.1069 0.92716 1.0165e-38 403 273 0 0 0 -0.32865 0.38544 -0.86222 0.002656
0.21062 0.10687 0.92681 1.1155e-38 404.5 273 0 0 0 -0.32497 0.37832 -0.86675 0.002742
0.20759 0.10862 0.92785 1.5489e-38 362 274 0 0 0 -0.33503 0.39596 -0.85497 0.0027722
0.20941 0.10898 0.92785 1.26e-38 291.33 274.33 0 0 0 -0.33256 0.39405 -0.85681 0.0026845
0.21124 0.10908 0.92716 1.1547e-38 257 274.5 0 0 0 -0.32635 0.38826 -0.86183 0.0026026
0.21325 0.10954 0.92646 8.9891e-39 150.5 275 0 0 0 -0.31854 0.38673 -0.86543 0.0026916
0.21487 0.10954 0.92646 1.0418e-38 152 275 0 0 0 -0.31546 0.38599 -0.86689 0.0026671
0.21194 0.11133 0.92785 1.4014e-38 272.5 275.5 0 0 0 -0.33105 0.39902 -0.8551 0.0027522
0.21322 0.11106 0.92716 1.4352e-38 310 275.33 0 0 0 -0.3248 0.39171 -0.86085 0.0027042
0.21503 0.11152 0.92716 1.1893e-38 221.25 275.75 0 0 0 -0.32039 0.38869 -0.86387 0.0028905
0.21194 0.11296 0.92785 1.6042e-38 397 276 0 0 0 -0.33407 0.40069 -0.85314 0.0028371
0.21302 0.11296 0.92785 1.4843e-38 398 276 0 0 0 -0.33088 0.39748 -0.85588 0.0028269
0.21465 0.11296 0.92785 1.4567e-38 399.5 276 0 0 0 -0.3254 0.39467 -0.85928 0.0028743
0.21643 0.11357 0.92693 1.1647e-38 256.67 276.67 0 0 0 -0.31992 0.39134 -0.86285 0.0028868
0.21867 0.11387 0.92646 9.6347e-39 186.5 277 0 0 0 -0.31223 0.38447 -0.86873 0.0028598
0.22029 0.11387 0.92646 1.1156e-38 188 277 0 0 0 -0.3088 0.38247 -0.87084 0.0026684
0.21302 0.11458 0.92785 9.6342e-39 298.5 277 0 0 0 -0.33268 0.40169 -0.85321 0.0029349
0.21465 0.11404 0.92785 1.028e-38 182.5 277 0 0 0 -0.32771 0.39876 -0.8565 0.0029028
0.21674 0.11508 0.92751 9.4501e-39 419.5 277 0 0 0 -0.32333 0.39444 -0.86016 0.0030443
0.21874 0.115 0.92681 9.5423e-39 421.5 277 0 0 0 -0.31724 0.38895 -0.86491 0.0030046
0.22046 0.11504 0.92716 1.0971e-38 423 277 0 0 0 -0.31137 0.38526 -0.86869 0.0027958
0.21695 0.11655 0.92762 1.1617e-38 279 278 0 0 0 -0.32645 0.39959 -0.8566 0.0031381
0.21895 0.11674 0.92768 1.0441e-38 320 278 0 0 0 -0.32287 0.39528 -0.85995 0.003094
0.221 0.11667 0.92716 1.0142e-38 322 278 0 0 0 -0.31249 0.39063 -0.86589 0.0028251
0.22288 0.11679 0.92669 1.0756e-38 363 278 0 0 0 -0.30602 0.38542 -0.87052 0.0026755
0.21845 0.11839 0.92785 7.7444e-39 218 279 0 0 0 -0.32391 0.40499 -0.85503 0.0031384
0.22117 0.11893 0.92785 1.4175e-38 405.5 279 0 0 0 -0.31945 0.40261 -0.85782 0.0031241
0.22312 0.11882 0.92698 1.3852e-38 327 279.25 0 0 0 -0.30915 0.39507 -0.86507 0.0027571
0.22379 0.12105 0.92751 1.3091e-38 270.5 280.5 0 0 0 -0.31153 0.40325 -0.86043 0.00291
0.22525 0.12096 0.92681 1.2654e-38 272 280.5 0 0 0 -0.30676 0.39831 -0.86443 0.0026623
0.22721 0.12113 0.92669 1.1647e-38 238 280.67 0 0 0 -0.30059 0.39462 -0.86829 0.0024111
0.22896 0.12146 0.92646 1.1617e-38 168 281 0 0 0 -0.29552 0.39182 -0.87129 0.0022784
0.23005 0.12146 0.92646 1.1524e-38 169 281 0 0 0 -0.29329 0.39029 -0.87272 0.0022461
0.22542 0.12269 0.92751 9.5423e-39 403.5 281 0 0 0 -0.31036 0.4034 -0.86078 0.0027256
0.22671 0.12342 0.92762 9.4961e-39 260.67 281.67 0 0 0 -0.30963 0.40301 -0.86122 0.0026958
0.22863 0.1232 0.92733 1.0349e-38 298.5 281.5 0 0 0 -0.30162 0.398 -0.86638 0.0023832
0.23076 0.12318 0.92716 9.7035e-39 300.5 281.5 0 0 0 -0.29601 0.39298 -0.8706 0.0022337
0.23263 0.1233 0.92669 9.8034e-39 266.33 281.67 0 0 0 -0.29151 0.38926 -0.87379 0.0021635
0.23438 0.12363 0.92646 9.404e-39 196 282 0 0 0 -0.2903 0.38612 -0.87558 0.0021979
0.22895 0.12526 0.92785 1.0172e-38 355.67 282.33 0 0 0 -0.30861 0.40303 -0.86158 0.0025652
0.23148 0.12544 0.92785 9.865e-39 322 282.5 0 0 0 -0.30106 0.39701 -0.86703 0.002249
0.23302 0.12539 0.92751 1.0879e-38 323.5 282.5 0 0 0 -0.29605 0.3926 -0.87076 0.0021466
0.2351 0.12535 0.92716 1.1962e-38 358.75 282.5 0 0 0 -0.29245 0.38896 -0.8736 0.0021541
0.23697 0.12547 0.92669 1.3737e-38 380 282.67 0 0 0 -0.29209 0.38731 -0.87446 0.0021475
0.23311 0.12707 0.92785 1.0141e-38 454.5 283 0 0 0 -0.30167 0.3952 -0.86765 0.0022617
0.23518 0.12702 0.92751 9.4962e-39 456.5 283 0 0 0 -0.29732 0.39039 -0.87132 0.0022453
0.23735 0.12702 0.92751 9.7266e-39 459 283 0 0 0 -0.29413 0.38632 -0.87421 0.0021853
0.23908 0.12724 0.92646 9.2197e-39 218 284 0 0 0 -0.29409 0.38499 -0.87481 0.0021839
0.24088 0.12796 0.92646 1.0787e-38 379 284 0 0 0 -0.29674 0.38241 -0.87505 0.0020512
0.23582 0.12816 0.92785 1.1985e-38 374 284 0 0 0 -0.29853 0.39057 -0.87082 0.0023201
0.2379 0.12865 0.92751 1.0649e-38 266 284.5 0 0 0 -0.29576 0.3865 -0.87358 0.0022963
0.23962 0.12878 0.92716 1.1217e-38 231 284.67 0 0 0 -0.29514 0.38383 -0.87497 0.0022393
0.24107 0.12914 0.92716 1.0695e-38 159 285 0 0 0 -0.29846 0.38206 -0.87461 0.0021032
0.23899 0.13082 0.92751 9.8651e-39 281.5 285.5 0 0 0 -0.30013 0.38634 -0.87216 0.0023783
0.2411 0.13079 0.92727 1.0311e-38 283.5 285.5 0 0 0 -0.30079 0.38125 -0.87417 0.0021042
0.23908 0.1325 0.92785 9.7727e-39 405 286 0 0 0 -0.30426 0.3908 -0.86874 0.0026194
0.24089 0.13286 0.92785 1.0111e-38 333.67 286.33 0 0 0 -0.30508 0.38585 -0.87066 0.0023297
0.24245 0.13309 0.92693 1.0449e-38 262.33 286.67 0 0 0 -0.30515 0.38161 -0.8725 0.002115
0.24468 0.13338 0.92646 1.1156e-38 191.5 287 0 0 0 -0.30614 0.37669 -0.87429 0.002014
0.243 0.135 0.92762 9.865e-39 354.67 287.33 0 0 0 -0.30891 0.38697 -0.86881 0.0022405
0.24486 0.13511 0.92716 1.0026e-38 320.5 287.5 0 0 0 -0.30892 0.38234 -0.87085 0.0021165
0.24685 0.13555 0.92646 8.2976e-39 214.5 288 0 0 0 -0.31002 0.37762 -0.87252 0.0020677
0.24342 0.13684 0.92785 1.0879e-38 443 288 0 0 0 -0.31218 0.39086 -0.86589 0.0024118
0.24523 0.1372 0.92785 1.0203e-38 415 288.33 0 0 0 -0.31278 0.38875 -0.86663 0.0023077
0.24699 0.13725 0.92699 9.9341e-39 402 288.5 0 0 0 -0.31194 0.38289 -0.86953 0.0022114
0.24883 0.13736 0.92646 1.0726e-38 389 288.67 0 0 0 -0.30963 0.38394 -0.8699 0.0022666
0.24722 0.13901 0.92785 1.0234e-38 140.5 290 0 0 0 -0.31465 0.39719 -0.86211 0.0026365
0.24944 0.1393 0.92739 1.0541e-38 220 290 0 0 0 -0.31195 0.3942 -0.86446 0.002658
0.25132 0.13942 0.92699 1.0303e-38 260.5 290 0 0 0 -0.3081 0.39315 -0.86632 0.0026762
0.25317 0.13953 0.92646 1.0326e-38 301 290 0 0 0 -0.30061 0.39138 -0.86975 0.0026318
0.24722 0.1401 0.92785 1.0602e-38 372.5 290 0 0 0 -0.31416 0.40361 -0.8593 0.0028571
0.24921 0.14082 0.92785 9.2503e-39 229 290.67 0 0 0 -0.31472 0.40947 -0.85632 0.0029502
0.25147 0.14113 0.92751 8.5742e-39 158.5 291 0 0 0 -0.31014 0.40802 -0.85868 0.0029725
0.253 0.14108 0.92716 9.2196e-39 160 291 0 0 0 -0.30293 0.40752 -0.86149 0.0029632
0.25453 0.14103 0.92681 1.1155e-38 161.5 291 0 0 0 -0.2941 0.40555 -0.86547 0.0029694
0.24993 0.14227 0.92785 8.021e-39 388 291 0 0 0 -0.31249 0.41932 -0.85236 0.0032747
0.25102 0.14227 0.92785 8.8508e-39 389 291 0 0 0 -0.3109 0.42183 -0.8517 0.0031591
0.25265 0.14281 0.92785 1.0095e-38 283 291.5 0 0 0 -0.30617 0.42605 -0.85132 0.0031688
0.25462 0.1427 0.92716 9.0121e-39 285 291.5 0 0 0 -0.29281 0.42011 -0.85893 0.003051
0.25642 0.14278 0.92646 9.4347e-39 251 291.67 0 0 0 -0.28223 0.41723 -0.86387 0.0030992
0.25526 0.14492 0.92751 1.0372e-38 302.5 292.5 0 0 0 -0.29207 0.43974 -0.84931 0.0031344
0.25684 0.1449 0.92733 1.0372e-38 304 292.5 0 0 0 -0.28532 0.43665 -0.85319 0.0031988
0.25536 0.14661 0.92785 1.0695e-38 425 293 0 0 0 -0.29525 0.45059 -0.84249 0.0032288
0.25717 0.14697 0.92785 1.0233e-38 354.33 293.33 0 0 0 -0.28676 0.45347 -0.84388 0.0033382
0.25823 0.14693 0.92646 9.1734e-39 319.5 293.5 0 0 0 -0.281 0.44557 -0.85 0.0034327
0.25914 0.14903 0.92716 1.0633e-38 408 294.33 0 0 0 -0.28184 0.45859 -0.84277 0.0035637
0.26114 0.14921 0.92716 9.7728e-39 394.5 294.5 0 0 0 -0.27247 0.45831 -0.846 0.0041085
0.26299 0.14932 0.92669 9.4961e-39 381 294.67 0 0 0 -0.26223 0.45537 -0.85081 0.0050741
0.26457 0.1512 0.92716 1.0357e-38 417.33 295.33 0 0 0 -0.25667 0.4643 -0.84767 0.0064877
0.267 0.15133 0.92681 1.0556e-38 403.5 295.5 0 0 0 -0.24322 0.46248 -0.85262 0.0073747
0.26907 0.15127 0.92646 1.0049e-38 405.5 295.5 0 0 0 -0.22919 0.45805 -0.85887 0.0079574
0.27937 0.15127 0.92646 1.0096e-38 255.5 296 0 0 0 -0.098489 0.44016 -0.8925 0.0082849
0.28141 0.15095 0.92785 9.1274e-39 146 296 0 0 0 -0.066596 0.44346 -0.89382 0.0086365
0.26459 0.15258 0.92785 1.0372e-38 400.5 296 0 0 0 -0.25822 0.47077 -0.84362 0.0065562
0.26675 0.15312 0.92785 9.9112e-39 450.5 296 0 0 0 -0.24838 0.47021 -0.84688 0.0074819
0.26873 0.15301 0.92716 1.0649e-38 452.5 296 0 0 0 -0.2413 0.46441 -0.85211 0.0078641
0.27069 0.15344 0.92646 1.0095e-38 400.5 296.5 0 0 0 -0.23008 0.4633 -0.85581 0.008605
0.27232 0.15398 0.92646 9.5883e-39 348 297 0 0 0 -0.21999 0.46308 -0.85858 0.0091273
0.27521 0.15325 0.92646 9.4039e-39 422.67 296.33 0 0 0 -0.1848 0.45343 -0.87192 0.0098109
0.2772 0.15344 0.92646 1.0165e-38 326 296.75 0 0 0 -0.15526 0.45067 -0.87908 0.0099915
0.27882 0.15289 0.92646 9.6805e-39 140 297 0 0 0 -0.11734 0.4455 -0.88756 0.009063
0.28033 0.15204 0.92785 1.0695e-38 367 296 0 0 0 -0.096691 0.44267 -0.89146 0.0092132
0.26513 0.15421 0.92785 7.2835e-39 219 297 0 0 0 -0.25712 0.47444 -0.8419 0.007064
0.26675 0.15421 0.92785 7.4679e-39 220.5 297 0 0 0 -0.25178 0.47305 -0.84429 0.0076329
0.26904 0.15453 0.92762 9.8957e-39 374.33 297 0 0 0 -0.24256 0.47094 -0.84816 0.008477
0.2709 0.15518 0.92716 9.5422e-39 435.5 297 0 0 0 -0.23503 0.47059 -0.85047 0.0092321
0.27307 0.15518 0.92716 1.0649e-38 437.5 297 0 0 0 -0.21831 0.46633 -0.85725 0.0099979
0.27503 0.15506 0.92646 9.6345e-39 439.5 297 0 0 0 -0.1947 0.46043 -0.86608 0.010355
0.2774 0.15518 0.92716 9.6345e-39 441.5 297 0 0 0 -0.17203 0.45926 -0.87149 0.011104
0.27913 0.15469 0.92751 1.0879e-38 398.5 297 0 0 0 -0.13042 0.45386 -0.88147 0.010208
0.2711 0.15638 0.92785 9.5882e-39 195.5 298 0 0 0 -0.23624 0.47487 -0.84775 0.0099514
0.27322 0.15689 0.92768 1.0234e-38 289.5 298 0 0 0 -0.2264 0.47261 -0.85169 0.011299
0.27523 0.15681 0.92716 1.0165e-38 291.5 298 0 0 0 -0.20306 0.46728 -0.86047 0.011903
0.27707 0.15692 0.92785 9.5884e-39 293 298 0 0 0 -0.19075 0.46656 -0.86368 0.012627
0.27816 0.15638 0.92785 1.1432e-38 203 298 0 0 0 -0.16725 0.46199 -0.87097 0.012063
0.27381 0.15909 0.92785 8.8969e-39 288 298.5 0 0 0 -0.22571 0.47494 -0.85058 0.013013
0.27534 0.15903 0.92751 9.3579e-39 289.5 298.5 0 0 0 -0.20977 0.47091 -0.85688 0.013821
0.2749 0.16072 0.92785 1.0234e-38 191 299 0 0 0 -0.2209 0.47212 -0.85341 0.015203
0.22874 0.033789 0.92995 1.2631e-38 328 238 0 0 0 -0.17107 -0.82608 -0.53696 0.018476
0.2271 0.035965 0.92995 9.6805e-39 163.5 239 0 0 0 -0.18031 -0.82704 -0.53244 0.017563
0.2291 0.035394 0.92925 9.957e-39 287 238.5 0 0 0 -0.16998 -0.80828 -0.56373 0.016964
0.23158 0.035593 0.92972 1.1033e-38 248.67 238.67 0 0 0 -0.15245 -0.80822 -0.5688 0.015805
0.23327 0.035575 0.92925 1.0449e-38 250.33 238.67 0 0 0 -0.13283 -0.80828 -0.57362 0.016114
0.23478 0.035222 0.92948 1.0111e-38 332.67 238.33 0 0 0 -0.12028 -0.81558 -0.566 0.017096
0.23671 0.035394 0.92925 9.6345e-39 294 238.5 0 0 0 -0.10079 -0.8283 -0.55115 0.018285
0.2389 0.035394 0.92925 1.0372e-38 296 238.5 0 0 0 -0.085868 -0.82476 -0.55892 0.019039
0.24115 0.035951 0.9296 9.4961e-39 176.5 239 0 0 0 -0.072777 -0.82042 -0.56712 0.018674
0.24333 0.035951 0.9296 9.1274e-39 178.5 239 0 0 0 -0.048631 -0.83217 -0.55238 0.020799
0.24506 0.035965 0.92995 9.5883e-39 180 239 0 0 0 -0.037657 -0.84569 -0.53235 0.022705
0.24668 0.035965 0.92995 8.9891e-39 181.5 239 0 0 0 -0.031534 -0.85916 -0.51073 0.023599
0.24941 0.035965 0.92995 1.0049e-38 184 239 0 0 0 -0.021927 -0.8629 -0.50489 0.022424
0.25139 0.035938 0.92925 8.7586e-39 186 239 0 0 0 -0.014481 -0.84906 -0.5281 0.021498
0.25302 0.035394 0.92925 9.5422e-39 309 238.5 0 0 0 -0.0067016 -0.8491 -0.52819 0.021851
0.25446 0.035911 0.92855 8.482e-39 189 239 0 0 0 -0.013228 -0.83317 -0.55286 0.020618
0.22438 0.037053 0.92995 1.1248e-38 353 239 0 0 0 -0.1677 -0.8442 -0.50912 0.01922
0.22702 0.037039 0.9296 9.1274e-39 355.5 239 0 0 0 -0.16993 -0.82834 -0.53383 0.018015
0.22902 0.037012 0.9289 9.957e-39 357.5 239 0 0 0 -0.15964 -0.81684 -0.55434 0.017253
0.2312 0.037012 0.9289 1.0326e-38 359.5 239 0 0 0 -0.14661 -0.8108 -0.56667 0.01617
0.23274 0.036998 0.92855 1.0971e-38 361 239 0 0 0 -0.13427 -0.80757 -0.57429 0.015903
0.24034 0.036998 0.92855 1.2815e-38 368 239 0 0 0 -0.077671 -0.81482 -0.57449 0.017338
0.24795 0.036998 0.92855 1.3368e-38 375 239 0 0 0 -0.044303 -0.82101 -0.56919 0.019114
0.22493 0.038685 0.92995 8.8508e-39 318 239.5 0 0 0 -0.16036 -0.84618 -0.5082 0.019627
0.22693 0.038657 0.92925 1.0118e-38 349.5 239.5 0 0 0 -0.16914 -0.81976 -0.54717 0.017467
0.22917 0.038456 0.92878 1.1063e-38 400.33 239.33 0 0 0 -0.15603 -0.81361 -0.56008 0.017166
0.23098 0.038456 0.92878 1.1279e-38 402 239.33 0 0 0 -0.14644 -0.81011 -0.56769 0.016277
0.28749 0.039229 0.92995 1.0049e-38 364 240 0 0 0 0.046758 -0.92022 -0.38859 0.0041122
0.28912 0.039229 0.92995 1.134e-38 365.5 240 0 0 0 0.028406 -0.92552 -0.37763 0.0034679
0.30054 0.039229 0.92995 1.4014e-38 376 240 0 0 0 -0.010794 -0.93237 -0.36133 0.0022631
0.1933 0.040302 0.9296 1.4198e-38 377.5 240 0 0 0 -0.13789 -0.93358 -0.33077 0.017914
0.19471 0.040257 0.92855 1.3737e-38 379 240 0 0 0 -0.12407 -0.93468 -0.33314 0.018094
0.19906 0.040257 0.92855 1.3553e-38 383 240 0 0 0 -0.020312 -0.94417 -0.32882 0.010616
0.2003 0.040287 0.92925 1.3645e-38 384 240 0 0 0 0.0046161 -0.94643 -0.32287 0.0083329
0.20341 0.041343 0.92855 8.6664e-39 157 241 0 0 0 0.024597 -0.9486 -0.31551 0.0067858
0.2107 0.04139 0.9296 9.1274e-39 163.5 241 0 0 0 -0.015169 -0.94228 -0.33448 0.013963
0.2135 0.041405 0.92995 9.9571e-39 166 241 0 0 0 -0.04757 -0.93393 -0.35427 0.018508
0.2149 0.041359 0.9289 1.0971e-38 167.5 241 0 0 0 -0.065953 -0.93164 -0.35735 0.020725
0.21786 0.041405 0.92995 9.404e-39 170 241 0 0 0 -0.08878 -0.91557 -0.39223 0.021977
0.21878 0.04083 0.92925 1.0003e-38 286 240.5 0 0 0 -0.089847 -0.91654 -0.38972 0.022222
0.22058 0.041405 0.92995 9.2196e-39 172.5 241 0 0 0 -0.12527 -0.89142 -0.43552 0.022895
0.22275 0.041405 0.92995 9.7266e-39 174.5 241 0 0 0 -0.13562 -0.87393 -0.46675 0.022308
0.22476 0.040831 0.92925 1.0026e-38 291.5 240.5 0 0 0 -0.13914 -0.86151 -0.4883 0.022069
0.22677 0.0408 0.92855 9.5422e-39 293.5 240.5 0 0 0 -0.15308 -0.83445 -0.52939 0.020208
0.22948 0.0408 0.92855 1.1156e-38 296 240.5 0 0 0 -0.14905 -0.8148 -0.56025 0.017742
0.29085 0.040257 0.92855 3.0886e-39 461.5 240 0 0 0 0.037407 -0.91928 -0.39181 0.0029611
0.29314 0.040272 0.9289 2.9503e-39 463.5 240 0 0 0 0.016269 -0.92377 -0.38261 0.0029619
0.29542 0.040287 0.92925 9.45e-39 141.5 241 0 0 0 -0.0054665 -0.92879 -0.37057 0.0020569
0.29683 0.041343 0.92855 9.2196e-39 354 241 0 0 0 0.00037081 -0.92719 -0.37458 0.0020288
0.29923 0.040287 0.92925 8.943e-39 145 241 0 0 0 -0.00035616 -0.92936 -0.36916 0.0020599
0.30009 0.040257 0.92855 8.6664e-39 146 241 0 0 0 0.0075335 -0.92734 -0.37414 0.0019276
0.22187 0.042429 0.92855 1.3461e-38 384 241 0 0 0 -0.11429 -0.8917 -0.43797 0.025026
0.22296 0.042429 0.92855 1.3276e-38 385 241 0 0 0 -0.11907 -0.88198 -0.45599 0.02441
0.22513 0.042429 0.92855 1.3645e-38 387 241 0 0 0 -0.1244 -0.86908 -0.47878 0.02417
0.17964 0.079425 0.92925 1.1985e-38 380 259 0 0 0 -0.51333 0.35623 -0.78077 0.003148
0.17978 0.081117 0.92995 9.6805e-39 273 260 0 0 0 -0.51327 0.3579 -0.78004 0.0032304
0.181 0.081197 0.92878 9.9265e-39 312.67 260 0 0 0 -0.49759 0.3632 -0.78771 0.0036653
0.18127 0.083231 0.92925 1.1432e-38 281 261 0 0 0 -0.49415 0.36358 -0.7897 0.0040509
0.18141 0.084925 0.92995 1.2308e-38 170.5 262 0 0 0 -0.49372 0.36214 -0.79063 0.0044565
0.18317 0.085543 0.92878 1.2262e-38 324.33 262 0 0 0 -0.47068 0.36996 -0.80099 0.0048331
0.18195 0.086013 0.92995 1.3e-38 399 262 0 0 0 -0.48436 0.36596 -0.79465 0.0048101
0.18345 0.087036 0.92925 1.2262e-38 178.5 263 0 0 0 -0.47207 0.36842 -0.80088 0.0051428
0.18494 0.08697 0.92855 1.1617e-38 180 263 0 0 0 -0.45852 0.373 -0.80662 0.0054379
0.18351 0.0887 0.9296 1.2815e-38 300.5 263.5 0 0 0 -0.46765 0.36686 -0.80419 0.0057649
0.18494 0.0886 0.92855 1.3276e-38 302 263.5 0 0 0 -0.45727 0.37213 -0.80773 0.0057064
0.18602 0.0886 0.92855 1.3414e-38 303 263.5 0 0 0 -0.44725 0.37526 -0.81188 0.0060033
0.18351 0.090331 0.9296 1.4383e-38 431.5 264 0 0 0 -0.46454 0.36735 -0.80576 0.0060424
0.18476 0.091045 0.92948 1.2785e-38 378.67 264.67 0 0 0 -0.45081 0.37276 -0.81106 0.0064981
0.18609 0.090806 0.9289 1.3414e-38 393.5 264.5 0 0 0 -0.44317 0.37669 -0.81345 0.0063367
0.1882 0.091316 0.92855 1.3922e-38 355 265 0 0 0 -0.42511 0.3813 -0.82091 0.0063237
0.18481 0.09288 0.92972 1.0879e-38 227.67 266 0 0 0 -0.44787 0.37164 -0.8132 0.0067446
0.18664 0.09298 0.9289 1.2055e-38 269.5 266 0 0 0 -0.43424 0.37885 -0.81726 0.0067271
0.18861 0.09315 0.92878 1.3184e-38 311.33 266 0 0 0 -0.42051 0.38165 -0.82311 0.006219
0.19146 0.093488 0.92855 1.5489e-38 394 266 0 0 0 -0.40325 0.38451 -0.83039 0.0056238
0.19254 0.093488 0.92855 1.5212e-38 395 266 0 0 0 -0.39464 0.38485 -0.83436 0.0054849
0.18522 0.094717 0.92995 1.1893e-38 180 267 0 0 0 -0.44348 0.37112 -0.81584 0.0068518
0.18693 0.095032 0.92948 1.2938e-38 260.67 267 0 0 0 -0.4315 0.37609 -0.81998 0.0066087
0.18892 0.095207 0.92943 1.4152e-38 302 267 0 0 0 -0.41819 0.38032 -0.82491 0.0062122
0.19098 0.095154 0.9289 1.3898e-38 304 267 0 0 0 -0.40568 0.38343 -0.8297 0.0055185
0.19312 0.095136 0.92873 1.323e-38 306 267 0 0 0 -0.38931 0.38507 -0.83675 0.0049543
0.19526 0.095661 0.92855 1.4889e-38 426.5 267 0 0 0 -0.37435 0.38892 -0.84179 0.0043159
0.18725 0.097364 0.92925 1.0833e-38 322.5 268 0 0 0 -0.42285 0.37657 -0.82426 0.0066915
0.18896 0.0974 0.9296 1.0003e-38 324 268 0 0 0 -0.41372 0.38121 -0.82675 0.0058987
0.19105 0.097364 0.92925 9.2888e-39 326 268 0 0 0 -0.40384 0.38409 -0.83029 0.0053265
0.19323 0.097364 0.92925 9.3578e-39 328 268 0 0 0 -0.38906 0.3894 -0.83486 0.0046319
0.19526 0.097291 0.92855 1.028e-38 330 268 0 0 0 -0.3741 0.3883 -0.84218 0.0041171
0.19689 0.097834 0.92855 1.1432e-38 449 268 0 0 0 -0.36642 0.38875 -0.84535 0.0039956
0.18739 0.099069 0.92995 1.051e-38 354 269 0 0 0 -0.4183 0.37115 -0.82902 0.0065288
0.18957 0.099069 0.92995 1.0602e-38 356 269 0 0 0 -0.40862 0.37963 -0.83 0.0056786
0.1912 0.099069 0.92995 9.6805e-39 357.5 269 0 0 0 -0.39861 0.38548 -0.83217 0.0049818
0.19337 0.099069 0.92995 1.0557e-38 359.5 269 0 0 0 -0.38928 0.38731 -0.83574 0.0044354
0.19533 0.098958 0.9289 1.0602e-38 361.5 269 0 0 0 -0.37565 0.38834 -0.84147 0.0039294
0.19743 0.09892 0.92855 8.7125e-39 363.5 269 0 0 0 -0.36141 0.38693 -0.84833 0.0036064
0.18739 0.10016 0.92995 9.4961e-39 140 270 0 0 0 -0.41297 0.37156 -0.8315 0.0063914
0.18957 0.1007 0.92995 1.2631e-38 261 270 0 0 0 -0.40398 0.37625 -0.83381 0.005531
0.19138 0.10052 0.92995 1.1986e-38 223 270 0 0 0 -0.39267 0.38332 -0.83599 0.0047965
0.19337 0.1007 0.92995 1.2746e-38 264.5 270 0 0 0 -0.386 0.38452 -0.83854 0.004072
0.19541 0.10063 0.92925 1.2746e-38 266.5 270 0 0 0 -0.37594 0.38658 -0.84215 0.003784
0.19704 0.10063 0.92925 1.2308e-38 268 270 0 0 0 -0.36544 0.38823 -0.84601 0.0034879
0.19863 0.10061 0.92908 1.2723e-38 269.5 270 0 0 0 -0.35868 0.38824 -0.84889 0.0033491
0.20069 0.10109 0.92855 1.5996e-38 390.5 270 0 0 0 -0.34514 0.38574 -0.85562 0.003065
