# .PCD v.7 - Point Cloud Data file format
VERSION .7
FIELDS x y z rgb u v vx vy vz normal_x normal_y normal_z curvature
SIZE 4 4 4 4 4 4 4 4 4 4 4 4 4
TYPE F F F F F F F F F F F F F
COUNT 1 1 1 1 1 1 1 1 1 1 1 1 1
WIDTH 550
HEIGHT 1
VIEWPOINT 0 0 0 1 0 0 0
POINTS 550
DATA ascii
-0.050875 0.076801 1.0168 9.773e-39 153 260.5 0 0 0 -0.17326 -0.71504 -0.67727 0.025651
-0.04907 0.077364 1.0164 9.0352e-39 158.5 261 0 0 0 -0.17566 -0.72038 -0.67097 0.025982
-0.046692 0.077364 1.0164 1.0141e-38 160.5 261 0 0 0 -0.1502 -0.74302 -0.6522 0.018311
-0.044908 0.077364 1.0164 1.0142e-38 162 261 0 0 0 -0.13416 -0.76133 -0.63434 0.013271
-0.043142 0.077396 1.0168 9.2196e-39 163.5 261 0 0 0 -0.11076 -0.78335 -0.61163 0.0073564
-0.040746 0.077364 1.0164 9.5883e-39 165.5 261 0 0 0 -0.085361 -0.80346 -0.58921 0.0030435
-0.038963 0.077364 1.0164 1.0418e-38 167 261 0 0 0 -0.075683 -0.81676 -0.572 0.0019014
-0.037194 0.076801 1.0168 9.8879e-39 164.5 260.5 0 0 0 -0.06611 -0.82678 -0.55863 0.0016934
-0.035018 0.076613 1.017 1.0111e-38 165 260.33 0 0 0 -0.0637 -0.83424 -0.54771 0.0019955
-0.033044 0.076238 1.0173 9.2196e-39 164 260 0 0 0 -0.058308 -0.8405 -0.53867 0.0022241
-0.031246 0.076206 1.0168 9.5422e-39 165.5 260 0 0 0 -0.060002 -0.84472 -0.53183 0.0024353
0.0014697 0.076175 1.0164 1.0879e-38 377 260 0 0 0 0.10347 -0.87258 -0.47738 0.0026331
0.0032551 0.076206 1.0168 1.2723e-38 378.5 260 0 0 0 0.11515 -0.86657 -0.4856 0.0029962
0.0050414 0.076238 1.0173 1.217e-38 386 260 0 0 0 0.12543 -0.8604 -0.49394 0.0035821
0.0068241 0.076206 1.0168 1.0879e-38 387.5 260 0 0 0 0.14489 -0.8553 -0.49747 0.0042973
0.0094003 0.076989 1.0167 1.2938e-38 396.33 260.67 0 0 0 0.17402 -0.84354 -0.50809 0.0061275
0.010983 0.077364 1.0164 1.2354e-38 401 261 0 0 0 0.20035 -0.82963 -0.52112 0.0079253
0.012767 0.077364 1.0164 1.1432e-38 402.5 261 0 0 0 0.22808 -0.8149 -0.53284 0.010458
0.015151 0.077396 1.0168 1.1063e-38 404.5 261 0 0 0 0.25233 -0.79709 -0.54862 0.012473
0.016929 0.077364 1.0164 1.0879e-38 406 261 0 0 0 0.26807 -0.78813 -0.55406 0.012745
0.018133 0.077428 1.0173 1.0787e-38 407 261 0 0 0 0.2739 -0.78213 -0.55969 0.013179
-0.069344 0.079808 1.0173 1.0741e-38 144.5 263 0 0 0 -0.29732 -0.38725 -0.87272 0.06946
-0.06695 0.079197 1.0171 9.5422e-39 146.5 262.5 0 0 0 -0.27858 -0.45242 -0.84718 0.066686
-0.065151 0.07918 1.0168 9.3118e-39 148 262.5 0 0 0 -0.28498 -0.45163 -0.84547 0.068764
-0.063177 0.07939 1.017 9.0967e-39 149.67 262.67 0 0 0 -0.27793 -0.49171 -0.82521 0.069257
-0.061178 0.078971 1.0167 9.4347e-39 151.33 262.33 0 0 0 -0.27192 -0.52741 -0.80492 0.064124
-0.059179 0.078553 1.0164 9.5883e-39 153 262 0 0 0 -0.25385 -0.57181 -0.78013 0.057436
-0.05799 0.078553 1.0164 9.1274e-39 154 262 0 0 0 -0.24544 -0.58314 -0.77441 0.056438
0.018713 0.078553 1.0164 1.3368e-38 411.5 262 0 0 0 0.28608 -0.7755 -0.56281 0.013829
0.0211 0.07918 1.0168 1.2446e-38 412.5 262.5 0 0 0 0.32223 -0.75775 -0.56743 0.014429
0.022884 0.07918 1.0168 1.1479e-38 414 262.5 0 0 0 0.3483 -0.74276 -0.57183 0.014243
-0.075295 0.080998 1.0173 1.1571e-38 534.5 263 0 0 0 -0.34986 -0.22732 -0.90881 0.072828
-0.072914 0.080998 1.0173 1.3138e-38 536.5 263 0 0 0 -0.33255 -0.25158 -0.90891 0.074715
-0.071129 0.080998 1.0173 1.2539e-38 538 263 0 0 0 -0.33072 -0.28025 -0.90115 0.072987
-0.069286 0.080932 1.0164 1.3092e-38 539.5 263 0 0 0 -0.3208 -0.2888 -0.90204 0.073436
-0.066908 0.080932 1.0164 1.452e-38 541.5 263 0 0 0 -0.3162 -0.34856 -0.88234 0.074948
-0.065125 0.080932 1.0164 1.4751e-38 543 263 0 0 0 -0.30542 -0.3863 -0.87034 0.07598
-0.063935 0.080932 1.0164 1.3737e-38 544 263 0 0 0 -0.3012 -0.39414 -0.86829 0.076715
0.022875 0.080932 1.0164 1.1063e-38 396 264 0 0 0 0.37373 -0.72388 -0.57993 0.019301
0.024084 0.080998 1.0173 1.217e-38 397 264 0 0 0 0.38418 -0.71832 -0.58001 0.018961
-0.07827 0.082784 1.0173 1.1294e-38 441.5 264.5 0 0 0 -0.39239 -0.084462 -0.91591 0.07198
-0.07708 0.082784 1.0173 1.2216e-38 442.5 264.5 0 0 0 -0.38679 -0.069853 -0.91952 0.071947
-0.075264 0.08275 1.0168 1.0925e-38 444 264.5 0 0 0 -0.36885 -0.10356 -0.9237 0.072025
-0.072884 0.08275 1.0168 1.0603e-38 446 264.5 0 0 0 -0.35003 -0.14637 -0.92523 0.073705
-0.071071 0.082715 1.0164 9.1734e-39 474.5 264.5 0 0 0 -0.34842 -0.17232 -0.92136 0.073873
-0.069881 0.082121 1.0164 5.7161e-39 515 264 0 0 0 -0.33636 -0.22726 -0.9139 0.076153
-0.063935 0.082121 1.0164 5.4395e-39 520 264 0 0 0 -0.32675 -0.31496 -0.89109 0.082876
0.024474 0.082959 1.017 9.9571e-39 231.67 265.67 0 0 0 0.42664 -0.67481 -0.60216 0.026156
0.026464 0.083379 1.0173 1.0142e-38 162 266 0 0 0 0.47006 -0.65378 -0.59297 0.024417
-0.07827 0.085164 1.0173 1.3368e-38 383.5 266.5 0 0 0 -0.4109 0.077027 -0.90842 0.065549
-0.07708 0.085164 1.0173 1.3276e-38 384.5 266.5 0 0 0 -0.41092 0.060873 -0.90964 0.069617
-0.075279 0.085147 1.0171 1.2815e-38 386 266.5 0 0 0 -0.39702 0.040395 -0.91692 0.073009
-0.07287 0.085111 1.0166 1.1963e-38 388 266.5 0 0 0 -0.38422 -0.0040893 -0.92323 0.072537
-0.071071 0.085093 1.0164 1.1478e-38 389.5 266.5 0 0 0 -0.37466 -0.0134 -0.92706 0.074482
0.027243 0.084919 1.0167 1.0387e-38 507.67 266.33 0 0 0 0.50208 -0.61828 -0.60469 0.025791
-0.072914 0.086949 1.0173 9.4962e-39 152.5 268 0 0 0 -0.4011 0.13685 -0.90575 0.069657
-0.071071 0.086878 1.0164 1.0326e-38 154 268 0 0 0 -0.39985 0.10918 -0.91006 0.071801
-0.069881 0.086878 1.0164 1.0049e-38 155 268 0 0 0 -0.39141 0.10176 -0.91457 0.073407
-0.072319 0.088139 1.0173 1.2907e-38 515 268 0 0 0 -0.41479 0.19496 -0.88878 0.06782
-0.071129 0.088139 1.0173 1.2446e-38 516 268 0 0 0 -0.40366 0.19962 -0.89287 0.069779
-0.069108 0.088487 1.0167 1.1985e-38 492.33 268.33 0 0 0 -0.40279 0.17935 -0.89755 0.071555
-0.067125 0.088884 1.0167 1.2354e-38 468.67 268.67 0 0 0 -0.4122 0.17501 -0.89413 0.074762
-0.068749 0.09052 1.0173 1.1432e-38 391 270 0 0 0 -0.41196 0.28764 -0.86461 0.061557
-0.066963 0.09052 1.0173 1.051e-38 392.5 270 0 0 0 -0.40969 0.2809 -0.8679 0.06477
-0.065125 0.091634 1.0164 1.0234e-38 158 271 0 0 0 -0.42151 0.32714 -0.84576 0.06189
-0.063935 0.091039 1.0164 1.0326e-38 277 270.5 0 0 0 -0.43589 0.27427 -0.85719 0.068575
-0.065178 0.0929 1.0173 6.4537e-39 490 271 0 0 0 -0.4227 0.36895 -0.82777 0.054214
-0.063367 0.092862 1.0168 6.4998e-39 491.5 271 0 0 0 -0.44028 0.3555 -0.82448 0.057155
-0.062798 0.09409 1.0173 1.1524e-38 411 272 0 0 0 -0.44748 0.40718 -0.79622 0.04694
-0.061557 0.095202 1.0164 1.134e-38 148 273 0 0 0 -0.45051 0.44 -0.77681 0.038321
-0.059179 0.095202 1.0164 1.1617e-38 150 273 0 0 0 -0.46003 0.42605 -0.77901 0.040457
-0.060418 0.09647 1.0173 1.0234e-38 468 273 0 0 0 -0.45686 0.46714 -0.757 0.030475
-0.058632 0.097066 1.0173 1.217e-38 425.5 273.5 0 0 0 -0.46616 0.47421 -0.74687 0.026891
-0.057395 0.096986 1.0164 1.134e-38 426.5 273.5 0 0 0 -0.46861 0.46115 -0.75349 0.030675
-0.056847 0.098851 1.0173 1.4106e-38 521 274 0 0 0 -0.46026 0.51175 -0.72544 0.017603
-0.055016 0.098769 1.0164 1.406e-38 522.5 274 0 0 0 -0.46646 0.50281 -0.72774 0.019794
-0.053233 0.099959 1.0164 1.2539e-38 436 275 0 0 0 -0.46072 0.5304 -0.71163 0.012925
-0.055062 0.10004 1.0173 1.1109e-38 434.5 275 0 0 0 -0.45944 0.53619 -0.7081 0.011358
-0.050854 0.10115 1.0164 1.2539e-38 164 276 0 0 0 -0.4495 0.55888 -0.69685 0.0063974
-0.050896 0.10242 1.0173 1.3922e-38 459 276 0 0 0 -0.44564 0.57151 -0.68905 0.0045526
-0.049296 0.10319 1.017 1.2508e-38 269.67 276.67 0 0 0 -0.43823 0.575 -0.69089 0.0047625
-0.047287 0.10353 1.0164 1.1156e-38 176 277 0 0 0 -0.43527 0.57566 -0.6922 0.0051639
-0.046098 0.10472 1.0164 1.429e-38 463 277 0 0 0 -0.43469 0.56682 -0.69983 0.0060102
-0.044945 0.10599 1.0173 1.0787e-38 178 278 0 0 0 -0.43196 0.55368 -0.71193 0.0069881
-0.043125 0.1059 1.0164 1.0602e-38 179.5 278 0 0 0 -0.42493 0.55385 -0.71602 0.0072662
0.015753 0.1048 1.0173 1.2539e-38 515 277 0 0 0 0.74697 0.52243 -0.41123 0.014001
-0.04316 0.10718 1.0173 1.429e-38 459.5 278 0 0 0 -0.429 0.5386 -0.72516 0.0075994
-0.041341 0.10709 1.0164 1.5304e-38 461 278 0 0 0 -0.42191 0.54393 -0.72535 0.0077789
-0.04056 0.10871 1.0167 1.1402e-38 263.33 279 0 0 0 -0.42351 0.52524 -0.73808 0.0077183
-0.038963 0.10947 1.0164 1.1524e-38 448 279 0 0 0 -0.41824 0.5173 -0.74664 0.0076114
-0.037773 0.10947 1.0164 1.2446e-38 449 279 0 0 0 -0.41768 0.51756 -0.74678 0.0076995
0.012172 0.10888 1.0164 1.3599e-38 439.5 279 0 0 0 0.71773 0.49812 -0.48656 0.022371
-0.040185 0.11134 1.0173 1.2124e-38 282 280 0 0 0 -0.42589 0.50012 -0.75399 0.0066304
-0.038979 0.1113 1.0168 1.2031e-38 283 280 0 0 0 -0.42063 0.50365 -0.75459 0.006709
-0.037194 0.1113 1.0168 1.1732e-38 284.5 280 0 0 0 -0.41306 0.50248 -0.75954 0.0064109
0.012182 0.11075 1.0173 9.9571e-39 365 280 0 0 0 0.72723 0.47371 -0.49673 0.021031
-0.038995 0.11313 1.0173 1.678e-38 506 280 0 0 0 -0.42006 0.49025 -0.76368 0.00607
-0.037194 0.11309 1.0168 1.5857e-38 507.5 280 0 0 0 -0.41345 0.49362 -0.76511 0.0058961
-0.037011 0.11472 1.0173 1.1402e-38 392 281 0 0 0 -0.41186 0.47898 -0.77521 0.0050455
-0.0348 0.11482 1.0164 1.2169e-38 406.5 281 0 0 0 -0.40192 0.48388 -0.77738 0.0049725
0.010987 0.11487 1.0168 1.2953e-38 445 281 0 0 0 0.70461 0.46626 -0.5349 0.022097
-0.034815 0.11725 1.0168 1.323e-38 346 281.5 0 0 0 -0.40129 0.46549 -0.78885 0.0041553
-0.033017 0.1172 1.0164 1.3323e-38 347.5 281.5 0 0 0 -0.39668 0.46986 -0.78859 0.004082
-0.031827 0.1178 1.0164 1.1063e-38 184 282 0 0 0 -0.3937 0.46951 -0.79029 0.004117
0.009794 0.1178 1.0164 1.1709e-38 386 282 0 0 0 0.66143 0.48114 -0.57534 0.024028
-0.034234 0.11908 1.0173 1.2446e-38 408 282 0 0 0 -0.39954 0.45228 -0.79738 0.0036535
-0.033044 0.11908 1.0173 1.3092e-38 409 282 0 0 0 -0.39502 0.45502 -0.79807 0.0036185
-0.031232 0.11899 1.0164 1.4613e-38 410.5 282 0 0 0 -0.38916 0.45832 -0.79906 0.0037471
0.0091994 0.11899 1.0164 1.1524e-38 444.5 282 0 0 0 0.62965 0.49684 -0.59723 0.024955
-0.033044 0.12027 1.0173 1.1063e-38 467 282 0 0 0 -0.39571 0.44547 -0.8031 0.0034926
-0.031252 0.12084 1.0171 1.3483e-38 495.5 282 0 0 0 -0.38754 0.44658 -0.80646 0.0035366
-0.029449 0.12077 1.0164 1.3368e-38 497 282 0 0 0 -0.37413 0.45547 -0.80782 0.0036831
0.0074156 0.12136 1.0164 1.051e-38 163 283 0 0 0 0.56041 0.53417 -0.63293 0.027693
0.009794 0.12077 1.0164 1.217e-38 334 282.5 0 0 0 0.63157 0.498 -0.59423 0.025296
-0.030663 0.12265 1.0173 9.8649e-39 182 283 0 0 0 -0.37962 0.44096 -0.81329 0.0036879
-0.028672 0.12301 1.017 1.1063e-38 253.33 283 0 0 0 -0.36856 0.44961 -0.81365 0.0039062
-0.027071 0.12374 1.0164 1.3368e-38 394 283 0 0 0 -0.35251 0.46491 -0.81215 0.00466
-0.025287 0.12374 1.0164 1.4936e-38 395.5 283 0 0 0 -0.33918 0.47968 -0.80923 0.0053679
-0.023503 0.12374 1.0164 1.512e-38 397 283 0 0 0 -0.32482 0.49263 -0.80735 0.0059208
0.0074156 0.12255 1.0164 1.1801e-38 377 283 0 0 0 0.55944 0.53281 -0.63493 0.02893
0.0086048 0.12255 1.0164 1.3461e-38 378 283 0 0 0 0.58743 0.51689 -0.6227 0.02602
-0.027093 0.12503 1.0173 1.2907e-38 438 283 0 0 0 -0.34918 0.46392 -0.81416 0.0047892
-0.025308 0.12503 1.0173 1.4198e-38 439.5 283 0 0 0 -0.33415 0.48104 -0.81052 0.0057025
-0.023503 0.12493 1.0164 1.2723e-38 441 283 0 0 0 -0.31707 0.50233 -0.80445 0.0066125
0.0062265 0.12493 1.0164 1.1248e-38 466 283 0 0 0 0.49847 0.56312 -0.65911 0.030306
-0.022723 0.12658 1.017 1.4536e-38 495.67 283 0 0 0 -0.30436 0.50884 -0.80527 0.0071088
-0.021125 0.12731 1.0164 1.595e-38 523 283 0 0 0 -0.28074 0.52917 -0.80073 0.0083312
-0.019341 0.12731 1.0164 1.4936e-38 524.5 283 0 0 0 -0.25293 0.54811 -0.79725 0.0096361
-0.017557 0.12731 1.0164 1.3461e-38 526 283 0 0 0 -0.22084 0.56727 -0.79337 0.010906
0.0014697 0.12731 1.0164 9.2196e-39 148 284 0 0 0 0.3169 0.61072 -0.72567 0.029449
0.0032535 0.12731 1.0164 1.0141e-38 149.5 284 0 0 0 0.38867 0.60393 -0.69585 0.030564
0.0050414 0.12741 1.0173 1.0142e-38 151 284 0 0 0 0.4482 0.58687 -0.67432 0.030791
0.0062316 0.12622 1.0173 1.6503e-38 507 283 0 0 0 0.48983 0.57616 -0.6543 0.031599
-0.018762 0.1286 1.0173 1.0326e-38 162 284 0 0 0 -0.23485 0.56332 -0.79216 0.0098425
-0.01697 0.12855 1.0168 1.0279e-38 163.5 284 0 0 0 -0.21191 0.56957 -0.79416 0.010974
-0.01479 0.12937 1.017 1.051e-38 182.67 284 0 0 0 -0.16157 0.59908 -0.78422 0.012332
-0.012811 0.1298 1.0173 9.4961e-39 193 284 0 0 0 -0.1128 0.61728 -0.77861 0.014139
-0.011022 0.12975 1.0168 8.8047e-39 194.5 284 0 0 0 -0.066222 0.63043 -0.77342 0.015624
-0.0086454 0.1298 1.0173 8.8508e-39 196.5 284 0 0 0 0.0058176 0.64905 -0.76072 0.018673
-0.0068546 0.12969 1.0164 9.9571e-39 198 284 0 0 0 0.043917 0.65252 -0.7565 0.020488
-0.005075 0.1298 1.0173 1.0141e-38 199.5 284 0 0 0 0.095895 0.64974 -0.75408 0.023759
-0.0026924 0.1285 1.0164 1.0234e-38 175.5 284 0 0 0 0.16783 0.64308 -0.74718 0.026559
-0.00090865 0.1285 1.0164 1.0879e-38 177 284 0 0 0 0.22918 0.63703 -0.73598 0.028609
0.00028076 0.1286 1.0173 1.0695e-38 178 284 0 0 0 0.27604 0.63531 -0.72124 0.029523
-0.035483 0.073979 1.019 1.512e-38 545 257 0 0 0 -0.048377 -0.83555 -0.54729 0.0019548
-0.033098 0.073979 1.019 8.943e-39 139 258 0 0 0 -0.048501 -0.84133 -0.53835 0.0023205
-0.030714 0.073979 1.019 9.1274e-39 141 258 0 0 0 -0.050506 -0.8455 -0.53158 0.0025739
-0.028926 0.073979 1.019 1.0003e-38 142.5 258 0 0 0 -0.051665 -0.84785 -0.52772 0.0027167
-0.027138 0.073979 1.019 9.4961e-39 144 258 0 0 0 -0.050161 -0.84986 -0.52461 0.0027819
-0.025541 0.073561 1.0187 9.0044e-39 145.33 257.67 0 0 0 -0.050457 -0.85213 -0.5209 0.0027812
-0.022956 0.073949 1.0186 9.6807e-39 152.5 258 0 0 0 -0.04916 -0.85664 -0.51357 0.0028303
-0.02116 0.073918 1.0181 1.0234e-38 154 258 0 0 0 -0.047924 -0.86082 -0.50666 0.0027268
-0.019389 0.073979 1.019 8.2515e-39 155.5 258 0 0 0 -0.038301 -0.86241 -0.50477 0.002798
-0.016998 0.073949 1.0186 7.9288e-39 157.5 258 0 0 0 -0.027991 -0.86666 -0.49811 0.0027188
-0.014615 0.073949 1.0186 8.989e-39 159.5 258 0 0 0 -0.011388 -0.86957 -0.49368 0.0027646
-0.012822 0.073918 1.0181 1.0326e-38 161 258 0 0 0 -0.00034336 -0.87299 -0.48774 0.0027618
-0.01104 0.073949 1.0186 1.0649e-38 162.5 258 0 0 0 0.012167 -0.87384 -0.48606 0.0028145
-0.008656 0.073949 1.0186 1.0003e-38 164.5 258 0 0 0 0.029588 -0.87394 -0.48513 0.0030837
-0.0068659 0.073918 1.0181 9.9571e-39 166 258 0 0 0 0.045119 -0.874 -0.48382 0.003133
-0.0050792 0.073918 1.0181 1.0234e-38 167.5 258 0 0 0 0.055407 -0.87483 -0.48126 0.0030486
-0.0026991 0.073979 1.019 1.0787e-38 169.5 258 0 0 0 0.071363 -0.86953 -0.48869 0.0030855
-0.059374 0.075233 1.0198 1.3092e-38 539 258 0 0 0 -0.18435 -0.70199 -0.68792 0.027783
-0.056988 0.075233 1.0198 1.3092e-38 541 258 0 0 0 -0.17149 -0.7121 -0.68081 0.024154
-0.055198 0.075233 1.0198 1.3968e-38 542.5 258 0 0 0 -0.16448 -0.72589 -0.66785 0.020687
-0.052812 0.075233 1.0198 1.4751e-38 544.5 258 0 0 0 -0.15112 -0.74473 -0.65003 0.015609
-0.05098 0.075171 1.019 1.429e-38 546 258 0 0 0 -0.1383 -0.76079 -0.63409 0.011809
-0.049232 0.075233 1.0198 8.8047e-39 139.5 259 0 0 0 -0.11922 -0.77997 -0.61435 0.0073403
-0.046827 0.075202 1.0194 9.6343e-39 141.5 259 0 0 0 -0.099429 -0.79537 -0.59791 0.0042479
-0.045057 0.075233 1.0198 1.0418e-38 143 259 0 0 0 -0.079627 -0.80673 -0.58554 0.0023756
-0.04325 0.075202 1.0194 1.0142e-38 144.5 259 0 0 0 -0.070965 -0.81301 -0.57791 0.0018124
-0.040863 0.075202 1.0194 1.0234e-38 148 259 0 0 0 -0.061321 -0.82067 -0.5681 0.0015019
-0.039059 0.075171 1.019 9.1274e-39 150 259 0 0 0 -0.056152 -0.82596 -0.56092 0.0014831
-0.037286 0.074606 1.0194 1.2031e-38 347.5 258 0 0 0 -0.05158 -0.83087 -0.55408 0.0016529
-0.034678 0.074753 1.0187 1.1801e-38 284.33 258.33 0 0 0 -0.049524 -0.83658 -0.5456 0.0021136
-0.033071 0.075109 1.0181 8.7586e-39 155 259 0 0 0 -0.052483 -0.84055 -0.53918 0.0022888
-0.031907 0.074575 1.0189 8.6664e-39 148 258.5 0 0 0 -0.048892 -0.84288 -0.53587 0.0024078
-0.00091166 0.07404 1.0198 1.0971e-38 171 258 0 0 0 0.080458 -0.8664 -0.49282 0.0030808
0.00087678 0.074575 1.0189 1.2124e-38 269 258.5 0 0 0 0.096184 -0.86509 -0.49231 0.0028148
0.0032604 0.07514 1.0186 1.2584e-38 367.5 259 0 0 0 0.10683 -0.86263 -0.49442 0.002974
0.0050497 0.075171 1.019 1.0787e-38 369 259 0 0 0 0.11665 -0.85584 -0.50391 0.003304
0.0066392 0.074773 1.019 1.048e-38 306 258.67 0 0 0 0.12803 -0.85088 -0.50952 0.0036549
0.0092298 0.075233 1.0198 1.0971e-38 372.5 259 0 0 0 0.14699 -0.83802 -0.52547 0.0046695
0.011019 0.075233 1.0198 1.2354e-38 374 259 0 0 0 0.16561 -0.82929 -0.53371 0.0059857
0.01281 0.075233 1.0198 1.1662e-38 375.5 259 0 0 0 0.19149 -0.81658 -0.54455 0.0082675
0.015792 0.075233 1.0198 1.1617e-38 378 259 0 0 0 0.23193 -0.79482 -0.56078 0.011699
0.016985 0.075233 1.0198 1.3368e-38 379 259 0 0 0 0.24112 -0.78983 -0.56394 0.012224
-0.076015 0.077556 1.019 1.3553e-38 545 260 0 0 0 -0.28976 -0.43818 -0.8509 0.064329
-0.074823 0.077556 1.019 1.3461e-38 546 260 0 0 0 -0.28423 -0.4558 -0.84348 0.062869
-0.073095 0.07762 1.0198 1.1386e-38 343 260.5 0 0 0 -0.2777 -0.49776 -0.82165 0.064079
-0.07068 0.077588 1.0194 8.8969e-39 140.5 261 0 0 0 -0.26317 -0.51232 -0.81747 0.060103
-0.068862 0.077556 1.019 9.8649e-39 142 261 0 0 0 -0.25513 -0.52355 -0.8129 0.058223
-0.067074 0.076959 1.0189 1.187e-38 343.5 260 0 0 0 -0.2392 -0.56562 -0.78921 0.054377
-0.064703 0.076975 1.0192 1.1225e-38 345.5 260 0 0 0 -0.22186 -0.59079 -0.77572 0.05339
-0.062901 0.076959 1.0189 8.8969e-39 143 260.5 0 0 0 -0.2258 -0.59635 -0.77031 0.052581
-0.061101 0.076944 1.0187 9.358e-39 144.5 260.5 0 0 0 -0.2236 -0.62477 -0.74811 0.047392
-0.058729 0.076364 1.019 1.0142e-38 142.5 260 0 0 0 -0.20238 -0.664 -0.71983 0.037406
-0.056894 0.076301 1.0181 9.7727e-39 144 260 0 0 0 -0.19613 -0.67921 -0.70725 0.034416
-0.055108 0.076301 1.0181 9.4962e-39 145.5 260 0 0 0 -0.19414 -0.69249 -0.69482 0.030876
-0.052725 0.076301 1.0181 1.0095e-38 147.5 260 0 0 0 -0.17484 -0.71671 -0.6751 0.024409
-0.049152 0.076301 1.0181 9.1735e-39 150.5 260 0 0 0 -0.14365 -0.75235 -0.64291 0.014908
-0.046769 0.076301 1.0181 9.7269e-39 152.5 260 0 0 0 -0.12347 -0.7716 -0.62401 0.010183
-0.044983 0.076301 1.0181 1.0142e-38 154 260 0 0 0 -0.10279 -0.79079 -0.6034 0.0052845
-0.043214 0.076333 1.0186 9.6345e-39 155.5 260 0 0 0 -0.081162 -0.80759 -0.58413 0.0025353
-0.040813 0.076301 1.0181 9.2196e-39 157.5 260 0 0 0 -0.07074 -0.8169 -0.57243 0.0017114
-0.039027 0.076301 1.0181 9.0352e-39 159 260 0 0 0 -0.063721 -0.82306 -0.56437 0.001546
0.008619 0.076301 1.0181 1.0787e-38 389 260 0 0 0 0.15749 -0.84394 -0.51279 0.0052813
0.011001 0.076301 1.0181 1.1617e-38 391 260 0 0 0 0.18148 -0.83064 -0.5264 0.0071035
0.012788 0.076301 1.0181 1.3277e-38 392.5 260 0 0 0 0.20526 -0.81836 -0.5368 0.0092475
0.015177 0.076333 1.0186 1.1663e-38 394.5 260 0 0 0 0.23831 -0.79918 -0.55183 0.011593
0.016957 0.076301 1.0181 1.134e-38 396 260 0 0 0 0.25445 -0.7895 -0.55851 0.012488
0.018952 0.07674 1.0187 1.2446e-38 401 260.33 0 0 0 0.27273 -0.77719 -0.56709 0.012848
0.021135 0.076928 1.0186 1.2216e-38 404.5 260.5 0 0 0 0.29753 -0.76474 -0.57154 0.013854
0.022932 0.076959 1.0189 1.24e-38 406 260.5 0 0 0 0.33197 -0.7491 -0.57327 0.016101
-0.079028 0.079376 1.0194 1.3161e-38 545.5 261.5 0 0 0 -0.3609 -0.30202 -0.88235 0.075865
-0.076831 0.079167 1.0193 1.2385e-38 411 261.67 0 0 0 -0.32166 -0.36685 -0.8729 0.072821
-0.075179 0.079499 1.0184 9.619e-39 139.67 262.67 0 0 0 -0.32066 -0.34539 -0.88198 0.07514
-0.073005 0.079311 1.0186 9.2196e-39 141.5 262.5 0 0 0 -0.29706 -0.38092 -0.87559 0.073985
-0.071217 0.079311 1.0186 9.7266e-39 143 262.5 0 0 0 -0.29819 -0.39654 -0.86824 0.071071
-0.069401 0.078683 1.0181 9.7266e-39 144.5 262 0 0 0 -0.27429 -0.46318 -0.84275 0.063782
-0.064041 0.078683 1.0181 9.3118e-39 149 262 0 0 0 -0.26349 -0.50696 -0.82071 0.067357
0.02472 0.079344 1.019 1.0994e-38 415.5 262.5 0 0 0 0.38566 -0.72231 -0.57405 0.016612
-0.082043 0.080006 1.0198 1.4751e-38 543 262 0 0 0 -0.38277 -0.21377 -0.89877 0.079311
-0.081203 0.080757 1.0193 9.0968e-39 534.33 262.67 0 0 0 -0.39331 -0.19515 -0.89846 0.080605
-0.07893 0.081065 1.0181 7.9288e-39 531.5 263 0 0 0 -0.3755 -0.17911 -0.90935 0.077597
-0.077143 0.081065 1.0181 9.5883e-39 533 263 0 0 0 -0.36553 -0.19663 -0.90979 0.075627
0.025316 0.081132 1.019 1.3645e-38 398 264 0 0 0 0.40863 -0.70562 -0.5789 0.015891
0.02692 0.080779 1.0195 1.2907e-38 405 263.67 0 0 0 0.43454 -0.6884 -0.58076 0.015775
-0.081329 0.082869 1.0183 1.081e-38 439 264.5 0 0 0 -0.4143 -0.030447 -0.90963 0.071695
-0.079526 0.082851 1.0181 1.0372e-38 440.5 264.5 0 0 0 -0.39303 -0.060807 -0.91751 0.074066
0.025295 0.082256 1.0181 1.0879e-38 375 265 0 0 0 0.43012 -0.68872 -0.58366 0.019899
0.027288 0.082676 1.0184 1.0264e-38 305.33 265.33 0 0 0 0.4599 -0.66664 -0.58659 0.019038
0.028916 0.083585 1.0198 9.9571e-39 164 266 0 0 0 0.49897 -0.63999 -0.58433 0.019688
-0.081363 0.085287 1.0188 1.1179e-38 289.5 266.5 0 0 0 -0.43864 0.12728 -0.8896 0.067578
-0.079526 0.085235 1.0181 1.3368e-38 382.5 266.5 0 0 0 -0.42544 0.10238 -0.89918 0.069174
0.028892 0.085304 1.019 1.0188e-38 496 266.5 0 0 0 0.52882 -0.602 -0.59828 0.023222
-0.082043 0.087165 1.0198 1.1524e-38 145 268 0 0 0 -0.44569 0.22475 -0.86651 0.061073
-0.08085 0.087165 1.0198 1.0695e-38 146 268 0 0 0 -0.4392 0.21411 -0.8725 0.061888
-0.078963 0.087057 1.0186 9.3118e-39 147.5 268 0 0 0 -0.43155 0.18725 -0.88244 0.063786
-0.077143 0.087021 1.0181 9.0352e-39 149 268 0 0 0 -0.41826 0.16642 -0.89295 0.066077
-0.075356 0.087021 1.0181 8.4359e-39 150.5 268 0 0 0 -0.41127 0.15834 -0.89766 0.065261
0.028868 0.087021 1.0181 1.1893e-38 422 268 0 0 0 0.57542 -0.53933 -0.61483 0.030535
0.030109 0.087165 1.0198 1.1709e-38 423 268 0 0 0 0.58718 -0.54819 -0.59557 0.022954
-0.078464 0.088358 1.0198 9.1274e-39 510 268 0 0 0 -0.43865 0.24591 -0.86436 0.063184
-0.076643 0.088321 1.0194 1.0326e-38 511.5 268 0 0 0 -0.42906 0.2396 -0.87092 0.063875
-0.074854 0.088918 1.0194 1.4198e-38 475 268.5 0 0 0 -0.42276 0.25574 -0.86941 0.06523
-0.073214 0.089055 1.0187 1.469e-38 463.67 268.67 0 0 0 -0.41392 0.23717 -0.87888 0.067144
-0.071188 0.089403 1.0181 1.3184e-38 440 269 0 0 0 -0.41165 0.2602 -0.8734 0.063233
-0.069997 0.089403 1.0181 1.2354e-38 441 269 0 0 0 -0.40534 0.24501 -0.88072 0.066137
0.028868 0.088212 1.0181 1.051e-38 381 269 0 0 0 0.63284 -0.45999 -0.62284 0.041527
-0.072498 0.090744 1.0198 1.0602e-38 388 270 0 0 0 -0.41433 0.34768 -0.8411 0.055243
-0.07049 0.091117 1.0195 1.2508e-38 311 270.33 0 0 0 -0.41365 0.34853 -0.84109 0.05728
-0.068805 0.091785 1.0181 1.2354e-38 155 271 0 0 0 -0.41194 0.36183 -0.83629 0.053312
-0.067047 0.091823 1.0186 1.0694e-38 156.5 271 0 0 0 -0.40833 0.35386 -0.84146 0.058363
-0.068919 0.09313 1.0198 6.6381e-39 487 271 0 0 0 -0.40914 0.42568 -0.80709 0.043924
-0.067102 0.093092 1.0194 7.0069e-39 488.5 271 0 0 0 -0.40992 0.41002 -0.81477 0.047192
-0.066533 0.094323 1.0198 1.134e-38 408 272 0 0 0 -0.41661 0.45462 -0.78725 0.03747
-0.064663 0.094803 1.0186 1.1686e-38 277.5 272.5 0 0 0 -0.4223 0.45231 -0.78554 0.037313
-0.06285 0.095359 1.0181 1.1524e-38 147 273 0 0 0 -0.43684 0.45794 -0.77425 0.035218
-0.06534 0.096709 1.0198 8.5742e-39 464 273 0 0 0 -0.4202 0.51215 -0.74909 0.022349
-0.062953 0.096709 1.0198 7.0991e-39 466 273 0 0 0 -0.43383 0.49658 -0.7518 0.023608
-0.061312 0.097425 1.019 1.0572e-38 408.67 273.67 0 0 0 -0.44864 0.50557 -0.73697 0.020383
-0.059276 0.097741 1.0181 1.3276e-38 381 274 0 0 0 -0.45943 0.49764 -0.73572 0.021727
-0.058753 0.099055 1.0194 1.4567e-38 519.5 274 0 0 0 -0.45615 0.52785 -0.71646 0.012743
-0.058181 0.10029 1.0198 1.1063e-38 432 275 0 0 0 -0.45392 0.5483 -0.70238 0.007486
-0.056941 0.10021 1.019 1.0971e-38 433 275 0 0 0 -0.45454 0.54361 -0.70561 0.0091054
-0.055176 0.10144 1.0194 1.1064e-38 160.5 276 0 0 0 -0.45183 0.55914 -0.69514 0.0052622
-0.052725 0.10131 1.0181 1.1708e-38 162.5 276 0 0 0 -0.44974 0.56198 -0.6942 0.0058112
-0.052215 0.10268 1.0198 1.429e-38 458 276 0 0 0 -0.44536 0.5666 -0.69327 0.0045553
-0.05098 0.10378 1.019 1.134e-38 173 277 0 0 0 -0.44486 0.56378 -0.69589 0.004946
0.016985 0.10387 1.0198 1.4383e-38 402 277 0 0 0 0.78114 0.5103 -0.35974 0.013623
-0.049172 0.10493 1.0186 1.5166e-38 460.5 277 0 0 0 -0.44132 0.55654 -0.70392 0.0056995
-0.047365 0.10489 1.0181 1.512e-38 462 277 0 0 0 -0.4379 0.55808 -0.70484 0.0060802
-0.048636 0.10625 1.0198 1.2078e-38 175 278 0 0 0 -0.44016 0.53935 -0.71789 0.0059962
-0.04661 0.10656 1.019 1.2539e-38 270 278 0 0 0 -0.44135 0.5403 -0.71644 0.006532
-0.044983 0.10727 1.0181 1.3184e-38 458 278 0 0 0 -0.43804 0.53548 -0.72207 0.0071038
0.013384 0.10727 1.0181 1.3276e-38 507 278 0 0 0 0.7523 0.48643 -0.44434 0.018382
0.014587 0.10677 1.0189 1.3046e-38 454 278 0 0 0 0.77602 0.47927 -0.40998 0.017752
-0.04625 0.10864 1.0198 1.1156e-38 167 279 0 0 0 -0.44607 0.51158 -0.73438 0.0061561
-0.045038 0.10919 1.0194 1.2077e-38 305.5 279 0 0 0 -0.44355 0.507 -0.73906 0.0063368
-0.043196 0.10905 1.0181 1.1271e-38 307 279 0 0 0 -0.43162 0.51762 -0.73877 0.0070838
-0.041409 0.10965 1.0181 1.0971e-38 446 279 0 0 0 -0.42954 0.51098 -0.74458 0.0071024
0.013406 0.10924 1.0198 1.3738e-38 440.5 279 0 0 0 0.78604 0.43965 -0.43457 0.018229
0.014599 0.10983 1.0198 1.7241e-38 493 279 0 0 0 0.79918 0.42569 -0.42437 0.017118
-0.045057 0.11103 1.0198 1.2262e-38 145 280 0 0 0 -0.44602 0.49495 -0.74571 0.0057746
-0.043232 0.11094 1.019 1.217e-38 146.5 280 0 0 0 -0.43606 0.49564 -0.75113 0.0062656
-0.041409 0.11084 1.0181 1.1432e-38 148 280 0 0 0 -0.43059 0.50041 -0.75112 0.0066011
0.013406 0.11103 1.0198 1.0234e-38 366 280 0 0 0 0.77807 0.43456 -0.45361 0.017928
-0.043258 0.11279 1.0196 1.4982e-38 457.5 280 0 0 0 -0.43803 0.48159 -0.75908 0.0053404
-0.041035 0.11289 1.0187 1.5212e-38 474.33 280 0 0 0 -0.43059 0.48382 -0.76191 0.0056866
0.012796 0.1127 1.0187 1.2078e-38 308 280.5 0 0 0 0.7504 0.44508 -0.48867 0.01947
0.015196 0.11341 1.0198 9.2657e-39 158.5 281 0 0 0 0.79432 0.41259 -0.44591 0.015579
-0.040671 0.11497 1.0195 1.1586e-38 389 281 0 0 0 -0.43022 0.46502 -0.77374 0.0048349
-0.039043 0.11506 1.0186 1.1986e-38 403 281 0 0 0 -0.4229 0.47079 -0.77428 0.0050944
-0.037836 0.11561 1.0181 1.3829e-38 442 281 0 0 0 -0.41445 0.47124 -0.77856 0.0048804
0.012802 0.11513 1.0192 1.323e-38 446.5 281 0 0 0 0.74713 0.43649 -0.50127 0.019268
0.015394 0.11501 1.0198 1.5274e-38 436 281 0 0 0 0.79044 0.41046 -0.45467 0.015465
-0.039059 0.1169 1.019 1.7241e-38 507 281 0 0 0 -0.42185 0.45444 -0.78456 0.0043159
-0.037052 0.11723 1.0184 1.3922e-38 399 281.33 0 0 0 -0.41243 0.45958 -0.78657 0.0042066
0.011001 0.1168 1.0181 9.8649e-39 158 282 0 0 0 0.71642 0.45749 -0.52674 0.021777
0.012213 0.11699 1.0198 9.1274e-39 159 282 0 0 0 0.74607 0.43232 -0.50644 0.019714
-0.039091 0.11819 1.0198 9.3118e-39 178 282 0 0 0 -0.42357 0.44756 -0.78757 0.0040338
-0.03748 0.11892 1.0193 1.2416e-38 330 282 0 0 0 -0.41305 0.44509 -0.79453 0.0037113
-0.035453 0.11918 1.0181 1.3184e-38 407 282 0 0 0 -0.40179 0.44937 -0.79789 0.0036916
0.011014 0.11874 1.0194 1.2355e-38 416.5 282 0 0 0 0.72341 0.44658 -0.52653 0.022463
-0.036705 0.12057 1.0198 1.1801e-38 464 282 0 0 0 -0.41216 0.4364 -0.7998 0.0034808
-0.034872 0.12101 1.0186 1.2654e-38 492.5 282 0 0 0 -0.40002 0.43723 -0.80549 0.0034637
-0.033071 0.12156 1.0181 1.5304e-38 521 282 0 0 0 -0.39385 0.43515 -0.80965 0.0034244
-0.034915 0.12296 1.0198 1.0049e-38 178.5 283 0 0 0 -0.40223 0.42801 -0.80933 0.0036028
-0.033098 0.12286 1.019 1.0234e-38 180 283 0 0 0 -0.39451 0.43044 -0.81184 0.0035399
-0.031284 0.12336 1.0181 1.1387e-38 286 283 0 0 0 -0.38317 0.43484 -0.81492 0.0037856
-0.029498 0.12395 1.0181 1.1985e-38 392 283 0 0 0 -0.36659 0.44443 -0.81737 0.004129
0.0074279 0.12395 1.0181 1.3553e-38 423 283 0 0 0 0.55988 0.53792 -0.63022 0.031423
0.0092146 0.12336 1.0181 1.4706e-38 401.5 283 0 0 0 0.61297 0.5121 -0.60168 0.028005
-0.033126 0.12415 1.0198 1.4014e-38 389 283 0 0 0 -0.39356 0.43007 -0.81249 0.0039648
-0.031526 0.12491 1.0195 1.3369e-38 419.67 283 0 0 0 -0.38155 0.43658 -0.81475 0.0043776
-0.028914 0.12519 1.0186 1.3184e-38 436.5 283 0 0 0 -0.36218 0.44888 -0.8169 0.004496
0.0074279 0.12514 1.0181 1.1156e-38 467 283 0 0 0 0.55024 0.54886 -0.62928 0.031641
0.0086261 0.12524 1.019 1.1063e-38 468 283 0 0 0 0.60075 0.52405 -0.60371 0.029849
-0.028353 0.12654 1.0198 1.2078e-38 478 283 0 0 0 -0.3579 0.45648 -0.81458 0.0050099
-0.027137 0.12703 1.0189 1.3322e-38 498.5 283 0 0 0 -0.34223 0.47099 -0.81305 0.005512
-0.025339 0.12698 1.0186 1.4383e-38 500 283 0 0 0 -0.32967 0.48558 -0.80965 0.0059633
-0.023542 0.12752 1.0181 1.4475e-38 521 283 0 0 0 -0.307 0.50928 -0.80398 0.0067282
0.006841 0.12709 1.0194 1.2953e-38 330 283.5 0 0 0 0.53129 0.56708 -0.62941 0.032993
-0.022966 0.12881 1.0189 1.0833e-38 158.5 284 0 0 0 -0.29445 0.5164 -0.80413 0.0073444
-0.02116 0.12871 1.0181 9.9571e-39 160 284 0 0 0 -0.27654 0.5271 -0.80355 0.0082708
-0.019968 0.12871 1.0181 1.0049e-38 161 284 0 0 0 -0.25453 0.54807 -0.79676 0.0090764
-0.016991 0.1299 1.0181 1.0695e-38 189.5 284 0 0 0 -0.20586 0.57424 -0.79238 0.010908
-0.0032924 0.1299 1.0181 1.2354e-38 201 284 0 0 0 0.15561 0.65663 -0.73798 0.025686
0.0014721 0.12871 1.0181 9.6805e-39 179 284 0 0 0 0.33232 0.63122 -0.7008 0.03465
0.0032588 0.12871 1.0181 9.6344e-39 180.5 284 0 0 0 0.39309 0.6131 -0.68527 0.030565
0.0050497 0.12882 1.019 9.3118e-39 182 284 0 0 0 0.44406 0.59991 -0.66552 0.033138
-0.022388 0.13012 1.0198 1.1248e-38 185 284 0 0 0 -0.2807 0.53907 -0.79411 0.0075189
-0.021177 0.13001 1.019 1.0695e-38 186 284 0 0 0 -0.26599 0.54665 -0.79399 0.0079864
-0.019389 0.13001 1.019 1.0234e-38 187.5 284 0 0 0 -0.24285 0.55939 -0.79253 0.0091783
-0.014615 0.13115 1.0186 9.7727e-39 365.5 284 0 0 0 -0.15122 0.61074 -0.77725 0.011924
-0.012832 0.1312 1.019 1.0234e-38 367 284 0 0 0 -0.11241 0.61882 -0.77745 0.013135
-0.011034 0.13109 1.0181 1.194e-38 368.5 284 0 0 0 -0.060185 0.64034 -0.76573 0.014455
-0.0086526 0.13109 1.0181 1.2677e-38 370.5 284 0 0 0 0.00080924 0.64899 -0.7608 0.017535
-0.0068659 0.13109 1.0181 1.2446e-38 372 284 0 0 0 0.048092 0.66008 -0.74966 0.019832
-0.0050833 0.1312 1.019 1.1571e-38 373.5 284 0 0 0 0.093498 0.66766 -0.73857 0.021938
-0.0027004 0.13066 1.0194 1.134e-38 366.5 284 0 0 0 0.17287 0.65272 -0.73761 0.026324
-0.0009109 0.13001 1.019 1.2907e-38 359 284 0 0 0 0.23489 0.63959 -0.73195 0.029359
0.00087791 0.13006 1.0194 1.3138e-38 360.5 284 0 0 0 0.32766 0.64705 -0.68846 0.035397
0.0032643 0.13012 1.0198 1.051e-38 362.5 284 0 0 0 0.3974 0.6205 -0.67606 0.033021
-0.011044 0.13239 1.019 1.1432e-38 376.5 284 0 0 0 -0.062003 0.64446 -0.76212 0.013786
-0.0086669 0.1325 1.0198 1.3691e-38 378.5 284 0 0 0 0.0055539 0.65973 -0.75148 0.016288
-0.0068715 0.13239 1.019 1.3829e-38 380 284 0 0 0 0.055125 0.67126 -0.73917 0.01972
-0.0056841 0.1325 1.0198 1.2446e-38 381 284 0 0 0 0.085154 0.67468 -0.73318 0.020594
-0.037363 0.071773 1.0215 1.5581e-38 445.5 255 0 0 0 -0.03932 -0.83295 -0.55195 0.0018795
-0.035571 0.071773 1.0215 1.89e-38 447 255 0 0 0 -0.036672 -0.83615 -0.54727 0.002036
-0.040948 0.072968 1.0215 1.4705e-38 445.5 256 0 0 0 -0.049018 -0.82504 -0.56295 0.0014389
-0.039156 0.072968 1.0215 1.807e-38 447 256 0 0 0 -0.043912 -0.82936 -0.55698 0.001552
-0.037332 0.072907 1.0206 1.6411e-38 493.5 256 0 0 0 -0.042353 -0.83295 -0.55172 0.0018082
-0.034944 0.072907 1.0206 1.2953e-38 540.5 256 0 0 0 -0.039 -0.83686 -0.54602 0.0021308
-0.033153 0.072907 1.0206 1.3645e-38 542 256 0 0 0 -0.04109 -0.83961 -0.54163 0.0023004
-0.031362 0.072907 1.0206 1.466e-38 543.5 256 0 0 0 -0.044598 -0.8431 -0.5359 0.0024903
-0.028986 0.072938 1.021 1.535e-38 545.5 256 0 0 0 -0.044566 -0.84666 -0.53027 0.0028293
-0.027183 0.072907 1.0206 9.0352e-39 139 257 0 0 0 -0.046511 -0.84893 -0.52645 0.0028011
-0.024794 0.072907 1.0206 9.0352e-39 141 257 0 0 0 -0.044116 -0.8524 -0.52102 0.0028309
-0.023013 0.072938 1.021 9.8188e-39 142.5 257 0 0 0 -0.041949 -0.85488 -0.51713 0.0027792
-0.021212 0.072907 1.0206 9.404e-39 144 257 0 0 0 -0.039988 -0.85823 -0.51171 0.0027005
-0.01704 0.072938 1.021 9.0813e-39 149 257 0 0 0 -0.022243 -0.86459 -0.50198 0.0025792
-0.014059 0.072968 1.0215 9.6805e-39 153 257 0 0 0 -0.0021453 -0.86821 -0.4962 0.0025941
-0.012853 0.072907 1.0206 9.3118e-39 154 257 0 0 0 0.0032893 -0.86941 -0.49408 0.002689
-0.011067 0.072938 1.021 8.5281e-39 155.5 257 0 0 0 0.014941 -0.87015 -0.49256 0.0027794
-0.008674 0.072907 1.0206 8.1132e-39 157.5 257 0 0 0 0.030724 -0.86976 -0.49252 0.0031465
-0.0068829 0.072907 1.0206 8.021e-39 159 257 0 0 0 0.044598 -0.86962 -0.4917 0.0032559
-0.0050918 0.072907 1.0206 9.0352e-39 160.5 257 0 0 0 0.055478 -0.86852 -0.49255 0.0033494
-0.0027044 0.072938 1.021 1.028e-38 162.5 257 0 0 0 0.069441 -0.86548 -0.4961 0.003235
-0.00091316 0.072968 1.0215 1.1248e-38 164 257 0 0 0 0.076621 -0.86068 -0.50335 0.0030339
0.0062574 0.072968 1.0215 1.0234e-38 170 257 0 0 0 0.10863 -0.84547 -0.52286 0.0027493
-0.067213 0.075327 1.021 1.1939e-38 446.5 258 0 0 0 -0.21549 -0.63983 -0.73769 0.046133
-0.064824 0.075327 1.021 1.7794e-38 448.5 258 0 0 0 -0.19939 -0.66471 -0.72 0.039096
-0.063006 0.075296 1.0206 1.4383e-38 450 258 0 0 0 -0.18933 -0.6755 -0.71264 0.035114
-0.061214 0.075296 1.0206 1.2953e-38 494.5 258 0 0 0 -0.19533 -0.68595 -0.70094 0.033592
-0.058659 0.074541 1.0212 1.3614e-38 472.33 257.33 0 0 0 -0.16712 -0.72861 -0.66422 0.020702
-0.057082 0.074163 1.0215 1.2354e-38 440 257 0 0 0 -0.14996 -0.75183 -0.64208 0.014227
-0.055289 0.074163 1.0215 1.0511e-38 441.5 257 0 0 0 -0.1435 -0.7595 -0.63448 0.01215
-0.052856 0.074102 1.0206 1.0234e-38 443.5 257 0 0 0 -0.13271 -0.77035 -0.62366 0.0089546
-0.051065 0.074102 1.0206 1.1248e-38 445 257 0 0 0 -0.11558 -0.78363 -0.61038 0.0058115
-0.049314 0.074163 1.0215 1.5212e-38 446.5 257 0 0 0 -0.10012 -0.79463 -0.59879 0.0039034
-0.046905 0.074133 1.021 1.8577e-38 448.5 257 0 0 0 -0.084942 -0.80474 -0.58753 0.0024535
-0.045094 0.074102 1.0206 1.5028e-38 450 257 0 0 0 -0.071412 -0.81113 -0.5805 0.0017225
-0.043321 0.074133 1.021 1.3046e-38 538.5 257 0 0 0 -0.06237 -0.81634 -0.5742 0.001607
-0.040915 0.074102 1.0206 1.2953e-38 540.5 257 0 0 0 -0.054017 -0.82372 -0.56442 0.0014595
-0.039124 0.074102 1.0206 1.3368e-38 542 257 0 0 0 -0.04945 -0.82729 -0.55959 0.0014882
0.0014758 0.074102 1.0206 1.0695e-38 173 258 0 0 0 0.091277 -0.86048 -0.50124 0.0026761
0.003267 0.074102 1.0206 1.1294e-38 174.5 258 0 0 0 0.098374 -0.85612 -0.50732 0.0026581
0.0050581 0.074102 1.0206 1.1985e-38 176 258 0 0 0 0.10715 -0.85156 -0.51319 0.0028696
0.0074463 0.074102 1.0206 1.051e-38 178 258 0 0 0 0.12376 -0.84479 -0.52059 0.0036773
0.009245 0.074163 1.0215 1.0234e-38 179.5 258 0 0 0 0.13688 -0.83504 -0.53288 0.004012
0.01283 0.074163 1.0215 1.1755e-38 364 258 0 0 0 0.17243 -0.81975 -0.54615 0.006206
0.015215 0.07473 1.021 1.1248e-38 372.5 258.5 0 0 0 0.21561 -0.80098 -0.55852 0.01059
0.016999 0.074102 1.0206 1.0602e-38 369 258 0 0 0 0.23105 -0.78871 -0.5697 0.01126
0.018596 0.074918 1.0209 1.1739e-38 378.67 258.67 0 0 0 0.25365 -0.77922 -0.57313 0.012613
0.021178 0.075296 1.0206 1.2861e-38 385.5 259 0 0 0 0.29183 -0.76603 -0.57274 0.014308
0.02297 0.075296 1.0206 1.134e-38 387 259 0 0 0 0.3272 -0.75175 -0.57255 0.017149
-0.078949 0.077307 1.0209 1.5059e-38 511.33 259.67 0 0 0 -0.31227 -0.44427 -0.83971 0.072747
-0.076958 0.076909 1.0209 1.3522e-38 481.67 259.33 0 0 0 -0.29063 -0.48322 -0.82585 0.068727
-0.074947 0.07649 1.0206 1.1801e-38 537 259 0 0 0 -0.27188 -0.52287 -0.80789 0.061989
-0.073155 0.07649 1.0206 1.3184e-38 538.5 259 0 0 0 -0.2662 -0.53322 -0.80301 0.061417
-0.070767 0.07649 1.0206 1.3091e-38 540.5 259 0 0 0 -0.24214 -0.57559 -0.78107 0.056033
-0.068976 0.07649 1.0206 1.3737e-38 542 259 0 0 0 -0.23956 -0.58911 -0.77173 0.053463
0.024772 0.077716 1.021 1.2077e-38 412.5 261 0 0 0 0.3724 -0.72928 -0.57399 0.0168
0.026574 0.077748 1.0215 1.0787e-38 414 261 0 0 0 0.4073 -0.70982 -0.57468 0.017252
-0.082179 0.078943 1.0215 1.4751e-38 543 261 0 0 0 -0.36802 -0.32857 -0.86983 0.082548
-0.080917 0.078878 1.0206 1.4014e-38 544 261 0 0 0 -0.36104 -0.35042 -0.86421 0.077992
0.02716 0.07891 1.021 1.1479e-38 420.5 262 0 0 0 0.42886 -0.69447 -0.57775 0.016277
-0.085166 0.081333 1.0215 6.131e-39 526.5 263 0 0 0 -0.41177 -0.11735 -0.9037 0.086068
-0.083305 0.081266 1.0206 6.4537e-39 528 263 0 0 0 -0.4023 -0.15732 -0.90189 0.082437
0.027746 0.080072 1.0206 1.1617e-38 417 263 0 0 0 0.44286 -0.68514 -0.57833 0.015739
0.028952 0.080702 1.021 1.2723e-38 409.5 263.5 0 0 0 0.4698 -0.6684 -0.57665 0.015275
-0.084944 0.082904 1.0212 1.2723e-38 440.33 264.33 0 0 0 -0.43424 -0.03442 -0.90014 0.081651
-0.083305 0.083057 1.0206 1.1847e-38 437.5 264.5 0 0 0 -0.43468 -0.022259 -0.90031 0.080712
0.02894 0.08246 1.0206 1.0787e-38 378 265 0 0 0 0.48196 -0.65859 -0.5779 0.015232
-0.084569 0.084919 1.0215 1.0695e-38 396 266 0 0 0 -0.44698 0.13806 -0.88383 0.077428
-0.083305 0.084848 1.0206 1.1432e-38 397 266 0 0 0 -0.44685 0.11882 -0.88669 0.073156
0.030159 0.084919 1.0215 1.429e-38 536 266 0 0 0 0.53773 -0.60363 -0.58862 0.018961
-0.083305 0.086043 1.0206 1.0142e-38 179 267 0 0 0 -0.44987 0.17177 -0.87642 0.072658
0.030134 0.086043 1.0206 6.0849e-39 458 267 0 0 0 0.55387 -0.5922 -0.58526 0.018718
-0.082179 0.088504 1.0215 8.482e-39 507 268 0 0 0 -0.45321 0.30333 -0.83821 0.058332
-0.080984 0.088504 1.0215 8.943e-39 508 268 0 0 0 -0.45308 0.28798 -0.84367 0.060542
-0.079369 0.089276 1.0212 1.1156e-38 458.67 268.67 0 0 0 -0.45177 0.31698 -0.83392 0.060603
-0.076738 0.089625 1.0206 1.4014e-38 435.5 269 0 0 0 -0.43712 0.3115 -0.84374 0.061232
-0.075008 0.090894 1.0215 1.134e-38 386 270 0 0 0 -0.4278 0.37013 -0.82462 0.053138
-0.073752 0.090819 1.0206 1.0602e-38 387 270 0 0 0 -0.4195 0.35675 -0.83472 0.053782
-0.072618 0.092089 1.0215 1.2078e-38 152 271 0 0 0 -0.42156 0.4048 -0.81143 0.047892
-0.070796 0.092649 1.021 9.9572e-39 319.5 271 0 0 0 -0.40692 0.42231 -0.80998 0.044991
-0.069004 0.095038 1.021 1.1571e-38 274 272.5 0 0 0 -0.40725 0.49657 -0.76653 0.027532
-0.067212 0.095038 1.021 1.217e-38 275.5 272.5 0 0 0 -0.41054 0.48738 -0.77067 0.030036
-0.0642 0.096789 1.0206 7.3757e-39 465 273 0 0 0 -0.42701 0.51127 -0.74583 0.02126
-0.063058 0.098065 1.0215 1.0879e-38 378 274 0 0 0 -0.43529 0.53096 -0.72705 0.014548
-0.06124 0.099219 1.021 1.4567e-38 517.5 274 0 0 0 -0.44636 0.54193 -0.71209 0.0097066
-0.059472 0.10045 1.0215 1.1893e-38 431 275 0 0 0 -0.44849 0.55622 -0.69963 0.0057336
-0.057082 0.10165 1.0215 1.0971e-38 159 276 0 0 0 -0.44976 0.55922 -0.69641 0.0044505
-0.054647 0.10276 1.0206 1.6134e-38 456 276 0 0 0 -0.44824 0.56183 -0.69529 0.0044379
-0.053453 0.10276 1.0206 1.5581e-38 457 276 0 0 0 -0.44778 0.56179 -0.69562 0.0045154
-0.052302 0.10404 1.0215 1.051e-38 172 277 0 0 0 -0.44543 0.55122 -0.70551 0.0049914
-0.051065 0.10515 1.0206 1.4383e-38 459 277 0 0 0 -0.44508 0.54462 -0.71084 0.0054484
-0.049486 0.10717 1.0209 1.1893e-38 361 278 0 0 0 -0.44789 0.52459 -0.72402 0.0055465
-0.047482 0.10754 1.0206 1.4014e-38 456 278 0 0 0 -0.44621 0.51912 -0.72898 0.0058099
0.015805 0.10634 1.0206 1.4106e-38 401 278 0 0 0 0.81015 0.44863 -0.37733 0.016549
-0.048717 0.10882 1.0215 1.0695e-38 165 279 0 0 0 -0.44762 0.51017 -0.73441 0.0055595
-0.046905 0.10937 1.021 1.1939e-38 304 279 0 0 0 -0.44945 0.50145 -0.73929 0.0055995
0.014611 0.10873 1.0206 1.1617e-38 390 279 0 0 0 0.80607 0.42505 -0.4118 0.016361
-0.046326 0.11121 1.0215 1.1893e-38 144 280 0 0 0 -0.45166 0.48894 -0.74629 0.005256
0.015411 0.11075 1.0209 1.3676e-38 409.67 279.67 0 0 0 0.8133 0.40796 -0.41487 0.015268
-0.045112 0.11296 1.021 1.535e-38 456 280 0 0 0 -0.44887 0.4771 -0.75557 0.0049539
0.015208 0.11231 1.0206 1.3876e-38 461.5 280 0 0 0 0.80718 0.40147 -0.43276 0.015526
-0.043321 0.11535 1.021 1.1547e-38 359 281 0 0 0 -0.44414 0.46207 -0.76762 0.004274
-0.041512 0.11589 1.0206 1.3737e-38 439 281 0 0 0 -0.43642 0.45645 -0.77536 0.0044326
0.014611 0.11589 1.0206 1.5858e-38 486 281 0 0 0 0.78515 0.41103 -0.46324 0.016375
-0.040932 0.11714 1.021 1.7563e-38 505.5 281 0 0 0 -0.43355 0.45008 -0.78068 0.0040656
0.013428 0.11719 1.0215 9.2196e-39 160 282 0 0 0 0.77289 0.42381 -0.47225 0.018866
-0.040318 0.11828 1.0206 8.7586e-39 177 282 0 0 0 -0.43224 0.442 -0.78601 0.0038141
-0.039124 0.11948 1.0206 1.1893e-38 404 282 0 0 0 -0.42487 0.43843 -0.792 0.003582
0.012228 0.11893 1.021 1.3092e-38 417.5 282 0 0 0 0.75076 0.42904 -0.50228 0.020665
-0.039156 0.12077 1.0215 1.3645e-38 462 282 0 0 0 -0.42792 0.43208 -0.79384 0.0033431
-0.037542 0.1215 1.0209 1.3338e-38 499.33 282 0 0 0 -0.41842 0.42885 -0.80063 0.0033258
0.011029 0.12067 1.0206 1.6226e-38 504 282 0 0 0 0.72104 0.44884 -0.52786 0.023287
-0.036766 0.12316 1.0215 1.0049e-38 177 283 0 0 0 -0.41654 0.4306 -0.80068 0.003391
-0.034959 0.12431 1.021 1.4336e-38 387.5 283 0 0 0 -0.40568 0.43102 -0.80601 0.0038078
-0.03318 0.12555 1.0215 1.429e-38 433 283 0 0 0 -0.39667 0.44143 -0.80485 0.0043308
-0.031375 0.1267 1.021 1.2677e-38 475.5 283 0 0 0 -0.38133 0.44819 -0.80852 0.0048027
-0.028986 0.12729 1.021 1.2908e-38 497 283 0 0 0 -0.35815 0.46064 -0.81212 0.005119
0.0086475 0.12675 1.0215 1.4751e-38 509 283 0 0 0 0.60477 0.53871 -0.58656 0.032916
-0.026607 0.12914 1.0215 1.1617e-38 155.5 284 0 0 0 -0.33617 0.49771 -0.79955 0.0059524
-0.024794 0.12903 1.0206 1.1432e-38 157 284 0 0 0 -0.31357 0.51069 -0.80054 0.0071024
0.0062574 0.12914 1.0215 9.8649e-39 183 284 0 0 0 0.49867 0.602 -0.62364 0.034513
-0.02362 0.13033 1.0215 1.0879e-38 184 284 0 0 0 -0.29624 0.53575 -0.79071 0.0071392
0.0050581 0.13022 1.0206 9.8649e-39 364 284 0 0 0 0.43616 0.6179 -0.65419 0.033131
-0.045206 0.071892 1.0232 9.1274e-39 439 255 0 0 0 -0.058289 -0.82032 -0.56893 0.001513
-0.042812 0.071892 1.0232 1.051e-38 441 255 0 0 0 -0.048971 -0.82471 -0.56343 0.0015057
-0.040982 0.071832 1.0223 1.5489e-38 442.5 255 0 0 0 -0.043839 -0.82763 -0.55955 0.0015044
-0.039221 0.071892 1.0232 1.6226e-38 444 255 0 0 0 -0.03876 -0.83162 -0.55399 0.0017925
-0.037409 0.070665 1.0228 1.3552e-38 428.5 254 0 0 0 -0.032959 -0.83515 -0.54903 0.002014
-0.034822 0.071074 1.0229 1.2723e-38 466.67 254.33 0 0 0 -0.032774 -0.83905 -0.54306 0.0022794
-0.032818 0.071453 1.0226 1.3215e-38 504.33 254.67 0 0 0 -0.033973 -0.84203 -0.53836 0.0024435
-0.030816 0.071832 1.0223 1.3737e-38 542 255 0 0 0 -0.037325 -0.84495 -0.53354 0.002568
-0.029034 0.071862 1.0228 1.3921e-38 543.5 255 0 0 0 -0.038902 -0.8471 -0.53001 0.0027682
-0.026641 0.071862 1.0228 1.2077e-38 342 255.5 0 0 0 -0.040471 -0.8503 -0.52474 0.0028919
-0.024856 0.071892 1.0232 8.8508e-39 140 256 0 0 0 -0.036837 -0.85289 -0.52079 0.002888
-0.023061 0.071892 1.0232 9.6808e-39 141.5 256 0 0 0 -0.036418 -0.85569 -0.5162 0.002767
-0.021265 0.071892 1.0232 1.0049e-38 143 256 0 0 0 -0.032627 -0.85816 -0.51234 0.0026121
-0.016477 0.071892 1.0232 8.7586e-39 147 256 0 0 0 -0.013948 -0.86508 -0.50144 0.0023898
-0.012885 0.071892 1.0232 9.4961e-39 150 256 0 0 0 0.00356 -0.86693 -0.49842 0.0025888
-0.010491 0.071892 1.0232 8.8508e-39 152 256 0 0 0 0.020086 -0.86687 -0.49813 0.0028897
-0.0086956 0.071892 1.0232 8.7125e-39 153.5 256 0 0 0 0.032661 -0.86534 -0.50012 0.0031587
-0.0068943 0.071832 1.0223 8.2976e-39 155 256 0 0 0 0.043089 -0.86589 -0.49838 0.0032555
-0.0051021 0.071862 1.0228 8.021e-39 156.5 256 0 0 0 0.052995 -0.8646 -0.49966 0.0032737
-0.0027102 0.071892 1.0232 8.1593e-39 158.5 256 0 0 0 0.064616 -0.8594 -0.50721 0.0030442
-0.00091468 0.071892 1.0232 8.5742e-39 160 256 0 0 0 0.069863 -0.8571 -0.51039 0.0028633
-0.058973 0.073089 1.0232 1.3277e-38 430.5 256 0 0 0 -0.14139 -0.76733 -0.62547 0.011626
-0.057177 0.073089 1.0232 1.2262e-38 432 256 0 0 0 -0.13549 -0.77751 -0.6141 0.0086486
-0.055381 0.073089 1.0232 1.2262e-38 433.5 256 0 0 0 -0.12963 -0.78314 -0.60818 0.0068063
-0.052943 0.073028 1.0223 1.277e-38 435.5 256 0 0 0 -0.11833 -0.79221 -0.59866 0.004727
-0.051149 0.073028 1.0223 1.4198e-38 437 256 0 0 0 -0.10393 -0.79898 -0.59231 0.0033196
-0.049396 0.073089 1.0232 1.2493e-38 438.5 256 0 0 0 -0.090377 -0.80878 -0.58112 0.002031
-0.046983 0.073059 1.0228 9.7268e-39 440.5 256 0 0 0 -0.073107 -0.81437 -0.57572 0.0018475
-0.044589 0.073059 1.0228 1.1479e-38 442.5 256 0 0 0 -0.060168 -0.81851 -0.57134 0.0015415
-0.042777 0.073028 1.0223 1.3737e-38 444 256 0 0 0 -0.054317 -0.82125 -0.56797 0.0014499
-0.020051 0.073028 1.0223 9.1274e-39 145 257 0 0 0 -0.029075 -0.86025 -0.50905 0.0025816
-0.018855 0.073028 1.0223 9.1274e-39 146 257 0 0 0 -0.025215 -0.86166 -0.50685 0.0026239
-0.015267 0.073028 1.0223 9.0352e-39 152 257 0 0 0 -0.010616 -0.86588 -0.50014 0.0025334
0.00088018 0.073028 1.0223 1.0787e-38 165.5 257 0 0 0 0.08022 -0.85582 -0.51102 0.0027017
0.0032739 0.073059 1.0228 1.0649e-38 167.5 257 0 0 0 0.088712 -0.85174 -0.51639 0.0023125
0.0050665 0.073028 1.0223 1.051e-38 169 257 0 0 0 0.09919 -0.8485 -0.51982 0.0023156
0.0074648 0.073089 1.0232 1.0326e-38 171 257 0 0 0 0.1132 -0.84028 -0.5302 0.0025725
0.0092604 0.073089 1.0232 1.0372e-38 172.5 257 0 0 0 0.12604 -0.83353 -0.5379 0.0031244
0.012852 0.073089 1.0232 1.1801e-38 175.5 257 0 0 0 0.1608 -0.81965 -0.54984 0.0051936
0.015844 0.073089 1.0232 1.0695e-38 178 257 0 0 0 0.2012 -0.8004 -0.56469 0.0085713
0.017027 0.073028 1.0223 1.0142e-38 179 257 0 0 0 0.21991 -0.79152 -0.5702 0.010293
0.018837 0.073089 1.0232 1.0096e-38 180.5 257 0 0 0 0.24552 -0.78311 -0.57136 0.012358
0.021232 0.073089 1.0232 1.0603e-38 182.5 257 0 0 0 0.28871 -0.76796 -0.57174 0.015195
-0.078724 0.075483 1.0232 1.3553e-38 437 258 0 0 0 -0.2648 -0.57199 -0.77634 0.061239
-0.076267 0.07542 1.0223 1.4106e-38 439 258 0 0 0 -0.26016 -0.5898 -0.76449 0.055278
-0.075071 0.07542 1.0223 1.3461e-38 440 258 0 0 0 -0.25077 -0.59963 -0.75997 0.054354
-0.073277 0.07542 1.0223 1.2215e-38 441.5 258 0 0 0 -0.24465 -0.60561 -0.75722 0.053627
-0.070914 0.075452 1.0228 1.0095e-38 443.5 258 0 0 0 -0.22559 -0.62913 -0.74384 0.049445
-0.06909 0.07542 1.0223 8.2976e-39 445 258 0 0 0 -0.21596 -0.64179 -0.73585 0.045889
-0.067324 0.074255 1.0228 1.2631e-38 431.5 257 0 0 0 -0.19225 -0.69485 -0.69298 0.034033
-0.06493 0.074255 1.0228 1.217e-38 433.5 257 0 0 0 -0.18091 -0.70547 -0.68527 0.029904
-0.06311 0.074224 1.0223 1.2262e-38 435 257 0 0 0 -0.17328 -0.71573 -0.67654 0.02673
-0.061316 0.074224 1.0223 1.3737e-38 436.5 257 0 0 0 -0.17101 -0.72696 -0.66505 0.023458
0.011047 0.074224 1.0223 1.0418e-38 182 258 0 0 0 0.14718 -0.82763 -0.54164 0.0044348
0.014635 0.074224 1.0223 1.3092e-38 367 258 0 0 0 0.19895 -0.80443 -0.55974 0.0087996
0.019419 0.074224 1.0223 1.051e-38 371 258 0 0 0 0.2602 -0.77668 -0.57364 0.013016
0.021213 0.074224 1.0223 1.1017e-38 372.5 258 0 0 0 0.2916 -0.7673 -0.57115 0.015001
0.023008 0.074224 1.0223 1.2815e-38 374 258 0 0 0 0.32648 -0.75014 -0.57507 0.017294
0.024224 0.075483 1.0232 1.0879e-38 388 259 0 0 0 0.35514 -0.73779 -0.57405 0.017917
-0.082281 0.077246 1.0228 1.028e-38 493 259.5 0 0 0 -0.33865 -0.42571 -0.8391 0.08149
-0.081085 0.077246 1.0228 1.1617e-38 494 259.5 0 0 0 -0.33643 -0.4495 -0.82751 0.082394
-0.079855 0.076616 1.0223 1.429e-38 448 259 0 0 0 -0.31081 -0.49437 -0.81178 0.073555
0.024813 0.076648 1.0228 1.1617e-38 402.5 260 0 0 0 0.37523 -0.73128 -0.56959 0.017482
0.027205 0.077246 1.0228 1.0741e-38 409.5 260.5 0 0 0 0.41366 -0.70565 -0.57528 0.016904
0.029012 0.077877 1.0232 1.051e-38 416 261 0 0 0 0.47032 -0.67282 -0.57106 0.01607
-0.083512 0.079074 1.0232 1.4659e-38 542 261 0 0 0 -0.36901 -0.30682 -0.87732 0.089544
0.028988 0.079009 1.0223 1.0602e-38 422 262 0 0 0 0.46987 -0.67272 -0.57155 0.016358
-0.087103 0.081468 1.0232 5.163e-39 525 263 0 0 0 -0.42383 -0.10207 -0.89997 0.08896
-0.085237 0.080205 1.0223 1.3921e-38 540.5 262 0 0 0 -0.39468 -0.20618 -0.89539 0.085933
-0.083443 0.080205 1.0223 1.4843e-38 542 262 0 0 0 -0.39417 -0.22627 -0.89075 0.087887
-0.087103 0.082665 1.0232 1.2631e-38 447 264 0 0 0 -0.44165 -0.028109 -0.89675 0.088681
-0.085835 0.083793 1.0223 1.1893e-38 423 265 0 0 0 -0.44318 0.084669 -0.89242 0.082356
0.030591 0.083417 1.0226 1.1002e-38 236.67 265.67 0 0 0 0.53887 -0.61667 -0.57387 0.014719
-0.085835 0.084989 1.0223 1.0602e-38 395 266 0 0 0 -0.44694 0.14116 -0.88335 0.078912
0.03138 0.084989 1.0223 1.3368e-38 537 266 0 0 0 0.5715 -0.59064 -0.56967 0.014196
-0.084639 0.086185 1.0223 9.9571e-39 178 267 0 0 0 -0.45781 0.22213 -0.86085 0.073288
-0.083443 0.087381 1.0223 1.134e-38 144 268 0 0 0 -0.46388 0.24995 -0.84991 0.069644
0.03138 0.086185 1.0223 7.0991e-39 459 267 0 0 0 0.58938 -0.571 -0.57148 0.013338
-0.081118 0.089848 1.0232 1.2354e-38 432 269 0 0 0 -0.46813 0.37452 -0.80037 0.054618
