# .PCD v.7 - Point Cloud Data file format
VERSION .7
FIELDS x y z rgb u v vx vy vz normal_x normal_y normal_z curvature
SIZE 4 4 4 4 4 4 4 4 4 4 4 4 4
TYPE F F F F F F F F F F F F F
COUNT 1 1 1 1 1 1 1 1 1 1 1 1 1
WIDTH 546
HEIGHT 1
VIEWPOINT 0 0 0 1 0 0 0
POINTS 546
DATA ascii
-0.039306 0.099295 0.98053 1.3115e-38 279 263.5 0 0 0 0.28891 0.017059 -0.95721 0.071822
-0.037042 0.099375 0.9813 1.376e-38 281 263.5 0 0 0 0.34363 0.044255 -0.93806 0.074183
-0.034951 0.099222 0.98169 1.4167e-38 321.67 263.33 0 0 0 0.37507 0.052349 -0.92552 0.071205
-0.064622 0.10114 0.98169 1.2907e-38 395.5 264 0 0 0 -0.2905 -0.018013 -0.9567 0.079142
-0.062899 0.10114 0.98169 1.3184e-38 397 264 0 0 0 -0.2646 -0.010748 -0.9643 0.082806
-0.061127 0.10106 0.98091 1.4106e-38 398.5 264 0 0 0 -0.23899 0.015987 -0.97089 0.081365
-0.058785 0.10098 0.98014 1.2677e-38 400.5 264 0 0 0 -0.19697 -0.0017287 -0.98041 0.077674
-0.042158 0.10098 0.98014 9.5883e-39 415 264 0 0 0 0.23182 0.11919 -0.96543 0.073989
-0.041011 0.10098 0.98014 9.4961e-39 416 264 0 0 0 0.26332 0.1252 -0.95655 0.073431
-0.039338 0.1011 0.9813 1.0187e-38 417.5 264 0 0 0 0.29963 0.13725 -0.94413 0.070876
-0.061175 0.10228 0.98169 1.2308e-38 162.5 265 0 0 0 -0.24662 0.073619 -0.96631 0.083118
-0.058809 0.10273 0.98053 1.1593e-38 287 265 0 0 0 -0.20107 0.12124 -0.97205 0.080929
-0.057065 0.1027 0.98014 1.217e-38 288.5 265 0 0 0 -0.15942 0.15075 -0.97563 0.081097
-0.054772 0.10327 0.98014 1.0787e-38 413 265 0 0 0 -0.10269 0.19518 -0.97538 0.076442
-0.053052 0.10327 0.98014 9.5884e-39 414.5 265 0 0 0 -0.058957 0.2033 -0.97734 0.078986
-0.047318 0.10327 0.98014 1.0787e-38 419.5 265 0 0 0 0.086356 0.24304 -0.96616 0.07128
-0.045024 0.10327 0.98014 8.943e-39 421.5 265 0 0 0 0.1554 0.2481 -0.95619 0.068487
-0.042765 0.10278 0.98091 9.8189e-39 301 265 0 0 0 0.22241 0.22792 -0.94794 0.069729
-0.041044 0.1022 0.98091 9.3118e-39 180 265 0 0 0 0.27055 0.20167 -0.94135 0.071403
-0.039928 0.10228 0.98169 7.8366e-39 187 265 0 0 0 0.29589 0.21347 -0.93106 0.068289
-0.058879 0.10458 0.98169 1.134e-38 169.5 266 0 0 0 -0.19418 0.24295 -0.95041 0.07637
-0.05711 0.1045 0.98091 1.1893e-38 171 266 0 0 0 -0.16008 0.25582 -0.95338 0.077153
-0.055389 0.10508 0.98091 1.0741e-38 293 266 0 0 0 -0.1122 0.29092 -0.95015 0.074619
-0.053115 0.10511 0.9813 9.934e-39 295 266 0 0 0 -0.055668 0.31576 -0.9472 0.073109
-0.050779 0.10503 0.98053 1.0487e-38 297 266 0 0 0 -0.0079765 0.31933 -0.94761 0.067611
-0.049057 0.10503 0.98053 1.1662e-38 298.5 266 0 0 0 0.037461 0.32809 -0.9439 0.066756
-0.04756 0.10491 0.98117 1.1125e-38 259.67 266 0 0 0 0.085429 0.33711 -0.93758 0.063764
-0.045061 0.1045 0.98091 9.6345e-39 181.5 266 0 0 0 0.16579 0.30863 -0.93662 0.063591
-0.043373 0.10458 0.98169 9.3118e-39 185 266 0 0 0 0.21544 0.32592 -0.92052 0.061338
-0.050265 0.10688 0.98169 1.0787e-38 175 267 0 0 0 0.011843 0.41885 -0.90798 0.05455
-0.049116 0.10688 0.98169 1.0695e-38 176 267 0 0 0 0.044835 0.43345 -0.90006 0.051719
-0.060698 0.093245 0.98326 1.3553e-38 396 260 0 0 0 -0.21982 -0.46302 -0.85866 0.060987
-0.058949 0.093208 0.98286 1.4751e-38 397.5 260 0 0 0 -0.19401 -0.46192 -0.86544 0.060651
-0.056833 0.092428 0.98273 1.217e-38 234.67 260 0 0 0 -0.17136 -0.48397 -0.85814 0.058799
-0.054946 0.092094 0.98326 1.1617e-38 154 260 0 0 0 -0.1431 -0.50041 -0.85388 0.060906
-0.053015 0.092453 0.983 1.1709e-38 238 260 0 0 0 -0.10119 -0.48693 -0.86756 0.063841
-0.0509 0.092057 0.98286 9.7727e-39 157.5 260 0 0 0 -0.051603 -0.50424 -0.86202 0.062317
-0.0486 0.092057 0.98286 1.0141e-38 159.5 260 0 0 0 0.0048393 -0.49692 -0.86778 0.061551
-0.046894 0.092094 0.98326 1.1156e-38 161 260 0 0 0 0.051847 -0.49438 -0.8677 0.064358
-0.045132 0.092021 0.98247 1.0603e-38 162.5 260 0 0 0 0.09589 -0.48807 -0.86752 0.062957
-0.043037 0.092811 0.98273 1.1678e-38 329 260 0 0 0 0.14856 -0.45404 -0.87851 0.068421
-0.041142 0.093245 0.98326 1.0787e-38 413 260 0 0 0 0.19938 -0.40765 -0.89111 0.072732
-0.062999 0.095545 0.98326 1.1709e-38 411 261 0 0 0 -0.243 -0.36742 -0.89775 0.066407
-0.061224 0.094894 0.98247 1.1063e-38 289 261 0 0 0 -0.22013 -0.38671 -0.89554 0.064512
-0.039385 0.09432 0.98247 8.8508e-39 185.5 261 0 0 0 0.24206 -0.34494 -0.90688 0.073436
-0.036914 0.094753 0.983 8.5127e-39 269.67 261 0 0 0 0.29023 -0.29152 -0.91147 0.074899
-0.034801 0.094932 0.98286 9.1044e-39 312.5 261 0 0 0 0.32642 -0.24942 -0.91172 0.072308
-0.031939 0.095545 0.98326 9.8649e-39 438 261 0 0 0 0.37648 -0.15581 -0.91323 0.075231
-0.064498 0.097411 0.98273 9.4347e-39 359 262 0 0 0 -0.27076 -0.26132 -0.9265 0.071723
-0.062949 0.096619 0.98247 8.2976e-39 193 262 0 0 0 -0.24867 -0.30274 -0.92006 0.069663
-0.034212 0.096619 0.98247 1.4843e-38 366 262 0 0 0 0.36086 -0.12088 -0.92475 0.073384
-0.033076 0.097232 0.98286 1.1755e-38 418.5 262 0 0 0 0.37277 -0.054241 -0.92634 0.075056
-0.031926 0.097232 0.98286 1.1617e-38 419.5 262 0 0 0 0.38622 -0.0538 -0.92084 0.07349
-0.064673 0.098918 0.98247 1.3737e-38 373.5 263 0 0 0 -0.2824 -0.17055 -0.94401 0.078156
-0.033089 0.098996 0.98326 1.3553e-38 401 263 0 0 0 0.39574 0.044613 -0.91728 0.075818
-0.031913 0.098918 0.98247 1.2262e-38 402 263 0 0 0 0.40036 0.064273 -0.9141 0.069602
-0.037086 0.10122 0.98247 1.0602e-38 419.5 264 0 0 0 0.36564 0.1789 -0.9134 0.068682
-0.034605 0.10086 0.98273 9.9265e-39 336.67 264 0 0 0 0.39115 0.17661 -0.90322 0.068592
-0.033089 0.10015 0.98326 1.1709e-38 168 264 0 0 0 0.40183 0.15221 -0.90298 0.070932
-0.031939 0.10015 0.98326 1.1524e-38 169 264 0 0 0 0.41131 0.16229 -0.89693 0.06945
-0.064673 0.10294 0.98247 1.0787e-38 282 265 0 0 0 -0.29928 0.088151 -0.95008 0.07654
-0.062974 0.10299 0.98286 1.0741e-38 283.5 265 0 0 0 -0.27373 0.1013 -0.95646 0.081942
-0.061224 0.10352 0.98247 9.3118e-39 407.5 265 0 0 0 -0.24091 0.16401 -0.95659 0.083979
-0.041109 0.10352 0.98247 8.7586e-39 425 265 0 0 0 0.28047 0.2881 -0.91561 0.06525
-0.039416 0.10303 0.98326 8.7124e-39 307 265 0 0 0 0.32058 0.26438 -0.90958 0.064938
-0.072547 0.10546 0.98273 1.1617e-38 318.33 266 0 0 0 -0.37376 0.15136 -0.91509 0.06706
-0.064149 0.10475 0.98326 1.3092e-38 165 266 0 0 0 -0.29443 0.24501 -0.92373 0.074507
-0.062999 0.10475 0.98326 1.2631e-38 166 266 0 0 0 -0.27904 0.26483 -0.92304 0.077559
-0.060698 0.10475 0.98326 1.1524e-38 168 266 0 0 0 -0.24854 0.26235 -0.93242 0.079853
-0.05895 0.10586 0.98286 1.1156e-38 410.5 266 0 0 0 -0.20837 0.33044 -0.92054 0.074908
-0.057201 0.10581 0.98247 1.1524e-38 412 266 0 0 0 -0.16477 0.33646 -0.92717 0.074988
-0.046856 0.10581 0.98247 9.4961e-39 421 266 0 0 0 0.11414 0.38898 -0.91415 0.057217
-0.045132 0.10581 0.98247 8.7586e-39 422.5 266 0 0 0 0.16558 0.39337 -0.90435 0.053431
-0.04285 0.10528 0.98286 8.943e-39 305 266 0 0 0 0.23484 0.36965 -0.899 0.057885
-0.056052 0.10696 0.98247 1.1617e-38 170 267 0 0 0 -0.12618 0.41445 -0.90128 0.06213
-0.054902 0.10696 0.98247 1.2262e-38 171 267 0 0 0 -0.10418 0.42226 -0.90047 0.061751
-0.053221 0.10705 0.98326 1.1433e-38 172.5 267 0 0 0 -0.056463 0.4409 -0.89578 0.057527
-0.051454 0.10696 0.98247 1.0787e-38 174 267 0 0 0 -0.013847 0.43123 -0.90213 0.055585
-0.048006 0.10696 0.98247 1.1248e-38 177 267 0 0 0 0.081517 0.43299 -0.8977 0.050698
-0.046894 0.10705 0.98326 1.1985e-38 178 267 0 0 0 0.11345 0.43702 -0.89227 0.050344
-0.045168 0.10705 0.98326 1.1617e-38 179.5 267 0 0 0 0.17228 0.44244 -0.88009 0.048286
-0.056097 0.1082 0.98326 9.404e-39 405 267 0 0 0 -0.12856 0.47081 -0.87282 0.055529
-0.05092 0.1082 0.98326 1.1064e-38 409.5 267 0 0 0 0.0061792 0.47412 -0.88044 0.048168
-0.049194 0.1082 0.98326 1.1432e-38 411 267 0 0 0 0.050113 0.48095 -0.87532 0.045491
-0.060843 0.091162 0.98561 1.4843e-38 379 259 0 0 0 -0.20955 -0.58359 -0.78455 0.049001
-0.059113 0.091162 0.98561 1.4798e-38 380.5 259 0 0 0 -0.1994 -0.57564 -0.79302 0.051128
-0.056762 0.091089 0.98483 1.4291e-38 382.5 259 0 0 0 -0.16745 -0.56235 -0.80977 0.051958
-0.055034 0.091089 0.98483 1.4659e-38 384 259 0 0 0 -0.13469 -0.56962 -0.8108 0.052844
-0.053326 0.091126 0.98522 1.4751e-38 385.5 259 0 0 0 -0.097248 -0.56114 -0.82199 0.057246
-0.050809 0.090704 0.98483 1.1924e-38 305 259 0 0 0 -0.046782 -0.58881 -0.80691 0.054356
-0.048707 0.09053 0.98502 1.1617e-38 265.5 259 0 0 0 0.0029416 -0.59072 -0.80687 0.054421
-0.046968 0.090512 0.98483 1.2262e-38 267 259 0 0 0 0.04477 -0.59898 -0.79951 0.055332
-0.04524 0.090512 0.98483 1.27e-38 268.5 259 0 0 0 0.093346 -0.58435 -0.80612 0.057017
-0.042953 0.090549 0.98522 1.2331e-38 270.5 259 0 0 0 0.13559 -0.58382 -0.80048 0.058987
-0.04124 0.091162 0.98561 1.3553e-38 396 259 0 0 0 0.17683 -0.55863 -0.81035 0.063687
-0.038934 0.091162 0.98561 1.5581e-38 398 259 0 0 0 0.22077 -0.54174 -0.81104 0.065455
-0.035475 0.091162 0.98561 1.4475e-38 401 259 0 0 0 0.2596 -0.50692 -0.82197 0.064024
-0.064303 0.093468 0.98561 1.4936e-38 393 260 0 0 0 -0.24958 -0.50588 -0.82571 0.055319
-0.06315 0.093468 0.98561 1.4014e-38 394 260 0 0 0 -0.23709 -0.49839 -0.8339 0.057815
-0.061563 0.092625 0.98483 1.1494e-38 230.67 260 0 0 0 -0.22046 -0.50062 -0.83713 0.059436
-0.059019 0.092168 0.98404 9.8649e-39 150.5 260 0 0 0 -0.19886 -0.51534 -0.83359 0.055067
-0.042326 0.092168 0.98404 9.4961e-39 165 260 0 0 0 0.16199 -0.49574 -0.85323 0.067289
-0.040428 0.0926 0.98457 9.8956e-39 249.33 260 0 0 0 0.20956 -0.45098 -0.86759 0.073741
-0.038888 0.09278 0.98444 9.4962e-39 292 260 0 0 0 0.23576 -0.43969 -0.86666 0.074179
-0.037175 0.092817 0.98483 1.0303e-38 293.5 260 0 0 0 0.26354 -0.41882 -0.86899 0.073875
-0.034863 0.092799 0.98463 1.0464e-38 295.5 260 0 0 0 0.29892 -0.40343 -0.86481 0.074592
-0.033168 0.093468 0.98561 1.0142e-38 420 260 0 0 0 0.32525 -0.35628 -0.87594 0.077997
-0.03199 0.093393 0.98483 9.404e-39 421 260 0 0 0 0.33783 -0.3217 -0.88452 0.076052
-0.066609 0.095774 0.98561 1.1432e-38 408 261 0 0 0 -0.27367 -0.42848 -0.86111 0.063476
-0.064828 0.095121 0.98483 1.134e-38 286 261 0 0 0 -0.25381 -0.42999 -0.86642 0.064588
-0.063049 0.09447 0.98404 1.0602e-38 164 261 0 0 0 -0.23817 -0.43948 -0.8661 0.063661
-0.061898 0.09447 0.98404 1.0418e-38 165 261 0 0 0 -0.23058 -0.43479 -0.87051 0.064801
-0.033129 0.095083 0.98444 9.5423e-39 314 261 0 0 0 0.35714 -0.21484 -0.90901 0.083058
-0.031221 0.09493 0.98483 9.3424e-39 274.67 261 0 0 0 0.37385 -0.2019 -0.90525 0.081564
-0.029709 0.095774 0.98561 1.1801e-38 440 261 0 0 0 0.38926 -0.13336 -0.91142 0.084582
-0.066556 0.09685 0.98483 9.4961e-39 190 262 0 0 0 -0.28703 -0.33568 -0.89718 0.068931
-0.065351 0.096773 0.98404 9.8649e-39 191 262 0 0 0 -0.27252 -0.3273 -0.90477 0.067249
-0.030813 0.097348 0.98404 1.1893e-38 254 262.5 0 0 0 0.39919 -0.046662 -0.91568 0.080739
-0.029685 0.09685 0.98483 1.429e-38 370 262 0 0 0 0.39759 -0.055894 -0.91586 0.084996
-0.070452 0.098849 0.98561 1.2385e-38 391.67 262.67 0 0 0 -0.31827 -0.27567 -0.90703 0.075271
-0.068915 0.098657 0.98561 1.2538e-38 404.5 262.5 0 0 0 -0.29701 -0.29776 -0.90726 0.077068
-0.067146 0.098597 0.98502 1.2884e-38 406 262.5 0 0 0 -0.29583 -0.27567 -0.9146 0.07565
-0.030813 0.099075 0.98404 1.1063e-38 403 263 0 0 0 0.41974 0.10061 -0.90205 0.075497
-0.029697 0.098618 0.98522 1.0142e-38 272 263 0 0 0 0.4239 0.07299 -0.90276 0.083816
-0.076987 0.10154 0.98561 1.2539e-38 385 264 0 0 0 -0.37378 -0.19997 -0.9057 0.072267
-0.07274 0.10113 0.98535 1.1985e-38 414.67 263.67 0 0 0 -0.35803 -0.16201 -0.91955 0.076492
-0.07063 0.10095 0.98541 1.1248e-38 429.5 263.5 0 0 0 -0.33695 -0.16442 -0.92705 0.07981
-0.068915 0.10097 0.98561 1.1617e-38 431 263.5 0 0 0 -0.33618 -0.093434 -0.93715 0.090226
-0.067133 0.10088 0.98483 1.1893e-38 349.25 263.75 0 0 0 -0.32119 -0.084569 -0.94323 0.088739
-0.033142 0.10146 0.98483 8.7586e-39 423 264 0 0 0 0.41197 0.21505 -0.88546 0.069114
-0.03123 0.1011 0.98509 1.0019e-38 339.67 264 0 0 0 0.43807 0.22468 -0.87041 0.071644
-0.076926 0.10261 0.98483 9.4961e-39 149 265 0 0 0 -0.38453 -0.14607 -0.91148 0.072131
-0.075045 0.10305 0.98535 1.051e-38 232.33 265 0 0 0 -0.38388 -0.074346 -0.92038 0.074322
-0.072864 0.10315 0.98444 1.1686e-38 275 265 0 0 0 -0.37584 -0.0070637 -0.92666 0.075167
-0.070588 0.10318 0.98483 1.2009e-38 277 265 0 0 0 -0.37316 0.072266 -0.92495 0.082889
-0.068915 0.10327 0.98561 1.1893e-38 278.5 265 0 0 0 -0.34782 0.076899 -0.9344 0.0856
-0.067146 0.10321 0.98502 1.1617e-38 280 265 0 0 0 -0.33896 0.099983 -0.93547 0.083641
-0.038903 0.10376 0.98483 9.8649e-39 427 265 0 0 0 0.33929 0.30382 -0.89027 0.063386
-0.037168 0.10317 0.98463 9.4732e-39 309 265 0 0 0 0.3749 0.29701 -0.8782 0.062108
-0.034877 0.10321 0.98502 9.2657e-39 311 265 0 0 0 0.40192 0.31137 -0.86111 0.059306
-0.073469 0.10492 0.98483 1.2446e-38 157 266 0 0 0 -0.41097 0.14124 -0.90064 0.077956
-0.070762 0.10527 0.98457 1.1648e-38 239.67 266 0 0 0 -0.38146 0.21924 -0.89801 0.076185
-0.066609 0.105 0.98561 1.1985e-38 163 266 0 0 0 -0.34915 0.26162 -0.8998 0.082686
-0.065351 0.10483 0.98404 1.2354e-38 164 266 0 0 0 -0.33346 0.24299 -0.91091 0.080414
-0.061898 0.10483 0.98404 1.1709e-38 167 266 0 0 0 -0.2677 0.25735 -0.9285 0.083921
-0.040615 0.10487 0.98444 8.2976e-39 187.5 266 0 0 0 0.30166 0.36331 -0.88148 0.056671
-0.038934 0.105 0.98561 8.5742e-39 189 266 0 0 0 0.34178 0.37976 -0.85964 0.053514
-0.070588 0.10664 0.98483 1.1617e-38 280.5 266.5 0 0 0 -0.40107 0.33684 -0.85187 0.075625
-0.064653 0.10648 0.98509 1.0295e-38 324.67 266.33 0 0 0 -0.32463 0.3761 -0.86785 0.072135
-0.063125 0.10669 0.98522 1.0603e-38 285.5 266.5 0 0 0 -0.30788 0.39013 -0.86776 0.072872
-0.061371 0.10607 0.98483 9.819e-39 408.5 266 0 0 0 -0.26881 0.3648 -0.89144 0.077441
-0.059044 0.10718 0.98444 1.134e-38 167.5 267 0 0 0 -0.21358 0.43692 -0.87378 0.063018
-0.057293 0.10713 0.98404 1.1248e-38 169 267 0 0 0 -0.17397 0.43427 -0.88382 0.06344
-0.042743 0.10684 0.98483 9.9569e-39 262.67 266.67 0 0 0 0.24255 0.44239 -0.8634 0.047191
-0.040663 0.10615 0.98561 8.7586e-39 426.5 266 0 0 0 0.30637 0.42119 -0.85366 0.048214
-0.058537 0.10846 0.98561 1.0142e-38 403 267 0 0 0 -0.2075 0.49122 -0.84596 0.057434
-0.056807 0.10904 0.98561 1.0741e-38 281.5 267.5 0 0 0 -0.15555 0.53484 -0.83051 0.045049
-0.055034 0.10895 0.98483 1.0556e-38 283 267.5 0 0 0 -0.10895 0.51997 -0.84721 0.045097
-0.053113 0.10876 0.98483 1.0572e-38 325.67 267.33 0 0 0 -0.062903 0.51452 -0.85517 0.046229
-0.051001 0.10952 0.98483 1.1894e-38 163.5 268 0 0 0 0.008534 0.53603 -0.84416 0.03686
-0.048505 0.10914 0.98483 1.1278e-38 247.67 267.67 0 0 0 0.068777 0.52684 -0.84718 0.035154
-0.046968 0.10837 0.98483 9.9571e-39 413 267 0 0 0 0.11468 0.50568 -0.85507 0.039783
-0.04524 0.10837 0.98483 9.2657e-39 414.5 267 0 0 0 0.17026 0.50462 -0.84639 0.037999
-0.043547 0.10846 0.98561 9.0352e-39 416 267 0 0 0 0.21679 0.52092 -0.82562 0.034118
-0.044807 0.087913 0.98798 1.0142e-38 445 257 0 0 0 0.077428 -0.72841 -0.68075 0.035764
-0.043073 0.087913 0.98798 1.0418e-38 446.5 257 0 0 0 0.11037 -0.71678 -0.68851 0.038128
-0.056366 0.089069 0.98798 1.0049e-38 361 258 0 0 0 -0.15898 -0.70381 -0.69237 0.036045
-0.054632 0.089069 0.98798 9.9572e-39 362.5 258 0 0 0 -0.12725 -0.70095 -0.70176 0.037666
-0.052898 0.089069 0.98798 1.1432e-38 364 258 0 0 0 -0.088598 -0.70314 -0.70551 0.038112
-0.051144 0.089033 0.98759 1.24e-38 365.5 258 0 0 0 -0.052005 -0.69945 -0.71279 0.038792
-0.048813 0.088997 0.98719 1.1479e-38 367.5 258 0 0 0 -0.0038025 -0.69556 -0.71845 0.040568
-0.047081 0.088997 0.98719 9.8649e-39 369 258 0 0 0 0.040073 -0.69364 -0.71921 0.042576
-0.045331 0.088961 0.9868 1.005e-38 370.5 258 0 0 0 0.077448 -0.68513 -0.72429 0.043013
-0.043039 0.088997 0.98719 1.0879e-38 372.5 258 0 0 0 0.12062 -0.67618 -0.72679 0.047711
-0.040729 0.088997 0.98719 1.3138e-38 374.5 258 0 0 0 0.1683 -0.66059 -0.73164 0.049807
-0.038996 0.088997 0.98719 1.3e-38 376 258 0 0 0 0.19242 -0.65238 -0.73306 0.050115
-0.037872 0.089069 0.98798 1.3184e-38 377 258 0 0 0 0.19853 -0.64708 -0.73612 0.052319
-0.03556 0.089069 0.98798 1.429e-38 379 258 0 0 0 0.2277 -0.62731 -0.74474 0.053872
-0.065035 0.09138 0.98798 1.3645e-38 375.5 259 0 0 0 -0.2378 -0.60148 -0.76268 0.045633
-0.062481 0.090922 0.98719 1.1893e-38 405.67 258.67 0 0 0 -0.22242 -0.61172 -0.75917 0.045742
-0.060941 0.090152 0.98719 8.7586e-39 463 258 0 0 0 -0.21408 -0.62795 -0.74823 0.046126
-0.059208 0.090152 0.98719 9.3118e-39 464.5 258 0 0 0 -0.19997 -0.63399 -0.74704 0.047527
-0.056853 0.09008 0.9864 1.0003e-38 466.5 258 0 0 0 -0.16925 -0.6209 -0.7654 0.048193
-0.055122 0.09008 0.9864 9.0352e-39 468 258 0 0 0 -0.13695 -0.62321 -0.76997 0.049106
-0.053391 0.09008 0.9864 9.3579e-39 469.5 258 0 0 0 -0.10548 -0.62478 -0.77364 0.049592
-0.05166 0.09008 0.9864 8.482e-39 139 259 0 0 0 -0.064663 -0.63667 -0.76842 0.050141
-0.040504 0.090465 0.9864 1.2139e-38 231.33 259 0 0 0 0.18139 -0.58919 -0.78737 0.061417
-0.038965 0.09008 0.9864 9.6805e-39 150 259 0 0 0 0.20642 -0.60236 -0.77107 0.057225
-0.037249 0.090693 0.9868 1.2585e-38 275.5 259 0 0 0 0.23071 -0.56724 -0.79058 0.062092
-0.034752 0.090513 0.98693 1.2385e-38 236.33 259 0 0 0 0.26032 -0.55425 -0.7906 0.063868
-0.032651 0.090747 0.98739 1.1986e-38 279.5 259 0 0 0 0.28832 -0.51518 -0.80713 0.069926
-0.030936 0.09138 0.98798 1.3553e-38 405 259 0 0 0 0.30453 -0.46768 -0.82978 0.078006
-0.069081 0.093692 0.98798 1.2815e-38 389 260 0 0 0 -0.26684 -0.54972 -0.79159 0.052538
-0.067136 0.093282 0.98772 1.2293e-38 308.33 260 0 0 0 -0.25715 -0.54869 -0.7955 0.05302
-0.065158 0.092822 0.98693 1.1494e-38 227.67 260 0 0 0 -0.24763 -0.54634 -0.80012 0.055142
-0.0632 0.092388 0.9864 1.0049e-38 147 260 0 0 0 -0.23625 -0.55044 -0.80075 0.057679
-0.032618 0.092388 0.9864 9.6808e-39 174.5 260 0 0 0 0.31298 -0.4253 -0.84921 0.078113
-0.0309 0.093002 0.9868 9.6804e-39 299 260 0 0 0 0.33503 -0.38511 -0.85991 0.0843
-0.029185 0.093058 0.98739 9.6114e-39 300.5 260 0 0 0 0.34702 -0.34459 -0.87226 0.08799
-0.02688 0.093076 0.98759 1.0049e-38 302.5 260 0 0 0 0.36309 -0.29949 -0.88231 0.085832
-0.025157 0.093692 0.98798 1.1063e-38 427 260 0 0 0 0.37815 -0.24555 -0.89258 0.093174
-0.070786 0.095388 0.98759 1.1501e-38 281 261 0 0 0 -0.28574 -0.48041 -0.8292 0.060605
-0.069053 0.095388 0.98759 1.1247e-38 282.5 261 0 0 0 -0.27897 -0.47389 -0.83523 0.063727
-0.067467 0.095132 0.98693 1.1801e-38 242.67 261 0 0 0 -0.2679 -0.47808 -0.83647 0.061195
-0.028971 0.095107 0.98666 9.6497e-39 276.67 261 0 0 0 0.38372 -0.18826 -0.90405 0.090196
-0.026859 0.095312 0.9868 9.7266e-39 391.5 261 0 0 0 0.39786 -0.14604 -0.90575 0.090707
-0.024758 0.095182 0.98745 9.0661e-39 376.33 261 0 0 0 0.40269 -0.11602 -0.90795 0.092864
-0.07486 0.09716 0.98798 9.404e-39 179 262 0 0 0 -0.32757 -0.44712 -0.83234 0.058653
-0.072914 0.096749 0.98772 9.9878e-39 254.67 261.67 0 0 0 -0.3193 -0.442 -0.83826 0.066173
-0.070701 0.097005 0.9864 8.5281e-39 184.5 262 0 0 0 -0.30449 -0.40327 -0.86294 0.065534
-0.06897 0.097005 0.9864 8.482e-39 188 262 0 0 0 -0.2891 -0.38377 -0.87701 0.070116
-0.067816 0.097005 0.9864 8.482e-39 189 262 0 0 0 -0.28244 -0.37704 -0.88208 0.076068
-0.028602 0.097082 0.98719 1.5028e-38 371 262 0 0 0 0.4247 0.0011449 -0.90533 0.092872
-0.026859 0.097043 0.9868 1.3414e-38 373.5 262 0 0 0 0.42898 0.036599 -0.90257 0.090792
-0.02438 0.096749 0.98772 1.2508e-38 398.67 261.67 0 0 0 0.43672 0.029296 -0.89912 0.093707
-0.078328 0.099472 0.98798 1.3e-38 362 263 0 0 0 -0.35602 -0.42881 -0.83028 0.048532
-0.076766 0.098675 0.98772 1.0787e-38 409.33 262.33 0 0 0 -0.34746 -0.41795 -0.8394 0.055403
-0.075185 0.099007 0.98719 1.3338e-38 387.67 262.67 0 0 0 -0.35408 -0.35333 -0.8659 0.066743
-0.073039 0.098775 0.9868 1.2009e-38 401 262.5 0 0 0 -0.33737 -0.34114 -0.87739 0.066104
-0.071278 0.098159 0.9864 9.3118e-39 437 262 0 0 0 -0.32496 -0.33769 -0.88338 0.072451
-0.028591 0.098775 0.9868 9.5883e-39 273 263 0 0 0 0.43128 0.10288 -0.89633 0.087621
-0.026864 0.098795 0.98699 1.0003e-38 274.5 263 0 0 0 0.44928 0.12326 -0.88485 0.08857
-0.025147 0.098854 0.98759 1.0095e-38 276 263 0 0 0 0.4491 0.16315 -0.87846 0.0851
-0.080639 0.10178 0.98798 1.4383e-38 382 264 0 0 0 -0.35064 -0.40406 -0.84486 0.04984
-0.078843 0.10113 0.98719 1.1179e-38 422.5 263.5 0 0 0 -0.36885 -0.31976 -0.87275 0.062255
-0.077048 0.10047 0.9864 8.8508e-39 463 263 0 0 0 -0.37643 -0.27891 -0.88347 0.067108
-0.075332 0.10107 0.9866 1.0879e-38 425.5 263.5 0 0 0 -0.37593 -0.22126 -0.89985 0.074983
-0.073586 0.10047 0.9864 1.0418e-38 466 263 0 0 0 -0.35742 -0.23848 -0.90298 0.075034
-0.029372 0.10093 0.98719 1.1248e-38 256.33 264 0 0 0 0.44729 0.24352 -0.8606 0.075324
-0.026891 0.10063 0.98798 1.0556e-38 173.5 264 0 0 0 0.45882 0.2529 -0.85178 0.081032
-0.032618 0.10277 0.9864 8.5281e-39 193.5 265 0 0 0 0.43029 0.30407 -0.84994 0.064961
-0.030912 0.10286 0.98719 8.943e-39 195 265 0 0 0 0.45058 0.32902 -0.82989 0.061443
-0.06897 0.10508 0.9864 1.2078e-38 161 266 0 0 0 -0.38613 0.25698 -0.88592 0.086376
-0.067816 0.10508 0.9864 1.2262e-38 162 266 0 0 0 -0.36327 0.2721 -0.89106 0.084905
-0.037234 0.10508 0.9864 9.1735e-39 190.5 266 0 0 0 0.38351 0.3763 -0.84339 0.053135
-0.034939 0.10512 0.9868 8.3898e-39 192.5 266 0 0 0 0.41521 0.39848 -0.81781 0.047913
-0.032658 0.10406 0.98759 8.8047e-39 432.5 265 0 0 0 0.43622 0.37302 -0.81888 0.05419
-0.030936 0.1041 0.98798 9.0352e-39 434 265 0 0 0 0.44783 0.38439 -0.80728 0.054039
-0.069025 0.10632 0.98719 1.134e-38 402 266 0 0 0 -0.40326 0.39382 -0.82601 0.076497
-0.067082 0.10668 0.98693 1.1002e-38 322.67 266.33 0 0 0 -0.37717 0.40703 -0.83191 0.072777
-0.065508 0.10739 0.9864 1.2539e-38 162 267 0 0 0 -0.35631 0.43385 -0.82754 0.068328
-0.062046 0.10739 0.9864 1.217e-38 165 267 0 0 0 -0.29196 0.45033 -0.84378 0.066923
-0.060892 0.10739 0.9864 1.2078e-38 166 267 0 0 0 -0.27062 0.45042 -0.85081 0.068063
-0.040712 0.10744 0.9868 1.1063e-38 184 267 0 0 0 0.30571 0.48115 -0.8216 0.037755
-0.039012 0.10694 0.98759 9.9112e-39 307 266.5 0 0 0 0.34534 0.46597 -0.81462 0.038984
-0.037466 0.10673 0.98745 9.6192e-39 348.67 266.33 0 0 0 0.37846 0.45708 -0.80489 0.0384
-0.03556 0.10641 0.98798 8.7586e-39 431 266 0 0 0 0.41392 0.44537 -0.79393 0.040193
-0.065009 0.10868 0.98759 1.0326e-38 397.5 267 0 0 0 -0.34674 0.51618 -0.78316 0.053758
-0.062865 0.10902 0.98719 1.1955e-38 317.33 267.33 0 0 0 -0.30305 0.52763 -0.79358 0.051827
-0.060941 0.10863 0.98719 1.1248e-38 401 267 0 0 0 -0.27271 0.51646 -0.81172 0.05406
-0.059401 0.1094 0.98719 1.1709e-38 238.33 267.67 0 0 0 -0.22376 0.55107 -0.8039 0.043692
-0.057476 0.10979 0.98719 1.2078e-38 158 268 0 0 0 -0.18191 0.56268 -0.80641 0.039177
-0.053968 0.1097 0.9864 1.2539e-38 161 268 0 0 0 -0.088958 0.55589 -0.82648 0.03875
-0.047043 0.1097 0.9864 1.1156e-38 167 268 0 0 0 0.12233 0.56377 -0.81682 0.02904
-0.045349 0.10979 0.98719 1.1017e-38 168.5 268 0 0 0 0.1741 0.56398 -0.80723 0.027475
-0.042857 0.10943 0.98745 1.0972e-38 252.67 267.67 0 0 0 0.24487 0.55653 -0.79392 0.026358
-0.040761 0.10872 0.98798 1.0649e-38 418.5 267 0 0 0 0.31099 0.53056 -0.78854 0.027358
-0.056921 0.11098 0.98759 9.45e-39 393.5 268 0 0 0 -0.15465 0.60761 -0.77903 0.026444
-0.054632 0.11103 0.98798 9.3578e-39 395.5 268 0 0 0 -0.097163 0.61694 -0.78099 0.02343
-0.052856 0.11094 0.98719 9.5883e-39 397 268 0 0 0 -0.052719 0.61029 -0.79042 0.024378
-0.051083 0.11085 0.9864 1.0787e-38 398.5 268 0 0 0 -0.0017426 0.60367 -0.79723 0.02468
-0.048794 0.1109 0.9868 1.1202e-38 400.5 268 0 0 0 0.063461 0.60631 -0.79269 0.021237
-0.047119 0.11103 0.98798 1.0326e-38 402 268 0 0 0 0.11832 0.61359 -0.78071 0.020105
-0.051164 0.11219 0.98798 1.2123e-38 146.5 269 0 0 0 -0.0030651 0.6545 -0.75606 0.015199
-0.04943 0.11219 0.98798 1.1709e-38 148 269 0 0 0 0.047135 0.652 -0.75675 0.015014
-0.048891 0.087983 0.98877 1.1478e-38 441.5 257 0 0 0 -0.0070467 -0.76289 -0.64649 0.027723
-0.047156 0.087983 0.98877 1.1524e-38 443 257 0 0 0 0.032673 -0.74851 -0.66232 0.03183
-0.04544 0.087439 0.98917 9.5424e-39 389.5 257 0 0 0 0.057953 -0.76884 -0.63681 0.028322
-0.043142 0.086896 0.98956 8.8969e-39 336.5 257 0 0 0 0.093296 -0.77675 -0.62286 0.026401
-0.04081 0.08744 0.98917 1.0856e-38 393.5 257 0 0 0 0.14239 -0.73666 -0.6611 0.037384
-0.039074 0.087439 0.98917 1.1064e-38 395 257 0 0 0 0.16845 -0.72371 -0.66922 0.038723
-0.037917 0.087439 0.98917 1.1017e-38 396 257 0 0 0 0.1712 -0.71611 -0.67666 0.038246
-0.062245 0.089211 0.98956 9.7727e-39 356 258 0 0 0 -0.21631 -0.70071 -0.67987 0.036664
-0.061038 0.08914 0.98877 9.8649e-39 357 258 0 0 0 -0.21013 -0.69667 -0.68593 0.037634
-0.059303 0.08914 0.98877 1.0787e-38 358.5 258 0 0 0 -0.1938 -0.69702 -0.69036 0.037559
-0.057568 0.08914 0.98877 1.1248e-38 360 258 0 0 0 -0.17521 -0.70461 -0.68762 0.037191
-0.054141 0.088054 0.98956 1.2078e-38 437 257 0 0 0 -0.11182 -0.77046 -0.6276 0.023466
-0.051246 0.088054 0.98956 1.2077e-38 439.5 257 0 0 0 -0.059815 -0.77874 -0.62449 0.022957
-0.03676 0.088597 0.98917 1.1709e-38 415 257.5 0 0 0 0.20296 -0.67218 -0.71202 0.049415
-0.035024 0.088597 0.98917 1.2124e-38 416.5 257.5 0 0 0 0.21152 -0.65577 -0.72472 0.053042
-0.03271 0.089175 0.98917 1.4567e-38 381.5 258 0 0 0 0.24726 -0.61448 -0.74918 0.0598
-0.070349 0.091527 0.98956 1.1524e-38 371 259 0 0 0 -0.26296 -0.63743 -0.72425 0.034496
-0.068613 0.091527 0.98956 1.2677e-38 372.5 259 0 0 0 -0.25067 -0.63588 -0.72995 0.041442
-0.066849 0.090912 0.98917 1.2493e-38 416 258.5 0 0 0 -0.23908 -0.64367 -0.727 0.039796
-0.065113 0.090333 0.98917 1.028e-38 459.5 258 0 0 0 -0.22752 -0.6723 -0.70445 0.038333
-0.063352 0.090297 0.98877 9.2196e-39 461 258 0 0 0 -0.22619 -0.66221 -0.71436 0.043037
-0.030961 0.090297 0.98877 9.4961e-39 157 259 0 0 0 0.28369 -0.53023 -0.79898 0.073615
-0.029426 0.091092 0.98903 1.2047e-38 323.67 259 0 0 0 0.30221 -0.48148 -0.8227 0.081023
-0.026912 0.091454 0.98877 1.2908e-38 408.5 259 0 0 0 0.32979 -0.42215 -0.84441 0.081084
-0.024618 0.091527 0.98956 1.3692e-38 410.5 259 0 0 0 0.3352 -0.41069 -0.84792 0.086115
-0.072664 0.093263 0.98956 1.1248e-38 262.5 260 0 0 0 -0.28563 -0.59941 -0.74774 0.039575
-0.0709 0.093226 0.98917 1.1087e-38 264 260 0 0 0 -0.27478 -0.58712 -0.76144 0.045271
-0.069136 0.09261 0.98877 1.0326e-38 142 260 0 0 0 -0.2606 -0.59491 -0.76037 0.045417
-0.067979 0.09261 0.98877 1.0787e-38 143 260 0 0 0 -0.25469 -0.58014 -0.77367 0.049375
-0.024406 0.092996 0.98877 9.1273e-39 263.67 260 0 0 0 0.37109 -0.28045 -0.88524 0.093648
-0.022863 0.093189 0.98877 9.957e-39 306 260 0 0 0 0.36807 -0.27284 -0.88887 0.090846
-0.021141 0.093245 0.98936 1.0026e-38 307.5 260 0 0 0 0.39708 -0.21791 -0.89154 0.09652
-0.01883 0.093842 0.98956 9.45e-39 432.5 260 0 0 0 0.39969 -0.15875 -0.9028 0.094008
-0.017093 0.093842 0.98956 9.6805e-39 434 260 0 0 0 0.40762 -0.13839 -0.9026 0.089625
-0.076138 0.095 0.98956 1.0695e-38 153 261 0 0 0 -0.31329 -0.56668 -0.76205 0.037328
-0.07498 0.095 0.98956 1.0602e-38 154 261 0 0 0 -0.31789 -0.55211 -0.7708 0.042259
-0.073214 0.094962 0.98917 1.1524e-38 155.5 261 0 0 0 -0.30575 -0.53845 -0.78523 0.047606
-0.022863 0.094924 0.98877 9.1274e-39 344 261 0 0 0 0.41879 -0.10648 -0.90182 0.099981
-0.021136 0.094962 0.98917 9.45e-39 345.5 261 0 0 0 0.40991 -0.076542 -0.90891 0.097982
-0.01883 0.095 0.98956 9.5422e-39 347.5 261 0 0 0 0.41908 -0.046465 -0.90676 0.09726
-0.017093 0.095 0.98956 9.7727e-39 349 261 0 0 0 0.42914 -0.042364 -0.90224 0.092095
-0.084208 0.096698 0.98917 1.3553e-38 278 261.5 0 0 0 -0.37286 -0.5693 -0.73272 0.02513
-0.079032 0.097316 0.98956 1.0741e-38 169.5 262 0 0 0 -0.35247 -0.52857 -0.77226 0.036665
-0.076686 0.096698 0.98917 1.2493e-38 285.5 261.5 0 0 0 -0.32465 -0.52365 -0.78765 0.044939
-0.07492 0.096081 0.98877 1.3276e-38 401 261 0 0 0 -0.31201 -0.51895 -0.79583 0.04859
-0.073763 0.096081 0.98877 1.2907e-38 402 261 0 0 0 -0.31516 -0.49084 -0.81225 0.055473
-0.022863 0.096659 0.98877 1.1755e-38 411.5 261.5 0 0 0 0.43688 0.05094 -0.89808 0.097852
-0.021136 0.096698 0.98917 1.2585e-38 413 261.5 0 0 0 0.43259 0.044281 -0.9005 0.098291
-0.01883 0.096158 0.98956 1.1386e-38 449.5 261 0 0 0 0.43769 0.033775 -0.89849 0.098318
-0.081348 0.099631 0.98956 1.0879e-38 359.5 263 0 0 0 -0.3626 -0.50231 -0.78499 0.039565
-0.079183 0.098806 0.98903 1.0357e-38 407.33 262.33 0 0 0 -0.34168 -0.49559 -0.79853 0.039798
-0.02403 0.099012 0.98917 1.028e-38 277 263 0 0 0 0.45354 0.19717 -0.86915 0.089372
-0.022882 0.098473 0.98956 9.7727e-39 146 263 0 0 0 0.43994 0.16398 -0.88293 0.094114
-0.021724 0.098473 0.98956 9.1274e-39 147 263 0 0 0 0.44117 0.19235 -0.87656 0.090433
-0.081315 0.10075 0.98917 1.0418e-38 459.5 263 0 0 0 -0.35492 -0.47345 -0.80615 0.041115
-0.02867 0.10195 0.98956 1.051e-38 427 264 0 0 0 0.46739 0.31484 -0.82609 0.071453
-0.026923 0.10191 0.98917 1.0464e-38 428.5 264 0 0 0 0.46004 0.32723 -0.8254 0.069891
-0.024804 0.10115 0.9893 9.6805e-39 260.33 264 0 0 0 0.45801 0.30779 -0.83396 0.07533
-0.029804 0.10302 0.98877 8.2054e-39 196 265 0 0 0 0.46595 0.33938 -0.81714 0.064213
-0.032697 0.10534 0.98877 8.482e-39 194.5 266 0 0 0 0.44304 0.41601 -0.79414 0.046713
-0.030986 0.10542 0.98956 8.021e-39 196 266 0 0 0 0.4509 0.43301 -0.78051 0.043803
-0.036745 0.10765 0.98877 8.3898e-39 188 267 0 0 0 0.39497 0.49471 -0.77412 0.030753
-0.034826 0.10729 0.98903 8.5127e-39 270.33 266.67 0 0 0 0.41737 0.49382 -0.76286 0.028545
-0.064509 0.10996 0.98877 1.2631e-38 152 268 0 0 0 -0.344 0.57468 -0.74257 0.042147
-0.062195 0.10996 0.98877 1.2354e-38 154 268 0 0 0 -0.30502 0.57973 -0.75556 0.040473
-0.061038 0.10996 0.98877 1.1893e-38 155 268 0 0 0 -0.28139 0.57687 -0.76684 0.039318
-0.041372 0.10996 0.98877 1.134e-38 172 268 0 0 0 0.28647 0.5749 -0.76644 0.020309
-0.039059 0.10881 0.98877 1.0695e-38 420 267 0 0 0 0.3414 0.53958 -0.76961 0.023851
-0.037354 0.10889 0.98956 9.2196e-39 421.5 267 0 0 0 0.37501 0.54243 -0.75176 0.020968
-0.063352 0.11112 0.98877 1.1893e-38 388 268 0 0 0 -0.31032 0.61546 -0.72451 0.030638
-0.059327 0.11117 0.98917 1.028e-38 391.5 268 0 0 0 -0.22389 0.62274 -0.74972 0.025081
-0.045421 0.11112 0.98877 9.4962e-39 403.5 268 0 0 0 0.17307 0.61908 -0.76602 0.018827
-0.043124 0.11117 0.98917 9.1735e-39 405.5 268 0 0 0 0.23367 0.61451 -0.75351 0.016666
-0.040827 0.11063 0.98956 1.0187e-38 290 268 0 0 0 0.2969 0.59823 -0.74429 0.016117
-0.057012 0.11232 0.98917 1.0326e-38 141.5 269 0 0 0 -0.14342 0.65352 -0.74319 0.016892
-0.05472 0.11237 0.98956 1.2446e-38 143.5 269 0 0 0 -0.081208 0.65746 -0.7491 0.014493
-0.05294 0.11228 0.98877 1.2723e-38 145 269 0 0 0 -0.043619 0.65735 -0.75233 0.014576
-0.051246 0.11352 0.98956 1.2999e-38 380.5 269 0 0 0 -0.0011209 0.67088 -0.74156 0.013764
-0.048725 0.11311 0.9893 1.2201e-38 304.67 269 0 0 0 0.059924 0.66359 -0.74569 0.01373
-0.046596 0.11232 0.98917 1.1387e-38 150.5 269 0 0 0 0.12147 0.65281 -0.74772 0.015466
-0.044879 0.11237 0.98956 1.2539e-38 152 269 0 0 0 0.18056 0.64572 -0.74192 0.014601
-0.043721 0.11237 0.98956 1.3368e-38 153 269 0 0 0 0.2094 0.64329 -0.73643 0.014783
-0.048468 0.085945 0.99194 1.2815e-38 408 256 0 0 0 -0.02154 -0.86033 -0.50927 0.0079311
-0.046728 0.085945 0.99194 1.3322e-38 409.5 256 0 0 0 0.0076921 -0.85107 -0.525 0.010181
-0.044951 0.085876 0.99115 1.4567e-38 411 256 0 0 0 0.044214 -0.83147 -0.55381 0.01458
-0.043211 0.085876 0.99115 1.4889e-38 412.5 256 0 0 0 0.076421 -0.8187 -0.56911 0.017651
-0.040892 0.085295 0.99115 1.1893e-38 287.5 256 0 0 0 0.0993 -0.81309 -0.5736 0.018679
-0.039153 0.085876 0.99115 1.3829e-38 416 256 0 0 0 0.12945 -0.78644 -0.60395 0.024779
-0.037428 0.08591 0.99155 1.3968e-38 417.5 256 0 0 0 0.1418 -0.77673 -0.61367 0.027231
-0.035703 0.085945 0.99194 1.3645e-38 419 256 0 0 0 0.15886 -0.75902 -0.63139 0.031646
-0.056592 0.087105 0.99194 9.3118e-39 183 257 0 0 0 -0.13384 -0.82571 -0.54798 0.013406
-0.054271 0.087105 0.99194 9.5883e-39 185 257 0 0 0 -0.10588 -0.83409 -0.54138 0.011467
-0.053111 0.087105 0.99194 9.0352e-39 186 257 0 0 0 -0.09184 -0.83623 -0.54064 0.011053
-0.051349 0.08707 0.99155 8.6664e-39 187.5 257 0 0 0 -0.068464 -0.83761 -0.54196 0.011203
-0.04899 0.087001 0.99075 8.7586e-39 189.5 257 0 0 0 -0.020329 -0.82191 -0.56926 0.015028
-0.046652 0.086966 0.99035 9.1274e-39 191.5 257 0 0 0 0.027339 -0.80305 -0.59528 0.020714
-0.036834 0.087035 0.99115 1.2539e-38 342 257 0 0 0 0.17196 -0.7379 -0.65263 0.036904
-0.035094 0.087035 0.99115 1.2539e-38 343.5 257 0 0 0 0.18651 -0.71785 -0.67075 0.041566
-0.032221 0.087105 0.99194 1.1801e-38 346 257 0 0 0 0.19938 -0.6946 -0.69121 0.046358
-0.071099 0.089426 0.99194 1.1202e-38 348.5 258 0 0 0 -0.24668 -0.71491 -0.65426 0.024732
-0.06875 0.08881 0.99154 1.0764e-38 387.5 257.5 0 0 0 -0.22847 -0.72607 -0.64855 0.026997
-0.066983 0.088775 0.99115 1.0234e-38 389 257.5 0 0 0 -0.22219 -0.72644 -0.65032 0.027518
-0.065244 0.088774 0.99115 1.1063e-38 390.5 257.5 0 0 0 -0.2152 -0.73279 -0.64553 0.029869
-0.063117 0.088581 0.99115 1.1555e-38 404.67 257.33 0 0 0 -0.21046 -0.74166 -0.6369 0.029957
-0.060605 0.088195 0.99115 1.051e-38 431.5 257 0 0 0 -0.19101 -0.76 -0.62122 0.028429
-0.058866 0.088195 0.99115 1.0234e-38 433 257 0 0 0 -0.17752 -0.77101 -0.61158 0.026294
-0.057103 0.08816 0.99075 1.0372e-38 434.5 257 0 0 0 -0.15488 -0.77764 -0.60933 0.023286
-0.055343 0.088124 0.99035 1.134e-38 436 257 0 0 0 -0.12967 -0.7767 -0.61638 0.02263
-0.053025 0.088124 0.99035 1.2354e-38 438 257 0 0 0 -0.096243 -0.78295 -0.61459 0.022
-0.034487 0.088124 0.99035 9.5883e-39 454 257 0 0 0 0.20264 -0.66707 -0.71691 0.052179
-0.032762 0.08816 0.99075 9.7266e-39 455.5 257 0 0 0 0.22699 -0.64821 -0.72684 0.058285
-0.031036 0.088775 0.99115 1.2723e-38 420 257.5 0 0 0 0.24689 -0.61461 -0.7492 0.061658
-0.029307 0.089391 0.99155 1.5397e-38 384.5 258 0 0 0 0.26961 -0.57155 -0.77501 0.071902
-0.026999 0.089426 0.99194 1.4245e-38 386.5 258 0 0 0 0.29108 -0.53641 -0.79217 0.076348
-0.024678 0.089426 0.99194 1.3138e-38 388.5 258 0 0 0 0.29423 -0.52628 -0.79778 0.074929
-0.018295 0.089426 0.99194 1.3737e-38 394 258 0 0 0 0.31693 -0.45033 -0.83472 0.078524
-0.073168 0.091287 0.99115 1.0541e-38 396.67 258.67 0 0 0 -0.27319 -0.67133 -0.68897 0.027004
-0.071197 0.090852 0.99062 9.9877e-39 426.33 258.33 0 0 0 -0.26308 -0.67373 -0.69056 0.028914
-0.068668 0.090442 0.99035 1.0142e-38 456.5 258 0 0 0 -0.2439 -0.6795 -0.69195 0.031037
-0.028693 0.090442 0.99035 9.4961e-39 159 259 0 0 0 0.29334 -0.51349 -0.8064 0.079048
-0.026956 0.090442 0.99035 1.028e-38 160.5 259 0 0 0 0.30383 -0.48611 -0.81938 0.082538
-0.024648 0.090478 0.99075 1.0602e-38 162.5 259 0 0 0 0.30926 -0.47348 -0.82473 0.082308
-0.022909 0.091057 0.99075 1.1663e-38 288 259 0 0 0 0.33056 -0.41689 -0.84672 0.08553
-0.021175 0.091075 0.99095 1.0603e-38 289.5 259 0 0 0 0.34744 -0.38344 -0.85572 0.089517
-0.01886 0.091094 0.99115 9.8419e-39 292 259 0 0 0 0.35251 -0.35689 -0.86508 0.085468
-0.017127 0.09113 0.99155 1.0096e-38 293.5 259 0 0 0 0.35517 -0.34632 -0.86828 0.084417
-0.015583 0.091336 0.99168 1.0603e-38 336 259 0 0 0 0.36044 -0.30183 -0.8826 0.082316
-0.079159 0.093993 0.99115 1.5073e-38 380.5 260 0 0 0 -0.34411 -0.62547 -0.70026 0.02115
-0.07684 0.093413 0.99115 1.1663e-38 425 259.5 0 0 0 -0.31641 -0.63236 -0.70711 0.025443
-0.07507 0.093376 0.99075 1.1109e-38 426.5 259.5 0 0 0 -0.30291 -0.61717 -0.72619 0.029974
-0.073911 0.093376 0.99075 1.1663e-38 427.5 259.5 0 0 0 -0.28737 -0.61518 -0.73414 0.035783
-0.018845 0.092759 0.99035 9.0351e-39 186.5 260 0 0 0 0.38718 -0.22966 -0.89294 0.094833
-0.017107 0.092759 0.99035 8.3898e-39 188 260 0 0 0 0.39358 -0.21293 -0.89429 0.087193
-0.01557 0.093195 0.99088 9.1581e-39 271.33 260 0 0 0 0.40965 -0.13036 -0.90288 0.090897
-0.084377 0.095153 0.99115 9.4961e-39 146 261 0 0 0 -0.39291 -0.59739 -0.6991 0.020208
-0.082704 0.095229 0.99194 9.9572e-39 147.5 261 0 0 0 -0.3776 -0.6136 -0.69348 0.019812
-0.080931 0.09461 0.99155 1.24e-38 264 260.5 0 0 0 -0.3547 -0.62435 -0.69597 0.019841
-0.079095 0.095076 0.99035 9.8187e-39 150.5 261 0 0 0 -0.34457 -0.59879 -0.723 0.024417
-0.077357 0.095076 0.99035 1.0602e-38 152 261 0 0 0 -0.33372 -0.58014 -0.74301 0.032086
-0.015191 0.094791 0.99141 1.0357e-38 379 260.67 0 0 0 0.43105 -0.02237 -0.90205 0.092599
-0.082809 0.096673 0.99088 1.3092e-38 317.67 261.33 0 0 0 -0.37387 -0.5877 -0.71752 0.022601
-0.081241 0.097033 0.99062 1.1955e-38 243.67 261.67 0 0 0 -0.36795 -0.57279 -0.73248 0.024502
-0.079095 0.096235 0.99035 1.4705e-38 397.5 261 0 0 0 -0.34927 -0.57694 -0.73835 0.026635
-0.018845 0.097394 0.99035 1.4244e-38 380.5 262 0 0 0 0.43787 0.12488 -0.89032 0.096609
-0.017113 0.096853 0.99075 1.2262e-38 416.5 261.5 0 0 0 0.44668 0.12506 -0.88591 0.092443
-0.015961 0.096892 0.99115 1.1663e-38 417.5 261.5 0 0 0 0.45247 0.13818 -0.88101 0.09089
-0.083151 0.098552 0.99035 1.0695e-38 427 262 0 0 0 -0.37081 -0.56579 -0.73647 0.025429
-0.081413 0.098552 0.99035 9.6805e-39 428.5 262 0 0 0 -0.36769 -0.54526 -0.75333 0.028674
-0.0229 0.099711 0.99035 1.0695e-38 410 263 0 0 0 0.45318 0.25946 -0.85282 0.086584
-0.020974 0.099351 0.99062 1.1002e-38 323.67 263 0 0 0 0.44489 0.24665 -0.86095 0.090657
-0.01886 0.099211 0.99115 9.5422e-39 281.5 263 0 0 0 0.44887 0.26662 -0.85289 0.084819
-0.017134 0.098711 0.99194 9.404e-39 151 263 0 0 0 0.45657 0.23878 -0.85704 0.087831
-0.022918 0.10095 0.99115 7.7444e-39 187 264 0 0 0 0.46437 0.31789 -0.82663 0.080081
-0.021187 0.10099 0.99155 7.7905e-39 188.5 264 0 0 0 0.45876 0.34841 -0.8174 0.07769
-0.028693 0.10319 0.99035 7.7444e-39 197 265 0 0 0 0.46577 0.35981 -0.80846 0.063767
-0.026966 0.10323 0.99075 8.021e-39 198.5 265 0 0 0 0.46042 0.37791 -0.80324 0.062789
-0.024658 0.10269 0.99115 9.1735e-39 315.5 264.5 0 0 0 0.46587 0.37606 -0.80096 0.065117
-0.029497 0.10484 0.99141 9.0351e-39 356 265.33 0 0 0 0.4652 0.40983 -0.78462 0.050401
-0.027579 0.10451 0.99194 1.0787e-38 437 265 0 0 0 0.46464 0.41625 -0.78157 0.051263
-0.032762 0.10729 0.99075 8.6434e-39 312.5 266.5 0 0 0 0.43694 0.4958 -0.75051 0.027063
-0.031036 0.10733 0.99115 8.7585e-39 314 266.5 0 0 0 0.44545 0.49425 -0.74652 0.02685
-0.03508 0.10903 0.99075 8.6664e-39 423.5 267 0 0 0 0.40279 0.54742 -0.73354 0.017348
-0.065243 0.11081 0.99115 1.1617e-38 269 268 0 0 0 -0.35966 0.61381 -0.70277 0.031068
-0.062345 0.11139 0.99115 1.2446e-38 389 268 0 0 0 -0.28754 0.63188 -0.71976 0.024654
-0.061136 0.1113 0.99035 1.2262e-38 390 268 0 0 0 -0.267 0.63004 -0.72922 0.024556
-0.04028 0.1113 0.99035 9.7727e-39 408 268 0 0 0 0.30678 0.60928 -0.73121 0.013246
-0.038766 0.111 0.99115 1.1063e-38 331 268 0 0 0 0.33986 0.59906 -0.725 0.01213
-0.03722 0.11062 0.99115 1.0756e-38 254 268 0 0 0 0.37123 0.5887 -0.71806 0.011399
-0.035703 0.11032 0.99194 1.1063e-38 177 268 0 0 0 0.39134 0.58113 -0.71354 0.010894
-0.063555 0.11264 0.99194 8.943e-39 471 268 0 0 0 -0.29299 0.65989 -0.69188 0.01806
-0.058913 0.1138 0.99194 1.3645e-38 374 269 0 0 0 -0.17718 0.67721 -0.71414 0.012994
-0.057126 0.11371 0.99115 1.3967e-38 375.5 269 0 0 0 -0.13798 0.68005 -0.72007 0.012921
-0.054807 0.11371 0.99115 1.3507e-38 377.5 269 0 0 0 -0.072419 0.68021 -0.72943 0.013492
-0.053025 0.11361 0.99035 1.3461e-38 379 269 0 0 0 -0.035256 0.67553 -0.73649 0.012732
-0.046671 0.11366 0.99075 1.2815e-38 384.5 269 0 0 0 0.12975 0.6648 -0.73567 0.01684
-0.044951 0.11371 0.99115 1.1524e-38 386 269 0 0 0 0.17478 0.6572 -0.73317 0.017223
-0.042995 0.11326 0.99062 1.1217e-38 309.67 269 0 0 0 0.22961 0.64657 -0.72749 0.014711
-0.040909 0.11317 0.99155 1.1663e-38 272.5 269 0 0 0 0.28427 0.63403 -0.71917 0.012793
-0.038604 0.11264 0.99194 1.1893e-38 157.5 269 0 0 0 0.33251 0.61943 -0.71116 0.010784
-0.053068 0.11487 0.99115 1.1063e-38 462 269 0 0 0 -0.027762 0.67592 -0.73645 0.014264
-0.051329 0.11487 0.99115 1.1202e-38 463.5 269 0 0 0 0.00046354 0.67424 -0.73851 0.015539
-0.04901 0.11487 0.99115 9.9572e-39 465.5 269 0 0 0 0.047181 0.67451 -0.73676 0.016525
-0.04727 0.11487 0.99115 9.3118e-39 467 269 0 0 0 0.10064 0.66693 -0.73829 0.01821
-0.044987 0.11496 0.99194 9.1274e-39 469 269 0 0 0 0.16918 0.64989 -0.74096 0.018961
-0.043228 0.11491 0.99155 9.5883e-39 470.5 269 0 0 0 0.2216 0.63872 -0.73684 0.016796
-0.049048 0.11612 0.99194 1.3507e-38 371.5 270 0 0 0 0.043176 0.66211 -0.74816 0.019378
-0.048546 0.084921 0.99354 9.5883e-39 154 256 0 0 0 -0.028735 -0.87974 -0.47459 0.0054916
-0.047384 0.084921 0.99354 9.2196e-39 155 256 0 0 0 -0.011192 -0.88022 -0.47444 0.005789
-0.045023 0.084852 0.99274 9.1274e-39 157 256 0 0 0 0.024129 -0.87094 -0.49079 0.0071275
-0.043281 0.084852 0.99274 8.8969e-39 158.5 256 0 0 0 0.049062 -0.86106 -0.50612 0.0086405
-0.038635 0.084852 0.99274 1.0694e-38 162.5 256 0 0 0 0.10208 -0.82769 -0.55182 0.014228
-0.071213 0.087245 0.99354 9.0352e-39 170.5 257 0 0 0 -0.22407 -0.77415 -0.59201 0.018368
-0.068861 0.08721 0.99314 8.7586e-39 172.5 257 0 0 0 -0.21393 -0.78236 -0.58494 0.018161
-0.067091 0.087175 0.99274 9.2196e-39 174 257 0 0 0 -0.20417 -0.78606 -0.58346 0.018675
-0.065401 0.087245 0.99354 1.0188e-38 175.5 257 0 0 0 -0.19306 -0.80111 -0.56653 0.018479
-0.063051 0.08721 0.99314 8.7586e-39 177.5 257 0 0 0 -0.18526 -0.80299 -0.56647 0.018679
-0.060703 0.087175 0.99274 8.1593e-39 179.5 257 0 0 0 -0.17159 -0.81487 -0.55366 0.016491
-0.058961 0.087175 0.99274 8.3898e-39 181 257 0 0 0 -0.15726 -0.82474 -0.5432 0.014635
-0.057799 0.087175 0.99274 8.943e-39 182 257 0 0 0 -0.14462 -0.83407 -0.53236 0.012538
-0.055476 0.087175 0.99274 9.404e-39 184 257 0 0 0 -0.11854 -0.84262 -0.5253 0.010109
-0.052034 0.086083 0.99354 1.4106e-38 405 256 0 0 0 -0.071623 -0.87177 -0.48465 0.0058282
-0.050871 0.086083 0.99354 1.4383e-38 406 256 0 0 0 -0.056823 -0.87563 -0.47963 0.0057083
-0.049669 0.086014 0.99274 1.3461e-38 407 256 0 0 0 -0.043116 -0.86762 -0.49535 0.0064789
-0.03457 0.086014 0.99274 1.2815e-38 420 256 0 0 0 0.15477 -0.76195 -0.62888 0.032549
-0.033408 0.087175 0.99274 1.217e-38 345 257 0 0 0 0.1867 -0.71196 -0.67695 0.044707
-0.03111 0.087245 0.99354 1.1156e-38 347 257 0 0 0 0.21536 -0.68958 -0.69145 0.052084
-0.074119 0.08957 0.99354 1.1156e-38 346 258 0 0 0 -0.26626 -0.72792 -0.63186 0.021428
-0.072928 0.088953 0.99314 1.134e-38 384 257.5 0 0 0 -0.25452 -0.73367 -0.63003 0.021215
-0.071156 0.088337 0.99274 1.1063e-38 422.5 257 0 0 0 -0.244 -0.74043 -0.62628 0.021542
-0.029355 0.088372 0.99314 1.0602e-38 458.5 257 0 0 0 0.23909 -0.62844 -0.74021 0.064
-0.027042 0.088408 0.99354 9.2196e-39 460.5 257 0 0 0 0.26298 -0.59718 -0.75777 0.069867
-0.025299 0.088408 0.99354 8.8508e-39 462 257 0 0 0 0.26695 -0.57781 -0.77128 0.072865
-0.022955 0.089498 0.99274 1.3461e-38 390 258 0 0 0 0.29766 -0.51016 -0.80693 0.079796
-0.021221 0.089534 0.99314 1.4429e-38 391.5 258 0 0 0 0.30736 -0.48127 -0.82092 0.082561
-0.018905 0.088989 0.99354 1.1893e-38 430.5 257.5 0 0 0 0.29502 -0.47674 -0.82806 0.080733
-0.017155 0.088953 0.99314 1.1063e-38 432 257.5 0 0 0 0.30649 -0.45492 -0.83613 0.07694
-0.015607 0.089159 0.99327 1.2784e-38 421 257.67 0 0 0 0.31681 -0.42253 -0.84918 0.077755
-0.076995 0.091858 0.99314 1.2584e-38 365.5 259 0 0 0 -0.30496 -0.68338 -0.66332 0.020194
-0.074854 0.091071 0.99301 1.051e-38 423.33 258.33 0 0 0 -0.28772 -0.69348 -0.66053 0.021884
-0.014825 0.09066 0.99274 1.0234e-38 172 259 0 0 0 0.35115 -0.34788 -0.86929 0.082454
-0.013088 0.091277 0.99314 9.5653e-39 297 259 0 0 0 0.3665 -0.26328 -0.89239 0.086536
-0.011346 0.091277 0.99314 1.0234e-38 298.5 259 0 0 0 0.373 -0.23657 -0.89716 0.08247
-0.081028 0.092983 0.99274 8.8508e-39 464 259 0 0 0 -0.3491 -0.65589 -0.66928 0.017863
-0.079286 0.092983 0.99274 9.7265e-39 465.5 259 0 0 0 -0.34123 -0.65278 -0.67634 0.019038
-0.013083 0.092983 0.99274 9.0813e-39 191.5 260 0 0 0 0.40278 -0.13484 -0.90531 0.091359
-0.011341 0.092983 0.99274 8.7586e-39 193 260 0 0 0 0.40125 -0.11242 -0.90904 0.085214
-0.084513 0.094144 0.99274 1.3276e-38 376 260 0 0 0 -0.40989 -0.63639 -0.65345 0.013669
-0.08277 0.094144 0.99274 1.3323e-38 377.5 260 0 0 0 -0.38303 -0.63097 -0.67466 0.018518
-0.013083 0.094724 0.99274 1.0049e-38 395 260.5 0 0 0 0.42531 0.0065084 -0.90503 0.090853
-0.011341 0.094725 0.99274 1.0741e-38 396.5 260.5 0 0 0 0.42724 0.043023 -0.90311 0.083928
-0.014831 0.097087 0.99314 1.1386e-38 418.5 261.5 0 0 0 0.44817 0.18546 -0.8745 0.088505
-0.013093 0.096545 0.99354 9.5422e-39 454.5 261 0 0 0 0.44887 0.15463 -0.88012 0.087712
-0.01135 0.096545 0.99354 9.6805e-39 456 261 0 0 0 0.4412 0.17354 -0.88047 0.082182
-0.017148 0.099951 0.99274 9.404e-39 415 263 0 0 0 0.455 0.33504 -0.82506 0.076564
-0.015986 0.09879 0.99274 9.5883e-39 152 263 0 0 0 0.46049 0.27666 -0.84345 0.083617
-0.01889 0.10111 0.99274 9.404e-39 190.5 264 0 0 0 0.4591 0.38389 -0.80116 0.069078
-0.017162 0.10119 0.99354 8.5742e-39 192 264 0 0 0 0.45857 0.38853 -0.79923 0.067919
-0.015999 0.10003 0.99354 9.404e-39 416 263 0 0 0 0.46021 0.34088 -0.81976 0.076192
-0.024136 0.10352 0.99354 8.2976e-39 347 265 0 0 0 0.47119 0.41101 -0.78042 0.058021
-0.022974 0.10236 0.99354 9.2196e-39 432 264 0 0 0 0.46508 0.37819 -0.80042 0.069106
-0.021811 0.10236 0.99354 9.2196e-39 433 264 0 0 0 0.4639 0.3837 -0.79848 0.069087
-0.028786 0.10584 0.99354 8.021e-39 198 266 0 0 0 0.46628 0.45236 -0.76023 0.040072
-0.027031 0.10522 0.99314 9.4962e-39 318.5 265.5 0 0 0 0.46893 0.44072 -0.76542 0.04523
-0.025299 0.10468 0.99354 1.0602e-38 439 265 0 0 0 0.46667 0.44548 -0.76405 0.045761
-0.029948 0.10701 0.99354 1.0418e-38 436 266 0 0 0 0.45547 0.49408 -0.74056 0.027087
-0.032828 0.10924 0.99274 8.3898e-39 425.5 267 0 0 0 0.42961 0.55275 -0.71407 0.012293
-0.03111 0.10933 0.99354 8.5742e-39 427 267 0 0 0 0.43565 0.55785 -0.70641 0.010358
-0.035165 0.11103 0.99314 1.1156e-38 295 268 0 0 0 0.39747 0.58976 -0.70299 0.0084005
-0.062445 0.11273 0.99274 9.404e-39 139 269 0 0 0 -0.27171 0.66457 -0.69608 0.016666
-0.060727 0.11335 0.99314 1.134e-38 256.5 269 0 0 0 -0.22661 0.67837 -0.6989 0.014448
-0.03865 0.11394 0.99314 9.7269e-39 391.5 269 0 0 0 0.33042 0.6135 -0.71725 0.012572
-0.036908 0.11335 0.99314 1.0372e-38 276 269 0 0 0 0.36992 0.60756 -0.70287 0.0098159
-0.057242 0.1151 0.99314 9.3578e-39 458.5 269 0 0 0 -0.1383 0.6823 -0.71787 0.014931
-0.054895 0.11505 0.99274 1.0003e-38 460.5 269 0 0 0 -0.083051 0.67931 -0.72913 0.016796
-0.046185 0.11505 0.99274 9.2196e-39 468 269 0 0 0 0.13908 0.65375 -0.74382 0.020066
-0.040958 0.11505 0.99274 9.5422e-39 139.5 270 0 0 0 0.28102 0.62373 -0.72938 0.015642
-0.039247 0.11514 0.99354 9.7727e-39 141 270 0 0 0 0.31177 0.60501 -0.73264 0.015205
-0.053153 0.11621 0.99274 1.429e-38 368 270 0 0 0 -0.048697 0.66644 -0.74397 0.018517
-0.051231 0.11663 0.99301 1.3092e-38 397.33 270 0 0 0 0.0063719 0.65899 -0.75213 0.01922
-0.049128 0.11747 0.99354 1.0326e-38 454.5 270 0 0 0 0.039949 0.6512 -0.75785 0.021774
-0.046984 0.11666 0.99327 1.2938e-38 401 270 0 0 0 0.10721 0.64555 -0.75616 0.023365
-0.045059 0.11631 0.99354 1.4751e-38 375 270 0 0 0 0.16436 0.63489 -0.75492 0.022148
-0.043498 0.11666 0.99327 1.2539e-38 404 270 0 0 0 0.21113 0.62489 -0.75162 0.020102
-0.040991 0.11631 0.99354 1.3046e-38 378.5 270 0 0 0 0.27637 0.61066 -0.7421 0.016706
-0.048664 0.083961 0.99594 1.134e-38 374 255 0 0 0 -0.034074 -0.89884 -0.43694 0.0036446
-0.047499 0.083961 0.99594 1.0695e-38 375 255 0 0 0 -0.020673 -0.89798 -0.43956 0.0039257
-0.045132 0.083893 0.99514 1.1156e-38 377 255 0 0 0 0.010394 -0.89058 -0.45472 0.0049648
-0.043385 0.083893 0.99514 1.134e-38 378.5 255 0 0 0 0.023833 -0.88737 -0.46044 0.0052483
-0.041024 0.083826 0.99434 1.1109e-38 380.5 255 0 0 0 0.058331 -0.87064 -0.48845 0.0073155
-0.038713 0.08386 0.99474 1.1755e-38 382.5 255 0 0 0 0.073563 -0.861 -0.50326 0.0087594
-0.052742 0.085126 0.99594 1.0556e-38 150.5 256 0 0 0 -0.071536 -0.89141 -0.44753 0.0037023
-0.050994 0.085126 0.99594 9.6805e-39 152 256 0 0 0 -0.05801 -0.894 -0.44429 0.0036719
-0.049789 0.085057 0.99514 1.0049e-38 153 256 0 0 0 -0.043466 -0.89138 -0.45117 0.0040889
-0.046259 0.084989 0.99434 8.943e-39 156 256 0 0 0 0.00069885 -0.88431 -0.4669 0.0056
-0.036952 0.084989 0.99434 1.0418e-38 164 256 0 0 0 0.10914 -0.82598 -0.55304 0.016057
-0.035235 0.085057 0.99514 9.2657e-39 165.5 256 0 0 0 0.12304 -0.8111 -0.57182 0.020645
-0.073074 0.087386 0.99514 9.0352e-39 169 257 0 0 0 -0.23205 -0.78413 -0.57558 0.015666
-0.071328 0.086222 0.99514 1.323e-38 388.5 256 0 0 0 -0.21391 -0.80293 -0.55637 0.015248
-0.068972 0.086187 0.99474 1.3738e-38 390.5 256 0 0 0 -0.19895 -0.81113 -0.54998 0.014663
-0.066644 0.086187 0.99474 1.4797e-38 392.5 256 0 0 0 -0.18333 -0.82502 -0.53454 0.013349
-0.064977 0.086291 0.99594 1.3645e-38 394 256 0 0 0 -0.16559 -0.84163 -0.51405 0.011022
