# .PCD v.7 - Point Cloud Data file format
VERSION .7
FIELDS x y z rgb u v vx vy vz normal_x normal_y normal_z curvature
SIZE 4 4 4 4 4 4 4 4 4 4 4 4 4
TYPE F F F F F F F F F F F F F
COUNT 1 1 1 1 1 1 1 1 1 1 1 1 1
WIDTH 559
HEIGHT 1
VIEWPOINT 0 0 0 1 0 0 0
POINTS 559
DATA ascii
0.27512 -0.041246 1.1212 9.7958e-39 261 241.5 0 0 0 0.37077 -0.28577 -0.88366 0.051523
0.27721 -0.040608 1.1217 9.404e-39 179 242 0 0 0 0.39072 -0.23171 -0.89087 0.048812
0.20109 -0.039295 1.1217 1.2631e-38 351 242 0 0 0 -0.70861 -0.42391 -0.56406 0.040323
0.27499 -0.03926 1.1207 1.1617e-38 410.5 242 0 0 0 0.40523 -0.193 -0.89361 0.046546
0.20109 -0.037327 1.1217 9.1735e-39 304 243 0 0 0 -0.74535 -0.36214 -0.55974 0.040697
0.20222 -0.036637 1.1207 7.6522e-39 426 243 0 0 0 -0.74798 -0.35876 -0.55841 0.042061
0.27302 -0.037293 1.1207 1.0741e-38 266.5 243.5 0 0 0 0.40987 -0.12366 -0.90372 0.041601
0.27512 -0.03731 1.1212 1.1755e-38 268 243.5 0 0 0 0.42399 -0.10852 -0.89914 0.041756
0.20109 -0.034702 1.1217 9.7267e-39 284 244.5 0 0 0 -0.79544 -0.26369 -0.54566 0.03888
0.27171 -0.034015 1.1207 1.134e-38 387 245 0 0 0 0.42858 -0.026491 -0.90312 0.034986
0.27315 -0.034686 1.1212 1.4106e-38 411.5 244.5 0 0 0 0.42749 -0.035897 -0.90331 0.034795
0.27494 -0.03491 1.1214 1.1709e-38 496.33 244.33 0 0 0 0.43459 -0.024573 -0.90029 0.034028
0.20091 -0.032704 1.1207 9.9571e-39 156 246 0 0 0 -0.81921 -0.20043 -0.53733 0.03413
0.26909 -0.032704 1.1207 1.0695e-38 351 246 0 0 0 0.41306 0.016272 -0.91056 0.030364
0.27171 -0.032704 1.1207 1.0695e-38 353 246 0 0 0 0.42818 0.029269 -0.90322 0.027757
0.27327 -0.032734 1.1217 1.0602e-38 354 246 0 0 0 0.44327 0.019407 -0.89618 0.029998
0.19978 -0.030109 1.1217 1.0142e-38 391 247 0 0 0 -0.86018 -0.07339 -0.50469 0.01935
0.20091 -0.030738 1.1207 1.0372e-38 409 246.5 0 0 0 -0.84737 -0.11871 -0.51756 0.025139
0.26778 -0.030082 1.1207 9.4961e-39 144 248 0 0 0 0.41207 0.082034 -0.90745 0.021437
0.26921 -0.030751 1.1212 1.0695e-38 159.5 247.5 0 0 0 0.42365 0.069142 -0.90318 0.023526
0.27092 -0.030965 1.121 1.0695e-38 165.67 247.33 0 0 0 0.43308 0.076138 -0.89813 0.021682
0.19978 -0.028797 1.1217 1.0234e-38 361 248 0 0 0 -0.86683 -0.052829 -0.49579 0.016484
0.26778 -0.028771 1.1207 1.0234e-38 414 248 0 0 0 0.41569 0.11189 -0.9026 0.018332
0.26933 -0.028797 1.1217 1.1248e-38 415 248 0 0 0 0.42481 0.12336 -0.89684 0.016655
0.27065 -0.028797 1.1217 1.2262e-38 416 248 0 0 0 0.43329 0.12994 -0.89184 0.015662
0.19978 -0.027485 1.1217 1.1524e-38 185 249 0 0 0 -0.87395 -0.014877 -0.48578 0.012585
0.20091 -0.026804 1.1207 9.6808e-39 171 249.5 0 0 0 -0.87 -0.011222 -0.49292 0.013187
0.26691 -0.027023 1.1207 1.1463e-38 376.33 249.33 0 0 0 0.41396 0.16479 -0.89526 0.011878
0.26889 -0.02661 1.1217 1.1555e-38 368.67 249.67 0 0 0 0.42673 0.18404 -0.88545 0.009991
0.27065 -0.026829 1.1217 1.0879e-38 375 249.5 0 0 0 0.44129 0.17734 -0.87967 0.010923
0.20109 -0.02486 1.1217 1.217e-38 427 250 0 0 0 -0.87839 0.039949 -0.47627 0.0072583
0.26516 -0.024837 1.1207 1.1893e-38 180 251 0 0 0 0.40995 0.21664 -0.886 0.0063322
0.26647 -0.024837 1.1207 1.1617e-38 181 251 0 0 0 0.41255 0.2179 -0.88449 0.0060654
0.26867 -0.02486 1.1217 1.157e-38 182.5 251 0 0 0 0.42696 0.22862 -0.87489 0.0052418
0.20109 -0.022891 1.1217 1.1018e-38 393.5 251.5 0 0 0 -0.88205 0.081228 -0.46409 0.0035228
0.20222 -0.02287 1.1207 1.1156e-38 394.5 251.5 0 0 0 -0.87814 0.072385 -0.47289 0.0046431
0.26385 -0.02287 1.1207 1.0234e-38 292 252 0 0 0 0.40809 0.25632 -0.87622 0.0030508
0.26516 -0.02287 1.1207 1.0464e-38 293 252 0 0 0 0.4099 0.25663 -0.87529 0.0031925
0.26671 -0.022891 1.1217 1.1524e-38 294 252 0 0 0 0.41758 0.26291 -0.86978 0.0029483
0.26867 -0.023548 1.1217 1.1662e-38 157.5 252 0 0 0 0.4302 0.25312 -0.86652 0.0039155
0.20241 -0.020923 1.1217 1.0234e-38 359 253 0 0 0 -0.88071 0.09469 -0.46409 0.0031165
0.26385 -0.020904 1.1207 1.2446e-38 407 253 0 0 0 0.40716 0.2748 -0.87103 0.0026696
0.26516 -0.020904 1.1207 1.2539e-38 408 253 0 0 0 0.41181 0.2762 -0.8684 0.0025534
0.26671 -0.020923 1.1217 1.2815e-38 409 253 0 0 0 0.42197 0.28192 -0.86166 0.0025756
0.20241 -0.018955 1.1217 9.7729e-39 162.5 254.5 0 0 0 -0.87834 0.11178 -0.46478 0.0027736
0.26122 -0.018938 1.1207 1.0833e-38 371.5 254.5 0 0 0 0.40152 0.28971 -0.86882 0.0024082
0.26319 -0.018938 1.1207 1.1202e-38 373 254.5 0 0 0 0.40542 0.29247 -0.86608 0.0025856
0.26496 -0.018736 1.1217 1.2938e-38 371 254.67 0 0 0 0.41709 0.29503 -0.85965 0.002676
0.26671 -0.019611 1.1217 1.2631e-38 385 254 0 0 0 0.42413 0.29021 -0.85784 0.0026369
0.20109 -0.016986 1.1217 1.512e-38 445 255 0 0 0 -0.87641 0.11808 -0.46687 0.0026799
0.20241 -0.016986 1.1217 1.6042e-38 446 255 0 0 0 -0.87406 0.12235 -0.47016 0.0028778
0.26122 -0.016971 1.1207 1.1893e-38 175 256 0 0 0 0.4017 0.29972 -0.86534 0.0025195
0.26253 -0.016971 1.1207 1.1985e-38 176 256 0 0 0 0.40533 0.30024 -0.86346 0.0026345
0.26474 -0.016986 1.1217 1.0649e-38 177.5 256 0 0 0 0.41617 0.30471 -0.85671 0.0027864
0.20109 -0.015018 1.1217 1.2538e-38 407.5 256.5 0 0 0 -0.87275 0.12797 -0.47109 0.0028434
0.20241 -0.015018 1.1217 1.2815e-38 408.5 256.5 0 0 0 -0.8687 0.13199 -0.47743 0.0031598
0.26134 -0.01501 1.1212 9.6807e-39 294.5 257 0 0 0 0.40339 0.30939 -0.86113 0.0028859
0.26277 -0.015018 1.1217 9.7268e-39 295.5 257 0 0 0 0.4097 0.31199 -0.85721 0.0028978
0.26408 -0.015018 1.1217 1.0096e-38 298 257 0 0 0 0.41558 0.31264 -0.85414 0.0029691
0.20241 -0.013049 1.1217 1.2631e-38 386 258 0 0 0 -0.86307 0.14054 -0.48513 0.0034895
0.25729 -0.013037 1.1207 1.4383e-38 428 258 0 0 0 0.39311 0.3128 -0.86465 0.0026407
0.25925 -0.013037 1.1207 1.4613e-38 429.5 258 0 0 0 0.39799 0.3141 -0.86194 0.0027721
0.26146 -0.013049 1.1217 1.3092e-38 431 258 0 0 0 0.40674 0.31792 -0.85644 0.0030686
0.20297 -0.011076 1.1212 1.0833e-38 271.5 259.5 0 0 0 -0.85476 0.1506 -0.49669 0.0043295
0.2574 -0.011075 1.1212 1.0833e-38 409.5 259.5 0 0 0 0.39596 0.32126 -0.86024 0.0029629
0.25912 -0.011292 1.121 1.0941e-38 412.67 259.33 0 0 0 0.39904 0.32 -0.85929 0.0030521
0.26015 -0.010424 1.1217 1.0787e-38 406 260 0 0 0 0.4067 0.32689 -0.85307 0.0032678
0.20353 -0.0091038 1.1207 9.404e-39 157 261 0 0 0 -0.84388 0.16098 -0.51182 0.0053558
0.25336 -0.0091038 1.1207 1.1063e-38 387 261 0 0 0 0.39027 0.32157 -0.86271 0.0030595
0.25598 -0.0091038 1.1207 1.0879e-38 389 261 0 0 0 0.3918 0.32248 -0.86169 0.0031207
0.25752 -0.0091121 1.1217 1.1156e-38 390 261 0 0 0 0.39812 0.32752 -0.85687 0.003305
0.25884 -0.0091121 1.1217 1.1801e-38 391 261 0 0 0 0.40407 0.32991 -0.85316 0.0033343
0.20353 -0.0071372 1.1207 7.3757e-39 333 262 0 0 0 -0.83525 0.16954 -0.52309 0.0065466
0.25336 -0.0071372 1.1207 1.0648e-38 260 262.5 0 0 0 0.39175 0.32383 -0.8612 0.003184
0.25511 -0.0073557 1.1207 1.1709e-38 296 262.33 0 0 0 0.39483 0.32517 -0.85929 0.003312
0.25621 -0.0064875 1.1217 9.6805e-39 158 263 0 0 0 0.401 0.33127 -0.85409 0.0035585
0.20353 -0.0051705 1.1207 1.1156e-38 432 263 0 0 0 -0.82838 0.17872 -0.53089 0.0072663
0.25282 -0.0051728 1.1212 7.2374e-39 530.5 263 0 0 0 0.39417 0.32686 -0.85895 0.0033689
0.2549 -0.0051752 1.1217 8.2976e-39 532 263 0 0 0 0.39969 0.33236 -0.85427 0.0034709
0.20353 -0.0032038 1.1207 1.0188e-38 281 264.5 0 0 0 -0.81605 0.18894 -0.54622 0.008458
0.24942 -0.0032038 1.1207 1.2123e-38 409.5 264.5 0 0 0 0.39295 0.32107 -0.86169 0.0028985
0.25073 -0.0032038 1.1207 1.1616e-38 410.5 264.5 0 0 0 0.39687 0.32457 -0.85857 0.0031368
0.25256 -0.0034234 1.121 1.1156e-38 418.67 264.33 0 0 0 0.3979 0.32841 -0.85663 0.0033188
0.20353 -0.0012371 1.1207 9.5883e-39 529 265 0 0 0 -0.80873 0.2029 -0.55208 0.0090517
0.24942 -0.0012371 1.1207 9.5883e-39 160 266 0 0 0 0.39844 0.32728 -0.85682 0.0030192
0.25073 -0.0012371 1.1207 9.9571e-39 161 266 0 0 0 0.40094 0.32998 -0.85461 0.0031662
0.25227 -0.0012382 1.1217 1.0142e-38 162 266 0 0 0 0.40377 0.33396 -0.85173 0.0032977
0.20362 0.00073022 1.1212 1.3368e-38 413.5 266.5 0 0 0 -0.80015 0.22344 -0.55663 0.010768
0.24549 0.0013852 1.1207 1.217e-38 422 267 0 0 0 0.39904 0.33238 -0.85457 0.0030969
0.2468 0.00072962 1.1207 9.3578e-39 469 266.5 0 0 0 0.39885 0.3285 -0.85616 0.0029312
0.24862 0.00051112 1.121 8.7895e-39 485.67 266.33 0 0 0 0.40135 0.3325 -0.85344 0.0032322
0.25096 7.411e-05 1.1217 7.7444e-39 518 266 0 0 0 0.40334 0.33531 -0.8514 0.0032133
0.20372 0.0026987 1.1217 1.0418e-38 158 268 0 0 0 -0.79481 0.23916 -0.55775 0.01127
0.24287 0.0026963 1.1207 1.2446e-38 370 268 0 0 0 0.39824 0.338 -0.85274 0.0032725
0.24483 0.0026963 1.1207 1.1524e-38 371.5 268 0 0 0 0.39944 0.33856 -0.85195 0.0033276
0.24702 0.0026987 1.1217 1.051e-38 373 268 0 0 0 0.40279 0.34599 -0.84737 0.0035994
0.24834 0.0026987 1.1217 1.0602e-38 374 268 0 0 0 0.40434 0.34661 -0.84638 0.0035244
0.20484 0.004663 1.1207 9.865e-39 460.5 268.5 0 0 0 -0.75319 0.27083 -0.59946 0.017843
0.24287 0.004663 1.1207 1.3138e-38 490.5 268.5 0 0 0 0.39941 0.35039 -0.84717 0.0036852
0.24494 0.0046651 1.1212 1.3276e-38 492 268.5 0 0 0 0.4013 0.35416 -0.84471 0.0038763
0.24702 0.0040111 1.1217 1.0142e-38 139 269 0 0 0 0.4042 0.35215 -0.84416 0.0037525
0.24834 0.0040111 1.1217 1.0234e-38 140 269 0 0 0 0.40661 0.35176 -0.84317 0.0037294
0.20493 0.0072888 1.1212 1.0372e-38 338 270 0 0 0 -0.74461 0.28792 -0.60221 0.018369
0.20616 0.0079408 1.1207 1.0879e-38 504 270 0 0 0 -0.70794 0.30853 -0.63532 0.022262
0.24156 0.0072852 1.1207 1.1709e-38 455.5 270 0 0 0 0.39589 0.36776 -0.84144 0.0042301
0.24298 0.0072888 1.1212 1.1709e-38 456.5 270 0 0 0 0.39939 0.36956 -0.83899 0.0041509
0.245 0.0072903 1.1215 1.1939e-38 458 270 0 0 0 0.40109 0.37106 -0.83752 0.0041874
0.20503 0.0092603 1.1217 1.217e-38 409 271 0 0 0 -0.73332 0.30089 -0.60967 0.019696
0.20682 0.0092519 1.1207 1.277e-38 410.5 271 0 0 0 -0.68937 0.31873 -0.65052 0.025157
0.24102 0.0092561 1.1212 1.4844e-38 436.5 271 0 0 0 0.39551 0.37941 -0.83644 0.0044467
0.20686 0.011221 1.1209 1.2746e-38 304 272 0 0 0 -0.68441 0.32159 -0.65434 0.025807
0.23726 0.011441 1.121 1.0572e-38 378.67 272 0 0 0 0.38122 0.3918 -0.83736 0.0050787
0.23904 0.011224 1.1212 9.2657e-39 329 272 0 0 0 0.38475 0.39042 -0.83639 0.0050161
0.24046 0.010573 1.1217 9.2196e-39 177 272 0 0 0 0.39579 0.3887 -0.83202 0.0045329
0.207 0.013197 1.1217 1.2077e-38 272 273 0 0 0 -0.68656 0.32466 -0.65056 0.02428
0.23708 0.013191 1.1212 1.2723e-38 383.5 273 0 0 0 0.38018 0.39929 -0.83428 0.0051095
0.23915 0.013197 1.1217 1.3922e-38 385 273 0 0 0 0.38746 0.40132 -0.82995 0.0049186
0.20888 0.015159 1.1212 1.0879e-38 442.5 273.5 0 0 0 -0.6291 0.33938 -0.69932 0.029569
0.23379 0.015159 1.1212 1.2815e-38 464.5 273.5 0 0 0 0.36105 0.40053 -0.84215 0.0070576
0.23653 0.01451 1.1217 1.3461e-38 513 273 0 0 0 0.38205 0.40438 -0.83097 0.0050749
0.21009 0.017119 1.1207 1.4198e-38 520 274 0 0 0 -0.56527 0.34814 -0.74784 0.034022
0.23107 0.017119 1.1207 1.3276e-38 537 274 0 0 0 0.33128 0.39971 -0.85468 0.010268
0.23238 0.017119 1.1207 1.1524e-38 139 275 0 0 0 0.34773 0.40106 -0.84748 0.008851
0.23521 0.017134 1.1217 1.1524e-38 141 275 0 0 0 0.38121 0.40846 -0.82936 0.0055599
0.21084 0.019094 1.1212 1.1109e-38 286.5 275.5 0 0 0 -0.54042 0.35359 -0.76349 0.03615
0.21271 0.019741 1.1207 1.134e-38 149 276 0 0 0 -0.45796 0.36969 -0.80846 0.043004
0.22189 0.019741 1.1207 1.2631e-38 156 276 0 0 0 -0.0005351 0.41241 -0.911 0.046109
0.22976 0.019741 1.1207 1.1524e-38 162 276 0 0 0 0.30293 0.40798 -0.86127 0.01422
0.23118 0.019095 1.1212 1.1847e-38 302 275.5 0 0 0 0.33639 0.40453 -0.85041 0.010135
0.23248 0.019095 1.1212 1.2078e-38 303 275.5 0 0 0 0.3553 0.40549 -0.84222 0.0085595
0.2114 0.021052 1.1207 1.1893e-38 442 276 0 0 0 -0.50815 0.36294 -0.78106 0.037026
0.21271 0.021052 1.1207 1.2723e-38 443 276 0 0 0 -0.45838 0.36605 -0.80987 0.041613
0.21402 0.021052 1.1207 1.3461e-38 444 276 0 0 0 -0.39241 0.38026 -0.83751 0.042365
0.22189 0.021052 1.1207 1.3276e-38 450 276 0 0 0 0.0071607 0.41885 -0.90803 0.045949
0.22996 0.021071 1.1217 1.6134e-38 456 276 0 0 0 0.31154 0.41287 -0.85585 0.014117
0.21159 0.02304 1.1217 1.1202e-38 303 277 0 0 0 -0.50497 0.36781 -0.78085 0.038417
0.2129 0.02304 1.1217 1.1156e-38 304 277 0 0 0 -0.45884 0.37091 -0.8074 0.041925
0.21468 0.023018 1.1207 1.2146e-38 305.5 277 0 0 0 -0.37034 0.38758 -0.84417 0.043327
0.22264 0.023029 1.1212 1.3092e-38 311.5 277 0 0 0 0.042622 0.43339 -0.9002 0.046409
0.22517 0.023018 1.1207 1.2838e-38 313.5 277 0 0 0 0.1667 0.42458 -0.88991 0.032706
0.22723 0.023029 1.1212 1.2355e-38 315 277 0 0 0 0.23198 0.42555 -0.87469 0.025617
0.22902 0.022814 1.1214 1.22e-38 268.33 277 0 0 0 0.29279 0.41818 -0.85988 0.017073
0.21159 0.025008 1.1217 1.1156e-38 167 278 0 0 0 -0.50344 0.36896 -0.78129 0.037936
0.2129 0.025008 1.1217 1.1801e-38 168 278 0 0 0 -0.44262 0.379 -0.81268 0.0409
0.21468 0.024985 1.1207 1.1109e-38 169.5 278 0 0 0 -0.35301 0.39631 -0.84754 0.045279
0.21664 0.024985 1.1207 1.0695e-38 171 278 0 0 0 -0.25621 0.41192 -0.87446 0.04847
0.22264 0.024997 1.1212 1.194e-38 175.5 278 0 0 0 0.043239 0.44044 -0.89674 0.046559
0.22451 0.024985 1.1207 1.1248e-38 177 278 0 0 0 0.14783 0.43339 -0.889 0.036159
0.22669 0.025008 1.1217 1.0694e-38 178.5 278 0 0 0 0.22102 0.43006 -0.87533 0.028052
0.22865 0.025008 1.1217 1.0602e-38 180 278 0 0 0 0.2917 0.42339 -0.8577 0.019123
0.21503 0.02675 1.1214 1.2416e-38 366 278.33 0 0 0 -0.34133 0.40382 -0.84878 0.046321
0.21664 0.026952 1.1207 1.2769e-38 321 278.5 0 0 0 -0.26787 0.4125 -0.87068 0.04738
0.22296 0.026758 1.1217 1.2231e-38 372 278.33 0 0 0 0.057753 0.44937 -0.89148 0.046898
0.22472 0.026976 1.1217 1.2723e-38 327 278.5 0 0 0 0.14981 0.4446 -0.88311 0.038719
0.22603 0.026976 1.1217 1.2677e-38 414 278.5 0 0 0 0.20252 0.43729 -0.87622 0.029631
0.21553 0.028945 1.1217 1.4936e-38 470 279 0 0 0 -0.31369 0.41915 -0.852 0.048726
0.2174 0.028932 1.1212 1.4245e-38 471.5 279 0 0 0 -0.20583 0.44031 -0.87393 0.0498
0.21927 0.028919 1.1207 1.429e-38 473 279 0 0 0 -0.11298 0.44802 -0.88686 0.051132
0.22058 0.028919 1.1207 1.4843e-38 474 279 0 0 0 -0.049237 0.45428 -0.8895 0.047775
0.21759 0.030676 1.121 1.1248e-38 404 280 0 0 0 -0.20479 0.44625 -0.87116 0.048747
0.21927 0.030886 1.1207 1.1755e-38 425 280 0 0 0 -0.11067 0.45615 -0.88299 0.048608
0.22068 0.0309 1.1212 1.2354e-38 426 280 0 0 0 -0.033461 0.46318 -0.88563 0.049381
0.21881 0.032882 1.1217 1.4014e-38 379.5 281 0 0 0 -0.13636 0.46015 -0.87731 0.051132
0.22118 -0.051199 1.1237 1.1985e-38 419 236 0 0 0 -0.13602 -0.86976 -0.47436 0.010644
0.2225 -0.051199 1.1237 1.051e-38 420 236 0 0 0 -0.10655 -0.88083 -0.46129 0.011784
0.2131 -0.049183 1.1227 1.134e-38 253 237.5 0 0 0 -0.31019 -0.80325 -0.50849 0.011894
0.21517 -0.049205 1.1232 1.164e-38 254.5 237.5 0 0 0 -0.26668 -0.82452 -0.49905 0.0093774
0.21704 -0.049839 1.1227 1.2815e-38 338 237 0 0 0 -0.21983 -0.84276 -0.49135 0.0091634
0.21901 -0.049839 1.1227 1.2262e-38 339.5 237 0 0 0 -0.18353 -0.85272 -0.48907 0.0089103
0.22229 -0.049839 1.1227 1.2539e-38 342 237 0 0 0 -0.11543 -0.87051 -0.47842 0.0096846
0.22644 -0.049884 1.1237 1.2723e-38 345 237 0 0 0 -0.015465 -0.89498 -0.44585 0.011194
0.2317 -0.04857 1.1237 9.1274e-39 185 238 0 0 0 0.068204 -0.90723 -0.41506 0.0080093
0.2131 -0.047212 1.1227 1.0602e-38 378 238 0 0 0 -0.33282 -0.78998 -0.51494 0.014666
0.21573 -0.047212 1.1227 8.8508e-39 380 238 0 0 0 -0.26386 -0.82106 -0.50619 0.012427
0.23543 -0.047212 1.1227 9.6805e-39 395 238 0 0 0 0.089708 -0.89263 -0.44177 0.0068601
0.23696 -0.047255 1.1237 9.3118e-39 396 238 0 0 0 0.10147 -0.90739 -0.40786 0.0075621
0.23893 -0.047255 1.1237 9.5423e-39 397.5 238 0 0 0 0.10663 -0.90816 -0.40481 0.0077399
0.2501 -0.047255 1.1237 1.1801e-38 406 238 0 0 0 0.12019 -0.86338 -0.49003 0.022279
0.25536 -0.047255 1.1237 1.1524e-38 410 238 0 0 0 0.12534 -0.83563 -0.5348 0.033714
0.26194 -0.047255 1.1237 9.9571e-39 415 238 0 0 0 0.17076 -0.75684 -0.6309 0.044528
0.2086 -0.045263 1.1232 1.1017e-38 314.5 239 0 0 0 -0.46004 -0.70917 -0.53426 0.023817
0.21132 -0.04594 1.1237 1.0464e-38 211.5 239 0 0 0 -0.38802 -0.75872 -0.52325 0.019534
0.24331 -0.045899 1.1227 1.4936e-38 331 239 0 0 0 0.13103 -0.86754 -0.4798 0.013938
0.24462 -0.045899 1.1227 1.4383e-38 332 239 0 0 0 0.13534 -0.85598 -0.49898 0.016769
0.24725 -0.045899 1.1227 1.3184e-38 334 239 0 0 0 0.14307 -0.84501 -0.51526 0.024325
0.26038 -0.045899 1.1227 1.1617e-38 344 239 0 0 0 0.20612 -0.70886 -0.67456 0.050897
0.26301 -0.045899 1.1227 1.1617e-38 346 239 0 0 0 0.21551 -0.68153 -0.69934 0.051527
0.26433 -0.045899 1.1227 1.051e-38 347 239 0 0 0 0.2269 -0.66475 -0.71177 0.051854
0.26695 -0.044585 1.1227 9.3118e-39 182 240 0 0 0 0.2742 -0.56271 -0.77985 0.057095
0.27114 -0.044626 1.1237 9.5883e-39 185 240 0 0 0 0.26748 -0.55188 -0.78986 0.058465
0.20324 -0.043272 1.1227 1.2446e-38 351.5 240 0 0 0 -0.59837 -0.56575 -0.56734 0.035128
0.26958 -0.043272 1.1227 9.4961e-39 403 240 0 0 0 0.30549 -0.47492 -0.8253 0.057397
0.27286 -0.043272 1.1227 1.1432e-38 405.5 240 0 0 0 0.32702 -0.43461 -0.83915 0.055467
0.27483 -0.043272 1.1227 1.0787e-38 407 240 0 0 0 0.32934 -0.4177 -0.84679 0.056864
0.27693 -0.043292 1.1232 9.9109e-39 408.5 240 0 0 0 0.339 -0.37307 -0.86366 0.057112
0.19883 -0.040682 1.1237 9.9571e-39 408 241 0 0 0 -0.70946 -0.39931 -0.58071 0.039059
0.2009 -0.041095 1.123 1.051e-38 334 241 0 0 0 -0.67101 -0.4639 -0.5784 0.037251
0.27746 -0.041958 1.1227 1.0326e-38 346 241 0 0 0 0.36739 -0.2973 -0.88127 0.055463
0.27877 -0.041302 1.1227 1.0372e-38 263.5 241.5 0 0 0 0.39252 -0.22756 -0.89115 0.049562
0.28094 -0.04133 1.1235 1.0211e-38 265 241.5 0 0 0 0.40372 -0.20883 -0.89073 0.051711
0.1994 -0.038692 1.1232 1.0763e-38 265.5 242.5 0 0 0 -0.73407 -0.37447 -0.56649 0.039748
0.27746 -0.038674 1.1227 1.2538e-38 385 242.5 0 0 0 0.42069 -0.14448 -0.89562 0.046924
0.27877 -0.038674 1.1227 1.1617e-38 389 242.5 0 0 0 0.42613 -0.12834 -0.89551 0.043373
0.281 -0.038709 1.1237 1.0141e-38 390.5 242.5 0 0 0 0.43827 -0.098067 -0.89348 0.040773
0.19883 -0.036737 1.1237 9.4961e-39 423 243 0 0 0 -0.78344 -0.28832 -0.55053 0.038347
0.20015 -0.036737 1.1237 9.7727e-39 424 243 0 0 0 -0.76416 -0.31983 -0.56015 0.041047
0.27746 -0.036704 1.1227 1.0602e-38 181 244 0 0 0 0.44105 -0.080061 -0.89391 0.040583
0.27877 -0.036704 1.1227 1.051e-38 182 244 0 0 0 0.4518 -0.055368 -0.8904 0.036069
0.281 -0.036737 1.1237 9.2657e-39 183.5 244 0 0 0 0.45992 -0.036879 -0.88719 0.035611
0.1994 -0.03475 1.1232 9.1965e-39 282.5 244.5 0 0 0 -0.80777 -0.22953 -0.54298 0.03511
0.27711 -0.034525 1.123 1.2293e-38 445.67 244.67 0 0 0 0.45919 -0.012709 -0.88825 0.032387
0.27903 -0.035423 1.1237 1.1801e-38 551 244 0 0 0 0.45733 -0.025716 -0.88893 0.036208
0.28034 -0.035423 1.1237 1.2078e-38 552 244 0 0 0 0.46659 0.00085122 -0.88447 0.031708
0.1993 -0.032764 1.1227 1.0234e-38 154.5 246 0 0 0 -0.83127 -0.1555 -0.53368 0.029333
0.27483 -0.032764 1.1227 1.1156e-38 355 246 0 0 0 0.45253 0.025357 -0.89139 0.030441
0.27693 -0.032779 1.1232 1.3e-38 356.5 246 0 0 0 0.46572 0.054059 -0.88328 0.02595
0.19752 -0.030164 1.1237 1.1524e-38 389 247 0 0 0 -0.86426 -0.042841 -0.50122 0.014788
0.19915 -0.031022 1.123 9.8956e-39 413 246.33 0 0 0 -0.8542 -0.10314 -0.50962 0.023251
0.27308 -0.030575 1.1227 9.6807e-39 157.33 247.67 0 0 0 0.44937 0.093216 -0.88847 0.020088
0.27508 -0.030822 1.1237 1.1017e-38 163.5 247.5 0 0 0 0.4646 0.10357 -0.87944 0.019239
0.2764 -0.031479 1.1237 1.2354e-38 179 247 0 0 0 0.46948 0.087694 -0.87858 0.021195
0.19752 -0.028849 1.1237 1.0695e-38 359 248 0 0 0 -0.87171 -0.026826 -0.48929 0.012975
0.19865 -0.028823 1.1227 1.0234e-38 360 248 0 0 0 -0.86792 -0.038644 -0.49519 0.01503
0.27286 -0.028823 1.1227 1.0925e-38 417.5 248 0 0 0 0.45608 0.14269 -0.87843 0.013588
0.27508 -0.028849 1.1237 9.7727e-39 419 248 0 0 0 0.47101 0.15412 -0.86856 0.01256
0.1994 -0.026866 1.1232 1.0326e-38 169.5 249.5 0 0 0 -0.8754 0.0090248 -0.48332 0.010141
0.27305 -0.026871 1.1235 1.0925e-38 376.5 249.5 0 0 0 0.46444 0.18964 -0.86506 0.0093755
0.20015 -0.024905 1.1237 1.1063e-38 426 250 0 0 0 -0.87998 0.050003 -0.47237 0.005978
0.27089 -0.024882 1.1227 1.1524e-38 184 251 0 0 0 0.44788 0.23257 -0.86332 0.0056829
0.27245 -0.024905 1.1237 1.1248e-38 185 251 0 0 0 0.45958 0.2373 -0.85585 0.0051255
0.20015 -0.02359 1.1237 1.0879e-38 404 251 0 0 0 -0.88267 0.072518 -0.46437 0.0036105
0.26893 -0.022255 1.1227 1.0925e-38 433.5 252 0 0 0 0.4366 0.27479 -0.85666 0.0027331
0.27089 -0.022912 1.1227 9.4503e-39 297 252 0 0 0 0.44663 0.27205 -0.85235 0.002746
0.20128 -0.020942 1.1227 1.051e-38 358 253 0 0 0 -0.88158 0.095294 -0.46232 0.0028579
0.26893 -0.020942 1.1227 1.1663e-38 410.5 253 0 0 0 0.43597 0.28829 -0.85253 0.0024386
0.27089 -0.020942 1.1227 1.0971e-38 412 253 0 0 0 0.44808 0.28793 -0.84636 0.0023189
0.20128 -0.018971 1.1227 9.957e-39 161.5 254.5 0 0 0 -0.87986 0.10719 -0.46299 0.0026636
0.26695 -0.018315 1.1227 1.3e-38 366 255 0 0 0 0.4283 0.30121 -0.85196 0.0026849
0.26904 -0.01898 1.1232 1.1755e-38 377 254.5 0 0 0 0.44006 0.30144 -0.84586 0.0025136
0.27114 -0.019646 1.1237 1.0049e-38 388 254 0 0 0 0.45036 0.29996 -0.84095 0.0023082
0.26695 -0.017001 1.1227 1.0049e-38 179 256 0 0 0 0.42914 0.30866 -0.84886 0.0027762
0.26564 -0.015031 1.1227 1.1202e-38 299 257 0 0 0 0.42463 0.31598 -0.84844 0.002914
0.26719 -0.015045 1.1237 1.3368e-38 300 257 0 0 0 0.43336 0.31853 -0.84305 0.002735
0.20128 -0.013061 1.1227 1.3553e-38 385 258 0 0 0 -0.86973 0.13177 -0.47561 0.0029042
0.26301 -0.013061 1.1227 1.2354e-38 432 258 0 0 0 0.41448 0.32186 -0.85124 0.0030821
0.26498 -0.013061 1.1227 1.2216e-38 433.5 258 0 0 0 0.42389 0.32266 -0.84629 0.0029849
0.20128 -0.011091 1.1227 1.1294e-38 270 259.5 0 0 0 -0.86508 0.13993 -0.48173 0.003356
0.20259 -0.010434 1.1227 1.1801e-38 172 260 0 0 0 -0.85949 0.14439 -0.49033 0.0039007
0.2617 -0.011091 1.1227 1.1709e-38 412.5 259.5 0 0 0 0.41225 0.3298 -0.84928 0.0031679
0.26313 -0.011095 1.1232 1.1986e-38 413.5 259.5 0 0 0 0.41845 0.33324 -0.8449 0.0030947
0.26493 -0.011316 1.1234 1.1494e-38 416.67 259.33 0 0 0 0.42603 0.33333 -0.84107 0.0029693
0.20146 -0.0091287 1.1237 9.9571e-39 155 261 0 0 0 -0.86466 0.14159 -0.48199 0.0036274
0.20259 -0.0091204 1.1227 1.0142e-38 156 261 0 0 0 -0.85627 0.14766 -0.49498 0.0042641
0.26116 -0.0091246 1.1232 1.3691e-38 392.5 261 0 0 0 0.41545 0.33558 -0.84545 0.0032871
0.20146 -0.0071567 1.1237 1.2999e-38 500.5 261.5 0 0 0 -0.85789 0.14759 -0.49218 0.004559
0.20277 -0.0071567 1.1237 1.3184e-38 501.5 261.5 0 0 0 -0.85442 0.14995 -0.49747 0.0047897
0.25776 -0.0071501 1.1227 1.0372e-38 263 262.5 0 0 0 0.40559 0.33298 -0.85125 0.0034023
0.25907 -0.0071501 1.1227 1.0234e-38 264 262.5 0 0 0 0.40873 0.33663 -0.8483 0.0034021
0.2605 -0.0071531 1.1232 1.0556e-38 265 262.5 0 0 0 0.41688 0.33969 -0.8431 0.0032931
0.20146 -0.0051846 1.1237 1.1801e-38 430 263 0 0 0 -0.85473 0.15422 -0.49563 0.0050476
0.20277 -0.0051846 1.1237 1.1248e-38 431 263 0 0 0 -0.84623 0.16219 -0.50753 0.0059463
0.25722 -0.0051823 1.1232 1.0234e-38 533.5 263 0 0 0 0.40762 0.34009 -0.84746 0.0035855
0.25931 -0.0051846 1.1237 1.2262e-38 535 263 0 0 0 0.4155 0.34578 -0.8413 0.0032156
0.20146 -0.0032125 1.1237 1.2077e-38 279 264.5 0 0 0 -0.84661 0.16867 -0.50479 0.005925
0.20259 -0.0032095 1.1227 1.1386e-38 280 264.5 0 0 0 -0.83605 0.17719 -0.51926 0.0069664
0.25382 -0.0025528 1.1227 1.1617e-38 392 265 0 0 0 0.40551 0.33594 -0.85012 0.0033807
0.25513 -0.0032095 1.1227 1.2031e-38 413.5 264.5 0 0 0 0.40683 0.3388 -0.84835 0.0034581
0.25656 -0.0032107 1.1232 1.1709e-38 414.5 264.5 0 0 0 0.41155 0.34357 -0.84415 0.0033391
0.20146 -0.0012405 1.1237 9.3118e-39 527 265 0 0 0 -0.8429 0.18464 -0.5054 0.0063444
0.20259 -0.0012393 1.1227 9.3118e-39 528 265 0 0 0 -0.82896 0.19358 -0.52474 0.0075236
0.25382 -0.0012393 1.1227 9.6805e-39 163 266 0 0 0 0.40894 0.33913 -0.8472 0.0033359
0.25536 -0.0012405 1.1237 9.9571e-39 164 266 0 0 0 0.41513 0.3449 -0.84185 0.0032096
0.20146 7.4245e-05 1.1237 1.3922e-38 436 266 0 0 0 -0.83683 0.19849 -0.51021 0.0072164
0.20259 0.00073094 1.1227 1.2815e-38 412.5 266.5 0 0 0 -0.82098 0.21035 -0.53079 0.0082268
0.24988 0.0013877 1.1227 1.2078e-38 425 267 0 0 0 0.40645 0.34134 -0.84752 0.0032586
0.25119 0.0013877 1.1227 1.2262e-38 426 267 0 0 0 0.40781 0.34369 -0.84591 0.0033006
0.2525 0.00073094 1.1227 1.0464e-38 473 266.5 0 0 0 0.41037 0.34308 -0.84492 0.003224
0.25405 0.00073157 1.1237 1.1617e-38 474 266.5 0 0 0 0.4166 0.34753 -0.84004 0.0030892
0.20277 0.0027037 1.1237 1.0418e-38 157 268 0 0 0 -0.81913 0.22546 -0.52744 0.0087222
0.24988 0.0027012 1.1227 1.1063e-38 375 268 0 0 0 0.4072 0.35024 -0.84352 0.0034914
0.25119 0.0027012 1.1227 1.0879e-38 376 268 0 0 0 0.40955 0.35199 -0.84165 0.0033012
0.25273 0.0027037 1.1237 1.0787e-38 377 268 0 0 0 0.4137 0.35399 -0.83878 0.0030365
0.2039 0.0046714 1.1227 9.035e-39 459.5 268.5 0 0 0 -0.78447 0.25497 -0.56533 0.012977
0.24725 0.0053282 1.1227 1.4383e-38 448 269 0 0 0 0.40524 0.36252 -0.83926 0.0040039
0.24856 0.0053282 1.1227 1.3553e-38 449 269 0 0 0 0.4082 0.36443 -0.837 0.0037842
0.25054 0.0044566 1.1237 1.0971e-38 244.33 269 0 0 0 0.41068 0.36326 -0.83629 0.0035011
0.20409 0.0066478 1.1237 1.0879e-38 172 270 0 0 0 -0.78532 0.26717 -0.55847 0.012581
0.24736 0.0073021 1.1232 1.2953e-38 459.5 270 0 0 0 0.40587 0.3745 -0.83368 0.0039422
0.24867 0.0073021 1.1232 1.3507e-38 460.5 270 0 0 0 0.40803 0.3742 -0.83276 0.0037721
0.2501 0.0066478 1.1237 1.134e-38 386 270 0 0 0 0.40954 0.37201 -0.833 0.003527
0.24331 0.0092687 1.1227 1.5858e-38 438 271 0 0 0 0.40238 0.38386 -0.83111 0.0042888
0.24528 0.0092687 1.1227 1.3921e-38 439.5 271 0 0 0 0.40246 0.38487 -0.8306 0.0042216
0.20522 0.011239 1.1227 1.3737e-38 302.5 272 0 0 0 -0.7349 0.30719 -0.60461 0.018896
0.24134 0.011239 1.1227 9.0813e-39 330.5 272 0 0 0 0.3986 0.39469 -0.82785 0.0045435
0.24309 0.011469 1.1237 8.144e-39 382.67 272 0 0 0 0.40268 0.39572 -0.82538 0.004415
0.24484 0.010592 1.1237 8.943e-39 180 272 0 0 0 0.40373 0.39504 -0.82519 0.0041605
0.2054 0.013221 1.1237 1.0326e-38 182 273 0 0 0 -0.73562 0.31474 -0.59983 0.018357
0.24068 0.013209 1.1227 1.4014e-38 386 273 0 0 0 0.39627 0.40222 -0.82534 0.0044176
0.24222 0.013221 1.1237 1.3553e-38 387 273 0 0 0 0.4019 0.4049 -0.8213 0.004186
0.2074 0.014961 1.1227 1.0234e-38 457.67 273.33 0 0 0 -0.68375 0.3255 -0.6531 0.024737
0.23674 0.015836 1.1227 1.134e-38 420 274 0 0 0 0.38636 0.40859 -0.82691 0.0049457
0.23882 0.015187 1.1232 1.2216e-38 468 273.5 0 0 0 0.38999 0.41172 -0.82365 0.0044617
0.2409 0.014536 1.1237 1.3368e-38 516 273 0 0 0 0.39802 0.41078 -0.82027 0.0040686
0.20916 0.01715 1.1227 1.4936e-38 519 274 0 0 0 -0.63103 0.33436 -0.7 0.029354
0.23411 0.01715 1.1227 1.1432e-38 140 275 0 0 0 0.37278 0.40812 -0.83335 0.0062359
0.23696 0.017165 1.1237 1.2262e-38 142 275 0 0 0 0.38971 0.41296 -0.82316 0.004602
0.21066 0.019795 1.1237 1.1617e-38 147 276 0 0 0 -0.59355 0.33941 -0.72973 0.036297
0.23477 0.018463 1.1227 1.3506e-38 443.5 275 0 0 0 0.38357 0.41077 -0.82713 0.0054896
0.21066 0.021109 1.1237 1.1617e-38 441 276 0 0 0 -0.5904 0.34333 -0.73045 0.034807
0.2317 0.021109 1.1237 1.5581e-38 457 276 0 0 0 0.35542 0.41399 -0.83803 0.0085581
0.23301 0.021109 1.1237 1.429e-38 458 276 0 0 0 0.37556 0.41375 -0.82932 0.0065748
0.23017 0.023717 1.1227 1.5581e-38 461 277 0 0 0 0.31775 0.42016 -0.85 0.014367
0.23038 0.025054 1.1237 1.0787e-38 181 278 0 0 0 0.32891 0.42234 -0.84466 0.013141
0.21188 0.027013 1.1232 1.2355e-38 317 278.5 0 0 0 -0.50241 0.36747 -0.78265 0.039398
0.2131 0.027001 1.1227 1.2447e-38 318 278.5 0 0 0 -0.44961 0.38318 -0.80686 0.043529
0.21441 0.027658 1.1227 1.0142e-38 180 279 0 0 0 -0.3581 0.40278 -0.84234 0.047144
0.22229 0.027658 1.1227 1.051e-38 186 279 0 0 0 0.033816 0.45269 -0.89103 0.048929
0.22755 0.027001 1.1227 1.2584e-38 415 278.5 0 0 0 0.25025 0.43459 -0.86516 0.025219
0.22896 0.027013 1.1232 1.3184e-38 416 278.5 0 0 0 0.29184 0.43015 -0.85429 0.019686
0.21329 0.028998 1.1237 1.2723e-38 468 279 0 0 0 -0.4413 0.38977 -0.80829 0.043542
0.21441 0.028971 1.1227 1.4567e-38 469 279 0 0 0 -0.35043 0.40703 -0.84352 0.045975
0.22295 0.028971 1.1227 1.6042e-38 475.5 279 0 0 0 0.06891 0.45432 -0.88817 0.046491
0.22492 0.028971 1.1227 1.8439e-38 477 279 0 0 0 0.1552 0.45171 -0.87856 0.038124
0.22699 0.028985 1.1232 1.7056e-38 478.5 279 0 0 0 0.23388 0.44172 -0.86613 0.027101
0.21536 0.030732 1.123 1.1985e-38 402 280 0 0 0 -0.30793 0.42004 -0.85367 0.047088
0.21704 0.031598 1.1227 1.4843e-38 482 280 0 0 0 -0.21569 0.44927 -0.86697 0.049223
0.2231 0.030963 1.1235 1.4037e-38 427.5 280 0 0 0 0.069761 0.46303 -0.88359 0.045344
0.22502 0.030956 1.1232 1.3506e-38 429 280 0 0 0 0.15958 0.45225 -0.8775 0.037602
0.22644 0.03097 1.1237 1.2308e-38 430 280 0 0 0 0.22152 0.4435 -0.86847 0.028759
0.21592 0.032942 1.1237 1.1248e-38 377 281 0 0 0 -0.25265 0.4309 -0.86631 0.046027
0.21704 0.032912 1.1227 1.2262e-38 378 281 0 0 0 -0.20114 0.44503 -0.87263 0.049478
0.22098 0.032912 1.1227 1.3737e-38 381 281 0 0 0 -0.014264 0.46467 -0.88537 0.047334
0.21724 0.034257 1.1237 1.7148e-38 494 281 0 0 0 -0.19065 0.44246 -0.87629 0.04956
0.21911 0.034898 1.1232 1.3829e-38 440.5 281.5 0 0 0 -0.11087 0.45955 -0.88121 0.047406
0.22118 0.034257 1.1237 1.4843e-38 497 281 0 0 0 -0.018514 0.46312 -0.8861 0.047215
0.21855 0.036886 1.1237 1.4567e-38 498 282 0 0 0 -0.11281 0.4522 -0.88475 0.045477
0.21349 -0.051246 1.1247 1.2815e-38 413 236 0 0 0 -0.28252 -0.82846 -0.48357 0.0089602
0.2148 -0.051246 1.1247 1.134e-38 414 236 0 0 0 -0.25779 -0.83738 -0.48201 0.0089555
0.21743 -0.051246 1.1247 9.7727e-39 416 236 0 0 0 -0.19999 -0.85995 -0.46955 0.0094868
0.21875 -0.051246 1.1247 1.0879e-38 417 236 0 0 0 -0.19114 -0.86116 -0.47103 0.0097329
0.22007 -0.051246 1.1247 1.2262e-38 418 236 0 0 0 -0.14879 -0.87456 -0.46152 0.011137
0.21236 -0.048658 1.1258 8.943e-39 170 238 0 0 0 -0.3312 -0.8009 -0.49886 0.013348
0.22796 -0.04993 1.1247 1.2539e-38 346 237 0 0 0 0.025892 -0.91311 -0.40688 0.011671
0.23059 -0.048614 1.1247 9.6805e-39 184 238 0 0 0 0.055989 -0.91074 -0.40916 0.0089189
0.23344 -0.048658 1.1258 9.1274e-39 186 238 0 0 0 0.090246 -0.92318 -0.37361 0.0073553
0.20973 -0.046024 1.1258 1.0695e-38 210 239 0 0 0 -0.42158 -0.73933 -0.52504 0.02101
0.21085 -0.047298 1.1247 1.0326e-38 376 238 0 0 0 -0.37454 -0.77222 -0.51322 0.016872
0.21217 -0.047298 1.1247 1.0418e-38 377 238 0 0 0 -0.34964 -0.78392 -0.51305 0.015406
0.24112 -0.047298 1.1247 1.1063e-38 399 238 0 0 0 0.10054 -0.92089 -0.37663 0.0086481
0.24661 -0.047341 1.1258 9.6805e-39 403 238 0 0 0 0.083494 -0.91248 -0.40051 0.012239
0.24902 -0.047298 1.1247 1.134e-38 405 238 0 0 0 0.099615 -0.88893 -0.44709 0.016362
0.25165 -0.047298 1.1247 1.0879e-38 407 238 0 0 0 0.10826 -0.8692 -0.48246 0.022382
0.25296 -0.047298 1.1247 1.0142e-38 408 238 0 0 0 0.10992 -0.86417 -0.49106 0.023712
0.25428 -0.047298 1.1247 1.0418e-38 409 238 0 0 0 0.10991 -0.85686 -0.50369 0.026678
0.25691 -0.047298 1.1247 1.2723e-38 411 238 0 0 0 0.13157 -0.83078 -0.54082 0.035077
0.25888 -0.047298 1.1247 1.2676e-38 412.5 238 0 0 0 0.1428 -0.81049 -0.56808 0.038328
0.2611 -0.047341 1.1258 1.0879e-38 414 238 0 0 0 0.14139 -0.80868 -0.571 0.037873
0.26505 -0.047341 1.1258 1.0971e-38 417 238 0 0 0 0.16035 -0.74817 -0.64384 0.046514
0.26768 -0.046024 1.1258 1.0602e-38 349 239 0 0 0 0.20824 -0.67612 -0.70675 0.05412
0.27295 -0.046024 1.1258 1.2539e-38 353 239 0 0 0 0.24341 -0.59011 -0.76976 0.060281
0.27427 -0.046024 1.1258 1.0971e-38 354 239 0 0 0 0.24366 -0.5781 -0.77874 0.062033
0.20296 -0.044666 1.1247 9.5883e-39 415 239 0 0 0 -0.56251 -0.60009 -0.56875 0.031516
0.20493 -0.044666 1.1247 1.0141e-38 416.5 239 0 0 0 -0.53797 -0.62899 -0.56121 0.031065
0.20691 -0.044666 1.1247 1.1985e-38 418 239 0 0 0 -0.51572 -0.65538 -0.55182 0.02833
0.26612 -0.045982 1.1247 1.0234e-38 348 239 0 0 0 0.21753 -0.65651 -0.72227 0.051983
0.26875 -0.044666 1.1247 9.5883e-39 183 240 0 0 0 0.2648 -0.58965 -0.76302 0.057927
0.27007 -0.044666 1.1247 1.0234e-38 184 240 0 0 0 0.26796 -0.56748 -0.77857 0.058691
0.2727 -0.044666 1.1247 9.1274e-39 186 240 0 0 0 0.27318 -0.53001 -0.80278 0.061008
0.2748 -0.044686 1.1252 9.7727e-39 187.5 240 0 0 0 0.29305 -0.48153 -0.82598 0.062506
0.2769 -0.044707 1.1258 9.0352e-39 189 240 0 0 0 0.29836 -0.46316 -0.83454 0.062993
0.1991 -0.042712 1.1252 1.0187e-38 264 240.5 0 0 0 -0.6605 -0.47805 -0.57897 0.038727
0.20098 -0.042692 1.1247 1.1017e-38 265.5 240.5 0 0 0 -0.63875 -0.51312 -0.57334 0.03726
0.27928 -0.04335 1.1247 1.1893e-38 411 240 0 0 0 0.34296 -0.34741 -0.87275 0.061072
0.2806 -0.04335 1.1247 1.1801e-38 412 240 0 0 0 0.35602 -0.3129 -0.88054 0.058043
0.28283 -0.042732 1.1258 1.1248e-38 381.5 240.5 0 0 0 0.36504 -0.23813 -0.90002 0.057633
0.28349 -0.040756 1.1258 9.2196e-39 183 242 0 0 0 0.39733 -0.14757 -0.90573 0.051672
0.28349 -0.039439 1.1258 9.0352e-39 422 242 0 0 0 0.42053 -0.099027 -0.90186 0.046794
0.19779 -0.034813 1.1252 9.404e-39 281 244.5 0 0 0 -0.81914 -0.18868 -0.54167 0.032037
0.27928 -0.034139 1.1247 1.1893e-38 395 245 0 0 0 0.47095 0.026041 -0.88177 0.029196
0.28126 -0.034797 1.1247 1.1109e-38 474.5 244.5 0 0 0 0.47136 0.02754 -0.88151 0.028277
0.28217 -0.03417 1.1258 9.9571e-39 397 245 0 0 0 0.47197 0.049729 -0.88021 0.026049
0.19713 -0.032838 1.1252 9.3578e-39 152.5 246 0 0 0 -0.84678 -0.11641 -0.51905 0.024088
0.27954 -0.032853 1.1258 1.2078e-38 358 246 0 0 0 0.47978 0.063975 -0.87505 0.025531
0.28085 -0.032853 1.1258 1.0879e-38 359 246 0 0 0 0.4789 0.079142 -0.8743 0.022906
0.28217 -0.032853 1.1258 1.0234e-38 360 246 0 0 0 0.47749 0.088025 -0.87422 0.021781
0.19694 -0.031087 1.1254 1.1156e-38 411 246.33 0 0 0 -0.85998 -0.065659 -0.50609 0.018165
0.27731 -0.030849 1.1247 1.0418e-38 165 247.5 0 0 0 0.47632 0.10346 -0.87317 0.01959
0.27822 -0.030219 1.1258 8.8508e-39 151 248 0 0 0 0.4826 0.12241 -0.86725 0.017381
0.19656 -0.028902 1.1258 1.217e-38 358 248 0 0 0 -0.87404 -0.008909 -0.48577 0.010502
0.27665 -0.028876 1.1247 1.0326e-38 420 248 0 0 0 0.47971 0.15639 -0.86338 0.012301
0.27822 -0.028902 1.1258 1.1985e-38 421 248 0 0 0 0.4869 0.16799 -0.85715 0.011332
0.1977 -0.02756 1.1247 1.2262e-38 183 249 0 0 0 -0.87515 0.0038386 -0.48383 0.0098898
0.19901 -0.026244 1.1247 8.3898e-39 154 250 0 0 0 -0.87832 0.027224 -0.4773 0.0077832
0.27533 -0.026902 1.1247 1.217e-38 378 249.5 0 0 0 0.47526 0.19911 -0.85702 0.0081395
0.2769 -0.027585 1.1258 1.2907e-38 393 249 0 0 0 0.48258 0.19488 -0.85389 0.0081165
0.19919 -0.024951 1.1258 1.0602e-38 425 250 0 0 0 -0.88198 0.063116 -0.46705 0.0040278
0.27468 -0.024928 1.1247 1.1109e-38 186.5 251 0 0 0 0.47252 0.24309 -0.84713 0.004142
0.19919 -0.022974 1.1258 1.2124e-38 391.5 251.5 0 0 0 -0.88462 0.083647 -0.45876 0.0025778
0.20033 -0.022296 1.1247 1.0879e-38 381 252 0 0 0 -0.8828 0.087807 -0.46148 0.0025879
0.2727 -0.022954 1.1247 9.404e-39 298 252 0 0 0 0.46182 0.27497 -0.84328 0.0024041
0.27454 -0.02318 1.1251 1.1248e-38 253.33 252 0 0 0 0.47259 0.2753 -0.83718 0.0021972
0.20033 -0.02098 1.1247 1.0234e-38 357 253 0 0 0 -0.88408 0.097553 -0.45703 0.0022491
0.2727 -0.02098 1.1247 1.1063e-38 413 253 0 0 0 0.46115 0.29386 -0.83725 0.0020927
0.27427 -0.020999 1.1258 1.1248e-38 414 253 0 0 0 0.47127 0.29354 -0.83171 0.0019186
0.20033 -0.019006 1.1247 1.0234e-38 160.5 254.5 0 0 0 -0.88246 0.10571 -0.45836 0.002344
0.27139 -0.018348 1.1247 1.2815e-38 369 255 0 0 0 0.45286 0.30706 -0.83703 0.0022999
0.27295 -0.019682 1.1258 9.9571e-39 389 254 0 0 0 0.46404 0.30022 -0.83339 0.0020414
0.27427 -0.019682 1.1258 1.0234e-38 395 254 0 0 0 0.46949 0.29925 -0.83068 0.0018897
0.20033 -0.017032 1.1247 1.6226e-38 444 255 0 0 0 -0.88015 0.11403 -0.46079 0.0022658
0.26875 -0.017032 1.1247 9.9571e-39 180 256 0 0 0 0.44213 0.31198 -0.84095 0.0025225
0.27085 -0.01704 1.1252 1.0556e-38 181.5 256 0 0 0 0.45249 0.31372 -0.83477 0.0023698
0.20033 -0.015058 1.1247 1.1847e-38 406.5 256.5 0 0 0 -0.87853 0.12132 -0.46203 0.0023609
0.269 -0.015073 1.1258 1.4382e-38 301 257 0 0 0 0.44699 0.32028 -0.83524 0.0023947
0.27032 -0.015073 1.1258 1.3184e-38 302 257 0 0 0 0.45118 0.32079 -0.83278 0.002313
0.20033 -0.013085 1.1247 1.3553e-38 384 258 0 0 0 -0.8764 0.12783 -0.46431 0.0026021
0.26744 -0.013085 1.1247 1.217e-38 435 258 0 0 0 0.43851 0.32979 -0.83603 0.0026099
0.269 -0.013097 1.1258 1.2815e-38 436 258 0 0 0 0.44588 0.32959 -0.8322 0.0023721
0.27032 -0.013097 1.1258 1.3553e-38 437 258 0 0 0 0.44939 0.32836 -0.8308 0.002285
0.20033 -0.011111 1.1247 1.1386e-38 269 259.5 0 0 0 -0.87333 0.13159 -0.46902 0.0028525
0.26708 -0.010895 1.1251 1.2231e-38 414.33 259.67 0 0 0 0.43736 0.33986 -0.83259 0.0025593
0.20051 -0.0091453 1.1258 9.6805e-39 154 261 0 0 0 -0.87579 0.13275 -0.46409 0.0030299
0.26349 -0.009137 1.1247 1.2446e-38 394 261 0 0 0 0.42471 0.34323 -0.83775 0.0027665
0.26481 -0.009137 1.1247 1.1801e-38 395 261 0 0 0 0.42881 0.34534 -0.83478 0.0025818
0.26636 -0.0091453 1.1258 1.2078e-38 396 261 0 0 0 0.43781 0.34666 -0.82955 0.0024432
0.20051 -0.0071696 1.1258 1.3046e-38 499.5 261.5 0 0 0 -0.87266 0.13824 -0.46835 0.0033972
0.26295 -0.0071661 1.1252 1.1179e-38 266.5 262.5 0 0 0 0.42849 0.349 -0.83343 0.0025052
0.26505 -0.0078282 1.1258 1.1801e-38 372 262 0 0 0 0.43385 0.34897 -0.83066 0.0024038
0.2611 -0.005194 1.1258 1.3184e-38 536 263 0 0 0 0.4253 0.35006 -0.83461 0.0026222
0.20051 -0.0032184 1.1258 1.1064e-38 278 264.5 0 0 0 -0.86376 0.15912 -0.47812 0.0048624
0.25894 -0.003216 1.125 1.164e-38 416 264.5 0 0 0 0.42108 0.35195 -0.83596 0.0028139
0.20051 -0.0012427 1.1258 8.943e-39 526 265 0 0 0 -0.86109 0.17385 -0.4778 0.0053786
0.25691 -0.0012416 1.1247 1.0695e-38 165 266 0 0 0 0.41934 0.3503 -0.83752 0.0028647
0.25846 -0.0012427 1.1258 1.0326e-38 166 266 0 0 0 0.42361 0.35394 -0.83384 0.0026139
0.20107 0.00073229 1.1252 1.1386e-38 411 266.5 0 0 0 -0.84656 0.20066 -0.49303 0.0063841
0.25572 0.00073291 1.1252 1.2631e-38 475 266.5 0 0 0 0.42138 0.3517 -0.83591 0.0028179
0.25715 7.438e-05 1.1258 1.0787e-38 522 266 0 0 0 0.42362 0.35288 -0.83428 0.0026211
0.20183 0.0027086 1.1258 1.0142e-38 156 268 0 0 0 -0.83888 0.21748 -0.49898 0.0070881
0.25428 0.0027061 1.1247 1.1617e-38 378 268 0 0 0 0.41941 0.35679 -0.83474 0.0028209
0.20183 0.0040257 1.1258 5.163e-39 504 268 0 0 0 -0.83239 0.22876 -0.50478 0.007549
0.20296 0.0046799 1.1247 8.8045e-39 458.5 268.5 0 0 0 -0.81775 0.23894 -0.52363 0.0089697
0.25165 0.0053379 1.1247 1.1617e-38 451 269 0 0 0 0.41295 0.3681 -0.83305 0.0032727
0.25296 0.0046799 1.1247 1.1432e-38 297.5 269 0 0 0 0.41422 0.36659 -0.83308 0.0030134
0.25451 0.0040257 1.1258 1.1524e-38 144 269 0 0 0 0.42032 0.36496 -0.83075 0.002737
0.20314 0.0073185 1.1258 1.0234e-38 336 270 0 0 0 -0.81513 0.25577 -0.51976 0.0090517
0.20428 0.0079697 1.1247 9.8649e-39 502 270 0 0 0 -0.78341 0.27457 -0.55757 0.013263
0.25129 0.0075335 1.1251 1.2999e-38 487.33 270 0 0 0 0.4137 0.37622 -0.82904 0.0032845
0.25319 0.0066599 1.1258 1.0602e-38 388 270 0 0 0 0.41488 0.37592 -0.82859 0.0029863
0.20428 0.0092856 1.1247 1.1432e-38 408 271 0 0 0 -0.77765 0.2825 -0.56165 0.013944
0.2477 0.0092856 1.1247 1.2446e-38 441 271 0 0 0 0.4055 0.38598 -0.82861 0.0037989
0.24902 0.0092856 1.1247 1.2815e-38 442 271 0 0 0 0.40783 0.38693 -0.82702 0.0036036
0.25056 0.0092941 1.1258 1.429e-38 443 271 0 0 0 0.40878 0.38683 -0.8266 0.0034574
0.20446 0.011269 1.1258 1.3e-38 301.5 272 0 0 0 -0.78132 0.2891 -0.55314 0.012542
0.24507 0.011917 1.1247 6.0849e-39 486 272 0 0 0 0.4062 0.40132 -0.82094 0.0039404
0.2469 0.011043 1.1251 8.7278e-39 283.33 272 0 0 0 0.40538 0.3984 -0.82276 0.0038242
0.24924 0.010611 1.1258 1.1156e-38 183 272 0 0 0 0.4076 0.39515 -0.82324 0.0035524
0.24375 0.013233 1.1247 1.1893e-38 388 273 0 0 0 0.40339 0.40726 -0.8194 0.0039694
0.24507 0.013233 1.1247 1.2354e-38 389 273 0 0 0 0.40376 0.40542 -0.82013 0.0038584
0.24661 0.013245 1.1258 1.3553e-38 390 273 0 0 0 0.4008 0.40664 -0.82097 0.0036032
0.20559 0.014549 1.1247 9.3118e-39 489 273 0 0 0 -0.74103 0.30957 -0.59586 0.018244
0.20691 0.015865 1.1247 1.2262e-38 391 274 0 0 0 -0.72243 0.31473 -0.61566 0.020528
0.24112 0.015865 1.1247 1.0787e-38 423 274 0 0 0 0.40072 0.41449 -0.81708 0.0036853
0.24321 0.014555 1.1252 1.4844e-38 517.5 273 0 0 0 0.40269 0.41228 -0.81723 0.0037114
0.24529 0.014562 1.1258 1.512e-38 519 273 0 0 0 0.40173 0.41299 -0.81734 0.0035969
0.24661 0.014562 1.1258 1.4198e-38 520 273 0 0 0 0.40238 0.40964 -0.81871 0.0035664
0.20822 0.017181 1.1247 1.512e-38 518 274 0 0 0 -0.68873 0.32014 -0.65051 0.02447
0.23871 0.017197 1.1258 1.3092e-38 143 275 0 0 0 0.39383 0.4169 -0.8192 0.0039274
0.24002 0.017197 1.1258 1.3092e-38 144 275 0 0 0 0.39758 0.41732 -0.81718 0.003734
0.20923 0.018947 1.1254 1.1371e-38 331 275.33 0 0 0 -0.66895 0.32134 -0.67026 0.027287
0.2352 0.019813 1.1247 1.1939e-38 165.5 276 0 0 0 0.38842 0.41553 -0.82248 0.0047626
0.23739 0.018514 1.1258 1.3737e-38 445 275 0 0 0 0.39218 0.41768 -0.8196 0.0041613
0.20973 0.021148 1.1258 1.1709e-38 440 276 0 0 0 -0.65057 0.32474 -0.68651 0.029402
0.23475 0.021148 1.1258 1.3922e-38 459 276 0 0 0 0.39131 0.41546 -0.82114 0.0045578
0.21085 0.023103 1.1247 1.1663e-38 302 277 0 0 0 -0.58345 0.34483 -0.73531 0.036747
0.23191 0.022445 1.1247 1.1524e-38 174 277 0 0 0 0.36068 0.41444 -0.83555 0.0082393
0.23293 0.023336 1.1254 1.3737e-38 366.67 277 0 0 0 0.37943 0.41419 -0.82734 0.0061979
0.21105 0.025099 1.1258 1.0787e-38 166 278 0 0 0 -0.57275 0.33979 -0.74599 0.037782
0.2307 0.027062 1.1252 1.3184e-38 417 278.5 0 0 0 0.33464 0.4214 -0.84287 0.011829
0.21217 0.029024 1.1247 1.1709e-38 467 279 0 0 0 -0.49835 0.36889 -0.78458 0.04228
0.22928 0.029024 1.1247 1.4475e-38 480 279 0 0 0 0.29804 0.42961 -0.85241 0.018937
0.2308 0.029051 1.1258 1.4475e-38 481 279 0 0 0 0.34263 0.41892 -0.8409 0.011189
0.21311 0.030788 1.1251 1.2754e-38 285.33 280 0 0 0 -0.44696 0.38483 -0.80755 0.043351
0.2148 0.031656 1.1247 1.4751e-38 480 280 0 0 0 -0.3394 0.40752 -0.84779 0.050256
0.22796 0.03034 1.1247 1.051e-38 372 280 0 0 0 0.26113 0.43907 -0.85967 0.02411
0.22883 0.031026 1.1258 1.2908e-38 431.5 280 0 0 0 0.28479 0.43152 -0.85597 0.020376
0.21368 0.033002 1.1258 1.3737e-38 375 281 0 0 0 -0.40781 0.38747 -0.82677 0.04556
0.2148 0.032972 1.1247 1.1985e-38 376 281 0 0 0 -0.33225 0.42025 -0.8444 0.048142
0.2227 0.032972 1.1247 1.3276e-38 382 281 0 0 0 0.040883 0.46403 -0.88488 0.046514
0.22467 0.032972 1.1247 1.1663e-38 383.5 281 0 0 0 0.13594 0.45836 -0.87831 0.039196
0.22665 0.032972 1.1247 1.0879e-38 385 281 0 0 0 0.22611 0.44261 -0.86774 0.026804
0.22817 0.033002 1.1258 1.1432e-38 386 281 0 0 0 0.26164 0.43255 -0.86281 0.023309
0.21368 0.034319 1.1258 1.429e-38 491 281 0 0 0 -0.38561 0.39116 -0.83564 0.04449
0.215 0.034319 1.1258 1.5489e-38 492 281 0 0 0 -0.32495 0.40759 -0.85339 0.048548
0.21662 0.035176 1.1251 1.3522e-38 420 281.67 0 0 0 -0.2077 0.44257 -0.87235 0.049881
0.22138 0.035604 1.1247 1.3461e-38 387 282 0 0 0 -0.0048566 0.46328 -0.8862 0.044687
0.2229 0.034319 1.1258 1.4936e-38 498 281 0 0 0 0.057078 0.46256 -0.88475 0.044266
0.22488 0.034319 1.1258 1.5766e-38 499.5 281 0 0 0 0.13694 0.45342 -0.88071 0.038154
0.22685 0.034319 1.1258 1.5212e-38 501 281 0 0 0 0.22587 0.44011 -0.86907 0.027307
0.21698 0.036953 1.1258 1.4475e-38 496.5 282 0 0 0 -0.19308 0.42785 -0.88299 0.048337
0.22072 0.03692 1.1247 1.5304e-38 499.5 282 0 0 0 -0.045918 0.45848 -0.88752 0.043832
0.21885 0.038911 1.1252 1.4336e-38 432 283 0 0 0 -0.11487 0.4356 -0.89278 0.044127
0.22083 0.038253 1.1252 1.4383e-38 379.5 283 0 0 0 -0.031259 0.45249 -0.89122 0.042085
0.22067 -0.052706 1.1278 1.0787e-38 308 236 0 0 0 -0.12143 -0.90324 -0.41159 0.013428
0.21143 -0.050067 1.1278 1.3184e-38 333 237 0 0 0 -0.33097 -0.8133 -0.47854 0.012119
0.21256 -0.050021 1.1268 1.3461e-38 334 237 0 0 0 -0.30862 -0.81684 -0.48738 0.011219
0.21651 -0.051339 1.1268 9.8649e-39 415 236 0 0 0 -0.21866 -0.86317 -0.45511 0.0092947
0.21124 -0.048703 1.1268 9.4961e-39 169 238 0 0 0 -0.35547 -0.7891 -0.50095 0.014488
0.23497 -0.048703 1.1268 9.9571e-39 187 238 0 0 0 0.10309 -0.93783 -0.33144 0.0069664
0.20352 -0.046108 1.1278 9.8649e-39 205 239 0 0 0 -0.52044 -0.649 -0.55492 0.029892
0.20483 -0.046108 1.1278 9.3118e-39 206 239 0 0 0 -0.50546 -0.66474 -0.55012 0.028119
0.20671 -0.046087 1.1273 9.3117e-39 207.5 239 0 0 0 -0.47737 -0.69508 -0.53757 0.026056
0.2086 -0.047384 1.1268 9.6805e-39 374 238 0 0 0 -0.41609 -0.74736 -0.518 0.020027
0.21011 -0.047428 1.1278 1.0234e-38 375 238 0 0 0 -0.3921 -0.76777 -0.50673 0.017061
0.2431 -0.047428 1.1278 1.1893e-38 400 238 0 0 0 0.065094 -0.94005 -0.33476 0.0069
0.24442 -0.047428 1.1278 1.1524e-38 401 238 0 0 0 0.062529 -0.93532 -0.34822 0.0084695
0.24815 -0.047384 1.1268 1.0234e-38 404 238 0 0 0 0.061041 -0.91842 -0.39088 0.011831
0.26397 -0.047384 1.1268 9.9571e-39 416 238 0 0 0 0.14005 -0.79474 -0.59057 0.040299
0.26685 -0.047428 1.1278 1.2723e-38 418 238 0 0 0 0.15365 -0.76941 -0.62 0.04488
0.26924 -0.046066 1.1268 1.1617e-38 350 239 0 0 0 0.218 -0.67581 -0.7041 0.055607
0.27122 -0.046066 1.1268 1.3184e-38 351.5 239 0 0 0 0.2303 -0.63265 -0.7394 0.058651
0.27584 -0.046066 1.1268 9.9571e-39 355 239 0 0 0 0.236 -0.57218 -0.78544 0.064514
0.27715 -0.046066 1.1268 9.7727e-39 356 239 0 0 0 0.23164 -0.5461 -0.80506 0.066219
0.27873 -0.046108 1.1278 1.0602e-38 357 239 0 0 0 0.22894 -0.52642 -0.81882 0.071263
0.28137 -0.046108 1.1278 1.0326e-38 359 239 0 0 0 0.25031 -0.4425 -0.86113 0.069494
0.28401 -0.046108 1.1278 1.0787e-38 361 239 0 0 0 0.27721 -0.3591 -0.89118 0.068018
0.19956 -0.044789 1.1278 1.217e-38 412 239 0 0 0 -0.61817 -0.52863 -0.58173 0.036691
0.20201 -0.044748 1.1268 1.0234e-38 414 239 0 0 0 -0.57067 -0.58936 -0.57184 0.03356
0.27913 -0.044748 1.1268 8.482e-39 190.5 240 0 0 0 0.29452 -0.43422 -0.8513 0.068657
0.28111 -0.044748 1.1268 8.1132e-39 192 240 0 0 0 0.29781 -0.39548 -0.86885 0.068447
0.28269 -0.044789 1.1278 8.2054e-39 193 240 0 0 0 0.29744 -0.36022 -0.88418 0.069314
0.28401 -0.044789 1.1278 8.021e-39 194 240 0 0 0 0.31915 -0.30436 -0.8975 0.06571
0.19815 -0.04279 1.1273 9.773e-39 263 240.5 0 0 0 -0.67953 -0.44721 -0.58158 0.040145
0.20069 -0.04343 1.1268 1.0418e-38 349 240 0 0 0 -0.61904 -0.52283 -0.58603 0.037073
0.28375 -0.04343 1.1268 9.7727e-39 414 240 0 0 0 0.34395 -0.25804 -0.90283 0.062753
0.28519 -0.04279 1.1273 1.0879e-38 383 240.5 0 0 0 0.36683 -0.19667 -0.90926 0.057603
0.19692 -0.04083 1.1278 1.2078e-38 406 241 0 0 0 -0.72962 -0.37553 -0.57152 0.042339
0.19806 -0.040793 1.1268 1.1156e-38 407 241 0 0 0 -0.71642 -0.38803 -0.5798 0.041673
0.28506 -0.040793 1.1268 8.943e-39 184 242 0 0 0 0.39635 -0.12687 -0.90929 0.051157
0.19692 -0.039511 1.1278 1.0049e-38 347 242 0 0 0 -0.75732 -0.31932 -0.56965 0.04011
0.19806 -0.038815 1.1268 1.0234e-38 264 242.5 0 0 0 -0.75105 -0.32625 -0.57401 0.039661
0.28375 -0.038156 1.1268 1.0326e-38 362 243 0 0 0 0.43021 -0.052693 -0.90119 0.042401
0.28532 -0.038851 1.1278 1.0234e-38 393 242.5 0 0 0 0.41678 -0.068139 -0.90645 0.044677
0.19806 -0.036838 1.1268 9.4961e-39 422 243 0 0 0 -0.78409 -0.26299 -0.56217 0.038518
0.28375 -0.036838 1.1268 8.6664e-39 185 244 0 0 0 0.43844 -0.018773 -0.89856 0.037596
0.28532 -0.036872 1.1278 8.6664e-39 186 244 0 0 0 0.43801 -0.0025218 -0.89897 0.03574
0.19683 -0.034876 1.1273 1.0049e-38 280 244.5 0 0 0 -0.82977 -0.17539 -0.52983 0.031595
0.28401 -0.034892 1.1278 1.0326e-38 476 244.5 0 0 0 0.45866 0.041067 -0.88766 0.030574
0.27979 -0.030906 1.1268 9.7266e-39 166.5 247.5 0 0 0 0.48359 0.12069 -0.86694 0.01827
0.28111 -0.030906 1.1268 9.3117e-39 167.5 247.5 0 0 0 0.48687 0.13606 -0.86281 0.015495
0.28256 -0.030919 1.1273 9.2657e-39 168.5 247.5 0 0 0 0.4862 0.14732 -0.86134 0.013316
0.28071 -0.028955 1.1278 1.1202e-38 422.5 248 0 0 0 0.49038 0.18191 -0.85231 0.0091663
0.19683 -0.026963 1.1273 1.0372e-38 167 249.5 0 0 0 -0.884 0.03601 -0.4661 0.0061672
0.19806 -0.026292 1.1268 8.5742e-39 153 250 0 0 0 -0.88073 0.043403 -0.47163 0.0055633
0.28005 -0.027635 1.1278 1.2907e-38 394 249 0 0 0 0.49313 0.20479 -0.84551 0.0065845
0.19692 -0.024996 1.1278 1.1524e-38 423 250 0 0 0 -0.88777 0.074167 -0.45426 0.0031171
0.19806 -0.024973 1.1268 1.051e-38 424 250 0 0 0 -0.88457 0.068618 -0.46134 0.0033888
0.27715 -0.024973 1.1268 1.1432e-38 188 251 0 0 0 0.48591 0.25165 -0.837 0.0030589
0.19815 -0.023006 1.1273 1.2953e-38 390.5 251.5 0 0 0 -0.88756 0.088907 -0.45203 0.0023352
0.27584 -0.022337 1.1268 1.3092e-38 438 252 0 0 0 0.47957 0.28559 -0.82973 0.0017184
0.27728 -0.023006 1.1273 1.5627e-38 301 252 0 0 0 0.48515 0.28154 -0.82787 0.0016752
