# .PCD v.7 - Point Cloud Data file format
VERSION .7
FIELDS x y z rgb u v vx vy vz normal_x normal_y normal_z curvature
SIZE 4 4 4 4 4 4 4 4 4 4 4 4 4
TYPE F F F F F F F F F F F F F
COUNT 1 1 1 1 1 1 1 1 1 1 1 1 1
WIDTH 543
HEIGHT 1
VIEWPOINT 0 0 0 1 0 0 0
POINTS 543
DATA ascii
-0.051206 0.09666 0.98877 1.0188e-38 306 254.5 0 0 0 -0.15907 0.066515 -0.98502 0.077915
-0.049084 0.096852 0.98877 9.8341e-39 262 254.67 0 0 0 -0.15656 0.053533 -0.98622 0.079572
-0.047156 0.096659 0.98877 1.0418e-38 309.5 254.5 0 0 0 -0.14449 0.020749 -0.98929 0.083692
-0.0089816 0.096659 0.98877 1.0003e-38 342.5 254.5 0 0 0 0.31942 -0.10397 -0.94189 0.089414
-0.0072464 0.09666 0.98877 9.7728e-39 344 254.5 0 0 0 0.34872 -0.12288 -0.92913 0.086585
-0.0055156 0.096737 0.98956 9.6806e-39 345.5 254.5 0 0 0 0.38832 -0.12268 -0.91332 0.085995
-0.056456 0.098473 0.98956 1.5489e-38 385 255 0 0 0 -0.18049 0.2118 -0.9605 0.068141
-0.055298 0.098473 0.98956 1.4383e-38 386 255 0 0 0 -0.17407 0.1932 -0.9656 0.071786
-0.052983 0.098473 0.98956 1.2262e-38 388 255 0 0 0 -0.16918 0.18331 -0.96839 0.072816
-0.051216 0.098992 0.98897 1.0372e-38 439 255 0 0 0 -0.16817 0.1888 -0.96751 0.069247
-0.048891 0.098972 0.98877 1.0234e-38 441 255 0 0 0 -0.1605 0.18963 -0.96865 0.069314
-0.047156 0.098972 0.98877 1.0464e-38 442.5 255 0 0 0 -0.14863 0.18242 -0.97192 0.071245
-0.0089816 0.098972 0.98877 1.0234e-38 286.5 255.5 0 0 0 0.32285 0.042895 -0.94548 0.08399
-0.0072464 0.098972 0.98877 1.1686e-38 288.5 255.5 0 0 0 0.35531 0.053502 -0.93322 0.081875
-0.0055156 0.099052 0.98956 1.1662e-38 290 255.5 0 0 0 0.39398 0.056243 -0.9174 0.084361
-0.050667 0.10079 0.98956 1.0142e-38 207 256 0 0 0 -0.17184 0.30117 -0.93796 0.05834
-0.048931 0.10079 0.98956 9.0813e-39 208.5 256 0 0 0 -0.16255 0.2895 -0.94328 0.062963
-0.046615 0.10137 0.98956 1.0049e-38 320 256 0 0 0 -0.14686 0.3179 -0.93668 0.057968
-0.044861 0.10133 0.98917 9.5885e-39 321.5 256 0 0 0 -0.13564 0.31147 -0.94052 0.059844
-0.043125 0.10133 0.98917 9.7959e-39 354.25 256 0 0 0 -0.12747 0.30422 -0.94404 0.063098
-0.040998 0.10151 0.98903 1.0326e-38 403 256 0 0 0 -0.11563 0.30168 -0.94637 0.06381
-0.039059 0.10186 0.98877 1.051e-38 436 256 0 0 0 -0.10633 0.30372 -0.94681 0.066436
-0.014778 0.10195 0.98956 9.9571e-39 457 256 0 0 0 0.22027 0.25358 -0.9419 0.073249
-0.012452 0.10186 0.98877 1.0787e-38 459 256 0 0 0 0.25388 0.25799 -0.9322 0.069424
-0.010527 0.10151 0.98903 1.1125e-38 429.33 256 0 0 0 0.28933 0.22754 -0.92979 0.075362
-0.0089888 0.10079 0.98956 1.3922e-38 368 256 0 0 0 0.32788 0.17027 -0.92925 0.081595
-0.0066733 0.10079 0.98956 1.3368e-38 370 256 0 0 0 0.37541 0.16524 -0.91201 0.077398
-0.040248 0.1031 0.98956 1.217e-38 152 257 0 0 0 -0.1166 0.35814 -0.92636 0.05907
-0.03909 0.1031 0.98956 1.2723e-38 153 257 0 0 0 -0.11411 0.36056 -0.92573 0.059734
-0.037339 0.10306 0.98917 1.2308e-38 154.5 257 0 0 0 -0.1095 0.35848 -0.92709 0.06046
-0.035023 0.10306 0.98917 1.134e-38 156.5 257 0 0 0 -0.096447 0.3508 -0.93147 0.061696
-0.033301 0.1031 0.98956 1.1617e-38 158 257 0 0 0 -0.083659 0.35057 -0.93279 0.062894
-0.030961 0.10302 0.98877 1.1617e-38 160 257 0 0 0 -0.060665 0.32951 -0.9422 0.067155
-0.029237 0.10306 0.98917 1.217e-38 161.5 257 0 0 0 -0.048137 0.32621 -0.94407 0.067961
-0.027491 0.10302 0.98877 1.2631e-38 163 257 0 0 0 -0.028365 0.30482 -0.95199 0.070525
-0.022863 0.10302 0.98877 1.0234e-38 167 257 0 0 0 0.058662 0.3056 -0.95035 0.073645
-0.017079 0.10302 0.98877 1.0142e-38 172 257 0 0 0 0.16945 0.31108 -0.93516 0.065318
-0.015922 0.10302 0.98877 9.8649e-39 173 257 0 0 0 0.18992 0.3192 -0.92846 0.062335
-0.013041 0.1031 0.98956 1.1617e-38 175.5 257 0 0 0 0.24592 0.31977 -0.91502 0.060649
-0.035617 0.10426 0.98956 1.4475e-38 375 257 0 0 0 -0.10118 0.39948 -0.91114 0.052323
-0.032118 0.10418 0.98877 1.3737e-38 378 257 0 0 0 -0.077465 0.37919 -0.92207 0.056404
-0.030986 0.10426 0.98956 1.4936e-38 379 257 0 0 0 -0.065622 0.37083 -0.92638 0.062175
-0.026934 0.10426 0.98956 1.6042e-38 382.5 257 0 0 0 -0.015629 0.37049 -0.9287 0.060978
-0.024798 0.10459 0.98903 1.3798e-38 416.33 257 0 0 0 0.016771 0.39399 -0.91896 0.053411
-0.022882 0.10426 0.98956 1.3184e-38 386 257 0 0 0 0.05175 0.37981 -0.92361 0.059937
-0.021137 0.10422 0.98917 1.0556e-38 387.5 257 0 0 0 0.085836 0.37439 -0.92329 0.059949
-0.018822 0.10422 0.98917 9.6344e-39 389.5 257 0 0 0 0.13601 0.37827 -0.91565 0.055345
-0.017093 0.10426 0.98956 9.7727e-39 391 257 0 0 0 0.16637 0.36598 -0.91563 0.056573
-0.015935 0.10426 0.98956 1.0787e-38 392 257 0 0 0 0.18589 0.36982 -0.91032 0.054017
-0.043826 0.087105 0.99194 1.0695e-38 171 251 0 0 0 -0.032985 -0.65612 -0.75393 0.053235
-0.060026 0.089355 0.99115 2.5815e-39 515 251 0 0 0 -0.14013 -0.42672 -0.89346 0.083792
-0.058913 0.089426 0.99194 1.051e-38 139 252 0 0 0 -0.1371 -0.44394 -0.88551 0.087412
-0.057172 0.089426 0.99194 9.3578e-39 140.5 252 0 0 0 -0.13236 -0.47288 -0.87113 0.08558
-0.054829 0.089391 0.99155 9.957e-39 142.5 252 0 0 0 -0.12186 -0.4702 -0.87411 0.08046
-0.053111 0.089426 0.99194 1.134e-38 144 252 0 0 0 -0.11003 -0.4945 -0.86218 0.079893
-0.051149 0.088992 0.99141 1.091e-38 232.67 251.67 0 0 0 -0.10645 -0.50766 -0.85496 0.075879
-0.049019 0.088792 0.99134 1.1086e-38 278 251.5 0 0 0 -0.093598 -0.52242 -0.84753 0.071955
-0.046681 0.088757 0.99095 1.1455e-38 280 251.5 0 0 0 -0.08202 -0.53172 -0.84294 0.071038
-0.044933 0.088739 0.99075 1.0879e-38 281.5 251.5 0 0 0 -0.060963 -0.55472 -0.8298 0.068924
-0.043211 0.088775 0.99115 1.0556e-38 283 251.5 0 0 0 -0.037403 -0.57165 -0.81965 0.066471
-0.040884 0.088757 0.99095 1.0925e-38 285 251.5 0 0 0 -0.026728 -0.58993 -0.80701 0.064553
-0.038766 0.088581 0.99115 1.1002e-38 330.33 251.33 0 0 0 -0.018706 -0.60748 -0.79411 0.063389
-0.037399 0.089319 0.99075 1.3368e-38 157.5 252 0 0 0 -0.021008 -0.57497 -0.8179 0.070876
-0.035108 0.089391 0.99155 1.2861e-38 159.5 252 0 0 0 -0.01446 -0.59046 -0.80694 0.069582
-0.032802 0.089426 0.99194 1.3783e-38 161.5 252 0 0 0 -0.0037484 -0.61195 -0.79089 0.065766
-0.01828 0.089355 0.99115 1.2262e-38 174 252 0 0 0 0.10624 -0.60946 -0.78566 0.057435
-0.01712 0.089355 0.99115 1.217e-38 175 252 0 0 0 0.12602 -0.60095 -0.78929 0.059329
-0.01538 0.089355 0.99115 1.1432e-38 176.5 252 0 0 0 0.14873 -0.59559 -0.7894 0.058838
-0.013073 0.089426 0.99194 1.0649e-38 178.5 252 0 0 0 0.18076 -0.59105 -0.78612 0.059577
-0.010751 0.089426 0.99194 1.0925e-38 180.5 252 0 0 0 0.2122 -0.58739 -0.78099 0.057075
-0.071099 0.091747 0.99194 1.0464e-38 487.5 252 0 0 0 -0.17982 -0.1975 -0.96367 0.085439
-0.069358 0.091747 0.99194 1.0602e-38 489 252 0 0 0 -0.17819 -0.19871 -0.96372 0.084801
-0.067037 0.091747 0.99194 9.4961e-39 491 252 0 0 0 -0.173 -0.23361 -0.95682 0.096521
-0.065085 0.091336 0.99168 1.1125e-38 454 252 0 0 0 -0.16219 -0.27295 -0.94826 0.092904
-0.06295 0.091131 0.99154 1.2377e-38 436.5 252 0 0 0 -0.16841 -0.31627 -0.9336 0.092131
-0.061185 0.091094 0.99115 1.2078e-38 438 252 0 0 0 -0.16315 -0.32897 -0.93014 0.09433
-0.05941 0.091039 0.99055 1.1409e-38 439.5 252 0 0 0 -0.15663 -0.30903 -0.93806 0.086474
-0.057289 0.090852 0.99062 1.2446e-38 422 252 0 0 0 -0.14586 -0.34417 -0.92751 0.085058
-0.054775 0.091039 0.99055 1.164e-38 443.5 252 0 0 0 -0.13074 -0.33165 -0.9343 0.08392
-0.053025 0.091021 0.99035 1.0833e-38 445 252 0 0 0 -0.12592 -0.34829 -0.92889 0.082941
-0.051288 0.090442 0.99035 1.2677e-38 388.5 252 0 0 0 -0.11579 -0.38193 -0.91691 0.079222
-0.042597 0.090442 0.99035 1.1063e-38 396 252 0 0 0 -0.056229 -0.48997 -0.86993 0.076441
-0.04028 0.090442 0.99035 1.0049e-38 398 252 0 0 0 -0.045117 -0.49812 -0.86593 0.077463
-0.036804 0.090442 0.99035 1.0049e-38 401 252 0 0 0 -0.024921 -0.53246 -0.84609 0.076083
-0.035066 0.090442 0.99035 9.6804e-39 402.5 252 0 0 0 -0.017067 -0.53923 -0.84199 0.075116
-0.033328 0.090442 0.99035 9.4961e-39 404 252 0 0 0 -0.016676 -0.53725 -0.84326 0.077998
-0.031036 0.090514 0.99115 1.051e-38 406 252 0 0 0 -0.0068381 -0.55733 -0.83026 0.075527
-0.029296 0.091674 0.99115 1.1294e-38 145.5 253 0 0 0 0.0067406 -0.51622 -0.85643 0.083423
-0.026956 0.0916 0.99035 1.134e-38 147.5 253 0 0 0 0.025579 -0.50836 -0.86077 0.0793
-0.024638 0.0916 0.99035 1.3138e-38 149.5 253 0 0 0 0.044027 -0.51516 -0.85596 0.078358
-0.022918 0.090514 0.99115 9.6805e-39 413 252 0 0 0 0.049086 -0.56963 -0.82044 0.069726
-0.021187 0.09055 0.99155 9.7727e-39 414.5 252 0 0 0 0.083864 -0.57127 -0.81647 0.068507
-0.018845 0.090442 0.99035 1.0741e-38 416.5 252 0 0 0 0.099623 -0.56168 -0.82134 0.067452
-0.017107 0.090442 0.99035 9.3118e-39 418 252 0 0 0 0.13651 -0.55777 -0.81869 0.065229
-0.014795 0.091057 0.99075 1.0879e-38 289 252.5 0 0 0 0.1752 -0.5285 -0.83066 0.070626
-0.013057 0.090478 0.99075 1.0464e-38 421.5 252 0 0 0 0.19436 -0.54281 -0.81706 0.065092
-0.010547 0.090876 0.99088 1.0418e-38 336.33 252.33 0 0 0 0.23238 -0.50321 -0.83233 0.06916
-0.0090069 0.09113 0.99155 1.0833e-38 294 252.5 0 0 0 0.26763 -0.48975 -0.82977 0.072373
-0.0072667 0.091131 0.99154 1.1064e-38 295.5 252.5 0 0 0 0.29041 -0.48464 -0.8251 0.067009
-0.0055289 0.091747 0.99194 1.217e-38 166 253 0 0 0 0.33038 -0.4432 -0.83332 0.071136
-0.07284 0.092908 0.99194 1.051e-38 348 253 0 0 0 -0.18109 -0.13405 -0.97429 0.0865
-0.071099 0.092908 0.99194 1.0372e-38 349.5 253 0 0 0 -0.18951 -0.10303 -0.97646 0.088923
-0.068778 0.092908 0.99194 1.0188e-38 351.5 253 0 0 0 -0.19358 -0.1131 -0.97454 0.091419
-0.06701 0.093451 0.99155 1.1202e-38 409.5 253 0 0 0 -0.19588 -0.075291 -0.97773 0.09217
-0.065257 0.093432 0.99135 1.0994e-38 411 253 0 0 0 -0.18402 -0.1191 -0.97568 0.095087
-0.062899 0.093375 0.99075 1.0879e-38 413 253 0 0 0 -0.19031 -0.11567 -0.97489 0.090095
-0.061136 0.093339 0.99035 1.1617e-38 414.5 253 0 0 0 -0.183 -0.10852 -0.97711 0.088122
-0.058819 0.093339 0.99035 1.2447e-38 416.5 253 0 0 0 -0.17424 -0.14079 -0.97459 0.088728
-0.05766 0.092759 0.99035 1.3368e-38 361 253 0 0 0 -0.15773 -0.20983 -0.96493 0.089319
-0.008996 0.093339 0.99035 1.0142e-38 271.5 253.5 0 0 0 0.28733 -0.35114 -0.89115 0.085093
-0.007258 0.092759 0.99035 1.0602e-38 405.5 253 0 0 0 0.32018 -0.37658 -0.86929 0.074804
-0.0055244 0.093413 0.99115 1.0096e-38 274.5 253.5 0 0 0 0.34516 -0.35381 -0.8693 0.0777
-0.07284 0.094068 0.99194 9.4961e-39 461 253 0 0 0 -0.18206 -0.017007 -0.98314 0.083118
-0.070906 0.094455 0.99194 9.6807e-39 374 253.33 0 0 0 -0.19266 -0.0099151 -0.98122 0.082598
-0.068778 0.094649 0.99194 1.0487e-38 331.5 253.5 0 0 0 -0.19316 -0.011242 -0.9811 0.088833
-0.066983 0.095153 0.99115 9.2196e-39 200 254 0 0 0 -0.20515 0.0087159 -0.97869 0.084608
-0.065244 0.095153 0.99115 8.8969e-39 201.5 254 0 0 0 -0.20773 0.027039 -0.97781 0.085583
-0.062874 0.095076 0.99035 1.0234e-38 203.5 254 0 0 0 -0.19663 -0.01386 -0.98038 0.086062
-0.061136 0.095076 0.99035 9.404e-39 205 254 0 0 0 -0.19673 -0.013021 -0.98037 0.088589
-0.004751 0.094766 0.99115 1.2754e-38 298.67 254 0 0 0 0.37745 -0.26513 -0.88726 0.086624
-0.0032078 0.095229 0.99194 1.3922e-38 378 254 0 0 0 0.41233 -0.23341 -0.88063 0.085228
-0.068778 0.096389 0.99194 1.1018e-38 428.5 254 0 0 0 -0.20355 0.098956 -0.97405 0.082111
-0.067037 0.096389 0.99194 1.051e-38 430 254 0 0 0 -0.20714 0.10315 -0.97286 0.082527
-0.065257 0.096912 0.99135 1.134e-38 294 254.5 0 0 0 -0.20357 0.1282 -0.97063 0.08261
-0.062925 0.096892 0.99115 1.1501e-38 296 254.5 0 0 0 -0.20226 0.10885 -0.97326 0.085068
-0.06116 0.096853 0.99075 1.134e-38 297.5 254.5 0 0 0 -0.20312 0.087855 -0.9752 0.085682
-0.059205 0.097008 0.99035 1.1955e-38 253.33 254.67 0 0 0 -0.19487 0.12617 -0.97268 0.078311
-0.05766 0.097394 0.99035 1.2539e-38 163 255 0 0 0 -0.18577 0.1488 -0.97126 0.07624
-0.0043648 0.096892 0.99115 9.8189e-39 346.5 254.5 0 0 0 0.40852 -0.10412 -0.90679 0.089229
-0.0028192 0.096724 0.99141 1.0141e-38 393.67 254.33 0 0 0 0.43821 -0.11478 -0.89151 0.087095
-0.064716 0.098711 0.99194 1.4106e-38 378 255 0 0 0 -0.21613 0.23611 -0.94739 0.074112
-0.062975 0.098711 0.99194 1.3783e-38 379.5 255 0 0 0 -0.20874 0.24799 -0.94601 0.071256
-0.060445 0.099071 0.99168 1.2662e-38 414.67 255 0 0 0 -0.20094 0.25926 -0.94467 0.070554
-0.058866 0.099211 0.99115 1.2032e-38 432.5 255 0 0 0 -0.18997 0.25933 -0.94692 0.070341
-0.057289 0.099351 0.99062 1.177e-38 450.33 255 0 0 0 -0.18855 0.25959 -0.94713 0.068899
-0.05457 0.099325 0.99035 1.1309e-38 452.67 255 0 0 0 -0.17906 0.23004 -0.95657 0.070641
-0.053025 0.099711 0.99035 9.9571e-39 487 255 0 0 0 -0.16559 0.24964 -0.95408 0.070843
-0.0043648 0.099211 0.99115 1.1109e-38 291 255.5 0 0 0 0.42618 0.057768 -0.90279 0.086457
-0.0032065 0.099251 0.99155 1.1202e-38 292 255.5 0 0 0 0.45405 0.072222 -0.88805 0.084356
0.0060764 0.098711 0.99194 9.1274e-39 440 255 0 0 0 0.57047 -0.073334 -0.81804 0.074494
-0.05715 0.10099 0.99155 8.7125e-39 201.5 256 0 0 0 -0.19305 0.32992 -0.92406 0.062027
-0.054807 0.10095 0.99115 1.0372e-38 203.5 256 0 0 0 -0.18248 0.33213 -0.92541 0.060735
-0.053025 0.10087 0.99035 9.6805e-39 205 256 0 0 0 -0.17573 0.30762 -0.93514 0.063205
-0.051867 0.10087 0.99035 9.5883e-39 206 256 0 0 0 -0.17182 0.31185 -0.93447 0.061956
-0.0078373 0.10087 0.99035 1.3829e-38 369 256 0 0 0 0.35737 0.18037 -0.91638 0.080505
-0.0049442 0.10095 0.99115 1.3461e-38 371.5 256 0 0 0 0.4161 0.17942 -0.89144 0.078713
-0.054852 0.10219 0.99194 1.0003e-38 422.5 256 0 0 0 -0.1806 0.38598 -0.90466 0.051787
-0.053111 0.10219 0.99194 9.1274e-39 424 256 0 0 0 -0.17988 0.37806 -0.90814 0.054453
-0.051329 0.10269 0.99115 1.0395e-38 284 256.5 0 0 0 -0.17513 0.39119 -0.90349 0.050859
-0.04899 0.10265 0.99075 1.1248e-38 286 256.5 0 0 0 -0.16818 0.37885 -0.91005 0.051843
-0.046858 0.10283 0.99062 1.1555e-38 240.67 256.67 0 0 0 -0.1488 0.38082 -0.9126 0.051448
-0.044915 0.10319 0.99035 1.1801e-38 148 257 0 0 0 -0.1384 0.38726 -0.91152 0.051193
-0.043177 0.10319 0.99035 1.1801e-38 149.5 257 0 0 0 -0.12701 0.38038 -0.91607 0.054368
-0.041439 0.10319 0.99035 1.1156e-38 151 257 0 0 0 -0.12045 0.37618 -0.91869 0.054646
-0.014789 0.10319 0.99035 1.0418e-38 174 257 0 0 0 0.21632 0.33044 -0.9187 0.061444
-0.010738 0.10323 0.99075 1.0556e-38 177.5 257 0 0 0 0.27422 0.30953 -0.91049 0.065629
-0.0090032 0.10211 0.99115 9.404e-39 462 256 0 0 0 0.33678 0.25638 -0.90601 0.074714
-0.0072638 0.10211 0.99115 9.7727e-39 463.5 256 0 0 0 0.3667 0.24314 -0.89801 0.075648
-0.0055289 0.10219 0.99194 1.0879e-38 465 256 0 0 0 0.40567 0.25343 -0.87818 0.073678
-0.049629 0.10451 0.99194 1.3184e-38 363 257 0 0 0 -0.16792 0.46663 -0.86836 0.035668
-0.046147 0.10451 0.99194 1.4843e-38 366 257 0 0 0 -0.15442 0.45468 -0.87717 0.037829
-0.044987 0.10451 0.99194 1.429e-38 367 257 0 0 0 -0.13848 0.44769 -0.8834 0.038983
-0.043228 0.10447 0.99155 1.3368e-38 368.5 257 0 0 0 -0.13664 0.44145 -0.88682 0.040443
-0.040721 0.10487 0.99168 1.2324e-38 402.67 257 0 0 0 -0.12175 0.44404 -0.88769 0.040837
-0.038787 0.10526 0.99168 1.1217e-38 436.33 257 0 0 0 -0.11396 0.44432 -0.88859 0.043343
-0.03721 0.10479 0.99088 1.3153e-38 405.67 257 0 0 0 -0.1068 0.4183 -0.90201 0.051523
-0.034901 0.1052 0.99115 1.134e-38 439.67 257 0 0 0 -0.1062 0.42743 -0.89779 0.048986
-0.03296 0.10517 0.99088 1.1033e-38 441.33 257 0 0 0 -0.087938 0.42318 -0.90177 0.050547
-0.031036 0.10559 0.99115 1.0142e-38 475 257 0 0 0 -0.0711 0.42868 -0.90065 0.048341
-0.029284 0.10497 0.99075 1.3368e-38 428.5 257 0 0 0 -0.052969 0.40104 -0.91453 0.056164
-0.026967 0.10554 0.99075 1.1109e-38 478.5 257 0 0 0 -0.015487 0.42593 -0.90462 0.049085
-0.024059 0.1055 0.99035 9.9571e-39 481 257 0 0 0 0.026887 0.4221 -0.90615 0.049013
-0.022918 0.10559 0.99115 9.404e-39 482 257 0 0 0 0.050718 0.42794 -0.90238 0.050335
-0.021171 0.10554 0.99075 9.2657e-39 483.5 257 0 0 0 0.084273 0.42545 -0.90105 0.050211
-0.018845 0.1055 0.99035 9.8188e-39 485.5 257 0 0 0 0.13207 0.41883 -0.89841 0.04732
-0.01712 0.10559 0.99115 9.9571e-39 487 257 0 0 0 0.1653 0.42057 -0.89208 0.044973
-0.01538 0.105 0.99115 1.0279e-38 440.5 257 0 0 0 0.19291 0.39107 -0.89992 0.052404
-0.013062 0.10443 0.99115 9.0813e-39 394.5 257 0 0 0 0.23468 0.36242 -0.90198 0.056959
-0.011332 0.10451 0.99194 9.1274e-39 396 257 0 0 0 0.26539 0.36508 -0.89235 0.056139
-0.032195 0.10675 0.99115 9.4961e-39 195 258 0 0 0 -0.084774 0.46284 -0.88238 0.039603
-0.031061 0.10683 0.99194 9.0352e-39 196 258 0 0 0 -0.076437 0.46607 -0.88144 0.03973
-0.0299 0.10683 0.99194 9.404e-39 197 258 0 0 0 -0.058773 0.4585 -0.88675 0.042024
-0.026988 0.10679 0.99155 8.8047e-39 199.5 258 0 0 0 -0.022727 0.46011 -0.88757 0.042258
-0.024668 0.10737 0.99155 9.0813e-39 313.5 258 0 0 0 0.017342 0.47208 -0.88139 0.039503
-0.022937 0.10683 0.99194 9.5883e-39 203 258 0 0 0 0.053604 0.46492 -0.88373 0.04183
-0.020997 0.10719 0.99168 1.0787e-38 279.33 258 0 0 0 0.088788 0.47344 -0.87634 0.038329
-0.019058 0.10716 0.99141 1.0971e-38 281 258 0 0 0 0.12499 0.47119 -0.87313 0.035342
-0.017134 0.10683 0.99194 9.1274e-39 337 258 0 0 0 0.16382 0.45819 -0.87363 0.036743
-0.015974 0.10683 0.99194 9.404e-39 338 258 0 0 0 0.17957 0.45222 -0.87365 0.037017
-0.06017 0.087245 0.99354 1.3461e-38 157 251 0 0 0 -0.1193 -0.59953 -0.79141 0.077257
-0.050871 0.087245 0.99354 1.217e-38 165 251 0 0 0 -0.094028 -0.65118 -0.75307 0.062239
-0.049108 0.08721 0.99314 1.2723e-38 166.5 251 0 0 0 -0.072579 -0.65483 -0.75228 0.058957
-0.046785 0.08721 0.99314 1.1708e-38 168.5 251 0 0 0 -0.066487 -0.65245 -0.75491 0.060512
-0.045023 0.087175 0.99274 1.134e-38 170 251 0 0 0 -0.044114 -0.6488 -0.75968 0.057988
-0.042734 0.087245 0.99354 1.0971e-38 172 251 0 0 0 -0.022873 -0.67585 -0.73668 0.054266
-0.040775 0.086811 0.99301 1.1924e-38 259.67 250.67 0 0 0 -0.010344 -0.69653 -0.71745 0.044692
-0.038635 0.087175 0.99274 1.2077e-38 175.5 251 0 0 0 0.00034202 -0.68575 -0.72784 0.049321
-0.03576 0.087245 0.99354 1.1156e-38 178 251 0 0 0 0.0069237 -0.69604 -0.71797 0.0467
-0.072957 0.08957 0.99354 9.3118e-39 504 251 0 0 0 -0.15313 -0.37401 -0.9147 0.085762
-0.071213 0.08957 0.99354 9.9109e-39 505.5 251 0 0 0 -0.1488 -0.37659 -0.91435 0.092815
-0.069082 0.089183 0.99354 8.021e-39 468.67 251 0 0 0 -0.13828 -0.42639 -0.89391 0.090323
-0.067145 0.08957 0.99354 3.0425e-39 509 251 0 0 0 -0.13477 -0.42616 -0.89455 0.095698
-0.06519 0.089159 0.99327 6.3002e-39 472 251 0 0 0 -0.13466 -0.4606 -0.87734 0.093901
-0.063051 0.088953 0.99314 7.4678e-39 454.5 251 0 0 0 -0.13747 -0.49194 -0.85971 0.089107
-0.060913 0.088748 0.99301 8.4204e-39 437 251 0 0 0 -0.12695 -0.49912 -0.85718 0.090026
-0.059008 0.088408 0.99354 1.0695e-38 400 251 0 0 0 -0.13176 -0.53918 -0.83182 0.088044
-0.057242 0.088372 0.99314 1.0741e-38 401.5 251 0 0 0 -0.12051 -0.55303 -0.8244 0.084934
-0.054917 0.088372 0.99314 9.404e-39 403.5 251 0 0 0 -0.11126 -0.55644 -0.82341 0.078535
-0.053153 0.088337 0.99274 9.7727e-39 405 251 0 0 0 -0.1088 -0.55197 -0.82674 0.076144
-0.051992 0.088337 0.99274 9.9571e-39 406 251 0 0 0 -0.096983 -0.5624 -0.82116 0.074343
-0.036893 0.088337 0.99274 8.7586e-39 419 251 0 0 0 -0.0070621 -0.64209 -0.76659 0.060211
-0.035164 0.088372 0.99314 9.6347e-39 420.5 251 0 0 0 -0.0018547 -0.65941 -0.75178 0.056772
-0.032854 0.088408 0.99354 9.7726e-39 422.5 251 0 0 0 0.0047477 -0.66593 -0.746 0.054328
-0.03111 0.08957 0.99354 1.3461e-38 163 252 0 0 0 -0.0051798 -0.63432 -0.77305 0.063044
-0.022974 0.08957 0.99354 1.0787e-38 170 252 0 0 0 0.052349 -0.63376 -0.77176 0.057999
-0.021811 0.08957 0.99354 1.0418e-38 171 252 0 0 0 0.066964 -0.63406 -0.77038 0.058148
-0.019471 0.089498 0.99274 1.1709e-38 173 252 0 0 0 0.094321 -0.62399 -0.77571 0.056551
-0.017162 0.088408 0.99354 9.3118e-39 436 251 0 0 0 0.11281 -0.66541 -0.7379 0.044657
-0.015411 0.088372 0.99314 9.6805e-39 437.5 251 0 0 0 0.135 -0.65382 -0.74451 0.047331
-0.013083 0.088337 0.99274 1.0464e-38 439.5 251 0 0 0 0.16641 -0.63737 -0.75238 0.049782
-0.010769 0.088408 0.99354 9.3579e-39 441.5 251 0 0 0 0.20008 -0.63222 -0.74851 0.049979
-0.009025 0.08957 0.99354 1.1524e-38 182 252 0 0 0 0.24713 -0.57341 -0.78111 0.058409
-0.0072782 0.089534 0.99314 1.1248e-38 183.5 252 0 0 0 0.26532 -0.56794 -0.77914 0.056099
-0.079156 0.091508 0.99354 1.134e-38 442 252 0 0 0 -0.18415 -0.21761 -0.95851 0.080767
-0.077025 0.091314 0.99354 1.1939e-38 424.5 252 0 0 0 -0.17927 -0.21458 -0.96011 0.08601
-0.074671 0.091277 0.99314 1.2055e-38 426.5 252 0 0 0 -0.16238 -0.21617 -0.96276 0.086242
-0.072898 0.09124 0.99274 1.1802e-38 428 252 0 0 0 -0.16747 -0.2219 -0.96058 0.088846
-0.071156 0.09066 0.99274 1.3876e-38 371.5 252 0 0 0 -0.16464 -0.27434 -0.94743 0.089567
-0.068639 0.091047 0.99274 1.3245e-38 412.33 252 0 0 0 -0.16781 -0.28741 -0.94299 0.092669
-0.067091 0.09066 0.99274 1.4383e-38 375 252 0 0 0 -0.16164 -0.31729 -0.93445 0.095024
-0.065929 0.09066 0.99274 1.3829e-38 376 252 0 0 0 -0.1585 -0.34342 -0.92571 0.094622
-0.029355 0.090696 0.99314 1.0511e-38 407.5 252 0 0 0 0.0080451 -0.58804 -0.80879 0.073879
-0.02702 0.09066 0.99274 1.1063e-38 409.5 252 0 0 0 0.0247 -0.58708 -0.80915 0.070511
-0.024698 0.09066 0.99274 9.6805e-39 411.5 252 0 0 0 0.041146 -0.59101 -0.80561 0.067119
-0.0049566 0.091314 0.99354 1.1663e-38 297.5 252.5 0 0 0 0.32736 -0.47951 -0.81419 0.069888
-0.003213 0.091895 0.99354 1.1248e-38 168 253 0 0 0 0.36116 -0.44543 -0.81924 0.070493
-0.083418 0.093057 0.99354 9.8649e-39 214 253 0 0 0 -0.2115 -0.086753 -0.97352 0.069431
-0.081094 0.093057 0.99354 1.1524e-38 341 253 0 0 0 -0.19986 -0.071392 -0.97722 0.077709
-0.079318 0.09302 0.99314 1.2262e-38 342.5 253 0 0 0 -0.19346 -0.068386 -0.97872 0.078674
-0.076963 0.092983 0.99274 1.0694e-38 344.5 253 0 0 0 -0.1803 -0.10958 -0.97749 0.081149
-0.07464 0.092983 0.99274 9.7266e-39 346.5 253 0 0 0 -0.17457 -0.099846 -0.97957 0.084975
-0.0043719 0.092983 0.99274 1.0326e-38 408 253 0 0 0 0.36077 -0.39587 -0.84447 0.07554
-0.0032104 0.092983 0.99274 1.0787e-38 409 253 0 0 0 0.38197 -0.3815 -0.84176 0.074271
-0.081094 0.09422 0.99354 9.0352e-39 454 253 0 0 0 -0.19646 0.00024155 -0.98051 0.073824
-0.079135 0.094582 0.99327 9.5575e-39 367 253.33 0 0 0 -0.19435 0.0055482 -0.98092 0.079063
-0.076994 0.094763 0.99314 1.0741e-38 324.5 253.5 0 0 0 -0.19181 0.023291 -0.98116 0.081524
-0.07464 0.094724 0.99274 1.0072e-38 326.5 253.5 0 0 0 -0.18995 0.018971 -0.98161 0.082101
-0.072898 0.095305 0.99274 9.1274e-39 195 254 0 0 0 -0.1914 0.069055 -0.97908 0.080538
-0.071737 0.095305 0.99274 9.404e-39 196 254 0 0 0 -0.19821 0.044937 -0.97913 0.082923
-0.0024366 0.094556 0.99301 1.2508e-38 222.67 254 0 0 0 0.41766 -0.28307 -0.86338 0.082305
-0.00088819 0.095382 0.99354 1.4014e-38 380 254 0 0 0 0.44457 -0.2628 -0.85632 0.083036
-0.074507 0.096932 0.99354 1.0203e-38 332 254.33 0 0 0 -0.19239 0.16424 -0.96748 0.076483
-0.072928 0.097087 0.99314 1.0649e-38 287.5 254.5 0 0 0 -0.19491 0.14542 -0.96998 0.078337
-0.07117 0.097067 0.99294 1.1064e-38 289 254.5 0 0 0 -0.20273 0.15547 -0.96681 0.077687
-0.068833 0.097628 0.99274 1.1755e-38 153.5 255 0 0 0 -0.20766 0.17566 -0.9623 0.077914
-0.067091 0.097628 0.99274 1.1524e-38 155 255 0 0 0 -0.20633 0.17911 -0.96195 0.080725
-0.0020489 0.097628 0.99274 8.3898e-39 211 255 0 0 0 0.4668 -0.071855 -0.88144 0.091569
-0.00088819 0.097126 0.99354 9.2655e-39 349.5 254.5 0 0 0 0.48842 -0.11491 -0.86501 0.084637
0.00027421 0.097126 0.99354 9.404e-39 350.5 254.5 0 0 0 0.48838 -0.12359 -0.86383 0.085466
0.0060813 0.097628 0.99274 1.1985e-38 341 255 0 0 0 0.56586 -0.144 -0.81183 0.074688
-0.068889 0.098869 0.99354 1.4474e-38 374.5 255 0 0 0 -0.2089 0.25394 -0.94439 0.07246
-0.067145 0.098869 0.99354 1.3461e-38 376 255 0 0 0 -0.20919 0.24892 -0.94566 0.075147
-0.065929 0.09879 0.99274 1.3829e-38 377 255 0 0 0 -0.21199 0.23825 -0.94778 0.073172
-0.063026 0.099951 0.99274 1.0971e-38 478.5 255 0 0 0 -0.2044 0.30671 -0.9296 0.06611
-0.061284 0.099951 0.99274 1.1063e-38 480 255 0 0 0 -0.205 0.30427 -0.93027 0.066243
-0.0020489 0.09879 0.99274 1.0879e-38 433 255 0 0 0 0.47108 0.028104 -0.88164 0.088603
-0.00088819 0.098869 0.99354 1.0234e-38 434 255 0 0 0 0.5055 0.030306 -0.86229 0.086614
0.00027421 0.098869 0.99354 1.0049e-38 435 255 0 0 0 0.52237 0.020309 -0.85248 0.085739
0.0049218 0.09941 0.99314 1.0649e-38 299 255.5 0 0 0 0.58097 0.022271 -0.81362 0.082522
0.0072428 0.09879 0.99274 9.5883e-39 441 255 0 0 0 0.59675 -0.059766 -0.8002 0.075897
-0.065401 0.10003 0.99354 9.9112e-39 476.5 255 0 0 0 -0.21401 0.3098 -0.92641 0.066872
-0.060122 0.10111 0.99274 9.5883e-39 199 256 0 0 0 -0.20247 0.34828 -0.91526 0.061995
-0.058961 0.10111 0.99274 8.7586e-39 200 256 0 0 0 -0.19854 0.34177 -0.91857 0.063237
-0.0026305 0.10057 0.99314 1.3277e-38 263 256 0 0 0 0.47514 0.14469 -0.86793 0.08408
-0.00088819 0.10003 0.99354 1.1985e-38 154 256 0 0 0 0.5166 0.12647 -0.84683 0.083804
0.00027421 0.10061 0.99354 1.2539e-38 265.5 256 0 0 0 0.52334 0.14751 -0.83926 0.083448
0.0029865 0.10042 0.99354 1.2539e-38 231 256 0 0 0 0.56922 0.11668 -0.81387 0.081028
-0.059008 0.10236 0.99354 1.0049e-38 419 256 0 0 0 -0.20197 0.40632 -0.89113 0.050787
-0.057056 0.10272 0.99327 7.4987e-39 452.33 256 0 0 0 -0.19355 0.4152 -0.8889 0.048411
-0.05494 0.10352 0.99354 1.0188e-38 139.5 257 0 0 0 -0.18552 0.43803 -0.87961 0.04523
-0.053153 0.10344 0.99274 1.0695e-38 141 257 0 0 0 -0.17854 0.43338 -0.88335 0.046265
-0.0090177 0.10344 0.99274 1.0418e-38 179 257 0 0 0 0.32906 0.30163 -0.89484 0.071332
-0.0072755 0.10344 0.99274 1.0188e-38 180.5 257 0 0 0 0.37478 0.30564 -0.87528 0.068021
-0.0047602 0.10308 0.99301 1.1033e-38 277 256.67 0 0 0 0.43143 0.28612 -0.85557 0.069848
0.00085541 0.10294 0.99354 1.028e-38 329 256.5 0 0 0 0.53209 0.27089 -0.80218 0.073077
0.0025969 0.10227 0.99274 1.0142e-38 472 256 0 0 0 0.54622 0.23465 -0.8041 0.075601
-0.052034 0.10468 0.99354 1.3368e-38 361 257 0 0 0 -0.17226 0.47911 -0.86068 0.035687
-0.05083 0.1046 0.99274 1.2907e-38 362 257 0 0 0 -0.17329 0.47553 -0.86246 0.034925
-0.048921 0.10543 0.99327 1.1432e-38 427.67 257 0 0 0 -0.16406 0.49397 -0.85386 0.029833
-0.046784 0.10522 0.99314 1.2031e-38 413.5 257 0 0 0 -0.15926 0.48309 -0.86096 0.032204
-0.045023 0.10576 0.99274 9.3118e-39 463 257 0 0 0 -0.14509 0.49129 -0.85883 0.030094
-0.043298 0.1058 0.99314 1.0326e-38 464.5 257 0 0 0 -0.13742 0.49406 -0.8585 0.029492
-0.041572 0.10584 0.99354 1.1248e-38 466 257 0 0 0 -0.12763 0.48586 -0.86467 0.031996
-0.014837 0.10584 0.99354 1.0049e-38 489 257 0 0 0 0.20689 0.41989 -0.88368 0.045529
-0.013083 0.10576 0.99274 1.0188e-38 490.5 257 0 0 0 0.22879 0.41658 -0.87984 0.044911
-0.010569 0.1054 0.99301 1.1002e-38 460.67 257 0 0 0 0.28283 0.40004 -0.87177 0.048075
0.0014366 0.10468 0.99354 9.7727e-39 407 257 0 0 0 0.53003 0.3674 -0.76426 0.058614
-0.043897 0.10701 0.99354 1.1248e-38 185 258 0 0 0 -0.14264 0.5323 -0.83445 0.02001
-0.040377 0.10692 0.99274 9.4961e-39 188 258 0 0 0 -0.12178 0.5143 -0.84892 0.024177
-0.038666 0.10701 0.99354 9.8188e-39 189.5 258 0 0 0 -0.11789 0.51003 -0.85204 0.026301
-0.036893 0.10692 0.99274 9.9571e-39 191 258 0 0 0 -0.11048 0.49332 -0.8628 0.031097
-0.03515 0.10692 0.99274 1.0234e-38 192.5 258 0 0 0 -0.10571 0.48521 -0.86799 0.03376
-0.033408 0.10692 0.99274 1.0326e-38 194 258 0 0 0 -0.095301 0.47671 -0.87388 0.036074
-0.028763 0.10692 0.99274 9.404e-39 198 258 0 0 0 -0.041625 0.46885 -0.88229 0.040461
-0.013093 0.10701 0.99354 1.1571e-38 340.5 258 0 0 0 0.22896 0.45605 -0.86 0.033809
-0.032247 0.10808 0.99274 1.0602e-38 419 258 0 0 0 -0.086698 0.49977 -0.86181 0.029843
-0.03111 0.10817 0.99354 9.9571e-39 420 258 0 0 0 -0.076933 0.50254 -0.86112 0.029981
-0.029367 0.10817 0.99354 1.0464e-38 421.5 258 0 0 0 -0.055699 0.49975 -0.86438 0.032164
-0.027031 0.10813 0.99314 9.5883e-39 423.5 258 0 0 0 -0.019977 0.49597 -0.86811 0.034914
-0.024717 0.10933 0.99354 1.2354e-38 142.5 259 0 0 0 0.018156 0.53306 -0.84588 0.024039
-0.022955 0.10808 0.99274 1.0787e-38 427 258 0 0 0 0.053621 0.49961 -0.86459 0.034358
-0.021221 0.1087 0.99314 1.2262e-38 287 258.5 0 0 0 0.084527 0.5172 -0.85168 0.02753
-0.018701 0.10888 0.99301 1.2385e-38 242 258.67 0 0 0 0.13266 0.51901 -0.84441 0.023371
-0.017155 0.1087 0.99314 1.1294e-38 290.5 258.5 0 0 0 0.14949 0.51665 -0.84305 0.022908
-0.015992 0.1087 0.99314 1.0787e-38 291.5 258.5 0 0 0 0.16707 0.51594 -0.84017 0.021368
-0.019487 0.11049 0.99354 1.3829e-38 375 259 0 0 0 0.11395 0.57057 -0.8133 0.013429
-0.040507 0.085126 0.99594 1.1617e-38 185 250 0 0 0 -0.00041916 -0.78277 -0.62231 0.023909
-0.076629 0.087456 0.99594 1.0142e-38 143 251 0 0 0 -0.12669 -0.51593 -0.84721 0.078387
-0.074881 0.087456 0.99594 1.1248e-38 144.5 251 0 0 0 -0.11982 -0.52377 -0.84339 0.078227
-0.073074 0.087386 0.99514 1.0971e-38 146 251 0 0 0 -0.10873 -0.54316 -0.83256 0.078103
-0.071328 0.087386 0.99514 1.1386e-38 147.5 251 0 0 0 -0.11168 -0.55559 -0.82392 0.08006
-0.068999 0.087386 0.99514 1.277e-38 149.5 251 0 0 0 -0.11299 -0.56772 -0.81543 0.084291
-0.066698 0.087421 0.99554 1.1985e-38 151.5 251 0 0 0 -0.10203 -0.60387 -0.79053 0.082558
-0.064924 0.087386 0.99514 1.1432e-38 153 251 0 0 0 -0.10828 -0.61578 -0.78045 0.081665
-0.063152 0.087351 0.99474 1.1616e-38 154.5 251 0 0 0 -0.10932 -0.62143 -0.77581 0.076591
-0.060874 0.086838 0.99554 1.1432e-38 285.5 250.5 0 0 0 -0.10102 -0.65769 -0.74648 0.073616
-0.059103 0.087386 0.99514 1.2723e-38 158 251 0 0 0 -0.10537 -0.64156 -0.7598 0.074757
-0.05738 0.087421 0.99554 1.2355e-38 159.5 251 0 0 0 -0.10908 -0.65418 -0.74843 0.072478
-0.055006 0.087351 0.99474 1.3461e-38 161.5 251 0 0 0 -0.10422 -0.64872 -0.75386 0.068476
-0.052679 0.087351 0.99474 1.2953e-38 163.5 251 0 0 0 -0.097324 -0.65479 -0.74952 0.063861
-0.050994 0.086291 0.99594 9.2196e-39 423 250 0 0 0 -0.08088 -0.71378 -0.69568 0.051913
-0.049227 0.086257 0.99554 8.021e-39 424.5 250 0 0 0 -0.071883 -0.71567 -0.69472 0.051537
-0.046878 0.086222 0.99514 9.0351e-39 426.5 250 0 0 0 -0.050291 -0.72114 -0.69096 0.048061
-0.045096 0.086152 0.99434 9.7727e-39 428 250 0 0 0 -0.043912 -0.71317 -0.69961 0.048204
-0.043367 0.086187 0.99474 9.5422e-39 429.5 250 0 0 0 -0.023144 -0.71789 -0.69577 0.045379
-0.041606 0.086152 0.99434 1.0142e-38 431 250 0 0 0 -0.0084653 -0.72203 -0.69181 0.042158
-0.038697 0.086152 0.99434 1.0418e-38 433.5 250 0 0 0 -0.0010058 -0.73138 -0.68196 0.036697
-0.036982 0.086803 0.99514 1.0372e-38 306 250.5 0 0 0 0.0044255 -0.73371 -0.67945 0.036464
-0.03525 0.086838 0.99554 1.0556e-38 307.5 250.5 0 0 0 0.007532 -0.7405 -0.67202 0.034656
-0.03292 0.087421 0.99554 1.1248e-38 180.5 251 0 0 0 0.012526 -0.72142 -0.69238 0.040794
-0.016614 0.087421 0.99554 9.404e-39 194.5 251 0 0 0 0.11057 -0.70475 -0.70079 0.035911
-0.014873 0.087456 0.99594 9.4961e-39 196 251 0 0 0 0.1289 -0.69639 -0.706 0.038318
-0.013115 0.087386 0.99514 1.0694e-38 197.5 251 0 0 0 0.1571 -0.68256 -0.71375 0.041076
-0.010786 0.087386 0.99514 9.8189e-39 199.5 251 0 0 0 0.18946 -0.67253 -0.71541 0.041475
-0.0090468 0.087456 0.99594 8.943e-39 201 251 0 0 0 0.21764 -0.6692 -0.71049 0.040644
-0.007299 0.087456 0.99594 9.9572e-39 202.5 251 0 0 0 0.2429 -0.6626 -0.70849 0.039753
-0.084785 0.089787 0.99594 9.9571e-39 494 251 0 0 0 -0.20276 -0.28781 -0.93598 0.075283
-0.083209 0.089375 0.99567 1.134e-38 456.67 251 0 0 0 -0.18086 -0.3182 -0.93061 0.076055
-0.080675 0.089168 0.99554 1.1063e-38 439.5 251 0 0 0 -0.16015 -0.35792 -0.91992 0.079621
-0.078896 0.089132 0.99514 1.111e-38 441 251 0 0 0 -0.15517 -0.3621 -0.91913 0.081381
-0.07715 0.089132 0.99514 1.1755e-38 442.5 251 0 0 0 -0.14977 -0.38788 -0.90946 0.083619
-0.074791 0.089096 0.99474 1.1294e-38 444.5 251 0 0 0 -0.14107 -0.40748 -0.90225 0.08601
-0.073016 0.088479 0.99434 1.3184e-38 388 251 0 0 0 -0.13757 -0.45354 -0.88055 0.082727
-0.07127 0.088479 0.99434 1.2585e-38 389.5 251 0 0 0 -0.13332 -0.47282 -0.87101 0.08578
-0.068362 0.088479 0.99434 1.4014e-38 392 251 0 0 0 -0.12872 -0.50574 -0.85303 0.088991
-0.066618 0.088479 0.99434 1.4245e-38 393.5 251 0 0 0 -0.12793 -0.51245 -0.84913 0.092603
-0.031186 0.088622 0.99594 8.1132e-39 424 251 0 0 0 0.0058334 -0.69054 -0.72327 0.051192
-0.029425 0.089751 0.99554 1.2031e-38 164.5 252 0 0 0 0.010045 -0.64964 -0.76017 0.062822
-0.027086 0.089715 0.99514 1.2354e-38 166.5 252 0 0 0 0.018164 -0.64558 -0.76348 0.060234
-0.024757 0.089715 0.99514 1.1247e-38 168.5 252 0 0 0 0.034368 -0.64266 -0.76538 0.059464
-0.020666 0.089642 0.99434 1.0695e-38 172 252 0 0 0 0.074705 -0.63516 -0.76876 0.057366
-0.018928 0.088514 0.99474 9.865e-39 434.5 251 0 0 0 0.091255 -0.67902 -0.72842 0.04248
-0.0090322 0.088479 0.99434 8.8508e-39 443 251 0 0 0 0.23116 -0.63223 -0.73949 0.048167
-0.0072872 0.088479 0.99434 8.7586e-39 444.5 251 0 0 0 0.25627 -0.62002 -0.74156 0.048864
-0.0049654 0.08915 0.99534 9.5424e-39 316 251.5 0 0 0 0.28949 -0.60217 -0.74403 0.050353
-0.0032208 0.089787 0.99594 1.0418e-38 187 252 0 0 0 0.32985 -0.56636 -0.75527 0.055995
-0.088281 0.090952 0.99594 1.0971e-38 355 252 0 0 0 -0.23081 -0.18783 -0.9547 0.073929
-0.087116 0.090952 0.99594 1.0695e-38 356 252 0 0 0 -0.22265 -0.2107 -0.95186 0.073353
-0.085106 0.091267 0.99514 1.094e-38 397 252 0 0 0 -0.21678 -0.19019 -0.95752 0.072953
-0.082921 0.091406 0.99454 1.1179e-38 418.5 252 0 0 0 -0.19009 -0.17371 -0.96628 0.07578
-0.081159 0.091387 0.99434 1.134e-38 420 252 0 0 0 -0.1829 -0.20178 -0.9622 0.080657
-0.079996 0.090806 0.99434 1.3829e-38 363 252 0 0 0 -0.18552 -0.22283 -0.95704 0.079895
-0.0043789 0.090806 0.99434 1.0602e-38 429 252 0 0 0 0.32368 -0.51791 -0.79184 0.063094
-0.0032182 0.090879 0.99514 1.0234e-38 430 252 0 0 0 0.35363 -0.50702 -0.78605 0.062562
-0.091194 0.093283 0.99594 8.8047e-39 207.5 253 0 0 0 -0.25159 -0.033317 -0.96726 0.066241
-0.088622 0.092844 0.99541 9.2197e-39 297.33 252.67 0 0 0 -0.24234 -0.0557 -0.96859 0.068236
-0.087046 0.092625 0.99514 9.5422e-39 342.5 252.5 0 0 0 -0.23054 -0.071244 -0.97045 0.071239
-0.08547 0.092794 0.99487 9.1888e-39 300 252.67 0 0 0 -0.23053 -0.089112 -0.96898 0.07362
-0.082322 0.093132 0.99434 9.4961e-39 215 253 0 0 0 -0.20863 -0.078521 -0.97484 0.079613
-0.002053 0.092588 0.99474 1.0649e-38 289.5 253 0 0 0 0.39 -0.43013 -0.81418 0.072738
-0.00088962 0.093207 0.99514 9.8649e-39 411 253 0 0 0 0.41595 -0.39283 -0.82016 0.074828
-0.088646 0.094811 0.99567 1.1094e-38 359 253.33 0 0 0 -0.24235 0.022926 -0.96992 0.069344
-0.087081 0.094993 0.99554 1.1202e-38 316 253.5 0 0 0 -0.23757 0.033141 -0.9708 0.069972
-0.085282 0.094935 0.99494 1.0141e-38 317.5 253.5 0 0 0 -0.23278 0.051372 -0.97117 0.069003
-0.082904 0.094877 0.99434 9.819e-39 319.5 253.5 0 0 0 -0.21284 0.036031 -0.97642 0.072761
-0.081159 0.095459 0.99434 1.0971e-38 188 254 0 0 0 -0.20358 0.071178 -0.97647 0.07723
-0.079996 0.095459 0.99434 1.0879e-38 189 254 0 0 0 -0.20608 0.067631 -0.9762 0.078533
-0.0008889 0.094296 0.99434 1.0971e-38 146 254 0 0 0 0.43675 -0.30545 -0.84614 0.08106
0.00027454 0.094915 0.99474 1.2124e-38 264 254 0 0 0 0.45706 -0.30756 -0.83457 0.081311
0.0031879 0.095613 0.99594 1.3968e-38 383.5 254 0 0 0 0.52113 -0.24895 -0.81636 0.082239
-0.085174 0.097166 0.99594 1.0264e-38 323 254.33 0 0 0 -0.22563 0.1819 -0.95708 0.069209
-0.083004 0.097322 0.99554 1.0833e-38 279 254.5 0 0 0 -0.21948 0.20497 -0.95384 0.070679
-0.080675 0.097322 0.99554 1.0902e-38 281 254.5 0 0 0 -0.21043 0.18539 -0.95987 0.075416
-0.078864 0.097243 0.99474 1.0649e-38 282.5 254.5 0 0 0 -0.19657 0.18315 -0.96323 0.073342
-0.077118 0.097243 0.99474 1.0649e-38 284 254.5 0 0 0 -0.19574 0.18332 -0.96337 0.07576
-0.075342 0.097786 0.99434 1.134e-38 148 255 0 0 0 -0.19684 0.2041 -0.95896 0.074121
0.0014389 0.097282 0.99514 9.8188e-39 351.5 254.5 0 0 0 0.52713 -0.10973 -0.84267 0.089039
0.0031841 0.097243 0.99474 9.7266e-39 383.75 254.5 0 0 0 0.53912 -0.13554 -0.83125 0.084694
0.0049317 0.097282 0.99514 1.0511e-38 416 254.5 0 0 0 0.57483 -0.13243 -0.80748 0.080761
0.0066757 0.097243 0.99474 1.1432e-38 417.5 254.5 0 0 0 0.57827 -0.17934 -0.79589 0.073757
-0.078959 0.099109 0.99594 1.4659e-38 366 255 0 0 0 -0.19628 0.29326 -0.93567 0.066438
-0.077211 0.099109 0.99594 1.4521e-38 367.5 255 0 0 0 -0.19988 0.29301 -0.93498 0.067747
-0.074821 0.099029 0.99514 1.4198e-38 369.5 255 0 0 0 -0.19854 0.28285 -0.93839 0.069993
-0.073016 0.098949 0.99434 1.3645e-38 371 255 0 0 0 -0.19544 0.26227 -0.945 0.071928
-0.07127 0.098949 0.99434 1.4245e-38 372.5 255 0 0 0 -0.20632 0.24899 -0.94627 0.075099
0.0014378 0.098949 0.99434 1.0418e-38 436 255 0 0 0 0.5424 0.032021 -0.83951 0.087801
0.0031827 0.098949 0.99434 1.0372e-38 437.5 255 0 0 0 0.55969 -0.017675 -0.82851 0.08511
-0.074298 0.10027 0.99594 1.0971e-38 469 255 0 0 0 -0.19558 0.33563 -0.92147 0.06089
-0.073133 0.10027 0.99594 1.1063e-38 470 255 0 0 0 -0.20427 0.3412 -0.91753 0.063184
-0.071357 0.10023 0.99554 1.0602e-38 471.5 255 0 0 0 -0.2095 0.31493 -0.9257 0.067944
-0.068999 0.10019 0.99514 1.0787e-38 473.5 255 0 0 0 -0.20298 0.30576 -0.93022 0.069726
-0.066644 0.10074 0.99474 9.6805e-39 334.5 255.5 0 0 0 -0.20667 0.32921 -0.92136 0.06717
-0.064872 0.10128 0.99434 9.1274e-39 195 256 0 0 0 -0.21327 0.36796 -0.90506 0.057747
-0.063128 0.10128 0.99434 9.4961e-39 196.5 256 0 0 0 -0.20597 0.36777 -0.90682 0.059715
-0.061382 0.10128 0.99434 1.0049e-38 198 256 0 0 0 -0.20517 0.3618 -0.9094 0.062898
-0.0020522 0.10128 0.99434 1.4659e-38 374 256 0 0 0 0.50437 0.19247 -0.84176 0.080892
-0.0008889 0.10128 0.99434 1.4198e-38 375 256 0 0 0 0.51485 0.18447 -0.8372 0.08154
0.0014378 0.10069 0.99434 1.277e-38 266.5 256 0 0 0 0.55156 0.15182 -0.8202 0.081745
-0.063229 0.1026 0.99594 1.0694e-38 415.5 256 0 0 0 -0.21585 0.4129 -0.88483 0.053969
-0.060672 0.10294 0.99541 8.0517e-39 449.33 256 0 0 0 -0.20736 0.4311 -0.87815 0.048942
-0.059056 0.1036 0.99434 2.7659e-39 514 256 0 0 0 -0.20028 0.44956 -0.87051 0.043083
-0.057892 0.1036 0.99434 2.7659e-39 515 256 0 0 0 -0.20096 0.44399 -0.8732 0.044531
-0.0026364 0.10313 0.99534 1.081e-38 326 256.5 0 0 0 0.49259 0.29595 -0.8184 0.06901
-0.00088926 0.10306 0.99474 1.0649e-38 327.5 256.5 0 0 0 0.52563 0.2843 -0.8018 0.070784
-0.059151 0.10493 0.99594 1.3553e-38 355 257 0 0 0 -0.19811 0.49443 -0.84634 0.034129
-0.05738 0.10489 0.99554 1.2677e-38 356.5 257 0 0 0 -0.19483 0.49268 -0.84812 0.034742
-0.054984 0.10477 0.99434 1.3967e-38 358.5 257 0 0 0 -0.18746 0.49447 -0.84874 0.031944
-0.053239 0.10477 0.99434 1.4198e-38 360 257 0 0 0 -0.18484 0.48456 -0.85501 0.034602
-0.050912 0.10593 0.99434 1.0787e-38 458 257 0 0 0 -0.17349 0.51892 -0.83703 0.025415
-0.047422 0.10593 0.99434 9.3118e-39 461 257 0 0 0 -0.15729 0.5155 -0.84233 0.025434
-0.0090322 0.10477 0.99434 1.051e-38 398 257 0 0 0 0.32655 0.37242 -0.86872 0.055747
-0.0072872 0.10477 0.99434 9.5422e-39 399.5 257 0 0 0 0.37322 0.37202 -0.84989 0.055279
-0.0049605 0.10477 0.99434 9.1274e-39 401.5 257 0 0 0 0.42376 0.37 -0.82676 0.055932
-0.00089034 0.10493 0.99594 1.0049e-38 405 257 0 0 0 0.51154 0.37725 -0.77201 0.055084
0.00027443 0.10477 0.99434 1.0971e-38 406 257 0 0 0 0.51825 0.36271 -0.7745 0.058824
-0.055073 0.1061 0.99594 8.943e-39 454.5 257 0 0 0 -0.19284 0.53417 -0.82309 0.023991
-0.052721 0.10605 0.99554 9.7265e-39 456.5 257 0 0 0 -0.18047 0.53015 -0.82847 0.023993
-0.050994 0.10727 0.99594 1.0234e-38 179 258 0 0 0 -0.17466 0.57319 -0.80059 0.012358
-0.049207 0.10718 0.99514 1.0142e-38 180.5 258 0 0 0 -0.16549 0.56075 -0.81127 0.014068
-0.046898 0.10723 0.99554 1.0372e-38 182.5 258 0 0 0 -0.15965 0.56271 -0.8111 0.013456
-0.045096 0.10709 0.99434 1.0695e-38 184 258 0 0 0 -0.14999 0.54589 -0.82432 0.017031
-0.042803 0.10718 0.99514 1.0787e-38 186 258 0 0 0 -0.13925 0.54131 -0.82921 0.017491
-0.041639 0.10718 0.99514 1.0049e-38 187 258 0 0 0 -0.13407 0.53996 -0.83095 0.017401
-0.014849 0.10709 0.99434 1.0049e-38 339 258 0 0 0 0.19483 0.46404 -0.86412 0.034269
-0.010782 0.10713 0.99474 1.3138e-38 342.5 258 0 0 0 0.26691 0.4611 -0.84626 0.033176
-0.0090395 0.10601 0.99514 1.1524e-38 494 257 0 0 0 0.32015 0.41999 -0.84918 0.04403
-0.007299 0.1061 0.99594 1.0511e-38 495.5 257 0 0 0 0.37273 0.41791 -0.82851 0.045592
-0.0049686 0.1061 0.99594 9.6805e-39 497.5 257 0 0 0 0.41781 0.41956 -0.80586 0.045612
0.00027476 0.10664 0.99554 1.194e-38 427 257.5 0 0 0 0.50655 0.4283 -0.7483 0.047095
-0.044003 0.10843 0.99594 9.8649e-39 409 258 0 0 0 -0.15279 0.58266 -0.79823 0.0088892
-0.040475 0.10834 0.99514 1.0787e-38 412 258 0 0 0 -0.13341 0.56446 -0.81461 0.011957
-0.038744 0.10838 0.99554 9.7266e-39 413.5 258 0 0 0 -0.13166 0.55178 -0.82353 0.013935
-0.036952 0.10826 0.99434 9.404e-39 415 258 0 0 0 -0.12325 0.53534 -0.8356 0.018487
-0.035236 0.10893 0.99514 6.3846e-39 464 258 0 0 0 -0.11912 0.53947 -0.83354 0.016593
-0.033092 0.10909 0.99487 5.3781e-39 481.67 258 0 0 0 -0.10113 0.53503 -0.83876 0.018143
-0.031161 0.10951 0.99514 2.7659e-39 515 258 0 0 0 -0.078275 0.54862 -0.8324 0.016569
-0.029402 0.10947 0.99474 6.3154e-39 327.5 258.5 0 0 0 -0.054464 0.54249 -0.8383 0.019233
-0.027064 0.10942 0.99434 1.0556e-38 140.5 259 0 0 0 -0.02 0.5362 -0.84386 0.022531
-0.022992 0.10942 0.99434 1.3e-38 144 259 0 0 0 0.05104 0.54005 -0.84008 0.023313
-0.021829 0.10942 0.99434 1.2539e-38 145 259 0 0 0 0.070409 0.53634 -0.84106 0.023391
-0.014873 0.10843 0.99594 9.8649e-39 434 258 0 0 0 0.18814 0.51353 -0.83719 0.020578
-0.013115 0.10834 0.99514 1.0049e-38 435.5 258 0 0 0 0.21793 0.51176 -0.83103 0.020241
-0.011377 0.10843 0.99594 1.0326e-38 437 258 0 0 0 0.25458 0.51601 -0.81788 0.019628
-0.032351 0.11076 0.99594 1.3553e-38 364 259 0 0 0 -0.095544 0.57765 -0.81067 0.0086775
-0.030021 0.11076 0.99594 1.5304e-38 366 259 0 0 0 -0.063877 0.57878 -0.81298 0.010009
-0.028855 0.11076 0.99594 1.4936e-38 367 259 0 0 0 -0.050716 0.57909 -0.81368 0.010629
-0.027107 0.11076 0.99594 1.3599e-38 368.5 259 0 0 0 -0.018321 0.57825 -0.81566 0.012257
-0.024758 0.11126 0.99514 1.1801e-38 418 259 0 0 0 0.02313 0.58551 -0.81034 0.01187
-0.023011 0.11067 0.99514 1.3553e-38 372 259 0 0 0 0.053791 0.57867 -0.81379 0.012846
-0.021076 0.11109 0.99541 1.2784e-38 405.33 259 0 0 0 0.08926 0.58581 -0.80552 0.011276
-0.018742 0.11145 0.99514 1.1402e-38 439 259 0 0 0 0.12725 0.5845 -0.80135 0.0098758
-0.016607 0.11067 0.99514 1.2032e-38 377.5 259 0 0 0 0.15386 0.57512 -0.80347 0.0098123
-0.048743 0.085264 0.99755 1.134e-38 178 250 0 0 0 -0.060778 -0.78419 -0.61753 0.030093
-0.046992 0.085264 0.99755 1.217e-38 179.5 250 0 0 0 -0.045923 -0.78868 -0.61309 0.027628
-0.044622 0.085195 0.99675 1.1524e-38 181.5 250 0 0 0 -0.031972 -0.77932 -0.62581 0.029887
-0.042907 0.085264 0.99755 1.217e-38 183 250 0 0 0 -0.019031 -0.79219 -0.60998 0.025111
-0.041706 0.085195 0.99675 1.217e-38 184 250 0 0 0 -0.0052252 -0.78558 -0.61874 0.025318
-0.038791 0.085195 0.99675 1.0372e-38 186.5 250 0 0 0 0.0030151 -0.7886 -0.6149 0.021261
-0.084922 0.087598 0.99755 2.5815e-39 512 250 0 0 0 -0.16904 -0.46107 -0.87111 0.07058
-0.083755 0.087598 0.99755 2.4893e-39 513 250 0 0 0 -0.16228 -0.45971 -0.87312 0.07398
-0.080838 0.087598 0.99755 9.7265e-39 139.5 251 0 0 0 -0.13226 -0.49191 -0.86054 0.077279
-0.079023 0.087527 0.99675 9.1274e-39 141 251 0 0 0 -0.12331 -0.49402 -0.86066 0.077536
-0.077857 0.087527 0.99675 9.3118e-39 142 251 0 0 0 -0.12592 -0.50826 -0.85195 0.077169
-0.074419 0.086431 0.99755 1.0142e-38 403 250 0 0 0 -0.095132 -0.59146 -0.80071 0.075805
-0.072609 0.086361 0.99675 9.404e-39 404.5 250 0 0 0 -0.09254 -0.60756 -0.78886 0.073454
-0.07086 0.086361 0.99675 1.0602e-38 406 250 0 0 0 -0.094429 -0.61096 -0.78601 0.077323
-0.069111 0.086361 0.99675 1.0188e-38 407.5 250 0 0 0 -0.090067 -0.64048 -0.76268 0.075159
-0.067362 0.086361 0.99675 9.6805e-39 409 250 0 0 0 -0.083368 -0.64523 -0.75943 0.076473
-0.065082 0.086431 0.99755 8.7586e-39 411 250 0 0 0 -0.072994 -0.67464 -0.73453 0.070534
-0.063305 0.086396 0.99715 9.0352e-39 412.5 250 0 0 0 -0.081464 -0.68122 -0.72753 0.069643
-0.061581 0.086431 0.99755 9.404e-39 414 250 0 0 0 -0.092731 -0.68885 -0.71895 0.067078
-0.059246 0.086431 0.99755 1.0787e-38 416 250 0 0 0 -0.092624 -0.69715 -0.71092 0.06553
-0.056912 0.086431 0.99755 8.8508e-39 418 250 0 0 0 -0.095503 -0.70462 -0.70313 0.064216
-0.055161 0.086431 0.99755 8.6664e-39 419.5 250 0 0 0 -0.098121 -0.71009 -0.69724 0.059849
-0.052807 0.086396 0.99715 1.0464e-38 421.5 250 0 0 0 -0.08917 -0.7188 -0.68947 0.053991
-0.034709 0.086361 0.99675 9.3118e-39 437 250 0 0 0 0.0094776 -0.76257 -0.64683 0.028848
-0.032986 0.086431 0.99755 1.0188e-38 438.5 250 0 0 0 0.011219 -0.77227 -0.6352 0.026008
-0.031236 0.087598 0.99755 1.1432e-38 182 251 0 0 0 0.010607 -0.75608 -0.6544 0.030805
-0.018974 0.087563 0.99715 9.8649e-39 192.5 251 0 0 0 0.076287 -0.72942 -0.6798 0.02974
-0.016064 0.086431 0.99755 9.4961e-39 453 250 0 0 0 0.10329 -0.74602 -0.65787 0.025075
-0.013147 0.086431 0.99755 9.2196e-39 455.5 250 0 0 0 0.13967 -0.73243 -0.66636 0.029296
-0.010813 0.086431 0.99755 1.0372e-38 457.5 250 0 0 0 0.17615 -0.72674 -0.66395 0.029933
-0.0078943 0.086431 0.99755 9.3118e-39 460 250 0 0 0 0.22663 -0.70289 -0.67423 0.033632
-0.0049766 0.087598 0.99755 9.5423e-39 204.5 251 0 0 0 0.2775 -0.66136 -0.69685 0.040557
-0.093092 0.089932 0.99755 1.0326e-38 487 251 0 0 0 -0.23976 -0.25009 -0.93807 0.072625
-0.091342 0.089932 0.99755 1.0879e-38 488.5 251 0 0 0 -0.24229 -0.2483 -0.93789 0.074663
-0.088789 0.089519 0.99728 1.1586e-38 452 251 0 0 0 -0.21929 -0.29025 -0.93149 0.076203
-0.086821 0.089494 0.99702 1.0971e-38 453.67 251 0 0 0 -0.20773 -0.29473 -0.93273 0.076487
-0.084854 0.088693 0.99675 1.4475e-38 378 251 0 0 0 -0.18372 -0.37846 -0.9072 0.073614
-0.082522 0.088693 0.99675 1.3922e-38 380 251 0 0 0 -0.16612 -0.40561 -0.89882 0.07702
-0.030045 0.088693 0.99675 8.2976e-39 425 251 0 0 0 0.008165 -0.69858 -0.71548 0.049749
-0.028902 0.088765 0.99755 9.3118e-39 426 251 0 0 0 0.010883 -0.71098 -0.70312 0.046701
-0.027129 0.088693 0.99675 1.0464e-38 427.5 251 0 0 0 0.018581 -0.70259 -0.71135 0.045071
-0.024807 0.088729 0.99715 1.0003e-38 429.5 251 0 0 0 0.033758 -0.70723 -0.70618 0.042628
-0.023048 0.088693 0.99675 1.0142e-38 431 251 0 0 0 0.047464 -0.70169 -0.7109 0.041829
-0.021299 0.088693 0.99675 1.1063e-38 432.5 251 0 0 0 0.061014 -0.69709 -0.71438 0.041614
-0.0026424 0.089349 0.99755 1.028e-38 318 251.5 0 0 0 0.32888 -0.60176 -0.72782 0.050615
-0.094259 0.091099 0.99755 1.0418e-38 350 252 0 0 0 -0.25745 -0.16016 -0.95293 0.072267
-0.093017 0.091026 0.99675 1.0142e-38 351 252 0 0 0 -0.24558 -0.16093 -0.95592 0.068449
-0.091268 0.091026 0.99675 1.0741e-38 352.5 252 0 0 0 -0.24265 -0.16277 -0.95636 0.070644
-0.089518 0.091026 0.99675 1.1432e-38 354 252 0 0 0 -0.23948 -0.18882 -0.95236 0.074536
-0.0020572 0.091026 0.99675 1.0326e-38 431 252 0 0 0 0.36399 -0.52106 -0.77202 0.064299
-0.00089177 0.091099 0.99755 1.1156e-38 432 252 0 0 0 0.37637 -0.53727 -0.75478 0.057432
-0.094183 0.092775 0.99675 9.5884e-39 336.5 252.5 0 0 0 -0.26666 -0.061625 -0.96182 0.068656
-0.093017 0.092775 0.99675 9.5423e-39 337.5 252.5 0 0 0 -0.24867 -0.077972 -0.96544 0.069792
-0.091268 0.092192 0.99675 9.7266e-39 470.5 252 0 0 0 -0.24436 -0.11892 -0.96236 0.068364
-0.089518 0.092192 0.99675 1.0602e-38 472 252 0 0 0 -0.24636 -0.11803 -0.96197 0.071825
-0.00089105 0.092192 0.99675 1.0234e-38 170 253 0 0 0 0.39978 -0.46131 -0.79207 0.073287
0.00027521 0.092812 0.99715 9.8188e-39 291.5 253 0 0 0 0.42426 -0.43235 -0.79566 0.071841
-0.094221 0.095146 0.99715 1.028e-38 310 253.5 0 0 0 -0.27354 0.083017 -0.95827 0.065721
-0.093055 0.095146 0.99715 1.0095e-38 311 253.5 0 0 0 -0.25975 0.079269 -0.96242 0.065916
-0.091268 0.095107 0.99675 1.0303e-38 312.5 253.5 0 0 0 -0.25526 0.051098 -0.96552 0.067601
-0.089518 0.09569 0.99675 1.134e-38 181 254 0 0 0 -0.25438 0.10026 -0.96189 0.06976
0.0014418 0.095145 0.99715 1.24e-38 265 254 0 0 0 0.4793 -0.31456 -0.81934 0.082994
0.003193 0.0946 0.99755 1.2999e-38 149.5 254 0 0 0 0.49264 -0.36836 -0.78843 0.071977
0.0049397 0.09569 0.99675 1.4936e-38 385 254 0 0 0 0.53635 -0.28233 -0.79537 0.07694
0.0061058 0.09569 0.99675 1.4014e-38 386 254 0 0 0 0.55017 -0.2804 -0.78657 0.073754
-0.093092 0.096934 0.99755 9.7727e-39 408 254 0 0 0 -0.27025 0.17461 -0.94683 0.065556
-0.091342 0.096934 0.99755 1.0141e-38 409.5 254 0 0 0 -0.25614 0.16306 -0.95279 0.069334
-0.088971 0.096895 0.99715 1.0096e-38 411.5 254 0 0 0 -0.25614 0.15843 -0.95357 0.071094
-0.087186 0.096856 0.99675 1.0049e-38 413 254 0 0 0 -0.24327 0.15388 -0.95767 0.071916
0.0072779 0.096934 0.99755 1.0787e-38 494 254 0 0 0 0.59238 -0.20534 -0.77905 0.079082
0.008445 0.096934 0.99755 1.0418e-38 495 254 0 0 0 0.58868 -0.22901 -0.77525 0.073408
