# .PCD v.7 - Point Cloud Data file format
VERSION .7
FIELDS x y z rgb u v vx vy vz normal_x normal_y normal_z curvature
SIZE 4 4 4 4 4 4 4 4 4 4 4 4 4
TYPE F F F F F F F F F F F F F
COUNT 1 1 1 1 1 1 1 1 1 1 1 1 1
WIDTH 559
HEIGHT 1
VIEWPOINT 0 0 0 1 0 0 0
POINTS 559
DATA ascii
-0.041134 0.18037 1.0413 5.6239e-39 209 368 0 0 0 -0.69995 0.54953 -0.45617 0.0148
-0.042352 0.18403 1.0413 5.9005e-39 234 369 0 0 0 -0.68487 0.55745 -0.46926 0.017621
-0.041134 0.18463 1.0413 6.4998e-39 322 369 0 0 0 -0.67034 0.58593 -0.45534 0.022127
-0.039882 0.18752 1.0404 5.4395e-39 254 370 0 0 0 -0.63921 0.61589 -0.46053 0.024956
-0.037447 0.18752 1.0404 5.5317e-39 256 370 0 0 0 -0.62625 0.62487 -0.46621 0.023458
-0.038697 0.1889 1.0413 9.1274e-39 409 370 0 0 0 -0.61624 0.63107 -0.47117 0.026093
-0.03623 0.18874 1.0404 1.0049e-38 411 370 0 0 0 -0.60992 0.63818 -0.46981 0.024628
-0.035013 0.18996 1.0404 5.7161e-39 155 371 0 0 0 -0.59933 0.65181 -0.4647 0.026669
-0.03626 0.19012 1.0413 6.1771e-39 153 371 0 0 0 -0.59492 0.65081 -0.47172 0.02772
-0.035042 0.19134 1.0413 6.0849e-39 234 371 0 0 0 -0.58728 0.65927 -0.46954 0.030248
-0.033215 0.19134 1.0413 5.8544e-39 235.5 371 0 0 0 -0.58539 0.66408 -0.46511 0.031177
-0.030765 0.19126 1.0409 6.0388e-39 237.5 371 0 0 0 -0.5778 0.67654 -0.45654 0.032221
-0.028927 0.19117 1.0404 5.3473e-39 246 371 0 0 0 -0.57547 0.68173 -0.45174 0.03228
-0.027709 0.19117 1.0404 5.6239e-39 247 371 0 0 0 -0.5628 0.69104 -0.45357 0.033981
0.041708 0.19012 1.0413 5.8083e-39 230 371 0 0 0 0.52494 0.74749 -0.40705 0.018488
-0.026514 0.19255 1.0413 1.1063e-38 391 371 0 0 0 -0.51107 0.71897 -0.47106 0.039006
-0.025296 0.19255 1.0413 9.9571e-39 392 371 0 0 0 -0.50906 0.7196 -0.47226 0.039836
-0.0045818 0.19604 1.0404 9.404e-39 450 371 0 0 0 -0.14424 0.91021 -0.38823 0.015238
0.044219 0.07939 1.043 7.1913e-39 229 324 0 0 0 0.73751 -0.6735 -0.049822 0.066983
0.043035 0.080678 1.0439 5.9927e-39 432 324 0 0 0 0.73851 -0.67307 -0.039784 0.061713
0.044849 0.081254 1.0434 6.2002e-39 340.5 324.5 0 0 0 0.74627 -0.66142 -0.074916 0.061291
0.046699 0.0819 1.0439 5.9927e-39 249 325 0 0 0 0.76227 -0.64451 -0.059693 0.05882
0.042999 0.083051 1.043 4.702e-39 149 326 0 0 0 0.75648 -0.6478 -0.089957 0.055826
0.044829 0.083051 1.0431 4.6559e-39 150.5 326 0 0 0 0.76592 -0.63698 -0.087287 0.055004
0.041814 0.085564 1.0439 3.4112e-39 162 327 0 0 0 0.78392 -0.61294 -0.098911 0.051725
0.042963 0.0842 1.0422 6.3615e-39 399 326 0 0 0 0.76154 -0.63682 -0.12052 0.050817
0.044182 0.0842 1.0422 5.9927e-39 400 326 0 0 0 0.77335 -0.62273 -0.11895 0.051403
0.046699 0.085564 1.0439 2.8581e-39 166 327 0 0 0 0.80556 -0.58678 -0.082226 0.050677
0.049142 0.085564 1.0439 3.1347e-39 168 327 0 0 0 0.81382 -0.57331 -0.094896 0.053428
0.041372 0.087525 1.043 4.2717e-39 242 327.67 0 0 0 0.78936 -0.60238 -0.11849 0.047081
0.046699 0.086785 1.0439 6.3615e-39 405 327 0 0 0 0.80971 -0.57777 -0.10269 0.048145
0.04666 0.089152 1.043 5.9005e-39 389 328 0 0 0 0.83636 -0.53323 -0.12712 0.044383
-0.036739 0.091212 1.0433 5.9005e-39 230.33 328.67 0 0 0 -0.54535 -0.7665 -0.33922 0.025239
-0.035072 0.090296 1.0422 5.9927e-39 399 328 0 0 0 -0.48609 -0.79635 -0.35992 0.023165
-0.03327 0.090982 1.0431 5.6701e-39 276.5 328.5 0 0 0 -0.48485 -0.79891 -0.35589 0.022962
-0.030843 0.090411 1.0434 6.3154e-39 403.5 328 0 0 0 -0.46103 -0.81152 -0.35901 0.019802
-0.029024 0.090449 1.0439 6.4537e-39 405 328 0 0 0 -0.44578 -0.82425 -0.34912 0.019484
-0.027756 0.090296 1.0422 6.9147e-39 406 328 0 0 0 -0.45766 -0.81628 -0.35247 0.021171
-0.039339 0.092735 1.0422 7.1913e-39 233.5 329 0 0 0 -0.60492 -0.72429 -0.33088 0.032004
-0.03751 0.092735 1.0422 7.0069e-39 235 329 0 0 0 -0.59021 -0.7366 -0.33027 0.029688
-0.047305 0.1038 1.043 5.9005e-39 544 332 0 0 0 -0.86982 -0.42245 -0.25486 0.043178
-0.048566 0.10511 1.0439 6.8225e-39 223 333 0 0 0 -0.89595 -0.37559 -0.23708 0.042079
0.051498 0.10615 1.0422 8.2976e-39 211 334 0 0 0 0.89735 -0.30953 -0.31456 0.0081326
0.053168 0.10949 1.043 6.2693e-39 399.67 335 0 0 0 0.89153 -0.31803 -0.32254 0.0095326
0.055249 0.10999 1.0439 5.5317e-39 493 335 0 0 0 0.88989 -0.32812 -0.3169 0.009395
0.053936 0.11102 1.0422 5.6239e-39 254 336 0 0 0 0.88945 -0.32021 -0.32611 0.0096843
0.055202 0.11112 1.043 5.9927e-39 255 336 0 0 0 0.88992 -0.32241 -0.32263 0.0098775
0.05647 0.11121 1.0439 5.3473e-39 378 336 0 0 0 0.8953 -0.31782 -0.31213 0.010316
0.056423 0.11234 1.043 5.2552e-39 162 337 0 0 0 0.89555 -0.3071 -0.322 0.010379
-0.047265 0.1159 1.0422 7.7444e-39 205 338 0 0 0 -0.93045 -0.22143 -0.29195 0.0091904
-0.051009 0.12587 1.0439 6.1771e-39 392 343 0 0 0 -0.90737 -0.29988 -0.29455 0.0051476
-0.049787 0.12587 1.0439 6.5459e-39 393 343 0 0 0 -0.90868 -0.28974 -0.30059 0.0057736
-0.050966 0.12698 1.043 5.9005e-39 180 344 0 0 0 -0.89973 -0.29149 -0.32486 0.0091053
-0.050923 0.1287 1.0422 7.2835e-39 302 344.5 0 0 0 -0.89445 -0.29291 -0.33788 0.010809
-0.052797 0.13186 1.0431 5.8083e-39 242.5 346 0 0 0 -0.8945 -0.29559 -0.33541 0.010876
-0.05465 0.13497 1.0434 6.8224e-39 297.5 347.5 0 0 0 -0.89902 -0.29311 -0.32534 0.011524
-0.05458 0.13663 1.0422 7.8366e-39 429 348 0 0 0 -0.92125 -0.21858 -0.32175 0.013698
-0.055847 0.13919 1.043 6.2693e-39 460 349 0 0 0 -0.94785 -0.1502 -0.28109 0.015202
-0.0558 0.14029 1.0422 5.8083e-39 389 350 0 0 0 -0.94872 -0.11516 -0.29439 0.015491
-0.053361 0.15736 1.0422 6.7303e-39 477 358 0 0 0 -0.89739 0.22147 -0.38163 0.010785
-0.054673 0.15884 1.0439 5.9927e-39 395 359 0 0 0 -0.89895 0.25312 -0.35752 0.010927
-0.053361 0.1598 1.0422 5.9005e-39 189 360 0 0 0 -0.8717 0.28215 -0.40065 0.0097788
-0.053406 0.16115 1.043 5.8083e-39 420 360 0 0 0 -0.84609 0.33746 -0.41262 0.0083483
-0.053451 0.16251 1.0439 6.4537e-39 198 361 0 0 0 -0.83485 0.36966 -0.40789 0.0067685
-0.053451 0.16495 1.0439 5.7161e-39 194 362 0 0 0 -0.82288 0.39907 -0.40449 0.0073055
0.061252 0.16467 1.0422 6.7303e-39 424 362 0 0 0 0.90962 0.23528 -0.34239 0.0095789
-0.052774 0.16657 1.0426 6.3154e-39 312 362.5 0 0 0 -0.80953 0.41651 -0.41375 0.0072518
0.06133 0.16671 1.0434 6.6381e-39 310.5 363 0 0 0 0.90756 0.25818 -0.33117 0.0089494
-0.052186 0.16847 1.043 6.6381e-39 425 363 0 0 0 -0.7985 0.43419 -0.41697 0.0085459
-0.050944 0.16901 1.0426 6.2232e-39 314 363.5 0 0 0 -0.7933 0.43998 -0.42081 0.0082982
-0.048566 0.16862 1.0439 6.5459e-39 427 363 0 0 0 -0.79047 0.44301 -0.42297 0.0086418
0.057594 0.17199 1.0422 6.2693e-39 410 365 0 0 0 0.84871 0.38469 -0.36292 0.014331
0.058814 0.17077 1.0422 5.8083e-39 202 365 0 0 0 0.88243 0.29974 -0.36259 0.0082882
0.057594 0.17321 1.0422 6.1771e-39 187 366 0 0 0 0.83833 0.41149 -0.3576 0.015329
0.058863 0.17274 1.043 6.131e-39 300 365.5 0 0 0 0.85916 0.37323 -0.35007 0.011848
-0.047305 0.17702 1.043 2.6737e-39 558 366 0 0 0 -0.76886 0.46631 -0.43751 0.0074145
-0.047345 0.17839 1.0439 5.2552e-39 262 367 0 0 0 -0.76131 0.46836 -0.44839 0.0080817
-0.044826 0.1793 1.0422 9.2196e-39 441 367 0 0 0 -0.73116 0.5038 -0.45998 0.010184
-0.043607 0.1793 1.0422 9.5883e-39 446 367 0 0 0 -0.72382 0.51291 -0.46152 0.01194
-0.044902 0.18083 1.0439 5.8083e-39 206 368 0 0 0 -0.72436 0.50427 -0.47013 0.011653
-0.043016 0.18121 1.0426 8.3898e-39 297.5 368 0 0 0 -0.70289 0.53288 -0.47115 0.014971
-0.041168 0.18174 1.0422 1.2354e-38 389 368 0 0 0 -0.69072 0.55225 -0.46682 0.016885
-0.043016 0.18304 1.0426 2.9964e-39 558.5 368 0 0 0 -0.69304 0.54583 -0.47092 0.016678
-0.041168 0.18296 1.0422 2.0283e-39 560 368 0 0 0 -0.68334 0.56254 -0.4654 0.018848
-0.039949 0.18906 1.0422 8.8508e-39 408 370 0 0 0 -0.61258 0.62941 -0.47811 0.026787
-0.03751 0.18906 1.0422 9.404e-39 410 370 0 0 0 -0.60588 0.63464 -0.47973 0.027092
-0.039356 0.19036 1.0426 3.6878e-39 357.5 370.5 0 0 0 -0.60278 0.641 -0.47516 0.030221
-0.037125 0.1912 1.0427 5.962e-39 205.67 371 0 0 0 -0.58455 0.653 -0.48155 0.031322
0.040524 0.19028 1.0422 5.7161e-39 229 371 0 0 0 0.52137 0.75142 -0.4044 0.020628
-0.036322 0.19288 1.043 8.2054e-39 383 371 0 0 0 -0.57567 0.66857 -0.47077 0.035212
-0.035072 0.19272 1.0422 8.6664e-39 384 371 0 0 0 -0.57567 0.66857 -0.47077 0.035212
-0.033446 0.19313 1.0422 1.0172e-38 397.33 371 0 0 0 -0.56586 0.67337 -0.47579 0.038007
-0.030804 0.19272 1.0422 1.2815e-38 387.5 371 0 0 0 -0.56404 0.68517 -0.46087 0.037314
-0.028975 0.19333 1.0422 1.0787e-38 405.5 371 0 0 0 -0.53898 0.70062 -0.46758 0.039538
-0.027146 0.19333 1.0422 1.0326e-38 406.5 371 0 0 0 -0.51526 0.71461 -0.47311 0.039686
-0.024728 0.19349 1.0431 8.6203e-39 408.5 371 0 0 0 -0.4405 0.757 -0.4826 0.039405
-0.022879 0.19272 1.0422 7.0991e-39 394 371 0 0 0 -0.28028 0.84021 -0.46421 0.028335
-0.022898 0.1941 1.043 1.0049e-38 426 371 0 0 0 -0.22833 0.86518 -0.44647 0.013249
-0.0033731 0.19776 1.043 7.8366e-39 466 371 0 0 0 -0.068305 0.9129 -0.40244 0.019172
0.041849 0.079524 1.0448 5.9005e-39 227 324 0 0 0 0.74552 -0.66644 -0.0073975 0.066198
0.041885 0.080815 1.0457 5.9927e-39 431 324 0 0 0 -0.74728 0.6638 -0.030696 0.059084
0.043072 0.081969 1.0448 5.9005e-39 246 325 0 0 0 0.74881 -0.66158 -0.039795 0.057878
0.041885 0.083262 1.0457 4.8864e-39 148 326 0 0 0 0.74701 -0.66481 0.00072539 0.056947
0.04735 0.083191 1.0448 4.8403e-39 152.5 326 0 0 0 0.77798 -0.62684 -0.042595 0.05633
0.041849 0.084414 1.0448 6.6381e-39 398 326 0 0 0 0.75138 -0.65829 -0.045586 0.056108
0.047554 0.084821 1.0448 5.0093e-39 324 326.33 0 0 0 0.79853 -0.59917 -0.057757 0.052638
0.040661 0.086932 1.0457 5.7161e-39 400 327 0 0 0 0.77598 -0.63076 -0.0016655 0.053527
0.047961 0.086858 1.0448 6.6381e-39 406 327 0 0 0 0.82424 -0.56023 -0.08231 0.048419
0.049184 0.086858 1.0448 6.6381e-39 407 327 0 0 0 0.83168 -0.54952 -0.079563 0.050552
-0.036414 0.089379 1.0457 1.3645e-38 206 328 0 0 0 -0.4751 -0.8007 -0.36491 0.021196
-0.035191 0.089379 1.0457 1.2262e-38 207 328 0 0 0 -0.42486 -0.82062 -0.38219 0.018632
-0.032744 0.089379 1.0457 7.4678e-39 209 328 0 0 0 -0.35948 -0.84948 -0.3862 0.017171
-0.03152 0.089379 1.0457 5.8083e-39 210 328 0 0 0 -0.34628 -0.85837 -0.37854 0.016788
0.046739 0.088081 1.0448 2.8581e-39 167 328 0 0 0 0.82014 -0.56546 -0.087374 0.045497
0.048593 0.08873 1.0452 4.4945e-39 280.25 328 0 0 0 0.84836 -0.52376 -0.077198 0.046148
0.050406 0.088081 1.0448 3.319e-39 170 328 0 0 0 0.84544 -0.52573 -0.093983 0.047256
-0.038828 0.091748 1.0448 5.5317e-39 145 329 0 0 0 -0.56967 -0.7527 -0.33002 0.026932
-0.033938 0.090526 1.0448 5.7161e-39 400 328 0 0 0 -0.44615 -0.81348 -0.37309 0.020521
0.04879 0.090959 1.0451 5.7469e-39 172 329 0 0 0 0.86116 -0.49885 -0.097787 0.039197
0.049225 0.093049 1.0457 5.8083e-39 419 329 0 0 0 0.867 -0.4843 -0.11729 0.033743
0.049225 0.095496 1.0457 6.5459e-39 237 330 0 0 0 0.87664 -0.45637 -0.15244 0.029127
0.051672 0.10284 1.0457 6.0849e-39 490 332 0 0 0 0.89137 -0.35269 -0.28473 0.012834
0.051651 0.10463 1.0452 7.4679e-39 333.5 333 0 0 0 0.90019 -0.31567 -0.30001 0.0085117
0.054731 0.10895 1.0457 6.8225e-39 217.5 335 0 0 0 0.89477 -0.32022 -0.31119 0.0097238
0.056566 0.11018 1.0457 5.9005e-39 545 335 0 0 0 0.89349 -0.32446 -0.3105 0.011196
0.057789 0.11385 1.0457 6.2693e-39 408 337 0 0 0 0.90767 -0.28955 -0.30379 0.013135
0.059013 0.11385 1.0457 6.3615e-39 409 337 0 0 0 0.90903 -0.28347 -0.30546 0.012815
-0.047385 0.11497 1.0448 6.9147e-39 412 337 0 0 0 -0.93794 -0.22904 -0.2604 0.0086639
0.05774 0.11497 1.0448 8.2054e-39 201 338 0 0 0 0.9076 -0.28251 -0.31057 0.012547
0.059013 0.11507 1.0457 8.2054e-39 202 338 0 0 0 0.90985 -0.28269 -0.30375 0.012515
0.057765 0.11686 1.0452 6.2232e-39 470 338.5 0 0 0 0.9084 -0.28529 -0.30565 0.011481
0.059013 0.11629 1.0457 5.7161e-39 547 338 0 0 0 0.90672 -0.28927 -0.30688 0.011926
-0.049872 0.11874 1.0457 6.4537e-39 401 339 0 0 0 -0.93692 -0.24647 -0.24785 0.0060133
0.057789 0.11874 1.0457 7.7444e-39 205 340 0 0 0 0.9196 -0.26112 -0.29352 0.012121
-0.051095 0.12486 1.0457 3.8722e-39 550 342 0 0 0 -0.91991 -0.28167 -0.27281 0.0044064
-0.052908 0.13092 1.0452 8.2515e-39 425.5 345 0 0 0 -0.90538 -0.30043 -0.30003 0.0069027
-0.054742 0.13276 1.0452 5.4856e-39 352 346 0 0 0 -0.90945 -0.3041 -0.28361 0.004805
-0.053497 0.16387 1.0448 6.6381e-39 427 361 0 0 0 -0.83172 0.38567 -0.39939 0.007059
-0.052274 0.16998 1.0448 5.5317e-39 201 364 0 0 0 -0.79726 0.44718 -0.40548 0.010197
-0.049829 0.16998 1.0448 6.3615e-39 203 364 0 0 0 -0.79397 0.44872 -0.41019 0.0090581
-0.048607 0.17304 1.0448 6.2693e-39 307.5 365 0 0 0 -0.7872 0.44944 -0.42227 0.0086558
-0.024159 0.19443 1.0448 1.0049e-38 425 371 0 0 0 -0.24261 0.84485 -0.47684 0.018086
-0.0046012 0.1981 1.0448 8.6664e-39 465 371 0 0 0 -0.13929 0.90762 -0.39601 0.012854
0.04192 0.082108 1.0466 6.6381e-39 245 325 0 0 0 -0.75152 0.65472 -0.080936 0.049407
0.040696 0.085781 1.0466 3.8722e-39 161 327 0 0 0 -0.76237 0.64593 -0.03965 0.050871
-0.034025 0.08953 1.0475 9.7727e-39 208 328 0 0 0 -0.37337 -0.84683 -0.37878 0.016607
-0.030348 0.08953 1.0475 4.9786e-39 211 328 0 0 0 -0.27841 -0.88295 -0.378 0.016748
-0.029123 0.08953 1.0475 4.9786e-39 212 328 0 0 0 -0.27413 -0.8844 -0.37775 0.016934
0.050492 0.089454 1.0466 6.0849e-39 395 328 0 0 0 0.85668 -0.51331 -0.05114 0.0443
-0.037669 0.090679 1.0466 6.5459e-39 397 328 0 0 0 -0.50894 -0.78498 -0.35325 0.024606
0.048043 0.091903 1.0466 6.8225e-39 230 329 0 0 0 0.85984 -0.5046 -0.077814 0.039171
0.050534 0.090756 1.0475 5.2552e-39 144 329 0 0 0 0.85782 -0.51163 -0.048659 0.040795
0.048083 0.093207 1.0475 6.1771e-39 418 329 0 0 0 0.86298 -0.50086 -0.06642 0.036544
0.049309 0.094432 1.0475 5.0708e-39 152 330 0 0 0 0.86954 -0.48567 -0.089607 0.033818
0.05176 0.10179 1.0475 7.0991e-39 230 332 0 0 0 0.88628 -0.37041 -0.27804 0.016033
-0.047465 0.10537 1.0466 6.9147e-39 224 333 0 0 0 -0.90668 -0.37683 -0.18952 0.036897
0.052985 0.10791 1.0475 6.1771e-39 482 334 0 0 0 0.89116 -0.32609 -0.31543 0.010487
0.056662 0.10914 1.0475 6.9147e-39 219 335 0 0 0 0.89556 -0.3247 -0.30421 0.010926
0.057887 0.11159 1.0475 5.4395e-39 379 336 0 0 0 0.90388 -0.31333 -0.29125 0.013275
0.059088 0.11092 1.047 5.3934e-39 463.5 335.5 0 0 0 0.90055 -0.31806 -0.2964 0.012965
0.057838 0.11272 1.0466 5.0708e-39 163 337 0 0 0 0.90524 -0.30155 -0.29933 0.012785
0.059063 0.11272 1.0466 5.0708e-39 164 337 0 0 0 0.90781 -0.29408 -0.299 0.013007
0.059063 0.11762 1.0466 6.3615e-39 395 339 0 0 0 0.92148 -0.25163 -0.29591 0.013023
0.059063 0.11884 1.0466 7.9288e-39 206 340 0 0 0 0.92386 -0.25495 -0.28544 0.013651
-0.049935 0.12073 1.047 6.0389e-39 191.5 340.5 0 0 0 -0.93449 -0.26296 -0.23996 0.0052786
0.057838 0.12068 1.0466 4.9325e-39 475 340.5 0 0 0 0.92689 -0.25139 -0.2787 0.012943
0.059088 0.12073 1.047 4.8403e-39 476 340.5 0 0 0 0.9259 -0.25303 -0.28051 0.013135
-0.05116 0.12318 1.047 6.4537e-39 317.5 341.5 0 0 0 -0.92885 -0.27818 -0.24466 0.0045029
-0.049935 0.12317 1.047 6.5459e-39 318.5 341.5 0 0 0 -0.92998 -0.27272 -0.24651 0.005022
0.057838 0.12251 1.0466 7.0069e-39 212 342 0 0 0 0.92683 -0.24847 -0.28149 0.01257
-0.049914 0.12496 1.0466 2.5815e-39 551 342 0 0 0 -0.91956 -0.28732 -0.26807 0.0036687
-0.052363 0.12986 1.0466 6.9147e-39 193 345 0 0 0 -0.91203 -0.31433 -0.26342 0.0034119
-0.054858 0.16183 1.0475 6.3615e-39 419 360 0 0 0 -0.85863 0.35697 -0.36787 0.0082383
-0.048689 0.17088 1.0466 6.4998e-39 315 364 0 0 0 -0.79693 0.44363 -0.40999 0.0098134
-0.0052257 0.19921 1.0475 7.8366e-39 471.5 371 0 0 0 -0.14359 0.92698 -0.34654 0.015118
-0.0033874 0.19982 1.0475 6.8225e-39 480 371 0 0 0 0.506 0.78046 -0.3672 0.0052038
0.040765 0.0847 1.0484 6.3615e-39 397 326 0 0 0 -0.75797 0.64175 -0.11676 0.047568
0.039538 0.087153 1.0484 6.1771e-39 399 327 0 0 0 -0.76298 0.63413 -0.12545 0.045858
-0.032827 0.08838 1.0484 7.0069e-39 413 327 0 0 0 -0.25263 -0.88775 -0.38481 0.015299
-0.031001 0.088418 1.0489 6.5459e-39 414.5 327 0 0 0 -0.14626 -0.92012 -0.36331 0.025511
0.038344 0.088455 1.0493 4.702e-39 161 328 0 0 0 -0.77002 0.62021 -0.14968 0.043867
-0.03896 0.090833 1.0484 6.4537e-39 396 328 0 0 0 -0.54234 -0.77069 -0.33453 0.026008
0.05062 0.092138 1.0493 7.2835e-39 232 329 0 0 0 -0.85711 0.51505 -0.0087913 0.039011
0.048165 0.09582 1.0493 6.6381e-39 236 330 0 0 0 0.87185 -0.48708 -0.051343 0.035081
-0.047586 0.10687 1.0493 5.6239e-39 484 333 0 0 0 -0.92949 -0.32461 -0.17517 0.021992
0.05487 0.108 1.0484 5.8544e-39 483.5 334 0 0 0 0.89335 -0.32805 -0.30711 0.011035
0.059213 0.10932 1.0493 6.6381e-39 221 335 0 0 0 0.90213 -0.32012 -0.28929 0.013798
0.057937 0.11046 1.0484 5.6239e-39 546 335 0 0 0 0.90088 -0.31873 -0.29466 0.012814
-0.047586 0.11423 1.0493 5.2552e-39 169 337 0 0 0 -0.94834 -0.20785 -0.2397 0.007014
0.059163 0.12272 1.0484 6.7303e-39 213 342 0 0 0 0.92797 -0.2452 -0.28062 0.013554
0.059213 0.12405 1.0493 6.3615e-39 459 342 0 0 0 0.93183 -0.23584 -0.2758 0.013646
-0.052496 0.12774 1.0493 5.7161e-39 179 344 0 0 0 -0.92244 -0.30628 -0.23513 0.0019222
-0.052452 0.12886 1.0484 6.7303e-39 409 344 0 0 0 -0.91904 -0.31571 -0.23599 0.0019004
-0.054951 0.16334 1.0493 6.7303e-39 197 361 0 0 0 -0.8589 0.35748 -0.36675 0.010794
0.03475 0.076374 1.0519 6.0849e-39 400 322 0 0 0 -0.69649 0.64727 -0.30974 0.022367
0.040869 0.081227 1.051 5.9927e-39 430 324 0 0 0 -0.76004 0.60546 -0.23612 0.03137
0.040869 0.083072 1.051 6.3615e-39 195.5 325.5 0 0 0 -0.75553 0.61486 -0.22608 0.030536
0.039639 0.084916 1.051 6.1771e-39 396 326 0 0 0 -0.75724 0.60996 -0.23354 0.032281
-0.032911 0.087376 1.051 8.3898e-39 211 327 0 0 0 -0.0034004 -0.94002 -0.34111 0.027726
-0.03108 0.087413 1.0515 6.7764e-39 212.5 327 0 0 0 0.095436 -0.93892 -0.33062 0.030648
0.039606 0.086073 1.0501 4.241e-39 160 327 0 0 0 -0.7561 0.63233 -0.16873 0.038032
-0.037215 0.08922 1.051 9.865e-39 307.5 327.5 0 0 0 -0.35901 -0.86573 -0.34875 0.024241
-0.034741 0.088567 1.0505 7.0991e-39 411.5 327 0 0 0 -0.054596 -0.9355 -0.34909 0.030111
-0.029222 0.088605 1.051 6.5459e-39 416 327 0 0 0 0.090744 -0.93717 -0.33687 0.031576
0.051343 0.093564 1.0515 5.9466e-39 420.5 329 0 0 0 -0.86109 0.50652 -0.044361 0.036777
0.048247 0.094754 1.051 5.6239e-39 147 330 0 0 0 -0.85652 0.51123 -0.070848 0.038469
0.05198 0.09668 1.0519 6.4076e-39 337 330 0 0 0 0.87235 -0.48799 -0.029468 0.035284
0.051936 0.098443 1.051 4.5176e-39 160 331 0 0 0 0.87661 -0.45833 -0.14658 0.029783
0.054442 0.10345 1.0519 5.4395e-39 492 332 0 0 0 0.8878 -0.34283 -0.30706 0.011423
0.055057 0.1053 1.0519 6.9838e-39 343.25 333 0 0 0 0.89096 -0.33568 -0.30581 0.012105
-0.048855 0.10696 1.0501 6.0849e-39 483 333 0 0 0 -0.93686 -0.30573 -0.16979 0.017069
0.053166 0.10705 1.051 8.021e-39 212 334 0 0 0 0.89556 -0.32998 -0.29847 0.012242
0.05501 0.10705 1.051 8.0671e-39 213.5 334 0 0 0 0.89434 -0.33256 -0.29925 0.012212
-0.047667 0.1089 1.051 6.3615e-39 353 334 0 0 0 -0.94606 -0.23647 -0.22146 0.011236
0.056855 0.10828 1.051 5.4395e-39 485 334 0 0 0 0.89884 -0.3269 -0.29192 0.012842
0.058085 0.1089 1.051 6.0849e-39 353 334.5 0 0 0 0.90152 -0.31934 -0.29205 0.014643
-0.047708 0.11083 1.0519 6.7303e-39 223 335 0 0 0 -0.95379 -0.19017 -0.23263 0.0081392
0.060544 0.11197 1.051 5.9005e-39 381 336 0 0 0 0.91248 -0.29606 -0.28237 0.016401
-0.047688 0.11263 1.0515 5.1168e-39 465.5 335.5 0 0 0 -0.95431 -0.19261 -0.22845 0.0079423
0.061185 0.11325 1.0515 4.8403e-39 165.5 337 0 0 0 0.92143 -0.27606 -0.27343 0.017205
0.060518 0.115 1.0505 7.1452e-39 306.5 337.5 0 0 0 0.92342 -0.26332 -0.2792 0.016325
0.060492 0.11679 1.0501 5.163e-39 548 338 0 0 0 0.92575 -0.24765 -0.28575 0.016321
0.060595 0.11822 1.0519 6.1771e-39 396 339 0 0 0 0.92745 -0.24986 -0.27821 0.016901
-0.05263 0.12498 1.0519 5.9005e-39 390 342 0 0 0 -0.92608 -0.30094 -0.22762 0.0032884
0.059365 0.1256 1.0519 6.4537e-39 384 343 0 0 0 0.9361 -0.2138 -0.27929 0.015653
-0.052541 0.12662 1.0501 5.8083e-39 391 343 0 0 0 -0.92498 -0.30733 -0.22352 0.0022468
-0.0052415 0.20103 1.0505 6.1771e-39 315.5 371.5 0 0 0 0.5376 0.76101 -0.36311 0.0048156
-0.0027817 0.20095 1.0501 6.4076e-39 318.5 371.5 0 0 0 0.53144 0.76201 -0.37 0.0054524
0.039741 0.080203 1.0537 5.4395e-39 226 324 0 0 0 -0.73664 0.59965 -0.3127 0.022392
0.039707 0.08383 1.0528 5.3473e-39 146 326 0 0 0 -0.75491 0.57764 -0.31054 0.023998
0.038508 0.085134 1.0537 6.3615e-39 389 326 0 0 0 -0.75324 0.5586 -0.34726 0.022333
-0.034845 0.087599 1.0537 1.0971e-38 209.5 327 0 0 0 0.12648 -0.93342 -0.33577 0.0308
-0.032995 0.086367 1.0537 6.3615e-39 409 326 0 0 0 0.21548 -0.92017 -0.32689 0.031402
-0.029272 0.087525 1.0528 5.163e-39 214 327 0 0 0 0.21307 -0.92343 -0.31917 0.030661
0.038492 0.086946 1.0533 5.1629e-39 278.5 327 0 0 0 -0.765 0.55295 -0.33018 0.024606
-0.028064 0.088832 1.0537 6.8225e-39 417 327 0 0 0 0.26081 -0.90886 -0.3255 0.031029
-0.039159 0.090065 1.0537 1.3e-38 204 328 0 0 0 -0.46735 -0.84746 -0.25178 0.049223
0.050793 0.094915 1.0528 4.7942e-39 153 330 0 0 0 -0.84645 0.50969 -0.15406 0.036418
0.052025 0.094915 1.0528 4.5176e-39 154 330 0 0 0 -0.85682 0.50507 -0.10379 0.035925
0.050793 0.096763 1.0528 6.4998e-39 336 330 0 0 0 -0.86452 0.4992 -0.05832 0.034554
0.053279 0.096804 1.0533 6.4537e-39 339.5 330 0 0 0 0.87081 -0.49159 -0.005591 0.035939
0.053302 0.099312 1.0537 5.4856e-39 273 331 0 0 0 0.87362 -0.44601 -0.1946 0.035184
0.054512 0.099269 1.0533 5.3934e-39 274 331 0 0 0 0.88665 -0.37496 -0.27066 0.022301
0.053302 0.10116 1.0537 5.3473e-39 546 331 0 0 0 0.89497 -0.34459 -0.28337 0.012117
0.055128 0.10112 1.0533 4.0105e-39 547.5 331 0 0 0 0.89396 -0.34502 -0.28601 0.011983
0.053302 0.10301 1.0537 6.592e-39 361 332 0 0 0 0.88724 -0.34653 -0.30452 0.012486
0.055309 0.10272 1.0528 6.3001e-39 319.33 332 0 0 0 0.88699 -0.34629 -0.3055 0.011982
0.057 0.10363 1.0537 5.0708e-39 494 332 0 0 0 0.88526 -0.3481 -0.30845 0.012605
0.053256 0.10538 1.0528 7.4679e-39 334.5 333 0 0 0 0.88857 -0.33779 -0.31039 0.012345
0.056952 0.10538 1.0528 6.4998e-39 352 333 0 0 0 0.88891 -0.34297 -0.30366 0.012571
0.056952 0.10723 1.0528 7.9288e-39 215 334 0 0 0 0.89502 -0.33042 -0.2996 0.013202
0.058183 0.10723 1.0528 7.3757e-39 216 334 0 0 0 0.89629 -0.33552 -0.28997 0.013674
-0.04898 0.10846 1.0528 7.0069e-39 217 334 0 0 0 -0.95808 -0.18713 -0.21696 0.0087757
0.061879 0.11524 1.0528 7.1451e-39 307.5 337.5 0 0 0 0.92921 -0.258 -0.26459 0.018699
0.060647 0.11955 1.0528 8.021e-39 207 340 0 0 0 0.92933 -0.24975 -0.27196 0.017781
-0.052698 0.12269 1.0533 5.6701e-39 286.5 341 0 0 0 -0.93076 -0.28905 -0.22392 0.0043031
-0.053907 0.12817 1.0528 5.5317e-39 178 344 0 0 0 -0.92062 -0.32058 -0.22292 0.0024515
-0.00094119 0.19962 1.0528 6.8225e-39 467 371 0 0 0 0.53673 0.74351 -0.39888 0.011239
-0.0046404 0.20348 1.0537 5.9005e-39 184 372 0 0 0 0.56736 0.71163 -0.41436 0.013284
0.039175 0.080923 1.0551 5.7622e-39 327 324 0 0 0 -0.73839 0.57027 -0.35995 0.020731
0.039809 0.08281 1.0555 8.2054e-39 243 325 0 0 0 -0.73625 0.57308 -0.35987 0.020648
0.038574 0.084044 1.0555 5.3473e-39 145 326 0 0 0 -0.73893 0.55632 -0.38012 0.020996
-0.036725 0.087674 1.0546 1.3553e-38 208 327 0 0 0 0.13899 -0.93072 -0.33829 0.031009
-0.031789 0.08644 1.0546 6.5459e-39 410 326 0 0 0 0.21691 -0.92202 -0.32066 0.030877
-0.037991 0.088984 1.0555 6.3615e-39 409 327 0 0 0 0.16107 -0.92614 -0.34105 0.031289
-0.049064 0.10988 1.0546 5.8083e-39 487 334 0 0 0 -0.95883 -0.19377 -0.20758 0.0093042
0.061984 0.11729 1.0546 4.1488e-39 549 338 0 0 0 0.93185 -0.25922 -0.25389 0.018625
0.063272 0.11739 1.0555 3.5034e-39 550 338 0 0 0 0.93589 -0.24563 -0.25255 0.020181
0.062037 0.11862 1.0555 5.8083e-39 397 339 0 0 0 0.93492 -0.24881 -0.25302 0.019691
0.060751 0.12099 1.0546 5.2552e-39 137 341 0 0 0 0.93505 -0.24186 -0.2592 0.01877
0.060803 0.12233 1.0555 5.8083e-39 397 341 0 0 0 0.93517 -0.22088 -0.27691 0.019238
-0.053999 0.12716 1.0546 5.8083e-39 390 343 0 0 0 -0.92122 -0.31579 -0.2272 0.0030077
0.059517 0.12716 1.0546 5.2552e-39 169 344 0 0 0 0.94079 -0.17102 -0.29269 0.019545
0.059517 0.12839 1.0546 6.2693e-39 402 344 0 0 0 0.93904 -0.15764 -0.30554 0.021408
0.061984 0.13456 1.0546 6.3615e-39 393 347 0 0 0 0.90068 -0.1266 -0.41562 0.026002
0.063218 0.13456 1.0546 6.3615e-39 394 347 0 0 0 0.90093 -0.12632 -0.41517 0.024611
0.063218 0.1469 1.0546 5.9927e-39 243 353 0 0 0 0.24264 -0.068079 -0.96772 0.017613
0.063272 0.14888 1.0555 5.9466e-39 413 353.5 0 0 0 0.26555 -0.055708 -0.96249 0.016464
0.063272 0.1569 1.0555 5.5317e-39 246 358 0 0 0 0.91956 0.015044 -0.39266 0.025444
0.065742 0.16184 1.0555 6.9147e-39 417 360 0 0 0 0.90162 0.01561 -0.43225 0.020338
0.066977 0.16184 1.0555 6.8225e-39 418 360 0 0 0 0.90162 0.01561 -0.43225 0.020338
0.065742 0.16308 1.0555 6.0849e-39 195 361 0 0 0 0.89984 0.0088881 -0.43613 0.02112
0.066977 0.16308 1.0555 6.6381e-39 196 361 0 0 0 0.89984 0.0088882 -0.43613 0.02112
0.065124 0.16493 1.0555 6.131e-39 309.5 361.5 0 0 0 0.8938 -0.011616 -0.44831 0.022028
0.064452 0.16664 1.0546 6.6381e-39 425 362 0 0 0 0.90428 -0.014607 -0.42668 0.020307
-0.0058783 0.20242 1.0546 5.8083e-39 152 372 0 0 0 0.58681 0.69452 -0.41629 0.013148
-0.0034105 0.20366 1.0546 5.8083e-39 185 372 0 0 0 0.62519 0.63753 -0.45021 0.02363
0.033663 0.075464 1.0564 6.5459e-39 428 321 0 0 0 -0.67537 0.63085 -0.38198 0.027412
0.034929 0.078003 1.0573 3.0425e-39 160 323 0 0 0 -0.69593 0.58782 -0.41249 0.025843
0.038607 0.081644 1.0564 6.4537e-39 428 324 0 0 0 -0.73199 0.55332 -0.39753 0.020248
0.038607 0.08288 1.0564 7.6522e-39 242 325 0 0 0 -0.73837 0.54798 -0.3931 0.021101
-0.033094 0.08477 1.0568 4.4714e-39 207 325.5 0 0 0 0.27358 -0.91006 -0.31137 0.038987
-0.031844 0.085352 1.0564 3.5034e-39 160 326 0 0 0 0.1751 -0.93635 -0.30428 0.04251
-0.038056 0.087899 1.0573 1.512e-38 207 327 0 0 0 0.23535 -0.91959 -0.31459 0.034171
-0.036819 0.086662 1.0573 6.6381e-39 406 326 0 0 0 0.24595 -0.91627 -0.31616 0.033359
-0.034934 0.086588 1.0564 6.3615e-39 407.5 326 0 0 0 0.24595 -0.91627 -0.31616 0.033359
-0.030608 0.086588 1.0564 7.0069e-39 411 326 0 0 0 0.15202 -0.94102 -0.30229 0.042864
-0.028766 0.087243 1.0568 5.9466e-39 313.5 326.5 0 0 0 0.1384 -0.94627 -0.29226 0.051823
-0.039293 0.089137 1.0573 6.2693e-39 408 327 0 0 0 0.19674 -0.92483 -0.32555 0.034197
-0.04919 0.1114 1.0573 6.7303e-39 222 335 0 0 0 -0.95573 -0.21615 -0.19964 0.0082753
0.062708 0.11934 1.0564 6.9147e-39 303 339.5 0 0 0 0.93601 -0.24368 -0.25399 0.020417
0.062144 0.1213 1.0573 5.3473e-39 138 341 0 0 0 0.93853 -0.22235 -0.26404 0.021049
-0.054091 0.12367 1.0564 6.5459e-39 401 341 0 0 0 -0.93169 -0.28875 -0.22042 0.0053881
0.060907 0.12377 1.0573 7.1913e-39 214 342 0 0 0 0.93941 -0.20186 -0.27707 0.019981
-0.054091 0.1249 1.0564 6.2693e-39 230 342 0 0 0 -0.92699 -0.30141 -0.22326 0.0049016
-0.054091 0.12614 1.0564 5.9927e-39 548 342 0 0 0 -0.92178 -0.31495 -0.22613 0.003558
0.062539 0.13322 1.057 5.9927e-39 383.33 346 0 0 0 0.90314 -0.12539 -0.41062 0.025474
0.065855 0.13491 1.0573 5.7161e-39 396 347 0 0 0 0.87029 -0.12667 -0.47597 0.027099
0.067092 0.13491 1.0573 5.9005e-39 397 347 0 0 0 0.86263 -0.12957 -0.48896 0.026138
0.068329 0.13491 1.0573 5.8083e-39 398 347 0 0 0 0.86263 -0.12957 -0.48896 0.026138
0.065236 0.13676 1.0573 7.3987e-39 309 348 0 0 0 0.8453 -0.10915 -0.52302 0.024648
0.067063 0.13671 1.0568 7.6061e-39 310.5 348 0 0 0 0.81005 -0.11272 -0.57543 0.026213
0.068329 0.13676 1.0573 7.8366e-39 311.5 348 0 0 0 0.75924 -0.11109 -0.64126 0.025833
0.065222 0.13921 1.0571 6.108e-39 351.5 349 0 0 0 0.7035 -0.10117 -0.70346 0.023771
0.067092 0.13924 1.0573 6.131e-39 353 349 0 0 0 0.59682 -0.093813 -0.79688 0.022738
0.068329 0.13924 1.0573 6.2693e-39 354 349 0 0 0 0.59682 -0.093813 -0.79688 0.022738
0.065208 0.14103 1.0568 6.131e-39 384.5 350 0 0 0 0.57943 -0.096978 -0.80923 0.022662
0.067092 0.14109 1.0573 6.2693e-39 386 350 0 0 0 0.40421 -0.087252 -0.9105 0.020358
0.068917 0.14103 1.0568 5.9466e-39 387.5 350 0 0 0 0.36845 -0.086279 -0.92564 0.021068
0.065236 0.14295 1.0573 6.8686e-39 281.5 351 0 0 0 0.37868 -0.086929 -0.92144 0.020662
0.067092 0.14233 1.0573 5.6239e-39 151 351 0 0 0 0.38211 -0.089425 -0.91978 0.019683
0.068917 0.14289 1.0568 7.2143e-39 292 351 0 0 0 0.21757 -0.081823 -0.97261 0.019384
0.069506 0.14468 1.0564 6.0849e-39 207 352 0 0 0 0.14374 -0.073222 -0.9869 0.019
0.069566 0.14604 1.0573 5.4395e-39 440 352 0 0 0 0.11669 -0.070496 -0.99066 0.016714
0.063326 0.15086 1.0564 6.1771e-39 148 355 0 0 0 0.72935 -0.049331 -0.68236 0.022299
0.063381 0.15284 1.0573 6.5459e-39 337 355.5 0 0 0 0.82727 -0.033003 -0.56084 0.022846
0.063326 0.15518 1.0564 5.1168e-39 476 356.5 0 0 0 0.87003 0.0011072 -0.493 0.02804
0.069566 0.1547 1.0573 1.8439e-39 559 356 0 0 0 0.81541 0.0045396 -0.57886 0.02631
0.065222 0.159 1.0571 5.8775e-39 430.25 358.5 0 0 0 0.87003 -0.0022215 -0.49299 0.031699
0.067063 0.15896 1.0568 6.3615e-39 433.5 358.5 0 0 0 0.87003 -0.0022215 -0.49299 0.031699
0.068329 0.15965 1.0573 6.2693e-39 394 359 0 0 0 0.87015 -0.0060459 -0.49275 0.035405
0.064974 0.16116 1.0564 6.5152e-39 262.33 360 0 0 0 0.90582 0.013993 -0.42342 0.023235
0.067034 0.16075 1.0564 6.4537e-39 187 360 0 0 0 0.88768 -0.0020857 -0.46046 0.024978
0.068329 0.16088 1.0573 6.0849e-39 188 360 0 0 0 0.87482 0.00044189 -0.48446 0.036611
0.064618 0.16336 1.0573 5.7161e-39 194 361 0 0 0 0.86759 -0.026638 -0.49656 0.020842
0.064562 0.16445 1.0564 6.6381e-39 425 361 0 0 0 0.89298 -0.012914 -0.44992 0.020816
-0.00094522 0.20171 1.0573 6.4537e-39 482 371 0 0 0 0.61283 0.58747 -0.52851 0.053678
0.00029182 0.20171 1.0573 6.2693e-39 554 371 0 0 0 0.62651 0.54602 -0.55619 0.065008
-0.0021804 0.20277 1.0564 6.1771e-39 157 372 0 0 0 0.65568 0.56544 -0.50036 0.044727
-0.0052723 0.20471 1.0568 5.7622e-39 194 372 0 0 0 0.73687 0.47617 -0.47989 0.054085
0.037467 0.079376 1.0592 7.1913e-39 411 323 0 0 0 -0.70839 0.56282 -0.42593 0.025607
-0.033165 0.083094 1.0592 5.2552e-39 444 324 0 0 0 0.080535 -0.95359 -0.29013 0.05897
-0.034797 0.08511 1.0585 4.4868e-39 189.67 325.67 0 0 0 0.30768 -0.89948 -0.31027 0.042278
-0.031293 0.084916 1.0587 4.6098e-39 208.5 325.5 0 0 0 0.13314 -0.94549 -0.29719 0.059249
-0.029435 0.084916 1.0587 4.7942e-39 275.5 325.5 0 0 0 -0.024273 -0.97099 -0.2379 0.068254
0.037467 0.085572 1.0592 6.1771e-39 388 326 0 0 0 -0.72517 0.52828 -0.44164 0.020884
0.037467 0.086811 1.0592 3.9644e-39 158 327 0 0 0 -0.72693 0.52678 -0.44054 0.021032
-0.039361 0.08805 1.0592 1.595e-38 206 327 0 0 0 0.31347 -0.89869 -0.30676 0.039697
0.037451 0.088631 1.0587 5.5778e-39 278.5 327.5 0 0 0 -0.73388 0.51703 -0.44057 0.020854
0.064673 0.11893 1.0582 6.5459e-39 400 339 0 0 0 0.93923 -0.23416 -0.25102 0.023171
0.063462 0.12084 1.0587 6.4076e-39 189 340.5 0 0 0 0.94076 -0.22387 -0.25464 0.023642
0.064729 0.12027 1.0592 7.2835e-39 210 340 0 0 0 0.94177 -0.22355 -0.25117 0.024025
0.06225 0.12275 1.0592 5.9005e-39 398 341 0 0 0 0.94047 -0.20573 -0.27055 0.024052
0.061011 0.12523 1.0592 5.7161e-39 465 342 0 0 0 0.94266 -0.18291 -0.27918 0.023382
0.067207 0.1277 1.0592 5.6239e-39 177 344 0 0 0 0.93334 -0.18022 -0.31049 0.029414
0.067149 0.12883 1.0582 6.5459e-39 408 344 0 0 0 0.92948 -0.16834 -0.32821 0.028527
0.06225 0.13142 1.0592 8.021e-39 419 345 0 0 0 0.91162 -0.13454 -0.38838 0.026575
0.065968 0.1308 1.0592 7.3757e-39 306.5 345 0 0 0 0.91782 -0.15367 -0.36606 0.027753
0.067149 0.13069 1.0582 7.514e-39 307.5 345 0 0 0 0.91782 -0.15367 -0.36606 0.027753
0.068387 0.13131 1.0582 8.2976e-39 424 345 0 0 0 0.91045 -0.15568 -0.38321 0.027132
0.063489 0.13266 1.0592 5.6239e-39 236 346 0 0 0 0.90237 -0.13981 -0.40766 0.026974
0.065536 0.13345 1.0589 6.1771e-39 385.67 346 0 0 0 0.88112 -0.12362 -0.45645 0.026232
0.067149 0.13317 1.0582 5.9466e-39 350 346 0 0 0 0.88759 -0.13526 -0.44032 0.026753
0.068387 0.13317 1.0582 5.7161e-39 351 346 0 0 0 0.88702 -0.14062 -0.43979 0.02785
0.064673 0.13502 1.0582 5.9927e-39 395 347 0 0 0 0.86781 -0.12081 -0.48198 0.026683
0.067149 0.14369 1.0582 8.021e-39 415 351 0 0 0 0.2171 -0.08339 -0.97258 0.017759
0.065292 0.14493 1.0582 6.4537e-39 203.5 352 0 0 0 0.21233 -0.074692 -0.97434 0.018523
0.067207 0.14505 1.0592 6.1771e-39 205 352 0 0 0 0.11893 -0.073771 -0.99016 0.01799
0.068387 0.14493 1.0582 6.0849e-39 206 352 0 0 0 0.11893 -0.073771 -0.99016 0.01799
0.065292 0.14679 1.0582 6.2463e-39 340.5 352.5 0 0 0 0.15254 -0.075105 -0.98544 0.017747
0.068839 0.14707 1.0589 5.6239e-39 311.33 352.67 0 0 0 0.11707 -0.065529 -0.99096 0.017293
0.065292 0.14926 1.0582 5.8774e-39 414.5 353.5 0 0 0 0.26555 -0.055708 -0.96249 0.016464
0.069625 0.14926 1.0582 6.4076e-39 420 353.5 0 0 0 0.34544 -0.046148 -0.93731 0.013526
0.065292 0.15112 1.0582 6.0388e-39 149.5 355 0 0 0 0.38188 -0.03606 -0.92351 0.014147
0.069625 0.15112 1.0582 5.6239e-39 179 355 0 0 0 0.41043 -0.028111 -0.91146 0.013322
0.065292 0.15297 1.0582 6.8455e-39 338.5 355.5 0 0 0 0.44483 -0.018122 -0.89543 0.013367
0.069036 0.15304 1.0587 6.8455e-39 341.5 355.5 0 0 0 0.44146 -0.016098 -0.89713 0.013647
0.06532 0.1549 1.0587 2.4893e-39 555.5 356 0 0 0 0.86367 -0.0089299 -0.50398 0.027393
0.067207 0.15496 1.0592 1.8439e-39 557 356 0 0 0 0.43167 -0.019666 -0.90182 0.01861
0.068387 0.15483 1.0582 1.8439e-39 558 356 0 0 0 0.43175 -0.012737 -0.9019 0.016923
0.065292 0.15669 1.0582 6.2693e-39 323.5 357.5 0 0 0 0.86547 -0.0087983 -0.50088 0.030295
0.067207 0.15682 1.0592 6.6381e-39 325 357.5 0 0 0 0.87003 -0.0022215 -0.49299 0.031699
0.069006 0.15669 1.0582 6.9607e-39 326.5 357.5 0 0 0 0.87316 0.0051989 -0.48741 0.03045
0.069006 0.15855 1.0582 6.7303e-39 475.5 358 0 0 0 0.87003 -0.0022216 -0.49299 0.031699
-0.0059035 0.20577 1.0592 5.9005e-39 204 372 0 0 0 0.70875 0.45953 -0.53527 0.09549
0.023888 0.072717 1.0615 6.2232e-39 247.5 318.5 0 0 0 -0.40322 0.61421 -0.67835 0.024651
0.025119 0.073306 1.061 5.3473e-39 256 319 0 0 0 -0.44959 0.6094 -0.65308 0.027672
0.027577 0.073243 1.0601 3.319e-39 151 320 0 0 0 -0.51412 0.63084 -0.58114 0.032209
0.02514 0.074611 1.0619 2.7659e-39 158 321 0 0 0 -0.43812 0.58277 -0.68442 0.026705
0.027601 0.074547 1.061 2.8581e-39 160 321 0 0 0 -0.50944 0.61576 -0.6011 0.03307
0.028842 0.074547 1.061 8.8508e-39 227 321 0 0 0 -0.52731 0.60474 -0.59685 0.033924
0.030717 0.0752 1.0615 7.4679e-39 327.5 321 0 0 0 -0.58403 0.59388 -0.55337 0.040927
0.033779 0.076964 1.0601 6.5459e-39 390 322 0 0 0 -0.64691 0.60363 -0.46597 0.036219
0.035079 0.079581 1.0619 6.3615e-39 409 323 0 0 0 -0.65947 0.56064 -0.50078 0.038401
-0.036978 0.080823 1.0619 6.3615e-39 416 323 0 0 0 0.25326 -0.90603 -0.33908 0.056214
-0.035084 0.081995 1.061 7.8827e-39 232.5 324 0 0 0 0.14411 -0.936 -0.32114 0.065528
0.037531 0.081374 1.061 6.131e-39 325.5 324 0 0 0 -0.70273 0.54379 -0.45876 0.029018
-0.035069 0.0832 1.0605 5.2552e-39 442.5 324 0 0 0 0.15962 -0.93799 -0.30773 0.058961
0.037531 0.083236 1.061 7.2835e-39 241 325 0 0 0 -0.7046 0.53773 -0.46302 0.025694
-0.03822 0.085793 1.0619 4.3332e-39 155 326 0 0 0 0.36557 -0.86652 -0.33986 0.056748
-0.036946 0.085097 1.061 5.0707e-39 204 325.5 0 0 0 0.33922 -0.88579 -0.3167 0.050736
-0.035674 0.084405 1.0601 5.7161e-39 253 325 0 0 0 0.28731 -0.90148 -0.32369 0.051876
-0.030739 0.084478 1.061 5.9005e-39 388 325 0 0 0 -0.11829 -0.97389 -0.19379 0.088226
0.037499 0.084405 1.0601 4.9786e-39 144 326 0 0 0 -0.72052 0.52339 -0.45487 0.021675
-0.038791 0.086923 1.0605 6.3615e-39 404.5 326 0 0 0 0.34012 -0.88843 -0.30824 0.046656
0.064784 0.12161 1.0601 5.3473e-39 170 341 0 0 0 0.94155 -0.18229 -0.2833 0.024469
0.063544 0.12285 1.0601 6.0849e-39 399 341 0 0 0 0.94212 -0.18096 -0.28225 0.024398
0.064784 0.12285 1.0601 6.5459e-39 400 341 0 0 0 0.94252 -0.1801 -0.28146 0.025084
0.062951 0.12477 1.0605 6.2232e-39 349.5 342 0 0 0 0.94238 -0.17403 -0.28572 0.024473
0.06484 0.12482 1.061 6.0849e-39 351 342 0 0 0 0.93999 -0.17702 -0.2917 0.030917
0.066081 0.12482 1.061 6.4998e-39 382.5 342 0 0 0 0.93573 -0.17832 -0.30432 0.034311
0.061063 0.12657 1.0601 6.5459e-39 385 343 0 0 0 0.94032 -0.17118 -0.29411 0.025895
0.062978 0.1273 1.061 6.085e-39 280 343.5 0 0 0 0.93554 -0.17414 -0.3073 0.030249
0.06484 0.1273 1.061 6.0388e-39 281.5 343.5 0 0 0 0.93339 -0.17811 -0.31154 0.030429
0.066024 0.12719 1.0601 5.9005e-39 282.5 343.5 0 0 0 0.93352 -0.17815 -0.31112 0.029478
0.061168 0.12803 1.0619 5.2552e-39 172 344 0 0 0 0.92934 -0.17356 -0.32589 0.033035
0.062978 0.12916 1.061 6.6381e-39 404.5 344 0 0 0 0.92351 -0.17108 -0.34332 0.030957
0.064784 0.12905 1.0601 6.8225e-39 406 344 0 0 0 0.92534 -0.1677 -0.34005 0.030171
0.066024 0.12905 1.0601 6.8225e-39 407 344 0 0 0 0.92387 -0.16761 -0.34406 0.029946
0.063131 0.1307 1.0601 7.1298e-39 265.67 345 0 0 0 0.91782 -0.15367 -0.36606 0.027753
0.064784 0.13091 1.0601 7.1452e-39 305.5 345 0 0 0 0.91728 -0.15354 -0.36746 0.028536
0.064784 0.13277 1.0601 5.5317e-39 237 346 0 0 0 0.8902 -0.13993 -0.43355 0.028117
0.067265 0.14704 1.0601 6.0388e-39 342 352.5 0 0 0 0.11669 -0.070496 -0.99066 0.016714
0.067265 0.1489 1.0601 5.9927e-39 456 353 0 0 0 0.26971 -0.058458 -0.96117 0.01611
0.068505 0.1489 1.0601 5.9005e-39 457 353 0 0 0 0.26555 -0.055708 -0.96249 0.016464
0.067265 0.15076 1.0601 5.6239e-39 263.5 354.5 0 0 0 0.37548 -0.03434 -0.92619 0.013709
0.068505 0.15076 1.0601 5.7161e-39 264.5 354.5 0 0 0 0.41043 -0.028111 -0.91146 0.013322
0.067265 0.15324 1.0601 6.9146e-39 340 355.5 0 0 0 0.44414 -0.016857 -0.8958 0.014887
-0.00094928 0.20382 1.0619 5.8083e-39 158 372 0 0 0 0.61677 0.41991 -0.66579 0.13092
-0.002808 0.20533 1.0601 6.0849e-39 198.5 372 0 0 0 0.68186 0.39814 -0.61364 0.12784
-0.0071734 0.071007 1.0637 3.6878e-39 151 315 0 0 0 0.0473 0.55084 -0.83327 0.023943
-0.0059289 0.071007 1.0637 6.8225e-39 244 315 0 0 0 0.059575 0.55115 -0.83228 0.020915
0.02145 0.072251 1.0637 6.1771e-39 238 318 0 0 0 -0.30327 0.59576 -0.74371 0.017958
0.022684 0.072842 1.0633 6.0388e-39 246.5 318.5 0 0 0 -0.34152 0.5896 -0.73194 0.020513
0.023918 0.074676 1.0628 2.8581e-39 157 321 0 0 0 -0.40324 0.57355 -0.71305 0.02436
0.027027 0.075298 1.0628 4.5637e-39 291.5 321 0 0 0 -0.47513 0.58912 -0.6536 0.030801
0.028892 0.075919 1.0628 6.2693e-39 425 321 0 0 0 -0.50424 0.58972 -0.63086 0.033535
0.030161 0.075984 1.0637 6.5459e-39 426 321 0 0 0 -0.51667 0.57782 -0.6318 0.033825
0.03265 0.077229 1.0637 6.2693e-39 389 322 0 0 0 -0.58288 0.56436 -0.58459 0.041792
0.033895 0.078473 1.0637 2.7659e-39 159 323 0 0 0 -0.61597 0.56019 -0.55386 0.041895
-0.038253 0.080893 1.0628 7.2835e-39 412 323 0 0 0 0.26493 -0.90282 -0.33873 0.058287
0.035139 0.080962 1.0637 5.5317e-39 222 324 0 0 0 -0.64249 0.54178 -0.54192 0.042292
-0.038269 0.082794 1.0633 6.7764e-39 333 324 0 0 0 0.35383 -0.87111 -0.34054 0.064185
-0.037009 0.082758 1.0628 6.6842e-39 334 324 0 0 0 0.30309 -0.8864 -0.3499 0.064615
-0.032063 0.083451 1.0637 5.5317e-39 445 324 0 0 0 0.62206 0.7271 -0.29046 0.10663
-0.030819 0.083451 1.0637 5.6239e-39 542 324 0 0 0 0.60202 0.73572 -0.31029 0.10245
-0.029549 0.08338 1.0628 5.3473e-39 543 324 0 0 0 0.61432 0.72461 -0.31234 0.10061
-0.039104 0.085086 1.0634 5.6547e-39 218.33 325.33 0 0 0 0.36967 -0.86455 -0.34044 0.061555
0.036384 0.08594 1.0637 6.6381e-39 386 326 0 0 0 -0.68222 0.49019 -0.54249 0.042388
-0.028305 0.08711 1.0628 7.0069e-39 413 326 0 0 0 0.68665 0.57887 -0.4398 0.10842
0.036384 0.087185 1.0637 4.1488e-39 157 327 0 0 0 -0.68839 0.48443 -0.53986 0.04073
-0.049444 0.11322 1.0628 4.3332e-39 548 335 0 0 0 -0.94735 -0.26701 -0.17676 0.0091505
0.061221 0.12939 1.0628 6.0849e-39 403 344 0 0 0 0.91972 -0.17056 -0.35359 0.032781
0.061221 0.13125 1.0628 8.9429e-39 302.5 345 0 0 0 0.89905 -0.15274 -0.41035 0.032037
0.00029358 0.20417 1.0637 5.5317e-39 160 372 0 0 0 0.56636 0.39034 -0.72586 0.13495
-0.0021954 0.20666 1.0637 6.0849e-39 212 372 0 0 0 0.56498 0.39144 -0.72634 0.13682
-0.013419 0.072999 1.0655 4.4715e-39 203.5 317.5 0 0 0 0.12001 0.52312 -0.84377 0.043777
-0.0096791 0.072376 1.0655 4.7942e-39 154 317 0 0 0 0.046013 0.54328 -0.83829 0.03082
-0.0071858 0.073622 1.0655 3.0425e-39 155 319 0 0 0 0.063117 0.5723 -0.81761 0.023823
-0.005934 0.072313 1.0646 7.0069e-39 239 317 0 0 0 0.058905 0.56917 -0.82011 0.020089
-0.0034429 0.072313 1.0646 7.56e-39 241 317 0 0 0 0.068982 0.57243 -0.81705 0.014245
0.021487 0.073622 1.0655 5.5317e-39 253 319 0 0 0 -0.30016 0.57553 -0.76071 0.016964
0.022734 0.074869 1.0655 2.9503e-39 156 321 0 0 0 -0.34559 0.56072 -0.75243 0.020491
0.02396 0.07605 1.0646 5.9005e-39 421 321 0 0 0 -0.38835 0.56805 -0.72561 0.02311
0.025205 0.07605 1.0646 6.0849e-39 422 321 0 0 0 -0.40833 0.56897 -0.71382 0.024503
0.026474 0.076116 1.0655 6.3615e-39 423 321 0 0 0 -0.42353 0.56776 -0.70588 0.025379
0.028967 0.077362 1.0655 5.9927e-39 255 322 0 0 0 -0.4817 0.56558 -0.66939 0.030361
0.031433 0.077296 1.0646 6.0849e-39 388 322 0 0 0 -0.52528 0.56596 -0.63542 0.03528
0.036447 0.079856 1.0655 6.6381e-39 410 323 0 0 0 -0.63137 0.52895 -0.56708 0.042853
0.036447 0.081102 1.0655 5.4395e-39 223 324 0 0 0 -0.63972 0.52531 -0.56108 0.04332
-0.039564 0.083523 1.0646 6.4537e-39 435 324 0 0 0 0.43805 -0.80904 -0.39188 0.073021
-0.030872 0.082349 1.0655 9.1274e-39 235 324 0 0 0 0.67112 0.53543 -0.51275 0.11113
-0.0296 0.082278 1.0646 9.4961e-39 236 324 0 0 0 0.63444 0.61229 -0.4718 0.10857
0.03517 0.0829 1.0646 7.4218e-39 332 324.5 0 0 0 -0.62298 0.52667 -0.57837 0.043384
0.036447 0.082972 1.0655 7.3757e-39 333 324.5 0 0 0 -0.64149 0.51541 -0.56819 0.043132
0.03517 0.084769 1.0646 3.6878e-39 547 325 0 0 0 -0.64253 0.49882 -0.58166 0.045008
0.036415 0.084769 1.0646 4.7942e-39 143 326 0 0 0 -0.65888 0.51021 -0.55277 0.044079
-0.028354 0.086015 1.0646 3.4112e-39 163 326 0 0 0 0.67472 0.48111 -0.55972 0.10393
0.035185 0.086675 1.0651 5.209e-39 206 326.5 0 0 0 -0.62861 0.49751 -0.59778 0.043995
0.036415 0.088506 1.0646 6.1771e-39 396 327 0 0 0 -0.68698 0.45523 -0.56642 0.042223
0.0015394 0.2031 1.0646 6.4537e-39 555 371 0 0 0 0.56636 0.39034 -0.72586 0.13495
-0.00095256 0.20577 1.0655 6.7303e-39 187 372 0 0 0 0.56636 0.39034 -0.72586 0.13495
0.016515 0.07119 1.0665 7.56e-39 241 316 0 0 0 -0.17437 0.59891 -0.7816 0.014732
-0.0090636 0.073686 1.0665 3.3651e-39 153.5 319 0 0 0 0.063464 0.56807 -0.82053 0.028292
-0.0051138 0.073291 1.0668 4.241e-39 184.33 318.33 0 0 0 0.059287 0.58455 -0.80919 0.017746
-0.002825 0.073686 1.0665 9.0812e-39 231.5 319 0 0 0 0.059261 0.58865 -0.80621 0.013882
-0.00095421 0.072501 1.0674 8.482e-39 242 317 0 0 0 0.059604 0.59066 -0.80472 0.011407
0.000919 0.073125 1.0674 7.3757e-39 239 318 0 0 0 0.052288 0.59597 -0.8013 0.010271
0.004041 0.072501 1.0674 8.2054e-39 245 317 0 0 0 0.02097 0.60939 -0.79259 0.010322
0.016529 0.072501 1.0674 8.5742e-39 235 318 0 0 0 -0.1777 0.58752 -0.78946 0.013537
0.020258 0.073686 1.0665 5.2552e-39 252 319 0 0 0 -0.26674 0.57046 -0.7768 0.015008
-0.013431 0.074934 1.0665 4.702e-39 235 320 0 0 0 0.16244 0.54687 -0.82131 0.044505
-0.0090714 0.074998 1.0674 6.5459e-39 238.5 320 0 0 0 0.082819 0.56511 -0.82085 0.028844
-0.007192 0.074934 1.0665 7.7444e-39 240 320 0 0 0 0.06659 0.56753 -0.82066 0.022612
-0.0059494 0.074998 1.0674 8.8508e-39 241 320 0 0 0 0.067697 0.58862 -0.80557 0.020355
-0.0034518 0.074998 1.0674 1.1156e-38 243 320 0 0 0 0.059857 0.60373 -0.79494 0.015646
0.020891 0.074966 1.0669 3.0425e-39 154.5 321 0 0 0 -0.29137 0.55287 -0.78067 0.01469
-0.013442 0.076247 1.0674 1.0326e-38 244 321 0 0 0 0.16662 0.56346 -0.80917 0.055002
0.021524 0.076247 1.0674 6.5459e-39 417 321 0 0 0 -0.30253 0.55682 -0.77358 0.01544
0.022773 0.076247 1.0674 6.2693e-39 420 321 0 0 0 -0.3314 0.5583 -0.76058 0.018084
0.024647 0.077496 1.0674 5.7161e-39 251.5 322 0 0 0 -0.37823 0.56078 -0.73652 0.021439
0.027132 0.077462 1.0669 6.131e-39 253.5 322 0 0 0 -0.42438 0.56157 -0.71031 0.024602
0.03024 0.077429 1.0665 6.0849e-39 256 322 0 0 0 -0.49156 0.56028 -0.66667 0.030502
0.031515 0.078745 1.0674 2.8581e-39 157 323 0 0 0 -0.50183 0.55012 -0.66748 0.031322
0.033373 0.079335 1.0669 4.5637e-39 283 323 0 0 0 -0.53412 0.54601 -0.64544 0.035341
-0.029651 0.081172 1.0665 6.7303e-39 418 323 0 0 0 0.60847 0.6202 -0.49509 0.11289
0.034012 0.081242 1.0674 7.0069e-39 221 324 0 0 0 -0.56136 0.52606 -0.63885 0.039129
0.034012 0.083116 1.0674 7.1452e-39 331 324.5 0 0 0 -0.56641 0.51548 -0.643 0.038866
-0.028403 0.084915 1.0665 6.2693e-39 396 325 0 0 0 0.64144 0.48855 -0.5915 0.10975
0.034012 0.084989 1.0674 3.6878e-39 546 325 0 0 0 -0.57774 0.50824 -0.63868 0.040183
-0.02593 0.086238 1.0674 2.9503e-39 165 326 0 0 0 0.57484 0.48132 -0.66173 0.10277
0.034012 0.086238 1.0674 5.9005e-39 255 326 0 0 0 -0.57866 0.50401 -0.64119 0.040191
0.03523 0.089282 1.0665 5.1629e-39 274.5 327.5 0 0 0 -0.63235 0.46173 -0.62205 0.042356
0.0027922 0.20362 1.0674 6.2693e-39 556 371 0 0 0 0.53244 0.34374 -0.77353 0.14039
0.00091822 0.20532 1.0665 6.131e-39 177.5 372 0 0 0 0.53244 0.34374 -0.77353 0.14039
0.0027922 0.20487 1.0674 5.9005e-39 168 372 0 0 0 0.53244 0.34374 -0.77353 0.14039
-0.00095421 0.20737 1.0674 5.3473e-39 214 372 0 0 0 0.53244 0.34374 -0.77353 0.14039
0.000919 0.20674 1.0674 5.9466e-39 202 372 0 0 0 0.53244 0.34374 -0.77353 0.14039
-0.0053229 0.20853 1.0669 5.6239e-39 229.5 372 0 0 0 0.53711 0.34921 -0.76783 0.15208
-0.0028274 0.20862 1.0674 5.67e-39 231.5 372 0 0 0 0.53244 0.34374 -0.77353 0.14039
0.0065386 0.21986 1.0674 6.8225e-39 468 372 0 0 0 0.16697 -0.029822 -0.98551 0.10448
0.0046654 0.22111 1.0674 5.8083e-39 472.5 372 0 0 0 0.1182 0.022976 -0.99272 0.10873
0.0065329 0.22092 1.0665 6.5459e-39 474 372 0 0 0 0.13812 0.0072381 -0.99039 0.1068
0.0040375 0.22216 1.0665 6.6381e-39 475 372 0 0 0 0.083619 0.074649 -0.9937 0.11036
-0.010954 0.071314 1.0683 5.3473e-39 245 314 0 0 0 0.04455 0.55924 -0.82781 0.03377
0.011554 0.071375 1.0692 3.78e-39 152 316 0 0 0 -0.089035 0.63401 -0.76819 0.015808
0.014669 0.071314 1.0683 7.3757e-39 239.5 316 0 0 0 -0.13716 0.60908 -0.78116 0.014976
-0.014716 0.073877 1.0692 5.5317e-39 255 318 0 0 0 0.14729 0.55833 -0.81644 0.056843
-0.012214 0.073877 1.0692 3.2268e-39 151 319 0 0 0 0.10907 0.57455 -0.81117 0.048865
-0.010954 0.073188 1.0683 3.5496e-39 152.5 318 0 0 0 0.077993 0.55138 -0.8306 0.03348
-0.00095503 0.073813 1.0683 7.0991e-39 233 319 0 0 0 0.061957 0.60373 -0.79478 0.011221
0.00029485 0.073813 1.0683 6.1771e-39 234 319 0 0 0 0.051369 0.60488 -0.79466 0.010735
0.0027946 0.073188 1.0683 6.9146e-39 240 318 0 0 0 0.030332 0.61457 -0.78828 0.0098998
0.0046717 0.073845 1.0688 5.3934e-39 237.5 319 0 0 0 0.0050317 0.6333 -0.77389 0.011019
0.0065499 0.073252 1.0692 7.2835e-39 242.5 318 0 0 0 -0.019746 0.63349 -0.7735 0.01231
0.011554 0.072626 1.0692 3.5956e-39 153 318 0 0 0 -0.088765 0.63914 -0.76395 0.014719
0.014678 0.073236 1.069 7.56e-39 220 318.5 0 0 0 -0.13948 0.6031 -0.78538 0.013589
0.017382 0.073418 1.0686 7.4371e-39 243.67 318.67 0 0 0 -0.19875 0.57987 -0.79009 0.012875
0.019043 0.073188 1.0683 5.9928e-39 243.5 318.5 0 0 0 -0.23715 0.57897 -0.78009 0.014375
-0.017218 0.075128 1.0692 6.2693e-39 232 320 0 0 0 0.2079 0.5438 -0.81306 0.070373
-0.014716 0.075128 1.0692 4.4254e-39 234 320 0 0 0 0.16812 0.56196 -0.8099 0.057124
-0.012204 0.075063 1.0683 5.2552e-39 236 320 0 0 0 0.131 0.5631 -0.81594 0.044035
-0.010964 0.075128 1.0692 5.6239e-39 237 320 0 0 0 0.10452 0.57604 -0.81071 0.038242
-0.0047047 0.075063 1.0683 1.0142e-38 242 320 0 0 0 0.066587 0.60103 -0.79645 0.016353
-0.0022049 0.075063 1.0683 1.051e-38 244 320 0 0 0 0.057922 0.61351 -0.78756 0.013448
-0.00095586 0.075128 1.0692 9.6805e-39 245 320 0 0 0 0.056226 0.61882 -0.78352 0.012027
0.00091977 0.075063 1.0683 8.4359e-39 246.5 320 0 0 0 0.047047 0.62064 -0.78269 0.010326
0.002797 0.075128 1.0692 6.1771e-39 248 320 0 0 0 0.024467 0.63253 -0.77415 0.01021
0.004048 0.075128 1.0692 5.8083e-39 249 320 0 0 0 0.0073779 0.63698 -0.77084 0.0109
0.017184 0.075128 1.0692 3.4113e-39 151.5 321 0 0 0 -0.19733 0.58961 -0.78321 0.012631
0.01906 0.075128 1.0692 2.9503e-39 153 321 0 0 0 -0.23995 0.56993 -0.78588 0.013127
-0.017218 0.077004 1.0692 5.9927e-39 198.5 321.5 0 0 0 0.24893 0.57683 -0.77801 0.069977
-0.014716 0.077004 1.0692 6.7305e-39 200.5 321.5 0 0 0 0.20241 0.57356 -0.79376 0.056398
-0.012627 0.077191 1.0689 5.1937e-39 188 321.67 0 0 0 0.17267 0.57845 -0.79723 0.048716
-0.010964 0.076379 1.0692 9.0352e-39 246 321 0 0 0 0.12672 0.5786 -0.80571 0.038553
-0.0090811 0.076955 1.0685 7.6985e-39 236 321.5 0 0 0 0.11504 0.58752 -0.80099 0.028813
-0.0072044 0.076938 1.0683 6.3154e-39 237.5 321.5 0 0 0 0.085024 0.59383 -0.80009 0.02372
-0.005541 0.076774 1.0689 5.6854e-39 242.67 321.33 0 0 0 0.077141 0.60006 -0.79622 0.018843
-0.0030398 0.076774 1.0689 5.6854e-39 244.67 321.33 0 0 0 0.065855 0.61346 -0.78697 0.015203
