# .PCD v.7 - Point Cloud Data file format
VERSION .7
FIELDS x y z rgb u v vx vy vz normal_x normal_y normal_z curvature
SIZE 4 4 4 4 4 4 4 4 4 4 4 4 4
TYPE F F F F F F F F F F F F F
COUNT 1 1 1 1 1 1 1 1 1 1 1 1 1
WIDTH 555
HEIGHT 1
VIEWPOINT 0 0 0 1 0 0 0
POINTS 555
DATA ascii
0.056034 0.12937 1.0139 7.9288e-39 402 352 0 0 0 0.73753 -0.074637 -0.67118 0.0061612
-0.032894 0.13099 1.0127 6.4536e-39 429.5 352.5 0 0 0 -0.72261 -0.13397 -0.67815 0.0090712
-0.031697 0.13093 1.0123 6.4998e-39 430.5 352.5 0 0 0 -0.71406 -0.12948 -0.68801 0.0081676
0.054758 0.13153 1.0123 5.9005e-39 264 354 0 0 0 0.72077 -0.055405 -0.69096 0.005901
0.056034 0.13115 1.0139 6.3615e-39 325.5 353.5 0 0 0 0.73394 -0.06537 -0.67606 0.0061587
-0.032908 0.13282 1.0131 6.0849e-39 391 354 0 0 0 -0.72795 -0.12484 -0.67416 0.0086796
-0.031697 0.1333 1.0123 6.3615e-39 327 354.5 0 0 0 -0.71232 -0.11898 -0.69169 0.0075185
0.054758 0.1333 1.0123 5.9005e-39 339.5 355 0 0 0 0.71668 -0.049263 -0.69566 0.0057181
0.056034 0.13293 1.0139 6.5459e-39 230 355 0 0 0 0.73176 -0.053776 -0.67944 0.0059098
-0.034122 0.13471 1.0139 6.0388e-39 238 355.5 0 0 0 -0.73735 -0.12371 -0.66409 0.0089865
-0.032894 0.13454 1.0127 5.8544e-39 239 355.5 0 0 0 -0.72136 -0.11437 -0.68306 0.0071772
0.054758 0.13508 1.0123 7.56e-39 404 356 0 0 0 0.71606 -0.041208 -0.69682 0.0057137
0.056034 0.13471 1.0139 6.5458e-39 428 355.5 0 0 0 0.73124 -0.048381 -0.6804 0.0060202
-0.034701 0.13702 1.0135 6.2463e-39 416 356.5 0 0 0 -0.73367 -0.11795 -0.6692 0.0071376
0.054803 0.13697 1.0131 6.0388e-39 248.5 357.5 0 0 0 0.72002 -0.041215 -0.69273 0.0063556
0.056034 0.13708 1.0139 6.0388e-39 249.5 357.5 0 0 0 0.73133 -0.043384 -0.68064 0.0061931
-0.03448 0.1391 1.0128 6.4844e-39 219 358.33 0 0 0 -0.71943 -0.10953 -0.68587 0.0079388
0.054803 0.13934 1.0131 5.8544e-39 421 358.5 0 0 0 0.71373 -0.035113 -0.69954 0.0061011
0.056034 0.13886 1.0139 6.0849e-39 445 358 0 0 0 0.73071 -0.046584 -0.68109 0.0063555
-0.036494 0.14064 1.0139 5.3935e-39 446 358.5 0 0 0 -0.7446 -0.10627 -0.659 0.0092321
-0.034884 0.14072 1.0131 5.8698e-39 440.67 358.67 0 0 0 -0.72057 -0.10494 -0.68539 0.0085403
0.054803 0.14112 1.0131 6.6381e-39 256 360 0 0 0 0.71035 -0.031391 -0.70315 0.0061033
0.056034 0.14064 1.0139 6.2232e-39 328 359.5 0 0 0 0.72971 -0.041823 -0.68248 0.0063036
-0.036494 0.14301 1.0139 6.4537e-39 263 360.5 0 0 0 -0.74029 -0.092869 -0.66585 0.010061
-0.03468 0.14286 1.0129 6.3845e-39 265 360.5 0 0 0 -0.7188 -0.089861 -0.68938 0.010065
0.054758 0.14277 1.0123 6.5919e-39 418 360.5 0 0 0 0.69909 -0.026755 -0.71453 0.0055385
0.056034 0.14301 1.0139 6.3615e-39 419 360.5 0 0 0 0.72288 -0.036754 -0.68999 0.0058022
-0.036494 0.14538 1.0139 6.3155e-39 318.5 361.5 0 0 0 -0.74052 -0.069046 -0.66847 0.01165
-0.034875 0.14503 1.0128 7.0068e-39 348 361.33 0 0 0 -0.71343 -0.062025 -0.69798 0.010831
0.055168 0.14538 1.0126 6.3308e-39 320.67 362 0 0 0 0.69531 -0.018626 -0.71846 0.0049437
0.056034 0.14479 1.0139 5.7161e-39 162 362 0 0 0 0.7175 -0.031453 -0.69585 0.0054869
-0.036494 0.14716 1.0139 5.9005e-39 419 362 0 0 0 -0.72996 -0.039176 -0.68236 0.012676
-0.035279 0.14704 1.0131 5.8083e-39 420 362 0 0 0 -0.71657 -0.040319 -0.69635 0.011811
0.055373 0.14698 1.0127 5.2551e-39 214.5 363 0 0 0 0.69171 -0.011281 -0.72208 0.0049468
-0.036494 0.14835 1.0139 6.3615e-39 250 363 0 0 0 -0.73068 -0.030011 -0.68206 0.012958
-0.03525 0.1487 1.0123 5.8083e-39 340.5 363 0 0 0 -0.68881 -0.0098467 -0.72487 0.010533
0.055373 0.14876 1.0127 6.4076e-39 324.5 363.5 0 0 0 0.68756 -0.00039793 -0.72613 0.0047437
0.05722 0.14954 1.0139 5.9005e-39 241 364 0 0 0 0.70852 -0.0025201 -0.70569 0.0056685
-0.035293 0.15126 1.0135 6.3615e-39 348.5 364 0 0 0 -0.68744 0.027122 -0.72573 0.011435
0.055373 0.15113 1.0127 6.6381e-39 335.5 364.5 0 0 0 0.68024 0.018809 -0.73275 0.0049042
0.05722 0.15132 1.0139 6.5459e-39 337 364.5 0 0 0 0.7011 0.012108 -0.71296 0.0057888
-0.035308 0.15309 1.0139 6.4537e-39 269 365 0 0 0 -0.68109 0.066661 -0.72916 0.011609
0.055395 0.15297 1.0131 5.6239e-39 428.5 365 0 0 0 0.67677 0.037898 -0.73522 0.0053098
0.05722 0.15309 1.0139 5.4395e-39 430 365 0 0 0 0.69508 0.030764 -0.71827 0.0061535
-0.036494 0.15488 1.0139 5.6239e-39 361 365.5 0 0 0 -0.68577 0.10158 -0.7207 0.013177
-0.035279 0.15474 1.0131 5.5317e-39 362 365.5 0 0 0 -0.66433 0.1017 -0.74049 0.010457
0.055373 0.15468 1.0127 6.3845e-39 352.5 366 0 0 0 0.67045 0.056513 -0.7398 0.0053658
0.05722 0.15488 1.0139 6.0388e-39 355 366 0 0 0 0.6925 0.052839 -0.71948 0.0066356
-0.036494 0.15665 1.0139 4.3332e-39 514 366 0 0 0 -0.67291 0.13749 -0.72683 0.011736
-0.034694 0.15715 1.0133 6.3615e-39 233.75 367 0 0 0 -0.65937 0.1459 -0.73753 0.010735
0.055168 0.15683 1.0126 6.423e-39 334.67 367 0 0 0 0.66518 0.082312 -0.74213 0.0059031
0.056627 0.15725 1.0139 6.2232e-39 368 367 0 0 0 0.68126 0.087703 -0.72677 0.006724
-0.034701 0.15896 1.0135 6.4998e-39 150.5 368 0 0 0 -0.65169 0.18834 -0.73473 0.010001
0.054803 0.15889 1.0131 5.9927e-39 274 368 0 0 0 0.66085 0.11517 -0.74163 0.0062321
0.056034 0.15903 1.0139 5.8083e-39 275 368 0 0 0 0.67257 0.12013 -0.73022 0.0070398
-0.034508 0.16056 1.0136 7.2834e-39 305.33 368.33 0 0 0 -0.65034 0.21369 -0.72897 0.0097304
-0.032881 0.16113 1.0123 5.5317e-39 176 369 0 0 0 -0.62225 0.22277 -0.75045 0.0075175
0.054803 0.16067 1.0131 7.7905e-39 262.5 369 0 0 0 0.65685 0.1495 -0.73905 0.006968
0.056034 0.16081 1.0139 7.6061e-39 263.5 369 0 0 0 0.66728 0.14823 -0.72991 0.0072809
-0.032894 0.16298 1.0127 7.2835e-39 299 369.5 0 0 0 -0.6283 0.24869 -0.73715 0.0074801
0.054803 0.16305 1.0131 7.053e-39 280 370 0 0 0 0.65111 0.19219 -0.73425 0.0074845
0.056034 0.16258 1.0139 6.8225e-39 177 370 0 0 0 0.66487 0.17687 -0.72572 0.0080483
-0.032908 0.16482 1.0131 6.1771e-39 401 370 0 0 0 -0.62735 0.26939 -0.73066 0.0070116
-0.031302 0.16548 1.0123 6.884e-39 279.67 370.67 0 0 0 -0.60635 0.27134 -0.74747 0.0055059
0.053573 0.16469 1.0123 6.7303e-39 182 371 0 0 0 0.63727 0.22104 -0.73826 0.0074333
0.054848 0.16496 1.0139 6.6381e-39 183 371 0 0 0 0.6529 0.23115 -0.72131 0.0086076
-0.032935 0.16673 1.0139 6.6842e-39 310.5 371 0 0 0 -0.63129 0.28776 -0.72019 0.0069363
-0.031118 0.16712 1.0127 6.2232e-39 405.5 371 0 0 0 -0.61067 0.28978 -0.73696 0.0056005
0.053208 0.16675 1.0128 7.7445e-39 258.67 371.67 0 0 0 0.63322 0.25946 -0.72918 0.008195
0.054848 0.16673 1.0139 7.6983e-39 296 371.5 0 0 0 0.6446 0.26213 -0.71818 0.0086299
-0.031143 0.16904 1.0135 5.5548e-39 330.5 372 0 0 0 -0.61308 0.30411 -0.72914 0.0055022
-0.028941 0.16907 1.0126 5.8698e-39 360.33 372 0 0 0 -0.58958 0.29644 -0.75135 0.0045418
0.053222 0.16917 1.0131 7.4678e-39 249.33 372.67 0 0 0 0.62949 0.30236 -0.71577 0.007947
0.054848 0.16852 1.0139 6.7303e-39 398 372 0 0 0 0.6421 0.28914 -0.71 0.0086158
-0.030563 0.17089 1.0139 7.0069e-39 217 373 0 0 0 -0.61378 0.31706 -0.72301 0.0057317
-0.028772 0.17082 1.0135 7.4218e-39 218.5 373 0 0 0 -0.59855 0.31036 -0.73852 0.0049074
-0.02696 0.1712 1.0123 6.0849e-39 322.5 373 0 0 0 -0.58574 0.30245 -0.75195 0.004177
-0.025775 0.17179 1.0123 6.2693e-39 412 373 0 0 0 -0.57675 0.30032 -0.75972 0.0040675
0.050824 0.17144 1.0126 7.0069e-39 238 373.67 0 0 0 0.61461 0.32815 -0.71734 0.0075954
0.052432 0.17075 1.0131 7.7444e-39 390 373 0 0 0 0.62686 0.32172 -0.70961 0.0078983
-0.02819 0.17266 1.0139 6.4998e-39 295 373.5 0 0 0 -0.60529 0.31655 -0.73036 0.0048915
-0.026982 0.17312 1.0131 7.0069e-39 181 374 0 0 0 -0.5896 0.30875 -0.74635 0.0041793
-0.025775 0.17298 1.0123 6.8225e-39 182 374 0 0 0 -0.57621 0.30535 -0.75812 0.0039891
0.050655 0.17312 1.0131 6.9608e-39 367.5 374 0 0 0 0.61863 0.34683 -0.70499 0.0073665
0.052475 0.17266 1.0139 7.053e-39 266.5 374 0 0 0 0.63098 0.34922 -0.69275 0.0082462
-0.027004 0.17445 1.0139 8.1132e-39 385 374 0 0 0 -0.59814 0.31594 -0.73648 0.004512
-0.025013 0.17475 1.0134 7.6215e-39 305.67 374.33 0 0 0 -0.57719 0.315 -0.75341 0.0042572
0.050457 0.1747 1.0131 6.0849e-39 399.33 374.33 0 0 0 0.62077 0.35894 -0.697 0.0074026
-0.024632 0.17682 1.0139 4.7942e-39 280 375 0 0 0 -0.57895 0.32353 -0.74843 0.0045039
-0.023012 0.17732 1.0123 4.9479e-39 379.33 375 0 0 0 -0.55216 0.32106 -0.76944 0.0049566
0.048836 0.17771 1.0123 6.8225e-39 158 376 0 0 0 0.60673 0.37777 -0.69941 0.0068886
0.050103 0.17682 1.0139 6.3615e-39 406 375 0 0 0 0.62619 0.37904 -0.68133 0.0069105
-0.024632 0.1786 1.0139 5.6701e-39 296 375.5 0 0 0 -0.5785 0.32945 -0.74619 0.0048642
-0.022815 0.1789 1.0123 6.7303e-39 173.5 376 0 0 0 -0.55251 0.32596 -0.76712 0.0053617
0.047652 0.1789 1.0123 5.163e-39 288 376 0 0 0 0.59929 0.39369 -0.69704 0.0071754
0.048916 0.17919 1.0139 5.0708e-39 301 376 0 0 0 0.61873 0.40449 -0.67347 0.0067067
-0.024632 0.18097 1.0139 5.6239e-39 377.5 376 0 0 0 -0.57497 0.33831 -0.74496 0.0053767
-0.022815 0.18067 1.0123 5.3934e-39 379 376 0 0 0 -0.55211 0.33107 -0.76523 0.0058021
0.044925 0.18062 1.0131 6.4537e-39 315.33 376.33 0 0 0 0.57659 0.41672 -0.70277 0.0079715
0.047128 0.18093 1.0137 6.2463e-39 274.5 376.5 0 0 0 0.6024 0.43098 -0.67185 0.0080013
-0.024632 0.18334 1.0139 6.3154e-39 206.5 377 0 0 0 -0.57955 0.33735 -0.74184 0.0057542
-0.022815 0.18304 1.0123 6.2693e-39 208 377 0 0 0 -0.54803 0.32905 -0.76902 0.0063399
0.040546 0.18364 1.0123 6.5459e-39 361 377 0 0 0 0.51574 0.45394 -0.7266 0.011307
0.042985 0.18275 1.0139 7.3757e-39 247 377 0 0 0 0.56258 0.44163 -0.6989 0.0084386
-0.024632 0.18512 1.0139 7.7444e-39 372 377 0 0 0 -0.58241 0.33229 -0.74188 0.0063604
-0.022815 0.18482 1.0123 8.2054e-39 373.5 377 0 0 0 -0.5463 0.32759 -0.77087 0.0065122
0.040546 0.18482 1.0123 5.7161e-39 441 377 0 0 0 0.51303 0.46759 -0.71983 0.011578
-0.022824 0.18608 1.0127 6.4076e-39 451.5 377 0 0 0 -0.55154 0.32565 -0.76796 0.0067747
-0.021038 0.186 1.0123 6.2693e-39 453 377 0 0 0 -0.52449 0.33067 -0.78458 0.0081863
0.041146 0.18663 1.0125 6.9839e-39 207.5 378 0 0 0 0.52218 0.48907 -0.69867 0.010894
0.040579 0.18853 1.0131 5.6239e-39 310 378 0 0 0 0.51549 0.51363 -0.6859 0.011299
-0.021107 0.093935 1.0156 7.7444e-39 468 331 0 0 0 -0.62132 -0.58585 -0.52033 0.02434
-0.02109 0.095045 1.0148 7.0069e-39 397 332 0 0 0 -0.63395 -0.54667 -0.54704 0.026274
0.045395 0.095045 1.0148 7.0069e-39 432 332 0 0 0 0.73113 -0.41034 -0.54503 0.022731
0.047215 0.095124 1.0156 7.0069e-39 433.5 332 0 0 0 0.7472 -0.40544 -0.5266 0.021183
-0.025266 0.096906 1.0156 6.6841e-39 343.5 332.5 0 0 0 -0.72067 -0.47402 -0.5059 0.024438
-0.02289 0.096312 1.0156 7.1913e-39 459.5 332 0 0 0 -0.68951 -0.50439 -0.51978 0.025825
0.048997 0.096312 1.0156 5.3473e-39 197 333 0 0 0 0.7698 -0.37373 -0.51743 0.021099
-0.030613 0.099876 1.0156 7.0991e-39 393 334 0 0 0 -0.78233 -0.39908 -0.47822 0.020653
-0.028237 0.099282 1.0156 6.8225e-39 413 333.5 0 0 0 -0.75054 -0.43558 -0.49694 0.022727
-0.027026 0.098607 1.0148 6.9147e-39 432 333 0 0 0 -0.74202 -0.43647 -0.50881 0.023663
0.050144 0.099794 1.0148 3.78e-39 488 334 0 0 0 0.7678 -0.35089 -0.53606 0.019163
-0.030588 0.10098 1.0148 5.4395e-39 253 335 0 0 0 -0.77774 -0.38179 -0.49936 0.020846
-0.028213 0.10098 1.0148 5.7161e-39 255 335 0 0 0 -0.75242 -0.39337 -0.52832 0.021435
0.052518 0.10098 1.0148 6.7303e-39 470 335 0 0 0 0.78064 -0.34464 -0.52137 0.018094
-0.0306 0.10281 1.0152 6.9608e-39 458 335.5 0 0 0 -0.79439 -0.35074 -0.49591 0.018328
-0.029021 0.10262 1.0153 7.0069e-39 467 335.33 0 0 0 -0.78009 -0.36446 -0.50856 0.020121
0.051373 0.10344 1.0156 7.0991e-39 389 337 0 0 0 0.77223 -0.32918 -0.54342 0.017848
0.052561 0.10284 1.0156 6.2693e-39 404.5 336.5 0 0 0 0.77858 -0.33539 -0.5304 0.017363
-0.030613 0.10522 1.0156 6.3154e-39 331 337.5 0 0 0 -0.79678 -0.31791 -0.51388 0.015502
-0.029413 0.10518 1.0152 6.3154e-39 332 337.5 0 0 0 -0.78741 -0.3187 -0.52765 0.017412
0.051331 0.10513 1.0148 6.592e-39 337 338 0 0 0 0.75864 -0.31078 -0.57261 0.018435
0.052518 0.10513 1.0148 6.6381e-39 338 338 0 0 0 0.76552 -0.31019 -0.5637 0.017258
-0.030613 0.10879 1.0156 7.053e-39 400 339.5 0 0 0 -0.80219 -0.26225 -0.5364 0.013706
0.053728 0.10874 1.0152 6.3615e-39 354 340 0 0 0 0.77417 -0.26979 -0.5726 0.013787
-0.030613 0.11117 1.0156 6.592e-39 297 341 0 0 0 -0.79649 -0.23286 -0.55802 0.012553
-0.029401 0.11167 1.0148 7.1913e-39 429 341 0 0 0 -0.78105 -0.22381 -0.58298 0.013441
0.053705 0.11048 1.0148 6.3615e-39 404 341 0 0 0 0.75935 -0.23605 -0.60635 0.012031
-0.030588 0.11285 1.0148 6.0849e-39 382 342 0 0 0 -0.78812 -0.20747 -0.5795 0.011984
-0.029401 0.11285 1.0148 5.9005e-39 383 342 0 0 0 -0.77572 -0.20502 -0.59685 0.013587
-0.031801 0.11532 1.0156 7.0991e-39 453 343 0 0 0 -0.78742 -0.19366 -0.5852 0.013205
0.054938 0.11532 1.0156 5.8083e-39 256 344 0 0 0 0.75404 -0.18764 -0.62946 0.0091171
-0.034178 0.1177 1.0156 6.0849e-39 205 345 0 0 0 -0.79107 -0.19165 -0.58092 0.013688
-0.031775 0.11642 1.0148 6.5459e-39 386 344 0 0 0 -0.78089 -0.18206 -0.59755 0.013818
0.054915 0.11705 1.0152 6.9147e-39 287.5 345 0 0 0 0.75061 -0.17459 -0.63726 0.008688
0.056522 0.1173 1.0156 6.8225e-39 335.33 345 0 0 0 0.7691 -0.17451 -0.61485 0.0084613
-0.034178 0.11889 1.0156 6.6381e-39 458 345 0 0 0 -0.78873 -0.19479 -0.58307 0.014178
-0.032976 0.11943 1.0152 6.1771e-39 429 345.5 0 0 0 -0.77528 -0.18116 -0.60508 0.013423
0.056697 0.11944 1.0152 6.0619e-39 209 346.5 0 0 0 0.76254 -0.1532 -0.62854 0.0069777
-0.034178 0.12067 1.0156 6.592e-39 305 346.5 0 0 0 -0.78038 -0.1899 -0.59577 0.013381
-0.032962 0.12116 1.0148 7.4678e-39 216 347 0 0 0 -0.76789 -0.17934 -0.61497 0.013272
0.056673 0.12116 1.0148 7.4218e-39 429.5 347 0 0 0 0.75188 -0.13885 -0.64452 0.0062918
-0.034178 0.12304 1.0156 6.3615e-39 419.5 347.5 0 0 0 -0.77638 -0.19278 -0.60006 0.01225
-0.032962 0.12294 1.0148 6.2693e-39 420.5 347.5 0 0 0 -0.76405 -0.18221 -0.61889 0.012841
0.056673 0.12294 1.0148 5.7622e-39 201.5 348.5 0 0 0 0.75877 -0.12411 -0.63943 0.007083
0.058502 0.12304 1.0156 5.9005e-39 203 348.5 0 0 0 0.7761 -0.12858 -0.61736 0.0067432
-0.034178 0.12483 1.0156 4.8864e-39 211 349 0 0 0 -0.7725 -0.18117 -0.60862 0.011493
0.056673 0.12532 1.0148 6.8685e-39 338.5 349.5 0 0 0 0.75628 -0.10525 -0.64572 0.0062861
-0.034164 0.12656 1.0152 6.131e-39 423 349.5 0 0 0 -0.76068 -0.16772 -0.62708 0.010129
0.056673 0.1271 1.0148 6.592e-39 225 351 0 0 0 0.75106 -0.089264 -0.65417 0.0061765
-0.03415 0.12889 1.0148 5.8544e-39 199.5 351.5 0 0 0 -0.75441 -0.15614 -0.63756 0.0095229
0.056871 0.12869 1.0148 6.2078e-39 439.33 351.33 0 0 0 0.74648 -0.080623 -0.66051 0.0060391
-0.034555 0.13149 1.0151 7.0068e-39 421.67 352.67 0 0 0 -0.7569 -0.13821 -0.63875 0.0095374
0.057267 0.13126 1.0148 6.3615e-39 326.5 353.5 0 0 0 0.74555 -0.065705 -0.66321 0.0057665
-0.034758 0.13309 1.0152 5.9005e-39 389.5 354 0 0 0 -0.75305 -0.1307 -0.64485 0.0091793
0.057267 0.13304 1.0148 6.2693e-39 231 355 0 0 0 0.74174 -0.055857 -0.66836 0.0058237
-0.036539 0.13487 1.0152 6.085e-39 236 355.5 0 0 0 -0.76417 -0.12184 -0.63341 0.0097987
-0.035351 0.13487 1.0152 6.1771e-39 237 355.5 0 0 0 -0.75603 -0.12442 -0.6426 0.0094531
0.057267 0.13482 1.0148 6.8685e-39 429 355.5 0 0 0 0.74005 -0.05056 -0.67065 0.0059831
-0.036524 0.13719 1.0148 6.2232e-39 414.5 356.5 0 0 0 -0.75919 -0.11311 -0.64097 0.01006
0.057314 0.1373 1.0156 6.1771e-39 250.5 357.5 0 0 0 0.7465 -0.046737 -0.66374 0.006385
-0.036524 0.13897 1.0148 6.8225e-39 254 358 0 0 0 -0.76329 -0.11566 -0.63562 0.0082163
0.057314 0.13909 1.0156 5.9927e-39 446 358 0 0 0 0.74499 -0.048056 -0.66534 0.0064915
-0.037742 0.14146 1.0156 5.6239e-39 425 359 0 0 0 -0.76353 -0.10751 -0.63677 0.0091216
0.057314 0.14087 1.0156 6.4998e-39 329 359.5 0 0 0 0.74705 -0.046635 -0.66313 0.0067893
-0.037742 0.14324 1.0156 6.3154e-39 262 360.5 0 0 0 -0.76452 -0.093199 -0.63783 0.0098693
0.057291 0.14318 1.0152 6.1311e-39 420 360.5 0 0 0 0.73828 -0.042656 -0.67314 0.0065595
-0.037711 0.14491 1.0148 7.3757e-39 402 361 0 0 0 -0.75263 -0.077413 -0.65388 0.010913
0.057267 0.14491 1.0148 5.9927e-39 163 362 0 0 0 0.72961 -0.038754 -0.68276 0.0060013
-0.038931 0.14681 1.0156 5.9466e-39 324.5 362 0 0 0 -0.76762 -0.061577 -0.63794 0.012147
-0.037711 0.14669 1.0148 5.8083e-39 325.5 362 0 0 0 -0.74924 -0.05679 -0.65986 0.012501
0.057267 0.14669 1.0148 6.2233e-39 309 362.5 0 0 0 0.72681 -0.027741 -0.68628 0.0061561
0.058898 0.14701 1.0156 6.1156e-39 279.33 362.67 0 0 0 0.74052 -0.034258 -0.67116 0.0067026
-0.038931 0.14859 1.0156 6.5459e-39 248 363 0 0 0 -0.76315 -0.03418 -0.64531 0.013791
-0.037315 0.14926 1.0148 5.5932e-39 368.67 363 0 0 0 -0.74174 -0.018832 -0.67042 0.013741
0.057267 0.14847 1.0148 6.5459e-39 412 363 0 0 0 0.72365 -0.016254 -0.68997 0.0060665
0.059085 0.14915 1.0154 5.9235e-39 328 363.5 0 0 0 0.73463 -0.016851 -0.67825 0.0069241
-0.037133 0.15091 1.0152 7.0069e-39 258.5 364 0 0 0 -0.73853 0.0065713 -0.67419 0.014536
0.059073 0.15091 1.0152 5.8083e-39 421.5 364 0 0 0 0.72542 -0.0025986 -0.6883 0.0068235
-0.040697 0.15328 1.0152 6.5459e-39 264.5 365 0 0 0 -0.75213 0.047561 -0.6573 0.017307
-0.038931 0.15335 1.0156 6.9147e-39 266 365 0 0 0 -0.7461 0.051046 -0.66388 0.016713
-0.037117 0.15262 1.0148 6.2693e-39 351.5 364.5 0 0 0 -0.71435 0.047662 -0.69817 0.013571
0.059048 0.15262 1.0148 6.1541e-39 343.5 365 0 0 0 0.71407 0.015976 -0.6999 0.0069245
0.060879 0.15275 1.0156 6.2693e-39 345 365 0 0 0 0.72762 0.0077839 -0.68594 0.008194
-0.042495 0.15512 1.0156 6.0389e-39 356 365.5 0 0 0 -0.75831 0.071564 -0.64796 0.019992
-0.040679 0.155 1.0148 5.7622e-39 357.5 365.5 0 0 0 -0.72831 0.083478 -0.68015 0.016187
-0.038931 0.15512 1.0156 5.7622e-39 359 365.5 0 0 0 -0.72147 0.092242 -0.68628 0.015694
-0.037711 0.155 1.0148 5.8083e-39 360 365.5 0 0 0 -0.70756 0.098345 -0.69977 0.014933
0.059048 0.155 1.0148 6.0618e-39 356.5 366 0 0 0 0.70523 0.048537 -0.70732 0.0075252
0.060879 0.15512 1.0156 6.131e-39 358 366 0 0 0 0.72086 0.043406 -0.69172 0.0093013
-0.042495 0.15691 1.0156 5.6239e-39 464 366 0 0 0 -0.74511 0.10933 -0.65792 0.019509
-0.040493 0.15722 1.0151 5.9005e-39 403.67 366.33 0 0 0 -0.70957 0.13081 -0.69239 0.015417
-0.038899 0.15738 1.0148 4.702e-39 396.5 366.5 0 0 0 -0.69905 0.1446 -0.7003 0.014745
-0.037133 0.15744 1.0152 4.4715e-39 398 366.5 0 0 0 -0.6908 0.15192 -0.70691 0.014243
0.057267 0.15797 1.0148 6.0849e-39 465 367 0 0 0 0.69204 0.095617 -0.7155 0.0079023
0.059073 0.15685 1.0152 6.131e-39 273.5 367 0 0 0 0.70477 0.075481 -0.70541 0.0084728
-0.040119 0.15929 1.0156 7.2835e-39 146 368 0 0 0 -0.69501 0.17138 -0.69827 0.014549
-0.038899 0.15916 1.0148 7.0991e-39 147 368 0 0 0 -0.68764 0.17534 -0.70456 0.013606
-0.037336 0.15885 1.0153 5.962e-39 193 367.67 0 0 0 -0.68131 0.17764 -0.71011 0.012877
0.057267 0.15916 1.0148 5.8083e-39 276 368 0 0 0 0.6869 0.11703 -0.71727 0.0081715
0.059097 0.15869 1.0156 5.7161e-39 383.25 367.5 0 0 0 0.69742 0.10368 -0.70912 0.0091428
-0.038931 0.16047 1.0156 8.021e-39 367 368 0 0 0 -0.6906 0.21201 -0.69147 0.014533
-0.036539 0.161 1.0152 7.053e-39 270 368.5 0 0 0 -0.67253 0.22596 -0.70473 0.011677
-0.035337 0.16153 1.0148 5.5317e-39 174 369 0 0 0 -0.66029 0.23354 -0.71377 0.010341
0.057267 0.16093 1.0148 7.3296e-39 264.5 369 0 0 0 0.67491 0.15046 -0.72239 0.0079463
0.058898 0.16087 1.0156 6.9454e-39 229.33 369 0 0 0 0.69697 0.14238 -0.70283 0.010208
-0.036554 0.16285 1.0156 8.5742e-39 386 369 0 0 0 -0.66851 0.25016 -0.70037 0.011348
-0.034555 0.16316 1.0151 7.7137e-39 327.33 369.33 0 0 0 -0.65481 0.2563 -0.71101 0.0098229
0.056871 0.16351 1.0148 8.144e-39 316.33 370 0 0 0 0.67265 0.20234 -0.71176 0.0093779
0.058502 0.16285 1.0156 7.3757e-39 179 370 0 0 0 0.68575 0.1771 -0.70596 0.0099985
-0.034961 0.16479 1.0153 6.6688e-39 335 370 0 0 0 -0.65127 0.27306 -0.70802 0.0089897
0.05672 0.16523 1.0156 6.7303e-39 184.5 371 0 0 0 0.67317 0.23588 -0.70086 0.010012
0.058502 0.16404 1.0156 8.6664e-39 387 370 0 0 0 0.68183 0.20762 -0.70143 0.010521
-0.034565 0.16677 1.0153 6.5766e-39 278 371 0 0 0 -0.64878 0.28944 -0.70378 0.0086148
0.056126 0.16642 1.0156 8.2054e-39 389 371 0 0 0 0.66677 0.25509 -0.70024 0.010048
-0.032976 0.16932 1.0152 5.5318e-39 329 372 0 0 0 -0.63287 0.31426 -0.70761 0.0069677
0.054893 0.16984 1.0148 7.3757e-39 177 373 0 0 0 0.65002 0.3186 -0.6899 0.0095182
-0.031775 0.17103 1.0148 6.8225e-39 216 373 0 0 0 -0.62287 0.32299 -0.71254 0.0058823
0.053705 0.17103 1.0148 7.3757e-39 391 373 0 0 0 0.64096 0.33977 -0.68828 0.0086263
0.054893 0.17103 1.0148 6.9147e-39 392 373 0 0 0 0.64631 0.3351 -0.68556 0.0089256
-0.031181 0.17281 1.0148 6.4767e-39 292.5 373.5 0 0 0 -0.62227 0.32877 -0.71042 0.0056939
-0.029401 0.17281 1.0148 6.4537e-39 294 373.5 0 0 0 -0.61538 0.32511 -0.71806 0.0055542
0.05375 0.17296 1.0156 7.1452e-39 267.5 374 0 0 0 0.64461 0.36554 -0.67146 0.0087736
0.054938 0.17236 1.0156 6.3615e-39 166 374 0 0 0 0.64839 0.35792 -0.67193 0.0093961
-0.031207 0.17473 1.0156 8.1132e-39 381.5 374 0 0 0 -0.63023 0.33899 -0.6985 0.0064027
-0.028819 0.17466 1.0152 8.021e-39 383.5 374 0 0 0 -0.61802 0.3301 -0.7135 0.0054595
-0.027026 0.17578 1.0148 6.6381e-39 142 375 0 0 0 -0.60634 0.32562 -0.72548 0.0048445
-0.025839 0.17578 1.0148 6.2693e-39 143 375 0 0 0 -0.59993 0.3215 -0.73261 0.0047858
0.051331 0.17578 1.0148 5.163e-39 250 375 0 0 0 0.63653 0.37823 -0.67214 0.007758
0.052539 0.17526 1.0152 5.4857e-39 363.5 374.5 0 0 0 0.63895 0.37738 -0.67032 0.0079251
-0.027048 0.17711 1.0156 5.8083e-39 263 375 0 0 0 -0.61182 0.33205 -0.71792 0.0049344
-0.025839 0.17696 1.0148 4.9786e-39 279 375 0 0 0 -0.5954 0.32643 -0.73413 0.0047344
-0.027048 0.17889 1.0156 5.6701e-39 294 375.5 0 0 0 -0.61403 0.33483 -0.71474 0.0053551
-0.025839 0.17875 1.0148 5.624e-39 295 375.5 0 0 0 -0.59161 0.33232 -0.73455 0.0048555
0.050185 0.1783 1.0156 6.6381e-39 159 376 0 0 0 0.63646 0.41478 -0.65029 0.0070434
-0.027048 0.18067 1.0156 4.7942e-39 340 376 0 0 0 -0.61136 0.33745 -0.71579 0.0055935
-0.025839 0.18112 1.0148 5.4856e-39 376.5 376 0 0 0 -0.58867 0.33466 -0.73585 0.0049341
0.044208 0.18171 1.0148 6.1771e-39 144 377 0 0 0 0.58231 0.4397 -0.6838 0.0079856
0.048977 0.18119 1.0152 5.9466e-39 276 376.5 0 0 0 0.627 0.4422 -0.64135 0.0069096
-0.025839 0.1829 1.0148 6.2693e-39 155 377 0 0 0 -0.58892 0.33549 -0.73527 0.0053765
0.047215 0.18305 1.0156 6.4076e-39 250.5 377 0 0 0 0.61329 0.45721 -0.64408 0.0071262
-0.025839 0.18409 1.0148 6.0849e-39 256 377 0 0 0 -0.59214 0.33399 -0.73336 0.0057236
0.04302 0.18468 1.0148 6.4537e-39 403 377 0 0 0 0.57243 0.47007 -0.67183 0.0084198
-0.019952 0.09171 1.0173 7.7444e-39 460 330 0 0 0 -0.54494 -0.70018 -0.46129 0.015965
-0.021142 0.0929 1.0173 6.2693e-39 390 331 0 0 0 -0.61197 -0.63514 -0.47127 0.020809
0.044893 0.094051 1.0168 7.4679e-39 256.5 332 0 0 0 0.73663 -0.43629 -0.51674 0.020725
0.047292 0.09409 1.0173 8.2976e-39 258.5 332 0 0 0 0.75515 -0.42325 -0.5006 0.019502
-0.028283 0.097661 1.0173 5.8083e-39 205 333 0 0 0 -0.76222 -0.45848 -0.45696 0.02318
-0.027071 0.09758 1.0164 6.1771e-39 206 333 0 0 0 -0.74581 -0.46335 -0.47861 0.023879
-0.025903 0.09647 1.0173 7.8366e-39 457 332 0 0 0 -0.74261 -0.48052 -0.46651 0.024322
-0.030664 0.098851 1.0173 6.3615e-39 429 333 0 0 0 -0.79931 -0.41727 -0.43243 0.020922
0.050226 0.098769 1.0164 8.3898e-39 383 334 0 0 0 0.78011 -0.36023 -0.51153 0.019718
-0.029461 0.10059 1.0168 6.3154e-39 324 334.5 0 0 0 -0.78889 -0.40217 -0.46467 0.020889
0.051415 0.10115 1.0164 7.0069e-39 469 335 0 0 0 0.78693 -0.35419 -0.50526 0.019824
0.051415 0.10234 1.0164 6.1771e-39 416 336 0 0 0 0.7839 -0.34167 -0.51843 0.018501
0.053838 0.10599 1.0173 5.9005e-39 472 338 0 0 0 0.80562 -0.31541 -0.5015 0.017319
-0.030638 0.10709 1.0164 5.2552e-39 164 339 0 0 0 -0.80845 -0.29488 -0.50936 0.013949
0.053794 0.10709 1.0164 6.1771e-39 402 339 0 0 0 0.79782 -0.30101 -0.52237 0.016914
0.055028 0.11194 1.0173 5.9927e-39 236 342 0 0 0 0.80157 -0.23338 -0.55048 0.012444
-0.031854 0.11313 1.0173 6.6381e-39 381 342 0 0 0 -0.80881 -0.23069 -0.54094 0.013701
0.055028 0.11313 1.0173 6.2693e-39 497 342 0 0 0 0.79723 -0.2262 -0.55969 0.012608
0.056218 0.11313 1.0173 6.0849e-39 498 342 0 0 0 0.79822 -0.22395 -0.55919 0.012783
-0.031827 0.11423 1.0164 6.5459e-39 202 343 0 0 0 -0.80072 -0.20761 -0.56192 0.013352
0.054983 0.11423 1.0164 7.4678e-39 416 343 0 0 0 0.76424 -0.19746 -0.61396 0.009909
0.056791 0.11487 1.0168 6.7073e-39 339.5 343.5 0 0 0 0.77626 -0.1964 -0.59903 0.0093154
0.057361 0.11661 1.0164 5.9927e-39 150 345 0 0 0 0.77791 -0.18516 -0.60047 0.0086463
0.058599 0.11908 1.0173 5.9927e-39 263 346 0 0 0 0.79323 -0.17277 -0.58389 0.0089982
0.058551 0.12077 1.0164 6.2693e-39 314 347 0 0 0 0.78493 -0.15338 -0.6003 0.0076745
0.058551 0.12493 1.0164 7.2835e-39 430 349 0 0 0 0.77331 -0.11365 -0.62375 0.006054
-0.035424 0.12681 1.0173 6.131e-39 422 349.5 0 0 0 -0.78671 -0.18382 -0.58932 0.011342
0.058551 0.12672 1.0164 6.3615e-39 248.5 350.5 0 0 0 0.76871 -0.097314 -0.63215 0.0058096
-0.035395 0.1291 1.0164 5.9927e-39 198.5 351.5 0 0 0 -0.77585 -0.1538 -0.61188 0.0098551
0.05917 0.12915 1.0168 6.8455e-39 432 351.5 0 0 0 0.76991 -0.080633 -0.63303 0.0054782
-0.035395 0.13088 1.0164 5.4395e-39 447 352 0 0 0 -0.77179 -0.14686 -0.61868 0.0097152
0.05917 0.13093 1.0168 6.0388e-39 388.5 353 0 0 0 0.76501 -0.071085 -0.64009 0.005553
-0.036599 0.13272 1.0168 7.0069e-39 397.5 353.5 0 0 0 -0.78055 -0.14036 -0.60913 0.010177
0.05917 0.13272 1.0168 5.9466e-39 250 354.5 0 0 0 0.76544 -0.05936 -0.64076 0.0056797
-0.037804 0.13575 1.0173 5.163e-39 213 356 0 0 0 -0.78391 -0.12336 -0.6085 0.010266
0.059194 0.13515 1.0173 6.9838e-39 430.5 355.5 0 0 0 0.76997 -0.053613 -0.63582 0.0063558
-0.037804 0.13694 1.0173 5.4395e-39 437 356 0 0 0 -0.78243 -0.11851 -0.61136 0.010817
0.059194 0.13694 1.0173 5.8083e-39 270.5 357 0 0 0 0.76674 -0.058313 -0.6393 0.0068222
-0.038995 0.13932 1.0173 7.0069e-39 252 358 0 0 0 -0.78715 -0.10935 -0.607 0.012007
-0.037788 0.13866 1.0168 7.0069e-39 321.5 357.5 0 0 0 -0.77632 -0.11296 -0.62013 0.010868
0.059194 0.13872 1.0173 5.9235e-39 340.5 358 0 0 0 0.77005 -0.052929 -0.63578 0.0070612
-0.038995 0.1417 1.0173 5.8083e-39 423 359 0 0 0 -0.78939 -0.10756 -0.60439 0.0095056
-0.037773 0.14039 1.0164 4.8864e-39 465 358 0 0 0 -0.77635 -0.11765 -0.61923 0.0086497
0.059182 0.14107 1.0171 7.4909e-39 330.5 359.5 0 0 0 0.76803 -0.050722 -0.6384 0.0072748
-0.038963 0.14336 1.0164 5.9927e-39 261 360.5 0 0 0 -0.78542 -0.094366 -0.61173 0.010503
0.059146 0.14336 1.0164 6.0388e-39 421.5 360.5 0 0 0 0.75778 -0.04768 -0.65076 0.0070832
-0.038963 0.14515 1.0164 6.9147e-39 401 361 0 0 0 -0.78691 -0.078683 -0.61203 0.011832
0.059145 0.14515 1.0164 5.67e-39 184.5 362 0 0 0 0.75733 -0.045221 -0.65146 0.0074104
0.060979 0.14468 1.0173 6.2693e-39 296.5 361.5 0 0 0 0.76657 -0.049588 -0.64024 0.0080255
-0.040185 0.14765 1.0173 6.4537e-39 416 362 0 0 0 -0.80231 -0.056092 -0.59427 0.014122
0.05974 0.14634 1.0164 7.56e-39 404 362 0 0 0 0.75649 -0.041664 -0.65268 0.0076169
0.060979 0.14706 1.0173 6.7303e-39 312 362.5 0 0 0 0.75978 -0.044487 -0.64865 0.0083274
0.062169 0.14706 1.0173 6.8685e-39 321 362.5 0 0 0 0.76109 -0.050651 -0.64667 0.0085959
-0.040185 0.14884 1.0173 6.3615e-39 247 363 0 0 0 -0.7966 -0.036668 -0.60339 0.015196
-0.038963 0.1499 1.0164 5.3473e-39 427 363 0 0 0 -0.765 -0.015489 -0.64384 0.014435
0.060929 0.14931 1.0164 5.8544e-39 329.5 363.5 0 0 0 0.74917 -0.026972 -0.66183 0.0079358
0.062169 0.14884 1.0173 6.1771e-39 416 363 0 0 0 0.75431 -0.036937 -0.65548 0.0083217
-0.040185 0.15062 1.0173 5.9005e-39 341 363.5 0 0 0 -0.78604 -0.0079019 -0.61812 0.016671
-0.038963 0.15109 1.0164 6.6381e-39 257 364 0 0 0 -0.76 0.0048139 -0.6499 0.015202
0.060929 0.15109 1.0164 6.2693e-39 423 364 0 0 0 0.74219 -0.012684 -0.67007 0.008281
0.062751 0.15059 1.0171 5.693e-39 335 364 0 0 0 0.7524 -0.025558 -0.65821 0.0086846
-0.040152 0.15228 1.0164 5.9005e-39 433 364 0 0 0 -0.77224 0.017603 -0.63509 0.016808
-0.038963 0.15228 1.0164 5.9927e-39 434 364 0 0 0 -0.75553 0.024775 -0.65464 0.016358
0.062725 0.15291 1.0166 6.4998e-39 346.5 365 0 0 0 0.74613 0.005576 -0.66578 0.0095726
0.062751 0.15535 1.0171 6.0388e-39 359.5 366 0 0 0 0.73732 0.038288 -0.67445 0.010565
0.060929 0.15704 1.0164 5.7161e-39 275 367 0 0 0 0.72041 0.07089 -0.68992 0.010189
-0.04253 0.15823 1.0164 5.7161e-39 278 367 0 0 0 -0.74267 0.13835 -0.65521 0.019523
-0.041341 0.15823 1.0164 5.7161e-39 279 367 0 0 0 -0.73061 0.14004 -0.66828 0.018145
0.060929 0.15883 1.0164 5.209e-39 396 367.5 0 0 0 0.71276 0.10307 -0.6938 0.011064
-0.040152 0.16061 1.0164 8.021e-39 366 368 0 0 0 -0.70186 0.20706 -0.68156 0.015346
-0.038963 0.1618 1.0164 5.9927e-39 169 369 0 0 0 -0.6809 0.23859 -0.69242 0.013136
-0.037788 0.16127 1.0168 7.053e-39 269 368.5 0 0 0 -0.68473 0.22959 -0.69169 0.013265
0.05974 0.1618 1.0164 7.9288e-39 376 369 0 0 0 0.69929 0.16178 -0.69629 0.011481
0.060929 0.1612 1.0164 7.1913e-39 267.5 369 0 0 0 0.70056 0.14762 -0.69816 0.011865
-0.038995 0.16312 1.0173 8.2054e-39 384 369 0 0 0 -0.68324 0.25468 -0.68434 0.01355
-0.037804 0.16312 1.0173 8.3898e-39 385 369 0 0 0 -0.67712 0.25707 -0.68951 0.012752
0.05974 0.16299 1.0164 7.1913e-39 180 370 0 0 0 0.69646 0.17876 -0.69497 0.01194
0.060979 0.16312 1.0173 6.9147e-39 181 370 0 0 0 0.7002 0.17998 -0.69089 0.012954
-0.037194 0.16484 1.0168 7.4218e-39 301 370 0 0 0 -0.66837 0.27545 -0.69095 0.011874
0.05936 0.16501 1.0167 7.6215e-39 253.67 370.67 0 0 0 0.68972 0.22408 -0.68853 0.011961
0.060979 0.16431 1.0173 8.021e-39 389 370 0 0 0 0.70447 0.21229 -0.67724 0.014183
-0.037202 0.16725 1.0171 6.3845e-39 307 371 0 0 0 -0.6628 0.30169 -0.68533 0.011131
-0.035395 0.16774 1.0164 6.3615e-39 402 371 0 0 0 -0.65185 0.30088 -0.69611 0.0091589
0.056965 0.16734 1.0164 7.4064e-39 270.33 371.67 0 0 0 0.67006 0.27719 -0.68861 0.010614
0.058599 0.16728 1.0173 7.6522e-39 301.5 371.5 0 0 0 0.68258 0.27274 -0.67801 0.011603
-0.034815 0.169 1.0168 5.2551e-39 240.5 372 0 0 0 -0.64694 0.31655 -0.69374 0.008745
0.056766 0.16893 1.0164 6.2232e-39 399.5 372 0 0 0 0.66309 0.30233 -0.68477 0.010267
-0.033017 0.17131 1.0164 6.7303e-39 215 373 0 0 0 -0.63798 0.33346 -0.69411 0.007669
0.0566 0.17061 1.017 7.0069e-39 250 373 0 0 0 0.66556 0.33496 -0.66696 0.011314
-0.033017 0.1731 1.0164 6.6381e-39 291 373.5 0 0 0 -0.63839 0.34124 -0.68994 0.0077589
0.054983 0.17369 1.0164 7.6522e-39 371 374 0 0 0 0.64956 0.37126 -0.6635 0.0090166
-0.033017 0.17488 1.0164 8.5742e-39 380 374 0 0 0 -0.64189 0.34975 -0.68239 0.0079399
0.053794 0.17488 1.0164 5.7161e-39 477 374 0 0 0 0.64682 0.38508 -0.65828 0.0084942
0.055028 0.17502 1.0173 5.9927e-39 478 374 0 0 0 0.65701 0.39925 -0.63948 0.0095632
-0.031052 0.17656 1.017 6.3615e-39 179 375 0 0 0 -0.64191 0.35145 -0.6815 0.0074981
-0.028672 0.17656 1.017 6.3308e-39 181 375 0 0 0 -0.63214 0.34121 -0.69568 0.0063511
0.051415 0.17726 1.0164 6.2693e-39 407 375 0 0 0 0.63975 0.40734 -0.65177 0.007806
0.053243 0.1768 1.0173 5.4395e-39 330 375 0 0 0 0.6482 0.40916 -0.64221 0.0087394
-0.028283 0.17919 1.0173 5.9927e-39 293 375.5 0 0 0 -0.63172 0.33711 -0.69806 0.006147
0.050268 0.17978 1.0173 5.0708e-39 302 376 0 0 0 0.642 0.4381 -0.62921 0.0067904
-0.027071 0.1826 1.0164 6.131e-39 282.5 376.5 0 0 0 -0.61547 0.33836 -0.71183 0.0063102
0.044893 0.18327 1.0168 7.053e-39 248.5 377 0 0 0 0.60266 0.47111 -0.64409 0.0075911
0.049037 0.1832 1.0164 5.7161e-39 252 377 0 0 0 0.63009 0.46112 -0.62479 0.0069087
0.050268 0.18216 1.0173 5.6239e-39 149 377 0 0 0 0.63877 0.45358 -0.62148 0.0068037
-0.027093 0.18454 1.0173 5.9005e-39 255 377 0 0 0 -0.62501 0.33188 -0.70656 0.0070831
0.045507 0.18454 1.0173 8.1132e-39 365 377 0 0 0 0.60793 0.48377 -0.62959 0.0071404
0.047292 0.18454 1.0173 7.053e-39 366.5 377 0 0 0 0.62188 0.48297 -0.61645 0.0069972
0.049077 0.18454 1.0173 7.56e-39 368 377 0 0 0 0.63334 0.47741 -0.60906 0.006765
0.043091 0.18677 1.0164 6.4537e-39 166 378 0 0 0 0.58219 0.49677 -0.64364 0.0079221
-0.020589 0.091302 1.0194 7.7444e-39 358.5 330 0 0 0 -0.54175 -0.73146 -0.41409 0.014894
0.045024 0.09313 1.0198 7.2374e-39 435.5 331 0 0 0 0.74812 -0.45065 -0.48706 0.019959
0.04737 0.093053 1.019 8.021e-39 449.5 331 0 0 0 0.76567 -0.43057 -0.47786 0.020018
-0.025151 0.09504 1.019 6.9454e-39 417.33 331.67 0 0 0 -0.72599 -0.54055 -0.42514 0.023996
-0.02276 0.095014 1.0187 6.8839e-39 419.33 331.67 0 0 0 -0.68807 -0.56733 -0.45244 0.024131
0.049158 0.095438 1.019 7.2835e-39 435 332 0 0 0 0.78644 -0.39526 -0.47464 0.0191
-0.030714 0.097822 1.019 5.7161e-39 203 333 0 0 0 -0.81931 -0.42832 -0.38114 0.021152
-0.027138 0.09663 1.019 7.6522e-39 456 332 0 0 0 -0.76291 -0.48773 -0.42437 0.022728
0.050309 0.097741 1.0181 6.1771e-39 422 333 0 0 0 0.78957 -0.36996 -0.4896 0.020268
-0.029498 0.098932 1.0181 6.4537e-39 430 333 0 0 0 -0.79312 -0.43267 -0.42866 0.021859
0.051585 0.099096 1.0198 8.2976e-39 384 334 0 0 0 0.81342 -0.36068 -0.45636 0.019343
0.0515 0.10012 1.0181 5.2552e-39 194 335 0 0 0 0.79723 -0.35566 -0.48779 0.019208
0.053883 0.10489 1.0181 7.2835e-39 206 338 0 0 0 0.81232 -0.32531 -0.48406 0.017086
-0.031933 0.10983 1.0198 8.482e-39 378 340 0 0 0 -0.84334 -0.2983 -0.447 0.013836
0.055142 0.10919 1.0194 6.0849e-39 355 340 0 0 0 0.83174 -0.28683 -0.47533 0.015353
0.056358 0.10983 1.0198 5.8083e-39 481 340 0 0 0 0.83818 -0.2761 -0.47034 0.014805
-0.031906 0.11094 1.019 5.9005e-39 165 341 0 0 0 -0.83271 -0.27801 -0.47885 0.014791
0.055074 0.11084 1.0181 6.7303e-39 405 341 0 0 0 0.8089 -0.25633 -0.52912 0.013531
0.056908 0.11094 1.0189 6.6381e-39 406.5 341 0 0 0 0.83533 -0.25535 -0.48684 0.014696
-0.03188 0.11203 1.0181 7.3757e-39 427 341 0 0 0 -0.81961 -0.25187 -0.51458 0.013611
0.057075 0.11246 1.0184 5.7776e-39 329.67 342 0 0 0 0.81464 -0.23817 -0.5288 0.013088
-0.033085 0.11506 1.0186 6.6841e-39 319.5 343 0 0 0 -0.8193 -0.22901 -0.52564 0.015267
0.058671 0.11744 1.0186 6.7764e-39 290.5 345 0 0 0 0.80297 -0.18716 -0.56587 0.0090919
-0.035512 0.12116 1.0198 6.6381e-39 304 346.5 0 0 0 -0.81252 -0.24194 -0.53035 0.01499
-0.035468 0.1234 1.0186 6.3154e-39 418.5 347.5 0 0 0 -0.79972 -0.21341 -0.56116 0.013389
-0.035453 0.12514 1.0181 4.8864e-39 210 349 0 0 0 -0.79426 -0.20064 -0.57349 0.012517
0.059913 0.1247 1.0194 6.5458e-39 290.5 349 0 0 0 0.80096 -0.12804 -0.58487 0.006112
-0.037103 0.12733 1.0198 6.0542e-39 411 349.67 0 0 0 -0.80558 -0.19567 -0.55925 0.013741
0.059838 0.12692 1.0181 6.7764e-39 249.5 350.5 0 0 0 0.78611 -0.10064 -0.60984 0.0057176
0.061105 0.12709 1.0194 6.5458e-39 304 350.5 0 0 0 0.7968 -0.099525 -0.59599 0.0055345
-0.037073 0.12921 1.019 6.6996e-39 215 351.33 0 0 0 -0.79938 -0.17651 -0.57432 0.012033
0.061029 0.12931 1.0181 6.8685e-39 433.5 351.5 0 0 0 0.7841 -0.08362 -0.61498 0.005719
-0.03748 0.13084 1.0192 5.8083e-39 344.67 352 0 0 0 -0.80084 -0.1605 -0.57697 0.012251
0.061029 0.13109 1.0181 5.9927e-39 390 353 0 0 0 0.78188 -0.071584 -0.6193 0.0056908
-0.040284 0.1337 1.0198 5.6239e-39 385 354 0 0 0 -0.81929 -0.13192 -0.55799 0.013569
-0.039091 0.1337 1.0198 6.2693e-39 386 354 0 0 0 -0.81535 -0.13705 -0.56251 0.013104
-0.037882 0.13304 1.0194 6.9608e-39 396.5 353.5 0 0 0 -0.80499 -0.14244 -0.57594 0.012249
0.061029 0.13288 1.0181 6.2232e-39 251.5 354.5 0 0 0 0.77963 -0.062626 -0.62311 0.0060412
-0.040251 0.13537 1.019 6.3615e-39 361.5 355 0 0 0 -0.81613 -0.11838 -0.56561 0.012878
-0.039043 0.13532 1.0186 5.9467e-39 234 355.5 0 0 0 -0.80531 -0.11892 -0.58081 0.012127
-0.037836 0.13467 1.0181 6.8225e-39 257 355 0 0 0 -0.78863 -0.13154 -0.60064 0.010975
0.061029 0.13526 1.0181 6.6842e-39 432 355.5 0 0 0 0.77924 -0.059917 -0.62385 0.0069035
-0.040284 0.13728 1.0198 6.1771e-39 435 356 0 0 0 -0.82134 -0.1091 -0.55991 0.012898
-0.039027 0.13705 1.0181 5.9005e-39 436 356 0 0 0 -0.80026 -0.11519 -0.58849 0.012065
0.061029 0.13705 1.0181 6.1771e-39 272 357 0 0 0 0.77988 -0.061182 -0.62293 0.0074817
0.062323 0.13728 1.0198 5.9005e-39 376 357 0 0 0 0.78866 -0.065361 -0.61134 0.008396
-0.039027 0.13824 1.0181 7.0991e-39 389 357 0 0 0 -0.79737 -0.11262 -0.59289 0.012104
0.061029 0.13883 1.0181 5.8083e-39 342 358 0 0 0 0.77959 -0.054147 -0.62394 0.007853
0.062323 0.13906 1.0198 5.8544e-39 343 358 0 0 0 0.78587 -0.063287 -0.61515 0.0087509
-0.039027 0.14062 1.0181 4.7942e-39 464 358 0 0 0 -0.79566 -0.1079 -0.59605 0.011737
0.061029 0.14121 1.0181 7.6061e-39 332 359.5 0 0 0 0.77632 -0.05877 -0.62759 0.0081989
0.062272 0.14134 1.019 7.514e-39 333 359.5 0 0 0 0.7766 -0.065372 -0.62659 0.0086286
-0.040251 0.14312 1.019 5.9005e-39 370 360 0 0 0 -0.8116 -0.097507 -0.57602 0.010438
0.061029 0.143 1.0181 5.9927e-39 458 360 0 0 0 0.77191 -0.058282 -0.63306 0.0082702
0.063084 0.14276 1.0192 6.1464e-39 394 360 0 0 0 0.77432 -0.067838 -0.62914 0.0089159
-0.040251 0.14491 1.019 6.0849e-39 275 361 0 0 0 -0.8109 -0.082326 -0.57936 0.011767
0.062843 0.14485 1.0186 6.131e-39 299.75 361.5 0 0 0 0.76785 -0.057644 -0.63804 0.0087251
-0.040218 0.14658 1.0181 5.4395e-39 219 362 0 0 0 -0.80461 -0.068619 -0.58983 0.01292
0.063412 0.14717 1.0181 6.9608e-39 322 362.5 0 0 0 0.76255 -0.054669 -0.64462 0.0090346
-0.041477 0.14861 1.0198 5.9927e-39 330.5 362.5 0 0 0 -0.83055 -0.046394 -0.555 0.015016
0.063412 0.14896 1.0181 6.3615e-39 417 363 0 0 0 0.75751 -0.038984 -0.65165 0.0088987
0.064683 0.14854 1.0194 6.131e-39 329 363 0 0 0 0.76071 -0.053458 -0.64688 0.010042
-0.041477 0.15159 1.0198 6.7303e-39 255 364 0 0 0 -0.82454 -0.0051493 -0.56578 0.018172
0.064629 0.15081 1.0186 5.8083e-39 336.5 364 0 0 0 0.75614 -0.036422 -0.6534 0.0099589
-0.041409 0.15253 1.0181 5.7161e-39 432 364 0 0 0 -0.79732 0.015199 -0.60336 0.018846
0.064603 0.15313 1.0181 6.3615e-39 348 365 0 0 0 0.75661 -0.0052354 -0.65384 0.010839
0.064603 0.15492 1.0181 6.5459e-39 270 366 0 0 0 0.75147 0.020404 -0.65945 0.011505
0.062817 0.1573 1.0181 5.67e-39 276.5 367 0 0 0 0.73826 0.069414 -0.67093 0.012364
0.064603 0.15611 1.0181 5.5317e-39 462 366 0 0 0 0.74549 0.034334 -0.66564 0.011744
-0.041409 0.15968 1.0181 7.0991e-39 145 368 0 0 0 -0.74917 0.17567 -0.63865 0.019878
0.062817 0.15909 1.0181 5.2551e-39 304 367.75 0 0 0 0.72965 0.095723 -0.67709 0.013158
0.064603 0.15909 1.0181 5.5317e-39 212 368 0 0 0 0.73649 0.084271 -0.67118 0.013759
-0.041443 0.161 1.019 8.1132e-39 365 368 0 0 0 -0.73185 0.21415 -0.64695 0.017292
0.062843 0.16093 1.0186 6.131e-39 159.5 369 0 0 0 0.71928 0.12819 -0.68279 0.014043
0.064603 0.16087 1.0181 5.9005e-39 161 369 0 0 0 0.72282 0.12989 -0.67871 0.014822
-0.040649 0.16259 1.019 6.761e-39 239.33 369 0 0 0 -0.71246 0.23653 -0.66065 0.016312
0.062843 0.16273 1.0186 7.6984e-39 280.5 369.5 0 0 0 0.71347 0.17293 -0.67901 0.01563
0.064683 0.16286 1.0194 7.6061e-39 282 369.5 0 0 0 0.73132 0.17589 -0.65896 0.018154
-0.039059 0.16517 1.019 7.6522e-39 299.5 370 0 0 0 -0.68273 0.28448 -0.67301 0.014075
0.061029 0.16564 1.0181 7.0069e-39 203 371 0 0 0 0.70118 0.24099 -0.67103 0.013898
0.062704 0.16507 1.0195 7.4371e-39 328.33 370.33 0 0 0 0.70586 0.2309 -0.66966 0.016161
-0.039091 0.1671 1.0198 7.2835e-39 212 371 0 0 0 -0.68288 0.30285 -0.6648 0.014213
0.059838 0.16683 1.0181 7.7444e-39 392 371 0 0 0 0.69514 0.26089 -0.66987 0.013391
0.06108 0.16697 1.019 8.021e-39 393 371 0 0 0 0.70751 0.2716 -0.65243 0.015153
-0.03724 0.16921 1.0181 6.8225e-39 221.5 372 0 0 0 -0.65914 0.32031 -0.68039 0.010799
0.059458 0.16886 1.0184 6.3922e-39 338.67 372 0 0 0 0.68671 0.30322 -0.66067 0.012186
0.061105 0.16883 1.0194 6.6842e-39 308.5 372 0 0 0 0.68841 0.3054 -0.65789 0.013146
-0.037286 0.17061 1.0194 5.5778e-39 409.5 372 0 0 0 -0.65091 0.34213 -0.67769 0.010168
-0.034872 0.17106 1.0186 6.3846e-39 312.5 372.5 0 0 0 -0.64545 0.34026 -0.68383 0.0085869
0.057456 0.17159 1.0181 6.2693e-39 394 373 0 0 0 0.66712 0.35365 -0.65565 0.010957
0.05928 0.1711 1.0187 6.7764e-39 288 373 0 0 0 0.67687 0.34313 -0.65123 0.011722
-0.034901 0.173 1.0194 6.3615e-39 404.5 373 0 0 0 -0.64704 0.35614 -0.67417 0.0090149
0.05686 0.17278 1.0181 6.2693e-39 167.5 374 0 0 0 0.66342 0.37522 -0.64737 0.010794
0.058695 0.17293 1.019 6.1771e-39 169 374 0 0 0 0.66943 0.37645 -0.64042 0.011402
-0.034707 0.17461 1.0195 8.0825e-39 242.67 374 0 0 0 -0.64852 0.36245 -0.66937 0.0093356
0.05674 0.17461 1.0195 7.56e-39 408 374 0 0 0 0.66487 0.40194 -0.6296 0.010789
-0.033085 0.17702 1.0186 5.4395e-39 386.5 374.5 0 0 0 -0.65059 0.35631 -0.67066 0.0086409
-0.03188 0.17755 1.0181 6.1771e-39 259 375 0 0 0 -0.64953 0.35338 -0.67322 0.0081873
-0.029498 0.17755 1.0181 5.9927e-39 261 375 0 0 0 -0.64568 0.34792 -0.67974 0.0074355
0.053927 0.17769 1.019 5.7161e-39 409 375 0 0 0 0.65623 0.42489 -0.62357 0.0091739
0.055119 0.1771 1.0189 5.5318e-39 331.5 375 0 0 0 0.65941 0.41978 -0.62367 0.0096733
-0.033126 0.17903 1.0198 6.7303e-39 413 375 0 0 0 -0.65978 0.35835 -0.66051 0.0097014
-0.031095 0.17919 1.0184 6.1464e-39 332 375.33 0 0 0 -0.65253 0.35198 -0.67106 0.0084067
-0.029498 0.17933 1.0181 6.2232e-39 292 375.5 0 0 0 -0.64303 0.34462 -0.68392 0.007161
0.0515 0.17874 1.0181 6.5459e-39 160 376 0 0 0 0.64676 0.42685 -0.63206 0.0074668
0.052735 0.17889 1.019 6.6381e-39 161 376 0 0 0 0.65231 0.43814 -0.61848 0.0081691
-0.031906 0.18008 1.019 6.3615e-39 166 376 0 0 0 -0.65652 0.356 -0.66501 0.0090865
-0.028914 0.18119 1.0186 5.9466e-39 309.5 376 0 0 0 -0.64528 0.34349 -0.68237 0.0077831
0.050309 0.18112 1.0181 6.4537e-39 405 376 0 0 0 0.64087 0.44733 -0.62385 0.0069946
0.052778 0.18023 1.0198 5.163e-39 304 376 0 0 0 0.65305 0.45586 -0.60475 0.0077689
-0.028727 0.18286 1.019 5.9927e-39 324 376.33 0 0 0 -0.64331 0.33947 -0.68623 0.0080286
0.050309 0.1835 1.0181 5.3473e-39 253 377 0 0 0 0.64328 0.46527 -0.60804 0.006936
0.044949 0.18529 1.0181 7.1452e-39 404.5 377 0 0 0 0.60654 0.49721 -0.6204 0.0070467
0.047331 0.18589 1.0181 5.9466e-39 446.5 377 0 0 0 0.62409 0.49757 -0.60244 0.0068554
0.049118 0.18589 1.0181 5.8083e-39 448 377 0 0 0 0.63186 0.50224 -0.59034 0.0068244
0.050392 0.185 1.0198 7.3757e-39 369 377 0 0 0 0.64586 0.48893 -0.58636 0.0072855
0.04439 0.18604 1.019 5.7161e-39 444 377 0 0 0 0.60966 0.50766 -0.60876 0.0069411
-0.02123 0.090894 1.0215 8.2054e-39 257 330 0 0 0 -0.55936 -0.73429 -0.38464 0.013141
-0.02601 0.093284 1.0215 7.6522e-39 386 331 0 0 0 -0.72569 -0.58856 -0.35633 0.021278
-0.024815 0.093284 1.0215 7.0991e-39 387 331 0 0 0 -0.70935 -0.60399 -0.36334 0.020831
-0.022406 0.093207 1.0206 6.1771e-39 389 331 0 0 0 -0.62905 -0.66843 -0.39687 0.018551
0.045695 0.092089 1.0215 4.9786e-39 252 331 0 0 0 0.77099 -0.45141 -0.44922 0.023084
0.04689 0.092089 1.0215 4.9786e-39 253 331 0 0 0 0.77959 -0.44432 -0.44138 0.02299
0.048046 0.092013 1.0206 4.9786e-39 254 331 0 0 0 0.77387 -0.44286 -0.45277 0.021585
-0.027183 0.095595 1.0206 6.9147e-39 392 332 0 0 0 -0.77301 -0.51356 -0.37244 0.021921
-0.025988 0.094401 1.0206 7.4678e-39 464 331 0 0 0 -0.74577 -0.54665 -0.3808 0.022086
-0.0236 0.094401 1.0206 7.56e-39 466 331 0 0 0 -0.69226 -0.603 -0.39645 0.021893
0.04928 0.094479 1.0215 7.8366e-39 260 332 0 0 0 0.80641 -0.40563 -0.43032 0.021863
-0.028974 0.097387 1.0206 6.4997e-39 329.5 332.5 0 0 0 -0.81315 -0.45849 -0.35857 0.021227
0.050434 0.096789 1.0206 5.9005e-39 198 333 0 0 0 0.80709 -0.38399 -0.44851 0.019266
0.051671 0.098065 1.0215 6.4537e-39 423 333 0 0 0 0.83625 -0.35747 -0.41581 0.020855
0.055256 0.10763 1.0215 6.0849e-39 403 339 0 0 0 0.85798 -0.31435 -0.40627 0.018413
-0.031985 0.10882 1.0215 5.9927e-39 420 339 0 0 0 -0.85419 -0.32105 -0.40901 0.011205
0.056404 0.10873 1.0206 6.7303e-39 231 340 0 0 0 0.84872 -0.29486 -0.43901 0.016239
-0.033166 0.11296 1.021 7.4679e-39 403 341.5 0 0 0 -0.84475 -0.29168 -0.44868 0.016671
-0.035571 0.11958 1.0215 6.2693e-39 457 345 0 0 0 -0.82475 -0.26709 -0.49846 0.015727
-0.047482 0.12187 1.0206 5.2552e-39 205 347 0 0 0 -0.83346 -0.26502 -0.48487 0.021861
-0.037164 0.12157 1.0215 6.5459e-39 272.67 346.67 0 0 0 -0.82228 -0.25872 -0.50687 0.015808
-0.047482 0.12306 1.0206 7.1913e-39 443 347 0 0 0 -0.83101 -0.25841 -0.4926 0.022541
-0.037348 0.12311 1.021 6.0388e-39 451.5 347 0 0 0 -0.82169 -0.24212 -0.51594 0.015504
0.059987 0.12306 1.0206 6.4537e-39 258 348 0 0 0 0.81593 -0.15011 -0.55833 0.0068972
-0.03734 0.12488 1.0208 5.9005e-39 295.5 348.5 0 0 0 -0.8181 -0.22741 -0.5282 0.015006
-0.037929 0.12664 1.0206 5.9005e-39 449 349 0 0 0 -0.81288 -0.20881 -0.54372 0.014823
-0.040351 0.12914 1.0215 7.0991e-39 248 351 0 0 0 -0.83472 -0.1812 -0.52002 0.017238
-0.039156 0.12914 1.0215 7.2835e-39 249 351 0 0 0 -0.82867 -0.18523 -0.52821 0.016269
-0.040351 0.13093 1.0215 5.8083e-39 292 352 0 0 0 -0.83461 -0.15654 -0.52813 0.016257
-0.03914 0.13087 1.021 5.8083e-39 293 352 0 0 0 -0.82368 -0.16162 -0.54353 0.014974
-0.040318 0.13261 1.0206 7.4678e-39 404 353 0 0 0 -0.82561 -0.13903 -0.54684 0.014076
-0.039124 0.13261 1.0206 7.56e-39 405 353 0 0 0 -0.81854 -0.14175 -0.55668 0.013839
0.062426 0.13392 1.0215 6.4537e-39 235 355 0 0 0 0.80939 -0.087742 -0.58068 0.01044
0.062426 0.13511 1.0215 4.9786e-39 456 355 0 0 0 0.80727 -0.08125 -0.58456 0.010715
0.062998 0.13684 1.021 6.8224e-39 393.5 356.5 0 0 0 0.79358 -0.072114 -0.60418 0.0089632
-0.040318 0.13918 1.0206 6.7303e-39 319.5 357.5 0 0 0 -0.82645 -0.10829 -0.5525 0.013879
0.063621 0.13929 1.0215 5.8083e-39 344 358 0 0 0 0.78937 -0.075401 -0.60927 0.0096249
-0.040318 0.14097 1.0206 4.8864e-39 463 358 0 0 0 -0.82307 -0.10341 -0.55844 0.012323
0.063569 0.14097 1.0206 8.2054e-39 405 359 0 0 0 0.78131 -0.074475 -0.61969 0.0094969
-0.040318 0.14217 1.0206 5.9005e-39 422 359 0 0 0 -0.82432 -0.10381 -0.55652 0.010894
0.06479 0.14521 1.021 6.3154e-39 302 361.5 0 0 0 0.77647 -0.075634 -0.6256 0.011227
0.064763 0.14694 1.0206 7.56e-39 408 362 0 0 0 0.7707 -0.068057 -0.63355 0.011062
0.066012 0.14945 1.0215 6.1771e-39 419 363 0 0 0 0.77843 -0.053936 -0.62541 0.012866
-0.041512 0.15052 1.0206 5.4395e-39 425 363 0 0 0 -0.83096 -0.020043 -0.55597 0.016864
0.066012 0.15184 1.0215 5.3473e-39 427 364 0 0 0 0.78114 -0.022964 -0.62393 0.013699
0.066012 0.15304 1.0215 6.7303e-39 261 365 0 0 0 0.77924 -0.01076 -0.62664 0.013863
0.065957 0.15471 1.0206 6.1771e-39 354 365.5 0 0 0 0.77408 0.01756 -0.63284 0.014036
0.066012 0.15901 1.0215 6.5459e-39 143 368 0 0 0 0.77813 0.082652 -0.62265 0.016598
0.065957 0.16127 1.0206 6.5459e-39 166 369 0 0 0 0.75612 0.13165 -0.64106 0.017688
0.06661 0.16021 1.0215 4.7481e-39 283.5 368 0 0 0 0.78162 0.1146 -0.61313 0.018185
-0.041512 0.16366 1.0206 7.9288e-39 382 369 0 0 0 -0.71815 0.26315 -0.64421 0.016482
0.065957 0.16306 1.0206 7.3757e-39 283 369.5 0 0 0 0.74556 0.16796 -0.64493 0.018813
-0.040932 0.16492 1.021 7.1913e-39 186.5 370 0 0 0 -0.70632 0.28254 -0.64906 0.016293
0.06536 0.16485 1.0206 7.8827e-39 392.5 370 0 0 0 0.73415 0.21753 -0.6432 0.019098
0.062972 0.16664 1.0206 7.3757e-39 299.5 371 0 0 0 0.71871 0.26743 -0.64182 0.01732
0.065957 0.16605 1.0206 6.4537e-39 207 371 0 0 0 0.71806 0.23695 -0.6544 0.018124
-0.039124 0.16844 1.0206 6.2693e-39 399 371 0 0 0 -0.6943 0.3222 -0.64354 0.015557
0.062426 0.16857 1.0215 6.7303e-39 215 372 0 0 0 0.71849 0.3069 -0.62417 0.017718
0.061181 0.17082 1.0206 6.6381e-39 182 373 0 0 0 0.69597 0.34809 -0.62806 0.01351
-0.037348 0.17209 1.021 6.8686e-39 211.5 373 0 0 0 -0.66248 0.37025 -0.65118 0.011929
0.059987 0.17321 1.0206 5.9927e-39 170 374 0 0 0 0.68436 0.3895 -0.61639 0.013263
0.061231 0.17216 1.0215 7.0069e-39 397 373 0 0 0 0.69638 0.36603 -0.61732 0.013026
-0.035571 0.17575 1.0215 8.482e-39 378 374 0 0 0 -0.66998 0.38076 -0.6373 0.011894
0.057598 0.1756 1.0206 6.3615e-39 480 374 0 0 0 0.67773 0.41436 -0.60744 0.012075
0.058793 0.17441 1.0206 8.021e-39 374 374 0 0 0 0.67888 0.40792 -0.61051 0.012721
0.060036 0.17455 1.0215 7.9288e-39 375 374 0 0 0 0.68449 0.41215 -0.60134 0.012992
-0.034376 0.17694 1.0215 4.702e-39 514 374 0 0 0 -0.67078 0.37384 -0.64054 0.011603
0.054016 0.17918 1.0206 6.8225e-39 162 376 0 0 0 0.66026 0.44887 -0.60214 0.0089417
0.051649 0.18105 1.021 5.9466e-39 354.5 376 0 0 0 0.65504 0.46514 -0.59546 0.0077749
0.052866 0.18172 1.0215 6.4537e-39 407 376 0 0 0 0.66044 0.47533 -0.58127 0.0083642
0.051671 0.18292 1.0215 5.9005e-39 150 377 0 0 0 0.65611 0.47763 -0.58428 0.0081444
0.052822 0.18276 1.0206 6.4537e-39 151 377 0 0 0 0.65783 0.474 -0.5853 0.0079746
-0.028377 0.18515 1.0206 5.4395e-39 254 377 0 0 0 -0.64126 0.32498 -0.69511 0.0080484
-0.023051 0.092802 1.0228 7.0991e-39 423 330.5 0 0 0 -0.65133 -0.67077 -0.35474 0.018229
-0.02725 0.094636 1.0232 7.6522e-39 463 331 0 0 0 -0.78361 -0.53716 -0.31209 0.02068
0.050559 0.095833 1.0232 7.3757e-39 436 332 0 0 0 0.84348 -0.37229 -0.38723 0.024347
