# .PCD v.7 - Point Cloud Data file format
VERSION .7
FIELDS x y z rgb u v vx vy vz normal_x normal_y normal_z curvature
SIZE 4 4 4 4 4 4 4 4 4 4 4 4 4
TYPE F F F F F F F F F F F F F
COUNT 1 1 1 1 1 1 1 1 1 1 1 1 1
WIDTH 561
HEIGHT 1
VIEWPOINT 0 0 0 1 0 0 0
POINTS 561
DATA ascii
-0.12497 0.059057 1.2602 3.319e-39 175 333 0 0 0 0.61533 0.022742 -0.78794 0.014927
-0.12362 0.059117 1.2615 3.319e-39 176 333 0 0 0 0.59009 0.02793 -0.80685 0.015563
-0.24317 0.060593 1.2615 7.0069e-39 204 333 0 0 0 -0.63082 -0.097717 -0.76975 0.024332
-0.24144 0.060531 1.2602 7.1913e-39 205 333 0 0 0 -0.67313 -0.10638 -0.73183 0.021199
-0.12645 0.060531 1.2602 6.5459e-39 426 333 0 0 0 0.63552 0.037778 -0.77116 0.012066
-0.1251 0.060593 1.2615 6.2693e-39 427 333 0 0 0 0.61135 0.048947 -0.78984 0.012237
-0.12362 0.060593 1.2615 6.3615e-39 428 333 0 0 0 0.59418 0.052676 -0.8026 0.012157
-0.24292 0.062743 1.2602 5.5778e-39 433.5 333.5 0 0 0 -0.65717 -0.066095 -0.75084 0.02774
-0.12652 0.062776 1.2608 5.9466e-39 381.5 334 0 0 0 0.63843 0.074412 -0.76607 0.0081539
-0.1251 0.062807 1.2615 5.7161e-39 382.5 334 0 0 0 0.61205 0.080995 -0.78666 0.0099943
-0.12362 0.062069 1.2615 7.9288e-39 213 334 0 0 0 0.59856 0.072789 -0.79776 0.010693
-0.24292 0.064954 1.2602 4.241e-39 179 335 0 0 0 -0.66011 -0.028886 -0.75062 0.034273
-0.12658 0.065021 1.2615 6.1771e-39 399 335 0 0 0 0.63384 0.096418 -0.76743 0.0078255
-0.1251 0.065021 1.2615 6.3615e-39 400 335 0 0 0 0.6133 0.096161 -0.78398 0.0097018
-0.12645 0.067166 1.2602 6.5458e-39 170 336.5 0 0 0 0.63942 0.10517 -0.76163 0.0077223
-0.1251 0.067235 1.2615 6.638e-39 171 336.5 0 0 0 0.61745 0.11011 -0.77886 0.0099167
-0.24292 0.069378 1.2602 4.0566e-39 185 337 0 0 0 -0.65331 0.055851 -0.75503 0.042204
-0.12658 0.069448 1.2615 6.1771e-39 417 337 0 0 0 0.63577 0.11868 -0.7627 0.0082567
-0.2594 0.070924 1.2615 5.9005e-39 482 337 0 0 0 -0.4609 0.033213 -0.88683 0.074165
-0.25766 0.070852 1.2602 5.8083e-39 483 337 0 0 0 -0.49631 0.054795 -0.86641 0.066454
-0.24292 0.070852 1.2602 5.9005e-39 546 337 0 0 0 -0.65158 0.084671 -0.75384 0.043151
-0.24144 0.070852 1.2602 5.5317e-39 547 337 0 0 0 -0.66459 0.077487 -0.74318 0.042016
-0.12645 0.070852 1.2602 6.4537e-39 382 338 0 0 0 0.64249 0.1201 -0.75682 0.0078484
-0.24305 0.073101 1.2608 6.6842e-39 333.5 338.5 0 0 0 -0.65839 0.13583 -0.74032 0.045142
-0.24156 0.073101 1.2608 6.3154e-39 395.5 338.5 0 0 0 -0.66447 0.12961 -0.73599 0.043575
-0.12658 0.073138 1.2615 6.2693e-39 187 339.5 0 0 0 0.64383 0.13119 -0.75384 0.0079597
-0.24317 0.075352 1.2615 7.8366e-39 204 340 0 0 0 -0.6627 0.18489 -0.7257 0.045623
-0.24169 0.075352 1.2615 7.7444e-39 205 340 0 0 0 -0.66524 0.1828 -0.7239 0.044273
-0.12645 0.075275 1.2602 7.7444e-39 430 340 0 0 0 0.65059 0.14242 -0.74595 0.0070596
-0.24317 0.076828 1.2615 5.2552e-39 178 341 0 0 0 -0.66539 0.20988 -0.71638 0.04381
-0.24169 0.076828 1.2615 5.6239e-39 179 341 0 0 0 -0.66935 0.20324 -0.7146 0.043439
-0.12645 0.076749 1.2602 6.1771e-39 392 341 0 0 0 0.65332 0.14796 -0.74248 0.0068102
-0.1251 0.076828 1.2615 6.6381e-39 393 341 0 0 0 0.64067 0.15587 -0.75183 0.0082831
-0.24169 0.078303 1.2615 7.7444e-39 422 341 0 0 0 -0.67523 0.22727 -0.70172 0.041707
-0.23997 0.079698 1.2602 6.1771e-39 383 342 0 0 0 -0.69913 0.23093 -0.67667 0.034561
-0.12698 0.079234 1.2606 5.5932e-39 190.67 342.67 0 0 0 0.65523 0.16502 -0.73718 0.0064645
-0.24022 0.081255 1.2615 7.56e-39 201 343 0 0 0 -0.7117 0.23924 -0.66049 0.03242
-0.12725 0.081213 1.2608 6.7764e-39 411.5 343 0 0 0 0.65544 0.17779 -0.73402 0.0060474
-0.2385 0.082647 1.2602 7.8366e-39 446 343 0 0 0 -0.74515 0.21013 -0.63292 0.01972
-0.12939 0.082647 1.2602 6.8225e-39 208 344 0 0 0 0.65684 0.18788 -0.73025 0.0052869
-0.12725 0.082689 1.2608 6.9147e-39 209.5 344 0 0 0 0.65304 0.18447 -0.73452 0.0060413
-0.23862 0.084902 1.2608 4.1488e-39 406.5 344 0 0 0 -0.76426 0.20673 -0.61087 0.010238
-0.13087 0.085595 1.2602 5.4395e-39 377 345 0 0 0 0.65063 0.20407 -0.73146 0.0052555
-0.12872 0.084901 1.2608 6.4998e-39 414 344.5 0 0 0 0.65199 0.19819 -0.73187 0.0053504
-0.23874 0.087159 1.2615 1.0879e-38 416 345 0 0 0 -0.7823 0.19305 -0.59223 0.0069187
-0.13087 0.08707 1.2602 7.0069e-39 187 346 0 0 0 0.64418 0.21498 -0.73404 0.0055107
-0.12872 0.087114 1.2608 7.053e-39 188.5 346 0 0 0 0.64878 0.20451 -0.73298 0.0055229
-0.23874 0.088634 1.2615 5.7161e-39 242 346 0 0 0 -0.79404 0.18034 -0.5805 0.0036479
-0.13087 0.088544 1.2602 8.021e-39 437 346 0 0 0 0.63851 0.21814 -0.73805 0.0055151
-0.12953 0.088634 1.2615 8.1132e-39 438 346 0 0 0 0.64133 0.20841 -0.73842 0.0057115
-0.23714 0.090802 1.2608 6.6842e-39 482.5 346.5 0 0 0 -0.80124 0.16415 -0.57538 0.0022851
-0.13234 0.090755 1.2602 6.0849e-39 281 347.5 0 0 0 0.6232 0.23653 -0.74543 0.0056707
-0.131 0.090848 1.2615 6.3615e-39 282 347.5 0 0 0 0.62735 0.22659 -0.74504 0.005977
-0.12953 0.090848 1.2615 6.592e-39 283 347.5 0 0 0 0.63138 0.21674 -0.74457 0.0058934
-0.23726 0.093062 1.2615 5.6239e-39 237 348 0 0 0 -0.8041 0.15386 -0.57424 0.0022768
-0.13234 0.092967 1.2602 7.7444e-39 424 348 0 0 0 0.61198 0.24173 -0.75302 0.005691
-0.131 0.093062 1.2615 8.021e-39 425 348 0 0 0 0.61545 0.22813 -0.75444 0.0061434
-0.23714 0.095227 1.2608 6.0849e-39 427 348.5 0 0 0 -0.80005 0.1516 -0.58047 0.0025214
-0.13529 0.095916 1.2602 6.3615e-39 478 349 0 0 0 0.60522 0.24329 -0.75797 0.0055698
-0.13337 0.094965 1.2606 6.4844e-39 326.67 349 0 0 0 0.60455 0.23984 -0.7596 0.0056896
-0.23726 0.09749 1.2615 7.0069e-39 198 350 0 0 0 -0.79736 0.15408 -0.58351 0.0028326
-0.13529 0.09739 1.2602 7.2835e-39 399 350 0 0 0 0.60292 0.23809 -0.76145 0.0056792
-0.13297 0.096998 1.2615 7.3756e-39 427 349.67 0 0 0 0.59405 0.23174 -0.77033 0.0059001
-0.23726 0.098965 1.2615 7.56e-39 436 350 0 0 0 -0.79531 0.15441 -0.58621 0.0031663
-0.13543 0.098965 1.2615 7.0069e-39 199 351 0 0 0 0.59428 0.23162 -0.77018 0.0060935
-0.13321 0.098965 1.2615 7.1452e-39 200.5 351 0 0 0 0.59089 0.22513 -0.77471 0.0058835
-0.23726 0.10118 1.2615 5.7161e-39 459 351 0 0 0 -0.78995 0.16117 -0.59161 0.0036497
-0.23555 0.10181 1.2602 5.9005e-39 550 351 0 0 0 -0.77926 0.17298 -0.60236 0.0038127
-0.13677 0.10108 1.2602 6.131e-39 347 351.5 0 0 0 0.60218 0.22755 -0.76525 0.0062295
-0.13543 0.10044 1.2615 5.9927e-39 438 351 0 0 0 0.59056 0.22782 -0.77417 0.0061572
-0.13346 0.10093 1.2615 5.7776e-39 379.33 351.33 0 0 0 0.58514 0.21852 -0.78093 0.0061331
-0.23726 0.10339 1.2615 8.3898e-39 402 352 0 0 0 -0.77868 0.17624 -0.60216 0.0044089
-0.23555 0.10329 1.2602 8.1132e-39 403 352 0 0 0 -0.77198 0.18851 -0.60705 0.0041108
-0.13691 0.10339 1.2615 5.7161e-39 481 352 0 0 0 0.59596 0.21311 -0.77422 0.0063979
-0.23555 0.10476 1.2602 7.4678e-39 194 353 0 0 0 -0.76498 0.19957 -0.61236 0.0043262
-0.13824 0.10476 1.2602 8.3898e-39 394 353 0 0 0 0.60894 0.20817 -0.76541 0.006709
-0.13691 0.10487 1.2615 8.3898e-39 395 353 0 0 0 0.59358 0.20384 -0.77853 0.0067448
-0.23555 0.10697 1.2602 6.0849e-39 341.5 353.5 0 0 0 -0.75337 0.21434 -0.62169 0.0043358
-0.14119 0.10771 1.2602 6.0849e-39 433 354 0 0 0 0.62897 0.18248 -0.75571 0.0067063
-0.13902 0.107 1.2605 6.1771e-39 311 354 0 0 0 0.61256 0.1883 -0.76767 0.006818
-0.13691 0.10634 1.2615 6.4537e-39 189 354 0 0 0 0.59237 0.19197 -0.78246 0.0067703
-0.23493 0.10924 1.2608 5.8544e-39 481.5 354 0 0 0 -0.74086 0.22873 -0.63151 0.0040463
-0.14119 0.10918 1.2602 5.6239e-39 256 355 0 0 0 0.62792 0.16835 -0.75986 0.006904
-0.13912 0.1093 1.2615 6.0849e-39 257.5 355 0 0 0 0.60868 0.16343 -0.7764 0.0068791
-0.23493 0.11072 1.2608 8.021e-39 400.5 355 0 0 0 -0.73578 0.237 -0.6344 0.0034949
-0.2326 0.11066 1.2602 8.1132e-39 402 355 0 0 0 -0.73362 0.24545 -0.63368 0.0031721
-0.14119 0.11066 1.2602 6.3615e-39 149 356 0 0 0 0.62828 0.16061 -0.76123 0.0069954
-0.13912 0.11077 1.2615 5.8083e-39 150.5 356 0 0 0 0.60703 0.15737 -0.77894 0.0069515
-0.23431 0.11225 1.2615 5.9927e-39 250 356 0 0 0 -0.7296 0.24147 -0.63983 0.0033563
-0.23272 0.11293 1.2608 4.0105e-39 404.5 356 0 0 0 -0.72483 0.25237 -0.64104 0.0027195
-0.23112 0.11361 1.2602 1.8439e-39 559 356 0 0 0 -0.72222 0.25804 -0.64173 0.0023959
-0.13909 0.11296 1.2612 6.4537e-39 397.5 356.5 0 0 0 0.61244 0.14665 -0.7768 0.0068282
-0.23136 0.1152 1.2615 8.1132e-39 408 357 0 0 0 -0.71644 0.25616 -0.64891 0.0024257
-0.13905 0.11514 1.2608 6.3615e-39 190.5 358 0 0 0 0.61307 0.13897 -0.77771 0.0068226
-0.13691 0.1152 1.2615 5.9927e-39 192 358 0 0 0 0.5955 0.13951 -0.79115 0.0059706
-0.22965 0.11656 1.2602 5.6239e-39 262 358 0 0 0 -0.71623 0.26109 -0.64719 0.0022161
-0.14266 0.11656 1.2602 6.4537e-39 430 358 0 0 0 0.63967 0.13532 -0.75665 0.0072894
-0.13986 0.11668 1.2615 6.6381e-39 432 358 0 0 0 0.61421 0.13431 -0.77763 0.0070232
-0.22988 0.11889 1.2615 6.2693e-39 287.5 359 0 0 0 -0.71212 0.24937 -0.65628 0.0027445
-0.14266 0.11877 1.2602 3.8261e-39 465 359 0 0 0 0.64017 0.1323 -0.75675 0.0077315
-0.14119 0.11877 1.2602 4.1027e-39 466 359 0 0 0 0.62849 0.13366 -0.76625 0.0077151
-0.13986 0.11889 1.2615 4.241e-39 467 359 0 0 0 0.61512 0.13534 -0.77673 0.0075577
-0.22818 0.12098 1.2602 5.4395e-39 255 360 0 0 0 -0.71832 0.23517 -0.65477 0.0032878
-0.14266 0.12098 1.2602 7.8366e-39 409 360 0 0 0 0.63796 0.13611 -0.75795 0.0081004
-0.14119 0.12098 1.2602 7.6522e-39 410 360 0 0 0 0.63076 0.13564 -0.76404 0.0082557
-0.13986 0.1211 1.2615 7.56e-39 411 360 0 0 0 0.61425 0.13825 -0.77691 0.0079131
-0.22841 0.12258 1.2615 5.7161e-39 464 360 0 0 0 -0.71488 0.22389 -0.66243 0.0034769
-0.14266 0.12319 1.2602 6.131e-39 319 361 0 0 0 0.63658 0.14357 -0.75773 0.0084409
-0.14119 0.12319 1.2602 5.8083e-39 320 361 0 0 0 0.62989 0.14214 -0.76357 0.0084657
-0.13986 0.12258 1.2615 5.5317e-39 201 361 0 0 0 0.61521 0.14338 -0.77522 0.0079964
-0.22841 0.12405 1.2615 7.7444e-39 377 361 0 0 0 -0.71559 0.21293 -0.66528 0.003692
-0.2267 0.1254 1.2602 1.9361e-39 558 361 0 0 0 -0.72744 0.20451 -0.65499 0.003761
-0.14266 0.1254 1.2602 5.7161e-39 217 362 0 0 0 0.63505 0.15402 -0.75696 0.008988
-0.14119 0.1254 1.2602 5.9927e-39 218 362 0 0 0 0.6275 0.15259 -0.76352 0.0088755
-0.13986 0.12479 1.2615 5.8544e-39 330 361.5 0 0 0 0.61697 0.1516 -0.77225 0.0084584
-0.2267 0.12688 1.2602 9.8649e-39 398 362 0 0 0 -0.73038 0.18976 -0.65615 0.0037823
-0.14266 0.12688 1.2602 6.0849e-39 466 362 0 0 0 0.6334 0.16525 -0.75598 0.0088899
-0.14119 0.12688 1.2602 5.8083e-39 467 362 0 0 0 0.6259 0.16219 -0.76285 0.0088835
-0.13986 0.12701 1.2615 5.2552e-39 468 362 0 0 0 0.61821 0.16608 -0.76827 0.0083549
-0.2267 0.12909 1.2602 6.4076e-39 304.5 363 0 0 0 -0.7338 0.17025 -0.65769 0.0037982
-0.22523 0.12983 1.2602 6.6381e-39 425 363 0 0 0 -0.7434 0.15903 -0.64966 0.00387
-0.14414 0.12909 1.2602 5.209e-39 466.5 363 0 0 0 0.64271 0.17432 -0.74601 0.0083649
-0.14274 0.12916 1.2608 5.209e-39 467.5 363 0 0 0 0.63334 0.17701 -0.75336 0.0084205
-0.14126 0.12916 1.2608 5.0246e-39 468.5 363 0 0 0 0.62551 0.17623 -0.76005 0.0084729
-0.22693 0.13143 1.2615 5.9005e-39 209 364 0 0 0 -0.72667 0.15403 -0.66949 0.0035039
-0.22523 0.1313 1.2602 5.9005e-39 210 364 0 0 0 -0.74493 0.14618 -0.65093 0.0037179
-0.14414 0.1313 1.2602 1.1432e-38 394 364 0 0 0 0.64538 0.17779 -0.74288 0.0083881
-0.14281 0.13143 1.2615 1.0695e-38 395 364 0 0 0 0.6326 0.1803 -0.7532 0.0085764
-0.14133 0.13143 1.2615 1.0234e-38 396 364 0 0 0 0.62608 0.18521 -0.75745 0.0082931
-0.22693 0.13291 1.2615 9.0352e-39 451 364 0 0 0 -0.73332 0.13779 -0.66577 0.0035919
-0.22523 0.13277 1.2602 9.6805e-39 455 364 0 0 0 -0.74572 0.13336 -0.65278 0.0036806
-0.14488 0.13277 1.2602 5.2552e-39 166.5 365 0 0 0 0.65071 0.17927 -0.73786 0.0083501
-0.22693 0.13512 1.2615 7.4218e-39 356 365 0 0 0 -0.73701 0.1219 -0.6648 0.003684
-0.22523 0.13498 1.2602 7.6061e-39 357 365 0 0 0 -0.7493 0.11737 -0.65175 0.0035595
-0.14495 0.13506 1.2608 6.6842e-39 289.25 365.5 0 0 0 0.6515 0.18385 -0.73603 0.0087809
-0.22693 0.13734 1.2615 4.8864e-39 227 366 0 0 0 -0.73935 0.10188 -0.66557 0.0035725
-0.22523 0.1372 1.2602 4.9786e-39 228 366 0 0 0 -0.75147 0.10164 -0.65189 0.0034094
-0.14709 0.1372 1.2602 7.9288e-39 384 366 0 0 0 0.66241 0.19116 -0.72434 0.0078598
-0.14502 0.13734 1.2615 8.2054e-39 385.5 366 0 0 0 0.65084 0.19277 -0.73434 0.0087929
-0.22693 0.13881 1.2615 6.8225e-39 417 366 0 0 0 -0.7422 0.097455 -0.66305 0.0036107
-0.22523 0.13867 1.2602 6.9147e-39 418 366 0 0 0 -0.75305 0.091699 -0.65154 0.0033956
-0.22375 0.13867 1.2602 6.4537e-39 419 366 0 0 0 -0.76003 0.087553 -0.64396 0.003157
-0.14709 0.13867 1.2602 2.6737e-39 558 366 0 0 0 0.66217 0.19516 -0.72349 0.0081559
-0.14576 0.13881 1.2615 2.0283e-39 559 366 0 0 0 0.65536 0.1945 -0.72984 0.0085688
-0.22693 0.14029 1.2615 5.8083e-39 183 367 0 0 0 -0.74343 0.086345 -0.66322 0.0035522
-0.22546 0.14103 1.2615 6.6842e-39 273.5 367 0 0 0 -0.74679 0.075465 -0.66076 0.0034179
-0.22375 0.14088 1.2602 6.8224e-39 274.5 367 0 0 0 -0.76117 0.075861 -0.6441 0.0032839
-0.14856 0.14162 1.2602 6.4537e-39 415 367 0 0 0 0.66834 0.20554 -0.71489 0.0082478
-0.14724 0.14103 1.2615 6.1771e-39 335.5 367 0 0 0 0.65693 0.2056 -0.72538 0.0088826
-0.14576 0.14103 1.2615 6.2232e-39 336.5 367 0 0 0 0.65287 0.20635 -0.72882 0.008596
-0.22546 0.14324 1.2615 9.3118e-39 448 367 0 0 0 -0.75063 0.066594 -0.65736 0.0034468
-0.22375 0.14309 1.2602 9.4961e-39 449 367 0 0 0 -0.76169 0.063133 -0.64485 0.0032912
-0.14856 0.14309 1.2602 5.4395e-39 163 368 0 0 0 0.66595 0.21503 -0.71434 0.0085743
-0.14724 0.14324 1.2615 5.7161e-39 164 368 0 0 0 0.65809 0.20783 -0.72369 0.0090785
-0.22546 0.14472 1.2615 5.6239e-39 198 368 0 0 0 -0.7536 0.059817 -0.65461 0.0035281
-0.22375 0.14457 1.2602 5.6239e-39 199 368 0 0 0 -0.76061 0.058076 -0.64661 0.0032938
-0.15004 0.14457 1.2602 5.2552e-39 263 368 0 0 0 0.67003 0.21359 -0.71095 0.008484
-0.14856 0.14457 1.2602 4.9786e-39 264 368 0 0 0 0.66719 0.21096 -0.71439 0.0091887
-0.14724 0.14472 1.2615 4.9786e-39 265 368 0 0 0 0.65595 0.20573 -0.72623 0.0097112
-0.11932 0.032585 1.2628 3.6878e-39 152 317 0 0 0 0.19818 -0.58292 -0.78799 0.074857
-0.2183 0.03554 1.2628 1.0602e-38 244 319 0 0 0 -0.17952 -0.87696 -0.44578 0.023881
-0.20722 0.03554 1.2628 5.67e-39 253.5 319 0 0 0 0.069211 -0.94178 -0.32904 0.018105
-0.11932 0.034801 1.2628 5.5317e-39 200.5 319.5 0 0 0 0.26637 -0.54799 -0.79294 0.07697
-0.11784 0.034063 1.2628 3.0425e-39 155 319 0 0 0 0.27194 -0.50885 -0.81677 0.077593
-0.11932 0.037017 1.2628 6.0849e-39 432 321 0 0 0 0.31902 -0.48394 -0.81488 0.076869
-0.11784 0.037017 1.2628 4.7942e-39 148 322 0 0 0 0.33835 -0.45371 -0.82442 0.073928
-0.22864 0.039972 1.2628 8.8508e-39 237 323 0 0 0 -0.33646 -0.72996 -0.59495 0.016
-0.22717 0.039972 1.2628 9.0352e-39 238 323 0 0 0 -0.32503 -0.75183 -0.57368 0.014002
-0.22569 0.038495 1.2628 6.0849e-39 233 322 0 0 0 -0.29516 -0.77754 -0.55526 0.012119
-0.1991 0.038495 1.2628 5.6239e-39 251 322 0 0 0 0.1771 -0.92822 -0.32717 0.0063638
-0.19688 0.039233 1.2628 6.131e-39 321 322.5 0 0 0 0.16499 -0.92779 -0.33464 0.0080614
-0.19319 0.039972 1.2628 6.5459e-39 398 323 0 0 0 0.12228 -0.9309 -0.34421 0.0093525
-0.19171 0.039972 1.2628 6.6381e-39 399 323 0 0 0 0.09472 -0.93063 -0.35348 0.0094637
-0.18875 0.039972 1.2628 6.0849e-39 402 323 0 0 0 0.051399 -0.93026 -0.36329 0.0075842
-0.18432 0.038495 1.2628 6.3615e-39 403 322 0 0 0 0.0047389 -0.93025 -0.36689 0.0043694
-0.17324 0.038495 1.2628 6.7764e-39 410.5 322 0 0 0 0.02879 -0.94708 -0.31969 0.0042049
-0.17103 0.038495 1.2628 7.1913e-39 412 322 0 0 0 0.050327 -0.94819 -0.31369 0.0036882
-0.16955 0.038495 1.2628 6.5459e-39 417 322 0 0 0 0.06664 -0.94677 -0.31494 0.0029882
-0.16512 0.039972 1.2628 6.0849e-39 421 323 0 0 0 0.088079 -0.94637 -0.31084 0.0022203
-0.16216 0.039972 1.2628 6.4537e-39 423 323 0 0 0 0.090923 -0.94782 -0.30557 0.0020656
-0.1208 0.039972 1.2628 4.5176e-39 150 324 0 0 0 0.36567 -0.43659 -0.822 0.077421
-0.11932 0.039233 1.2628 4.4254e-39 152 323.5 0 0 0 0.35993 -0.43069 -0.82762 0.075238
-0.11784 0.039233 1.2628 4.4254e-39 153 323.5 0 0 0 0.37797 -0.39874 -0.83555 0.071457
-0.23898 0.04145 1.2628 5.4395e-39 223 324 0 0 0 -0.4124 -0.55692 -0.72095 0.03315
-0.23751 0.04145 1.2628 5.3473e-39 224 324 0 0 0 -0.41313 -0.57372 -0.70722 0.030435
-0.23455 0.04145 1.2628 5.4395e-39 226 324 0 0 0 -0.38824 -0.62682 -0.67555 0.027899
-0.23307 0.04145 1.2628 5.9005e-39 227 324 0 0 0 -0.38748 -0.64604 -0.65764 0.025799
-0.23086 0.04145 1.2628 6.9608e-39 228.5 324 0 0 0 -0.35976 -0.69154 -0.62637 0.02221
-0.22864 0.04145 1.2628 7.6522e-39 230 324 0 0 0 -0.35454 -0.71872 -0.59811 0.018465
-0.15921 0.04145 1.2628 6.5459e-39 414 324 0 0 0 0.086059 -0.94879 -0.30395 0.0021702
-0.15699 0.04145 1.2628 6.4537e-39 415.5 324 0 0 0 0.075629 -0.94748 -0.31075 0.0020551
-0.15034 0.04145 1.2628 6.1771e-39 420 324 0 0 0 0.039003 -0.93955 -0.34018 0.0025587
-0.13852 0.04145 1.2628 6.4537e-39 428 324 0 0 0 0.097372 -0.81134 -0.5764 0.046318
-0.13705 0.04145 1.2628 6.0849e-39 429 324 0 0 0 0.10754 -0.78207 -0.61384 0.056558
-0.13557 0.04145 1.2628 5.9927e-39 430 324 0 0 0 0.14503 -0.73869 -0.65826 0.067953
-0.13261 0.04145 1.2628 5.9927e-39 432 324 0 0 0 0.19852 -0.67475 -0.71084 0.079541
-0.12892 0.04145 1.2628 6.592e-39 434.5 324 0 0 0 0.27702 -0.57928 -0.76661 0.088611
-0.1267 0.04145 1.2628 5.9005e-39 436 324 0 0 0 0.32792 -0.50712 -0.79706 0.086957
-0.12523 0.04145 1.2628 5.6239e-39 437 324 0 0 0 0.33592 -0.47016 -0.81615 0.083746
-0.1208 0.04145 1.2628 5.2552e-39 444 324 0 0 0 0.39198 -0.37886 -0.83834 0.076494
-0.11932 0.04145 1.2628 5.5317e-39 445 324 0 0 0 0.40919 -0.34818 -0.84341 0.072885
-0.11784 0.04145 1.2628 5.6239e-39 542 324 0 0 0 0.41955 -0.31524 -0.85123 0.066021
-0.12301 0.042927 1.2628 6.0388e-39 421.5 325 0 0 0 0.39748 -0.39469 -0.82839 0.07805
-0.11932 0.042927 1.2628 6.9147e-39 424 325 0 0 0 0.43515 -0.32176 -0.8409 0.066109
-0.11784 0.042927 1.2628 7.3757e-39 425 325 0 0 0 0.43484 -0.28364 -0.85467 0.060961
-0.2412 0.045143 1.2628 5.9005e-39 481.5 325.5 0 0 0 -0.47299 -0.46201 -0.75022 0.038443
-0.12227 0.044404 1.2628 6.3615e-39 397 326 0 0 0 0.42159 -0.34209 -0.83978 0.075262
-0.11932 0.045143 1.2628 6.6381e-39 315 326.5 0 0 0 0.45524 -0.26339 -0.85052 0.058707
-0.11784 0.045882 1.2628 7.2835e-39 232 327 0 0 0 0.47028 -0.20104 -0.85932 0.049518
-0.24342 0.047359 1.2628 5.6239e-39 251 327 0 0 0 -0.51037 -0.37181 -0.77542 0.037584
-0.11932 0.047359 1.2628 4.5176e-39 155 328 0 0 0 0.47809 -0.19154 -0.85717 0.050577
-0.24342 0.048836 1.2628 9.7727e-39 208 328 0 0 0 -0.52785 -0.3291 -0.78299 0.03489
-0.24342 0.051053 1.2628 5.7622e-39 414.5 328.5 0 0 0 -0.55764 -0.27925 -0.7817 0.031757
-0.24342 0.054746 1.2628 5.7161e-39 440 330 0 0 0 -0.58154 -0.20803 -0.78647 0.02535
-0.12227 0.054746 1.2628 7.4678e-39 211 331 0 0 0 0.53016 -0.053165 -0.84623 0.02926
-0.1208 0.054746 1.2628 7.4678e-39 212 331 0 0 0 0.5317 -0.033642 -0.84627 0.023584
-0.24342 0.056962 1.2628 5.6701e-39 197.5 331.5 0 0 0 -0.59682 -0.16138 -0.78598 0.022754
-0.12227 0.056962 1.2628 5.7161e-39 440 331.5 0 0 0 0.55394 -0.00020044 -0.83256 0.019225
-0.1208 0.056962 1.2628 5.6239e-39 441 331.5 0 0 0 0.53686 0.0057565 -0.84365 0.017022
-0.12227 0.059178 1.2628 4.0566e-39 177 333 0 0 0 0.55909 0.037688 -0.82825 0.014443
-0.1208 0.059178 1.2628 3.78e-39 178 333 0 0 0 0.5392 0.04617 -0.84091 0.012313
-0.12227 0.060655 1.2628 6.2693e-39 429 333 0 0 0 0.56355 0.062787 -0.82369 0.01186
-0.24489 0.062872 1.2628 5.4395e-39 432.5 333.5 0 0 0 -0.6096 -0.047492 -0.79128 0.031672
-0.12276 0.063118 1.2628 5.7161e-39 301.67 334.33 0 0 0 0.566 0.087746 -0.81972 0.011173
-0.24489 0.065087 1.2628 4.5176e-39 178 335 0 0 0 -0.61628 -0.013499 -0.78742 0.037964
-0.12301 0.065087 1.2628 6.2232e-39 401.5 335 0 0 0 0.57409 0.1032 -0.81226 0.011449
-0.24489 0.066565 1.2628 6.5459e-39 430 335 0 0 0 -0.61667 0.006776 -0.78719 0.040858
-0.12301 0.066565 1.2628 7.8366e-39 205.5 336 0 0 0 0.57685 0.11061 -0.80932 0.011888
-0.24489 0.06878 1.2628 4.6098e-39 281 336.5 0 0 0 -0.61781 0.052455 -0.78458 0.044441
-0.12523 0.069519 1.2628 5.9927e-39 418 337 0 0 0 0.60998 0.1243 -0.78261 0.010635
-0.12301 0.06878 1.2628 5.5317e-39 279.5 337 0 0 0 0.5773 0.12781 -0.80647 0.012698
-0.24489 0.070997 1.2628 5.9927e-39 545 337 0 0 0 -0.62173 0.097218 -0.77718 0.047977
-0.12523 0.070997 1.2628 6.6381e-39 383 338 0 0 0 0.61655 0.13029 -0.77646 0.010181
-0.12301 0.070997 1.2628 6.5459e-39 384.5 338 0 0 0 0.58557 0.1362 -0.7991 0.012442
-0.24489 0.072474 1.2628 6.6381e-39 410 338 0 0 0 -0.62359 0.13109 -0.77068 0.048309
-0.12523 0.073213 1.2628 6.3154e-39 188 339.5 0 0 0 0.62692 0.13771 -0.76682 0.0097018
-0.12301 0.073213 1.2628 6.5459e-39 189.5 339.5 0 0 0 0.5925 0.14656 -0.79213 0.0121
-0.12523 0.075429 1.2628 8.1132e-39 431 340 0 0 0 0.63447 0.14996 -0.75826 0.0086993
-0.12301 0.075429 1.2628 8.4359e-39 432.5 340 0 0 0 0.60247 0.15863 -0.78222 0.011065
-0.12301 0.076906 1.2628 6.6842e-39 394.5 341 0 0 0 0.60957 0.16773 -0.77479 0.010739
-0.24342 0.078384 1.2628 7.2835e-39 421 341 0 0 0 -0.66775 0.24506 -0.70289 0.044119
-0.24194 0.079861 1.2628 6.1771e-39 382 342 0 0 0 -0.68094 0.25267 -0.68737 0.039938
-0.12523 0.079122 1.2628 5.9467e-39 202 342.5 0 0 0 0.64074 0.17029 -0.74864 0.0079635
-0.12375 0.079122 1.2628 5.8544e-39 203 342.5 0 0 0 0.62924 0.17265 -0.75779 0.0092367
-0.12523 0.081338 1.2628 7.3757e-39 413 343 0 0 0 0.64476 0.17728 -0.74354 0.0070719
-0.12375 0.081338 1.2628 8.482e-39 414 343 0 0 0 0.6373 0.18048 -0.74918 0.0079715
-0.24046 0.082816 1.2628 7.7444e-39 445 343 0 0 0 -0.71636 0.25617 -0.64901 0.031859
-0.12375 0.082816 1.2628 6.4537e-39 212 344 0 0 0 0.63833 0.18937 -0.74611 0.0075105
-0.1267 0.085032 1.2628 6.3154e-39 417 344.5 0 0 0 0.64478 0.19429 -0.73926 0.0060037
-0.1267 0.087248 1.2628 6.9147e-39 190 346 0 0 0 0.64162 0.19592 -0.74158 0.0057052
-0.12818 0.088725 1.2628 7.8366e-39 439 346 0 0 0 0.63862 0.20331 -0.74217 0.0056429
-0.1267 0.088725 1.2628 7.9288e-39 440 346 0 0 0 0.6403 0.19573 -0.74277 0.0058151
-0.23898 0.090941 1.2628 6.8686e-39 481.5 346.5 0 0 0 -0.79825 0.16857 -0.57825 0.0034677
-0.12818 0.090941 1.2628 6.6381e-39 284.5 347.5 0 0 0 0.63137 0.20655 -0.74747 0.0057548
-0.1267 0.090202 1.2628 6.9147e-39 383 347 0 0 0 0.63578 0.20038 -0.74541 0.0057426
-0.23898 0.093157 1.2628 5.6239e-39 236 348 0 0 0 -0.80319 0.15371 -0.57555 0.0024663
-0.12966 0.093157 1.2628 8.2054e-39 426 348 0 0 0 0.6161 0.21541 -0.75764 0.0062074
-0.23898 0.094635 1.2628 5.8083e-39 457 348 0 0 0 -0.8036 0.15095 -0.57571 0.0024916
-0.13114 0.094635 1.2628 5.9005e-39 252 349 0 0 0 0.60725 0.22429 -0.7622 0.0062788
-0.12966 0.094635 1.2628 5.7161e-39 253 349 0 0 0 0.6075 0.21623 -0.76432 0.0063018
-0.23898 0.09685 1.2628 6.592e-39 296 349.5 0 0 0 -0.80283 0.14859 -0.5774 0.002845
-0.13114 0.096112 1.2628 5.7161e-39 481 349 0 0 0 0.6008 0.22129 -0.76816 0.0062807
-0.23898 0.099067 1.2628 7.6522e-39 435 350 0 0 0 -0.7993 0.15124 -0.58159 0.003253
-0.23898 0.10054 1.2628 5.7161e-39 368 351 0 0 0 -0.79482 0.15312 -0.5872 0.0036098
-0.23898 0.10202 1.2628 5.9005e-39 487 351 0 0 0 -0.79201 0.1561 -0.59021 0.0039275
-0.13508 0.10301 1.2628 6.0234e-39 407.67 352 0 0 0 0.58412 0.21136 -0.78366 0.0060807
-0.13261 0.10276 1.2628 5.9005e-39 426 352 0 0 0 0.5776 0.20851 -0.78924 0.0058746
-0.23751 0.10498 1.2628 7.1913e-39 193 353 0 0 0 -0.77529 0.18181 -0.60487 0.0049144
-0.13483 0.10498 1.2628 8.1132e-39 396.5 353 0 0 0 0.58254 0.19838 -0.78823 0.0060907
-0.13261 0.10498 1.2628 7.7444e-39 398 353 0 0 0 0.57206 0.19691 -0.79623 0.0056167
-0.23751 0.10719 1.2628 6.1771e-39 340.5 353.5 0 0 0 -0.76038 0.19838 -0.61843 0.0048906
-0.13705 0.10793 1.2628 6.0849e-39 436 354 0 0 0 0.58651 0.17841 -0.79005 0.0063253
-0.23751 0.10941 1.2628 5.9927e-39 480 354 0 0 0 -0.74792 0.21444 -0.6282 0.0047664
-0.13705 0.10941 1.2628 6.0849e-39 261 355 0 0 0 0.58607 0.16515 -0.79325 0.0062027
-0.13705 0.11089 1.2628 6.0849e-39 152 356 0 0 0 0.58711 0.15384 -0.79476 0.0060922
-0.23603 0.11236 1.2628 5.7161e-39 249 356 0 0 0 -0.73175 0.23234 -0.64075 0.0037928
-0.23455 0.11384 1.2628 1.8439e-39 557 356 0 0 0 -0.72252 0.24442 -0.6467 0.0031897
-0.13705 0.1131 1.2628 6.2232e-39 399 356.5 0 0 0 0.59073 0.14734 -0.7933 0.0059331
-0.23307 0.11532 1.2628 8.1132e-39 407 357 0 0 0 -0.71613 0.25052 -0.65146 0.0027935
-0.2316 0.11679 1.2628 5.9927e-39 261 358 0 0 0 -0.71144 0.25188 -0.65605 0.002714
-0.13852 0.11679 1.2628 6.4537e-39 433 358 0 0 0 0.59791 0.13529 -0.79006 0.0064933
-0.13705 0.11679 1.2628 5.9927e-39 434 358 0 0 0 0.59473 0.13767 -0.79205 0.0059718
-0.13852 0.11901 1.2628 4.1949e-39 468 359 0 0 0 0.60079 0.13548 -0.78784 0.0068638
-0.13705 0.11901 1.2628 6.3615e-39 263.5 359.5 0 0 0 0.59509 0.13507 -0.79222 0.0063233
-0.23012 0.12123 1.2628 5.6239e-39 254 360 0 0 0 -0.70833 0.22905 -0.66768 0.0033036
-0.13852 0.12123 1.2628 6.9147e-39 416 360 0 0 0 0.60483 0.14059 -0.78384 0.0073553
-0.13705 0.12123 1.2628 6.9147e-39 417 360 0 0 0 0.59702 0.14103 -0.78973 0.0068068
-0.13852 0.1227 1.2628 5.6239e-39 202 361 0 0 0 0.60448 0.14245 -0.78378 0.0077374
-0.13705 0.1227 1.2628 5.8083e-39 203 361 0 0 0 0.60123 0.14346 -0.78609 0.0071382
-0.22864 0.12566 1.2628 2.3971e-39 557 361 0 0 0 -0.71568 0.19575 -0.67044 0.0035427
-0.13852 0.12492 1.2628 5.5317e-39 350 361.5 0 0 0 0.60619 0.15305 -0.78046 0.0078225
-0.13705 0.12418 1.2628 5.9927e-39 443 361 0 0 0 0.60499 0.14934 -0.7821 0.0075832
-0.22864 0.12714 1.2628 9.5883e-39 397 362 0 0 0 -0.71423 0.18697 -0.67447 0.0035725
-0.13852 0.12714 1.2628 4.8864e-39 469 362 0 0 0 0.60375 0.16516 -0.77987 0.0075681
-0.22864 0.12861 1.2628 5.7161e-39 170 363 0 0 0 -0.71438 0.17602 -0.67726 0.0034682
-0.13926 0.12861 1.2628 8.2515e-39 377.5 363 0 0 0 0.60628 0.17495 -0.77577 0.0078214
-0.14 0.13083 1.2628 6.177e-39 479.5 363.5 0 0 0 0.61045 0.18945 -0.76906 0.00768
-0.14296 0.13305 1.2628 5.2552e-39 168 365 0 0 0 0.62956 0.19009 -0.75334 0.0083487
-0.14148 0.13305 1.2628 5.5317e-39 169 365 0 0 0 0.62138 0.1927 -0.75944 0.0082197
-0.14 0.13305 1.2628 5.8083e-39 185 365 0 0 0 0.61254 0.19932 -0.7649 0.0080058
-0.14296 0.13452 1.2628 7.2835e-39 404 365 0 0 0 0.63028 0.19075 -0.75257 0.0086832
-0.14148 0.13452 1.2628 7.0991e-39 405 365 0 0 0 0.62464 0.19171 -0.75701 0.0082919
-0.14296 0.136 1.2628 6.1771e-39 186 366 0 0 0 0.62984 0.19162 -0.75272 0.0089263
-0.14148 0.136 1.2628 6.1771e-39 187 366 0 0 0 0.62612 0.1945 -0.75508 0.0082933
-0.14443 0.13896 1.2628 1.8439e-39 560 366 0 0 0 0.63924 0.19965 -0.74264 0.0087414
-0.22717 0.14191 1.2628 7.4678e-39 362 367 0 0 0 -0.73886 0.07955 -0.66915 0.0037196
-0.14443 0.14117 1.2628 6.1771e-39 337.5 367 0 0 0 0.63692 0.21234 -0.74111 0.0085454
-0.22717 0.14339 1.2628 9.5883e-39 447 367 0 0 0 -0.73904 0.072332 -0.66977 0.0038615
-0.14517 0.14339 1.2628 5.5778e-39 166.5 368 0 0 0 0.64348 0.20811 -0.73663 0.0090731
-0.22717 0.14486 1.2628 5.9927e-39 197 368 0 0 0 -0.74285 0.067551 -0.66604 0.0038772
-0.14517 0.14486 1.2628 5.0247e-39 266.5 368 0 0 0 0.64237 0.20452 -0.7386 0.009332
-0.14739 0.14634 1.2628 7.2835e-39 412 368 0 0 0 0.65105 0.20205 -0.73165 0.011135
-0.14517 0.14634 1.2628 7.4679e-39 413.5 368 0 0 0 0.64084 0.20706 -0.73923 0.0099885
-0.12104 0.032652 1.2653 3.5956e-39 151 317 0 0 0 0.16794 -0.60303 -0.77984 0.07531
-0.22615 0.035613 1.2653 6.0849e-39 239 319 0 0 0 -0.26862 -0.78771 -0.55439 0.011997
-0.22444 0.035576 1.264 7.2835e-39 240 319 0 0 0 -0.25603 -0.80637 -0.53312 0.013856
-0.22296 0.035576 1.264 8.6664e-39 241 319 0 0 0 -0.24539 -0.82221 -0.51357 0.016131
-0.22148 0.035576 1.264 1.0142e-38 242 319 0 0 0 -0.22281 -0.83966 -0.4953 0.018997
-0.22 0.035576 1.264 1.0971e-38 243 319 0 0 0 -0.19898 -0.85959 -0.47065 0.021641
-0.21705 0.035576 1.264 9.5883e-39 245 319 0 0 0 -0.17119 -0.88531 -0.43234 0.025214
-0.21505 0.034133 1.2653 3.8261e-39 154.5 318 0 0 0 -0.10662 -0.91592 -0.38694 0.027749
-0.21283 0.034133 1.2653 7.4678e-39 234 318 0 0 0 -0.058976 -0.93441 -0.35127 0.025895
-0.20965 0.034098 1.264 8.1132e-39 236 318 0 0 0 0.0071872 -0.9494 -0.31397 0.021893
-0.20691 0.034133 1.2653 6.1771e-39 238 318 0 0 0 0.093817 -0.94867 -0.30204 0.014244
-0.20542 0.035613 1.2653 5.7161e-39 255 319 0 0 0 0.12409 -0.94376 -0.30645 0.010567
-0.12098 0.034855 1.2647 6.2693e-39 199.5 319.5 0 0 0 0.23563 -0.56936 -0.7876 0.077922
-0.11796 0.035576 1.264 6.1771e-39 248 320 0 0 0 0.29766 -0.46788 -0.83216 0.078733
-0.23059 0.037093 1.2653 3.0425e-39 155 321 0 0 0 -0.29072 -0.73659 -0.61066 0.012617
-0.22911 0.037093 1.2653 2.9503e-39 156 321 0 0 0 -0.29198 -0.75143 -0.59169 0.011802
-0.22763 0.037093 1.2653 2.8581e-39 157 321 0 0 0 -0.28037 -0.76479 -0.58007 0.011653
-0.22592 0.037055 1.264 2.7659e-39 158 321 0 0 0 -0.27971 -0.78852 -0.54772 0.011914
-0.203 0.037055 1.264 8.1132e-39 239.5 321 0 0 0 0.14469 -0.93697 -0.31805 0.0084432
-0.20098 0.037093 1.2653 9.0352e-39 241 321 0 0 0 0.17064 -0.93385 -0.31434 0.0065442
-0.19876 0.037093 1.2653 1.0372e-38 242.5 321 0 0 0 0.17068 -0.93143 -0.32141 0.0071348
-0.12548 0.037093 1.2653 6.5459e-39 428 321 0 0 0 0.20042 -0.62855 -0.75151 0.080129
-0.12252 0.037093 1.2653 6.4537e-39 430 321 0 0 0 0.25678 -0.55245 -0.793 0.07956
-0.12092 0.037055 1.264 6.3615e-39 431 321 0 0 0 0.28655 -0.4994 -0.81761 0.079781
-0.11512 0.037093 1.2653 4.3332e-39 150 322 0 0 0 0.36361 -0.37483 -0.85281 0.07067
-0.23355 0.038574 1.2653 5.7161e-39 228 322 0 0 0 -0.32797 -0.67928 -0.65652 0.019621
-0.23059 0.038574 1.2653 5.6239e-39 230 322 0 0 0 -0.31064 -0.72135 -0.61899 0.015493
-0.22888 0.038534 1.264 5.5317e-39 231 322 0 0 0 -0.30602 -0.74588 -0.59163 0.013475
-0.2274 0.038534 1.264 5.6239e-39 232 322 0 0 0 -0.30723 -0.7617 -0.57045 0.012662
-0.19654 0.038574 1.2653 6.0849e-39 253 322 0 0 0 0.16233 -0.92492 -0.34376 0.008302
-0.19486 0.038534 1.264 6.1771e-39 254 322 0 0 0 0.13966 -0.9314 -0.33615 0.0092542
-0.19284 0.038574 1.2653 6.0388e-39 255.5 322 0 0 0 0.10666 -0.92782 -0.35746 0.0095127
-0.18914 0.038574 1.2653 6.2693e-39 389 322 0 0 0 0.054655 -0.92814 -0.3682 0.0082024
-0.18618 0.038574 1.2653 6.0849e-39 400 322 0 0 0 0.014334 -0.9303 -0.36653 0.005272
-0.18322 0.038574 1.2653 6.7303e-39 404 322 0 0 0 0.0017937 -0.93427 -0.35655 0.0041347
-0.18007 0.038534 1.264 5.9005e-39 406 322 0 0 0 0.0013049 -0.93614 -0.35161 0.0037653
-0.17859 0.038534 1.264 6.1771e-39 407 322 0 0 0 0.0018143 -0.94192 -0.33582 0.0037531
-0.17564 0.038534 1.264 6.4537e-39 409 322 0 0 0 0.017558 -0.94608 -0.32346 0.0043066
-0.16824 0.038534 1.264 6.5459e-39 418 322 0 0 0 0.076748 -0.94708 -0.31169 0.0028009
-0.16693 0.038574 1.2653 6.5459e-39 419 322 0 0 0 0.086623 -0.94628 -0.31153 0.0025817
-0.16323 0.038574 1.2653 6.0849e-39 421.5 322 0 0 0 0.092591 -0.94508 -0.31346 0.0022544
-0.12696 0.038574 1.2653 4.7942e-39 148 323 0 0 0 0.20103 -0.61945 -0.75886 0.082943
-0.12548 0.038574 1.2653 4.5176e-39 149 323 0 0 0 0.22781 -0.57911 -0.78277 0.085708
-0.12326 0.038574 1.2653 4.2871e-39 150.5 323 0 0 0 0.28872 -0.51193 -0.80905 0.082117
-0.12092 0.038534 1.264 4.3332e-39 152 323 0 0 0 0.327 -0.46796 -0.82103 0.078765
-0.11512 0.038574 1.2653 2.9503e-39 156 323 0 0 0 0.38873 -0.33624 -0.85781 0.067294
-0.2454 0.041534 1.2653 1.1617e-38 219 324 0 0 0 -0.4522 -0.444 -0.77355 0.035091
-0.24317 0.041534 1.2653 8.2515e-39 220.5 324 0 0 0 -0.4313 -0.46872 -0.7709 0.033911
-0.24095 0.041534 1.2653 5.5317e-39 222 324 0 0 0 -0.41894 -0.49654 -0.76022 0.033315
-0.23947 0.040054 1.2653 6.8225e-39 230 323 0 0 0 -0.38979 -0.54939 -0.73908 0.028404
-0.23713 0.040034 1.2647 7.053e-39 231.5 323 0 0 0 -0.37646 -0.6153 -0.69259 0.02556
-0.23503 0.040054 1.2653 7.56e-39 233 323 0 0 0 -0.35954 -0.62918 -0.6891 0.024338
-0.23331 0.040013 1.264 8.1132e-39 234 323 0 0 0 -0.35203 -0.66501 -0.65867 0.022545
-0.2311 0.040013 1.264 8.8969e-39 235.5 323 0 0 0 -0.34011 -0.701 -0.62684 0.018647
-0.19043 0.040013 1.264 6.1771e-39 400 323 0 0 0 0.071329 -0.93007 -0.3604 0.0088265
-0.16085 0.040013 1.264 6.9147e-39 424 323 0 0 0 0.088547 -0.94649 -0.31034 0.0020838
-0.15805 0.040054 1.2653 7.1913e-39 426 323 0 0 0 0.080039 -0.94557 -0.31541 0.0022518
-0.15509 0.040054 1.2653 6.4537e-39 428 323 0 0 0 0.063907 -0.94335 -0.32559 0.0023955
-0.15361 0.040054 1.2653 6.0849e-39 429 323 0 0 0 0.055681 -0.94344 -0.32684 0.0023376
-0.14769 0.040054 1.2653 6.4537e-39 433 323 0 0 0 0.0054991 -0.93035 -0.36664 0.0036914
-0.14325 0.040054 1.2653 6.2693e-39 436 323 0 0 0 -0.0084841 -0.91052 -0.41338 0.0076764
-0.13733 0.040054 1.2653 5.3473e-39 444 323 0 0 0 0.041976 -0.81713 -0.57492 0.041677
-0.13504 0.040773 1.2647 5.7622e-39 438 323.5 0 0 0 0.10246 -0.75321 -0.64975 0.062097
-0.13289 0.040054 1.2653 5.5317e-39 542 323 0 0 0 0.1147 -0.70796 -0.69687 0.069598
-0.13127 0.040013 1.264 5.0708e-39 543 323 0 0 0 0.16945 -0.68028 -0.7131 0.077164
-0.12918 0.040054 1.2653 4.241e-39 544.5 323 0 0 0 0.20217 -0.62191 -0.75655 0.08324
-0.12683 0.040013 1.264 3.6878e-39 546 323 0 0 0 0.24595 -0.56219 -0.78959 0.087651
-0.12536 0.040013 1.264 5.3473e-39 147 324 0 0 0 0.29617 -0.53058 -0.79421 0.085057
-0.12317 0.040763 1.2643 5.0708e-39 295.5 324 0 0 0 0.34358 -0.45321 -0.82253 0.081425
-0.1166 0.041534 1.2653 5.3473e-39 543 324 0 0 0 0.41066 -0.29188 -0.86381 0.064215
-0.11512 0.040794 1.2653 4.7942e-39 349 324 0 0 0 0.40394 -0.27546 -0.87233 0.059595
-0.24688 0.043015 1.2653 4.4254e-39 155 325 0 0 0 -0.48235 -0.39943 -0.77961 0.03478
-0.2454 0.043015 1.2653 4.0566e-39 156 325 0 0 0 -0.46339 -0.4317 -0.77389 0.034823
-0.24305 0.042993 1.2647 3.3652e-39 157.5 325 0 0 0 -0.44983 -0.45382 -0.76922 0.036248
-0.24071 0.042971 1.264 2.8581e-39 159 325 0 0 0 -0.44193 -0.49377 -0.74893 0.035385
-0.1166 0.043015 1.2653 7.3757e-39 426 325 0 0 0 0.42502 -0.26001 -0.86704 0.058155
-0.115 0.042971 1.264 6.9147e-39 427 325 0 0 0 0.45026 -0.23001 -0.86277 0.049368
-0.24688 0.045235 1.2653 5.8084e-39 430 325.5 0 0 0 -0.49976 -0.35773 -0.78884 0.034083
-0.24527 0.045212 1.2647 6.131e-39 431 325.5 0 0 0 -0.48697 -0.38649 -0.78325 0.036287
-0.24367 0.045189 1.264 6.2232e-39 480 325.5 0 0 0 -0.47766 -0.4179 -0.77279 0.036713
-0.24071 0.04445 1.264 5.0708e-39 544 325 0 0 0 -0.45673 -0.47001 -0.75531 0.036346
-0.11705 0.044974 1.2649 6.3308e-39 344.67 326.33 0 0 0 0.43814 -0.2276 -0.86962 0.052524
-0.11512 0.045235 1.2653 6.4537e-39 318 326.5 0 0 0 0.4475 -0.18594 -0.87474 0.042097
-0.24688 0.047456 1.2653 6.0849e-39 249 327 0 0 0 -0.52049 -0.30288 -0.79834 0.031161
-0.24514 0.047407 1.264 5.8083e-39 250 327 0 0 0 -0.51501 -0.34614 -0.78419 0.035603
-0.11728 0.047431 1.2647 4.4254e-39 156.5 328 0 0 0 0.46493 -0.1637 -0.87008 0.043992
-0.11512 0.047456 1.2653 4.1488e-39 158 328 0 0 0 0.45849 -0.12116 -0.8804 0.033549
-0.24688 0.048936 1.2653 1.3645e-38 206 328 0 0 0 -0.53344 -0.27459 -0.80003 0.027494
-0.24514 0.048886 1.264 1.2262e-38 207 328 0 0 0 -0.53146 -0.29858 -0.79272 0.031636
-0.11944 0.048886 1.264 6.0849e-39 420 328 0 0 0 0.48125 -0.16509 -0.8609 0.045161
-0.11728 0.048911 1.2647 6.2232e-39 421.5 328 0 0 0 0.46838 -0.1317 -0.87366 0.036332
-0.11512 0.048936 1.2653 6.8225e-39 423 328 0 0 0 0.45781 -0.10854 -0.8824 0.029978
-0.24688 0.051157 1.2653 6.1771e-39 412.5 328.5 0 0 0 -0.5435 -0.2429 -0.8035 0.023629
-0.24514 0.051105 1.264 5.8544e-39 413.5 328.5 0 0 0 -0.5539 -0.25661 -0.79205 0.028397
-0.11944 0.051105 1.264 5.8544e-39 190.5 329.5 0 0 0 0.49591 -0.10826 -0.8616 0.034546
-0.11728 0.051131 1.2647 5.8544e-39 192 329.5 0 0 0 0.48108 -0.083634 -0.87268 0.026315
-0.11512 0.051157 1.2653 5.9466e-39 193.5 329.5 0 0 0 0.46932 -0.055805 -0.88126 0.02028
-0.24688 0.053378 1.2653 3.1347e-39 169 330 0 0 0 -0.5484 -0.20767 -0.81002 0.020853
-0.24514 0.053323 1.264 3.2268e-39 170 330 0 0 0 -0.56417 -0.21688 -0.79667 0.023519
-0.11944 0.053323 1.264 6.6381e-39 415 330 0 0 0 0.51066 -0.045615 -0.85857 0.023834
-0.11728 0.053351 1.2647 6.4998e-39 416.5 330 0 0 0 0.48172 -0.025422 -0.87595 0.018677
-0.11512 0.053378 1.2653 5.8083e-39 418 330 0 0 0 0.47204 -0.013034 -0.88148 0.015011
-0.24688 0.054858 1.2653 5.9005e-39 438 330 0 0 0 -0.5527 -0.18967 -0.81151 0.019336
-0.24514 0.054802 1.264 5.7161e-39 439 330 0 0 0 -0.56949 -0.18717 -0.80041 0.021704
-0.11944 0.054802 1.264 7.6522e-39 213 331 0 0 0 0.51258 -0.023785 -0.85831 0.019987
-0.11728 0.05483 1.2647 7.8827e-39 214.5 331 0 0 0 0.48672 -0.010623 -0.87349 0.016076
-0.11512 0.054858 1.2653 7.56e-39 216 331 0 0 0 0.46742 0.0042306 -0.88402 0.013028
-0.24688 0.056338 1.2653 7.0991e-39 235 331 0 0 0 -0.55694 -0.14911 -0.81706 0.01864
-0.24514 0.057021 1.264 5.9005e-39 196.5 331.5 0 0 0 -0.56507 -0.15092 -0.81112 0.020111
-0.11876 0.057049 1.2647 5.8544e-39 454.5 331.5 0 0 0 0.50679 0.016228 -0.86192 0.014479
-0.1166 0.057079 1.2653 6.2232e-39 468 331.5 0 0 0 0.48025 0.025053 -0.87678 0.01226
-0.11512 0.057079 1.2653 6.1771e-39 469 331.5 0 0 0 0.46606 0.033246 -0.88413 0.010969
-0.24688 0.059299 1.2653 5.9927e-39 421 332 0 0 0 -0.57034 -0.087749 -0.81671 0.022053
-0.24514 0.059238 1.264 6.6381e-39 422 332 0 0 0 -0.57132 -0.10735 -0.81367 0.022098
-0.11876 0.059269 1.2647 4.1949e-39 179.5 333 0 0 0 0.50742 0.047436 -0.86039 0.012107
-0.11512 0.059299 1.2653 4.7942e-39 182 333 0 0 0 0.46077 0.057852 -0.88563 0.0099349
-0.24688 0.06078 1.2653 6.3615e-39 202 333 0 0 0 -0.5745 -0.070084 -0.8155 0.024962
-0.24514 0.060717 1.264 6.7303e-39 203 333 0 0 0 -0.58024 -0.07635 -0.81086 0.025507
-0.12092 0.060717 1.264 6.5459e-39 430 333 0 0 0 0.52346 0.064955 -0.84957 0.0111
-0.11876 0.060749 1.2647 6.4998e-39 431.5 333 0 0 0 0.50488 0.066377 -0.86064 0.01163
-0.11512 0.06078 1.2653 6.5459e-39 434 333 0 0 0 0.46108 0.07122 -0.8845 0.010074
-0.24688 0.063 1.2653 5.5778e-39 431.5 333.5 0 0 0 -0.57291 -0.040634 -0.81861 0.033251
-0.12092 0.062936 1.264 6.7303e-39 176.5 334.5 0 0 0 0.52302 0.088257 -0.84774 0.011102
-0.11876 0.062968 1.2647 6.2924e-39 178 334.5 0 0 0 0.50413 0.093497 -0.85855 0.012348
-0.11512 0.06226 1.2653 7.0069e-39 219 334 0 0 0 0.46177 0.085354 -0.88288 0.01037
-0.24836 0.065221 1.2653 2.9503e-39 176 335 0 0 0 -0.54443 -0.0060123 -0.83879 0.038264
-0.24688 0.065221 1.2653 3.6878e-39 177 335 0 0 0 -0.57801 0.0018779 -0.81603 0.038821
-0.12104 0.065221 1.2653 6.4537e-39 403 335 0 0 0 0.52043 0.11441 -0.8462 0.011864
-0.11944 0.065154 1.264 6.4537e-39 404 335 0 0 0 0.50904 0.11072 -0.85359 0.012543
-0.24836 0.066701 1.2653 6.2693e-39 428 335 0 0 0 -0.54281 0.023586 -0.83953 0.042133
-0.24662 0.066633 1.264 6.2693e-39 429 335 0 0 0 -0.58843 0.022943 -0.80822 0.042931
-0.12104 0.066701 1.2653 8.482e-39 207 336 0 0 0 0.52457 0.12521 -0.84211 0.012819
-0.11944 0.066633 1.264 8.6664e-39 208 336 0 0 0 0.51073 0.12191 -0.85105 0.013693
-0.2602 0.068181 1.2653 6.8225e-39 222 336 0 0 0 -0.48494 0.0016838 -0.87455 0.063618
-0.25903 0.069121 1.2644 4.7942e-39 190.67 336.67 0 0 0 -0.49815 0.034051 -0.86642 0.063897
-0.25576 0.069662 1.2653 2.8581e-39 177 337 0 0 0 -0.53842 0.084029 -0.83848 0.057788
-0.24836 0.068921 1.2653 4.4253e-39 218 336.5 0 0 0 -0.55633 0.075484 -0.82753 0.048609
-0.24662 0.068852 1.264 4.7481e-39 219 336.5 0 0 0 -0.59665 0.069938 -0.79945 0.048246
-0.12098 0.068886 1.2647 5.4395e-39 289 337 0 0 0 0.52956 0.14072 -0.83652 0.013333
-0.1195 0.068887 1.2647 5.624e-39 290 337 0 0 0 0.51115 0.14342 -0.84744 0.014363
-0.25724 0.071142 1.2653 5.4395e-39 484 337 0 0 0 -0.541 0.12293 -0.83199 0.064485
-0.25576 0.071142 1.2653 5.2552e-39 485 337 0 0 0 -0.55359 0.14221 -0.82055 0.062962
-0.24836 0.071142 1.2653 5.5317e-39 492 337 0 0 0 -0.58393 0.13862 -0.79988 0.053117
-0.24662 0.071069 1.264 5.6239e-39 493 337 0 0 0 -0.6088 0.11416 -0.78507 0.050066
-0.12104 0.071142 1.2653 6.5459e-39 386 338 0 0 0 0.53828 0.15408 -0.82856 0.013216
-0.11956 0.071142 1.2653 6.7303e-39 387 338 0 0 0 0.51679 0.16271 -0.84051 0.014928
-0.25724 0.072623 1.2653 6.1771e-39 402 338 0 0 0 -0.55551 0.18202 -0.81134 0.06862
-0.25576 0.072623 1.2653 6.1771e-39 403 338 0 0 0 -0.56172 0.19292 -0.80452 0.065351
-0.24836 0.072623 1.2653 6.2693e-39 408 338 0 0 0 -0.59805 0.16923 -0.78339 0.054389
-0.24662 0.072548 1.264 6.4537e-39 409 338 0 0 0 -0.61331 0.14881 -0.7757 0.051051
-0.12104 0.072623 1.2653 8.1132e-39 203 339 0 0 0 0.54914 0.16058 -0.82016 0.01309
-0.11956 0.072623 1.2653 7.8366e-39 204 339 0 0 0 0.52693 0.17015 -0.8327 0.01483
-0.25724 0.074843 1.2653 7.4218e-39 207 339.5 0 0 0 -0.57699 0.2633 -0.77315 0.067432
-0.25576 0.074843 1.2653 7.4218e-39 213 339.5 0 0 0 -0.58162 0.26543 -0.76893 0.063601
-0.24688 0.074103 1.2653 5.8083e-39 254 339 0 0 0 -0.61807 0.19775 -0.76085 0.052621
-0.24514 0.074767 1.264 7.0069e-39 229 339.5 0 0 0 -0.62978 0.209 -0.74813 0.050095
-0.12104 0.074843 1.2653 5.5778e-39 331 340 0 0 0 0.56259 0.17461 -0.80809 0.01286
-0.11956 0.074843 1.2653 5.67e-39 332 340 0 0 0 0.54242 0.18455 -0.81958 0.014219
-0.25724 0.077064 1.2653 5.2552e-39 169 341 0 0 0 -0.57448 0.33963 -0.74473 0.062983
-0.25576 0.077064 1.2653 5.3473e-39 170 341 0 0 0 -0.58181 0.32528 -0.74545 0.060182
-0.2454 0.077064 1.2653 4.9786e-39 177 341 0 0 0 -0.64261 0.26728 -0.71806 0.047162
-0.12104 0.077064 1.2653 6.2693e-39 396 341 0 0 0 0.57465 0.18577 -0.79703 0.012184
-0.11956 0.077064 1.2653 5.8083e-39 397 341 0 0 0 0.56207 0.19185 -0.80453 0.012768
-0.24367 0.079943 1.264 6.0849e-39 381 342 0 0 0 -0.68013 0.26289 -0.68433 0.041386
-0.1224 0.079204 1.264 5.8544e-39 204 342.5 0 0 0 0.60528 0.18259 -0.77479 0.010185
-0.12104 0.078544 1.2653 6.1771e-39 235 342 0 0 0 0.58492 0.19076 -0.78834 0.011541
-0.24219 0.081422 1.264 7.4678e-39 200 343 0 0 0 -0.69215 0.27646 -0.6667 0.037277
-0.1224 0.081422 1.264 9.404e-39 415 343 0 0 0 0.61486 0.1898 -0.76545 0.0088241
-0.12104 0.080025 1.2653 5.2552e-39 175 343 0 0 0 0.5893 0.19759 -0.78338 0.010712
-0.24243 0.082985 1.2653 7.6522e-39 444 343 0 0 0 -0.70322 0.28803 -0.65002 0.033918
-0.12536 0.0829 1.264 6.4537e-39 211 344 0 0 0 0.64457 0.18417 -0.74203 0.0069023
-0.12252 0.082985 1.2653 6.5459e-39 213 344 0 0 0 0.61626 0.19576 -0.76283 0.0080359
-0.24071 0.085119 1.264 4.0566e-39 405.5 344 0 0 0 -0.7322 0.25749 -0.63054 0.026118
-0.12536 0.085119 1.264 6.2693e-39 418 344.5 0 0 0 0.64287 0.19144 -0.74167 0.0060318
-0.1232 0.085162 1.2647 6.0388e-39 419.5 344.5 0 0 0 0.6311 0.19225 -0.7515 0.0063889
-0.24095 0.087427 1.2653 8.8508e-39 415 345 0 0 0 -0.75204 0.24277 -0.61278 0.020026
-0.12536 0.087337 1.264 7.0069e-39 191 346 0 0 0 0.6393 0.19033 -0.74503 0.0056292
-0.1232 0.087382 1.2647 7.0069e-39 192.5 346 0 0 0 0.63184 0.1895 -0.75157 0.0057495
-0.24095 0.088907 1.2653 5.7161e-39 241 346 0 0 0 -0.76778 0.22363 -0.60042 0.013736
-0.12536 0.088816 1.264 8.3898e-39 441 346 0 0 0 0.63677 0.19263 -0.7466 0.0056067
-0.1232 0.088862 1.2647 8.6203e-39 442.5 346 0 0 0 0.63328 0.18752 -0.75086 0.0054871
-0.12683 0.091774 1.264 7.0991e-39 188 348 0 0 0 0.63089 0.1974 -0.75034 0.0057064
-0.12542 0.091082 1.2647 7.0069e-39 286.5 347.5 0 0 0 0.6319 0.19304 -0.75063 0.0054607
-0.12394 0.091082 1.2647 6.9147e-39 287.5 347.5 0 0 0 0.63203 0.18939 -0.75144 0.0051793
-0.12831 0.093253 1.264 8.021e-39 427 348 0 0 0 0.6229 0.20431 -0.75515 0.0060064
-0.12683 0.093253 1.264 7.9288e-39 428 348 0 0 0 0.62587 0.19831 -0.75429 0.0058024
-0.12548 0.093348 1.2653 7.8366e-39 429 348 0 0 0 0.62508 0.19009 -0.75706 0.005378
-0.124 0.093348 1.2653 7.7444e-39 430 348 0 0 0 0.62739 0.18683 -0.75596 0.0050675
-0.12831 0.094731 1.264 5.6239e-39 254 349 0 0 0 0.61653 0.20567 -0.75999 0.0063581
-0.12696 0.094828 1.2653 5.6239e-39 255 349 0 0 0 0.61708 0.19488 -0.76238 0.0058626
-0.12548 0.094828 1.2653 5.9005e-39 256 349 0 0 0 0.62284 0.19031 -0.75885 0.0054803
-0.124 0.094828 1.2653 6.1771e-39 257 349 0 0 0 0.6219 0.18451 -0.76105 0.0052283
-0.24095 0.096309 1.2653 6.5459e-39 394 349 0 0 0 -0.80995 0.14034 -0.56946 0.0025141
-0.13127 0.097689 1.264 8.021e-39 402 350 0 0 0 0.59428 0.21282 -0.77559 0.0063844
-0.12911 0.096999 1.2647 6.7994e-39 443 349.5 0 0 0 0.60523 0.20391 -0.76949 0.0067958
-0.12696 0.097049 1.2653 6.6381e-39 444.5 349.5 0 0 0 0.61145 0.19417 -0.76709 0.0063651
-0.13127 0.099168 1.264 6.7303e-39 202 351 0 0 0 0.58404 0.21205 -0.78353 0.0060995
-0.12911 0.099219 1.2647 6.4537e-39 203.5 351 0 0 0 0.59338 0.19775 -0.78025 0.00649
-0.12696 0.09927 1.2653 6.2693e-39 205 351 0 0 0 0.60577 0.18778 -0.77317 0.0067649
-0.13127 0.10065 1.264 5.6239e-39 441 351 0 0 0 0.5765 0.21246 -0.78899 0.0057694
-0.12911 0.1007 1.2647 5.7161e-39 442.5 351 0 0 0 0.58917 0.19983 -0.78291 0.0064813
-0.12696 0.10075 1.2653 5.8083e-39 444 351 0 0 0 0.60001 0.19013 -0.77707 0.0069138
-0.23923 0.1036 1.264 8.2976e-39 401 352 0 0 0 -0.78932 0.16058 -0.59261 0.0045397
-0.13127 0.10287 1.264 5.67e-39 427 352 0 0 0 0.56953 0.20321 -0.79645 0.0055177
-0.12915 0.10294 1.265 5.693e-39 444.25 352 0 0 0 0.58177 0.19511 -0.78961 0.0065432
-0.23923 0.10508 1.264 6.8225e-39 192 353 0 0 0 -0.78504 0.17097 -0.59538 0.0050742
-0.13127 0.10508 1.264 7.56e-39 399 353 0 0 0 0.56883 0.19338 -0.7994 0.0055144
-0.12918 0.10519 1.2653 8.1132e-39 400.5 353 0 0 0 0.57748 0.18981 -0.79403 0.0066221
-0.23923 0.10656 1.264 6.8225e-39 431 353 0 0 0 -0.77754 0.18058 -0.60235 0.0052463
-0.13497 0.10656 1.264 6.592e-39 190.5 354 0 0 0 0.5763 0.18583 -0.79583 0.0059084
-0.13275 0.10656 1.264 6.6381e-39 192 354 0 0 0 0.56837 0.1854 -0.80161 0.0055156
-0.13141 0.10667 1.2653 6.8225e-39 193 354 0 0 0 0.56926 0.18314 -0.8015 0.0060526
-0.12918 0.10667 1.2653 6.7303e-39 194.5 354 0 0 0 0.57531 0.18528 -0.79667 0.0068073
-0.23935 0.10883 1.2647 5.8544e-39 363 354 0 0 0 -0.76742 0.19367 -0.6112 0.0054738
-0.13497 0.10878 1.264 5.9696e-39 402 354.5 0 0 0 0.57733 0.17004 -0.79861 0.0060401
-0.13275 0.10878 1.264 5.9005e-39 403.5 354.5 0 0 0 0.56963 0.17249 -0.8036 0.0058564
-0.13141 0.10889 1.2653 5.6239e-39 404.5 354.5 0 0 0 0.57087 0.17238 -0.80274 0.0062993
-0.12992 0.10815 1.2653 5.2552e-39 441 354 0 0 0 0.57213 0.17553 -0.80116 0.0066147
-0.23947 0.11111 1.2653 7.56e-39 398 355 0 0 0 -0.76105 0.20667 -0.6149 0.0055744
-0.23775 0.111 1.264 7.56e-39 399 355 0 0 0 -0.74108 0.22068 -0.63412 0.0046478
-0.13497 0.111 1.264 6.2693e-39 185.5 356 0 0 0 0.57919 0.15864 -0.79961 0.0058246
-0.13275 0.111 1.264 6.1771e-39 187 356 0 0 0 0.57249 0.16076 -0.804 0.0060801
-0.13141 0.11111 1.2653 6.3615e-39 188 356 0 0 0 0.576 0.16616 -0.80038 0.0069579
-0.23713 0.11327 1.2647 3.9183e-39 402 356 0 0 0 -0.73186 0.22986 -0.64152 0.0042539
-0.13497 0.11322 1.264 5.8775e-39 400.5 356.5 0 0 0 0.58337 0.14853 -0.79851 0.0058644
-0.13275 0.11248 1.264 6.2693e-39 433 356 0 0 0 0.57707 0.15554 -0.80175 0.0060878
-0.13141 0.11259 1.2653 6.1771e-39 434 356 0 0 0 0.57883 0.15648 -0.8003 0.0070833
-0.23725 0.11481 1.2653 5.3934e-39 480 356.5 0 0 0 -0.72339 0.23397 -0.64959 0.0040698
-0.23479 0.11544 1.264 8.1132e-39 406 357 0 0 0 -0.71965 0.24373 -0.65015 0.003405
-0.13497 0.11544 1.264 5.7622e-39 193.5 358 0 0 0 0.58456 0.1403 -0.79913 0.0056387
-0.13289 0.11481 1.2653 5.67e-39 283 357.5 0 0 0 0.58369 0.14632 -0.79869 0.0071421
-0.13141 0.11481 1.2653 6.0388e-39 284 357.5 0 0 0 0.58541 0.14865 -0.797 0.0076418
-0.23479 0.11691 1.264 5.8083e-39 259 358 0 0 0 -0.71203 0.24024 -0.65977 0.0032864
-0.23331 0.11691 1.264 6.1771e-39 260 358 0 0 0 -0.71072 0.24417 -0.65974 0.0030218
-0.13497 0.11691 1.264 5.7622e-39 435.5 358 0 0 0 0.58786 0.13972 -0.79681 0.0058142
-0.13289 0.11703 1.2653 5.6239e-39 437 358 0 0 0 0.59012 0.14323 -0.79451 0.0071211
-0.13141 0.11703 1.2653 5.8083e-39 438 358 0 0 0 0.59107 0.14735 -0.79304 0.007885
-0.23503 0.11851 1.2653 1.8439e-39 558 358 0 0 0 -0.71077 0.23189 -0.66411 0.0038107
-0.23355 0.11925 1.2653 3.8261e-39 490.5 358.5 0 0 0 -0.70715 0.23399 -0.66723 0.0035385
-0.23183 0.11913 1.264 4.1027e-39 491.5 358.5 0 0 0 -0.70443 0.23858 -0.66847 0.0030522
-0.135 0.11916 1.2643 6.7994e-39 265 359.5 0 0 0 0.59049 0.13842 -0.79509 0.006115
-0.13289 0.11925 1.2653 7.0068e-39 266.5 359.5 0 0 0 0.59021 0.14574 -0.79398 0.0072096
-0.23207 0.12148 1.2653 5.9927e-39 252 360 0 0 0 -0.70737 0.22116 -0.67136 0.0037654
-0.13504 0.12142 1.2647 6.592e-39 418.5 360 0 0 0 0.58906 0.14651 -0.7947 0.0064572
-0.13289 0.12148 1.2653 5.8083e-39 420 360 0 0 0 0.59673 0.14914 -0.78846 0.0076729
-0.23207 0.12296 1.2653 5.6239e-39 462 360 0 0 0 -0.70722 0.2142 -0.67376 0.0037427
-0.23036 0.12283 1.264 5.7161e-39 463 360 0 0 0 -0.70581 0.21702 -0.67434 0.0034577
-0.13504 0.1229 1.2647 6.0849e-39 204.5 361 0 0 0 0.59424 0.15054 -0.79007 0.0070704
