# .PCD v.7 - Point Cloud Data file format
VERSION .7
FIELDS x y z rgb u v vx vy vz normal_x normal_y normal_z curvature
SIZE 4 4 4 4 4 4 4 4 4 4 4 4 4
TYPE F F F F F F F F F F F F F
COUNT 1 1 1 1 1 1 1 1 1 1 1 1 1
WIDTH 535
HEIGHT 1
VIEWPOINT 0 0 0 1 0 0 0
POINTS 535
DATA ascii
0.00085333 0.10269 0.99115 6.0157e-39 277.5 335.5 0 0 0 -0.30721 -0.12124 -0.94389 0.042481
0.0033631 0.1028 0.99035 5.962e-39 241.33 335.67 0 0 0 -0.20948 -0.098248 -0.97286 0.044903
0.00491 0.10265 0.99075 5.8083e-39 281 335.5 0 0 0 -0.15449 -0.079825 -0.98476 0.044624
0.006646 0.10319 0.99035 5.5317e-39 167.5 336 0 0 0 -0.097584 -0.07139 -0.99266 0.041998
0.0087702 0.1028 0.99035 5.9312e-39 249 335.67 0 0 0 -0.0080625 -0.073186 -0.99729 0.04299
0.011474 0.1028 0.99035 6.0849e-39 263.67 335.67 0 0 0 0.095701 -0.072765 -0.99275 0.036833
0.013019 0.10261 0.99035 6.4076e-39 303.5 335.5 0 0 0 0.1328 -0.065839 -0.98895 0.032493
0.014766 0.10267 0.99095 6.8455e-39 306.75 335.5 0 0 0 0.19177 -0.072563 -0.97875 0.0273
0.016514 0.10273 0.99155 6.9607e-39 309.5 335.5 0 0 0 0.24234 -0.083874 -0.96656 0.025335
0.018842 0.10335 0.99194 6.0849e-39 206 336 0 0 0 0.30889 -0.10741 -0.94501 0.02142
0.020003 0.10335 0.99194 6.4537e-39 207 336 0 0 0 0.33489 -0.11969 -0.93462 0.019778
-0.00088676 0.10509 0.99194 6.6381e-39 320.5 336.5 0 0 0 -0.35588 -0.11061 -0.92796 0.034748
0.00085404 0.10509 0.99194 7.076e-39 322 336.5 0 0 0 -0.30344 -0.10461 -0.94709 0.036671
0.003172 0.10499 0.99095 6.0619e-39 330 336.5 0 0 0 -0.2113 -0.091865 -0.9731 0.038891
0.0049159 0.10509 0.99194 5.8083e-39 331.5 336.5 0 0 0 -0.15233 -0.079855 -0.9851 0.038769
0.0066472 0.10495 0.99055 6.0619e-39 340.25 336.5 0 0 0 -0.089756 -0.072888 -0.99329 0.038115
0.0089667 0.10497 0.99075 5.9235e-39 349.5 336.5 0 0 0 -0.0077202 -0.073459 -0.99727 0.037057
0.011285 0.10497 0.99075 5.8544e-39 351.5 336.5 0 0 0 0.085281 -0.063699 -0.99432 0.031785
0.013029 0.10501 0.99115 6.3154e-39 353 336.5 0 0 0 0.13214 -0.062192 -0.98928 0.027495
0.014763 0.10497 0.99075 6.8456e-39 354.5 336.5 0 0 0 0.18063 -0.07083 -0.981 0.024664
0.017095 0.10505 0.99155 7.1452e-39 356.5 336.5 0 0 0 0.24499 -0.086604 -0.96565 0.022757
0.018842 0.10509 0.99194 6.8686e-39 363 336.5 0 0 0 0.29423 -0.099957 -0.95049 0.020865
0.020003 0.10509 0.99194 7.0069e-39 364 336.5 0 0 0 0.32105 -0.11145 -0.94048 0.019367
-0.0020473 0.10799 0.99194 6.8225e-39 382 338 0 0 0 -0.37778 -0.082243 -0.92224 0.029084
-0.00088641 0.10737 0.99155 6.2232e-39 430 337.5 0 0 0 -0.35078 -0.083848 -0.9327 0.030832
0.00085368 0.10737 0.99154 6.0619e-39 431.5 337.5 0 0 0 -0.29543 -0.081163 -0.95191 0.032553
0.0031715 0.10729 0.99075 6.3384e-39 435.5 337.5 0 0 0 -0.19912 -0.070469 -0.97744 0.033182
0.0049139 0.10737 0.99155 6.4998e-39 437 337.5 0 0 0 -0.14785 -0.069915 -0.98653 0.033142
0.0064529 0.10705 0.99035 6.3e-39 454.67 337.33 0 0 0 -0.094066 -0.062172 -0.99362 0.032188
0.0089634 0.10724 0.99035 6.0157e-39 440.5 337.5 0 0 0 -0.0048935 -0.05559 -0.99844 0.030025
0.01128 0.10724 0.99035 7.2604e-39 445.5 337.5 0 0 0 0.079903 -0.056834 -0.99518 0.02599
0.013019 0.10724 0.99035 6.9147e-39 447 337.5 0 0 0 0.12827 -0.056585 -0.99012 0.023083
0.014759 0.10726 0.99055 5.5548e-39 448.5 337.5 0 0 0 0.1698 -0.064278 -0.98338 0.022856
0.017092 0.10735 0.99135 5.8774e-39 270 338 0 0 0 0.22942 -0.078453 -0.97016 0.020956
0.019411 0.10735 0.99135 5.7162e-39 272 338 0 0 0 0.28862 -0.096677 -0.95255 0.018126
0.021163 0.10799 0.99194 6.8225e-39 405 338 0 0 0 0.32722 -0.11607 -0.93779 0.015921
-0.0043683 0.10916 0.99194 5.3473e-39 144 339 0 0 0 -0.41737 -0.092137 -0.90405 0.024473
-0.0020473 0.10916 0.99194 5.9005e-39 146 339 0 0 0 -0.37068 -0.075572 -0.92568 0.028072
-0.00088605 0.10907 0.99115 5.8083e-39 147 339 0 0 0 -0.34362 -0.064504 -0.93689 0.028618
0.00085333 0.10907 0.99115 5.67e-39 151.5 339 0 0 0 -0.28688 -0.062712 -0.95591 0.030271
0.00317 0.10898 0.99035 5.5778e-39 153.5 339 0 0 0 -0.19909 -0.05517 -0.97843 0.029721
0.0049119 0.10907 0.99115 5.8083e-39 157 339 0 0 0 -0.14617 -0.059328 -0.98748 0.030028
0.0060667 0.10898 0.99035 5.8083e-39 158 339 0 0 0 -0.10555 -0.054677 -0.99291 0.02819
0.0089634 0.10898 0.99035 6.2232e-39 160.5 339 0 0 0 -0.0068552 -0.043325 -0.99904 0.025792
0.010701 0.10898 0.99035 6.2693e-39 162 339 0 0 0 0.065959 -0.043457 -0.99688 0.022981
0.013019 0.10898 0.99035 6.2693e-39 164 339 0 0 0 0.1237 -0.052857 -0.99091 0.02102
0.014757 0.10898 0.99035 6.3615e-39 165.5 339 0 0 0 0.16629 -0.059126 -0.9843 0.020724
0.017081 0.10903 0.99075 5.8544e-39 167.5 339 0 0 0 0.22235 -0.072328 -0.97228 0.019962
0.019407 0.10907 0.99115 5.7622e-39 169.5 339 0 0 0 0.27485 -0.094323 -0.95685 0.017265
0.021163 0.10916 0.99194 5.9927e-39 185 339 0 0 0 0.31413 -0.1125 -0.94269 0.015719
0.022324 0.10916 0.99194 5.9005e-39 186 339 0 0 0 0.33379 -0.12391 -0.93447 0.015154
-0.0043683 0.1109 0.99194 7.053e-39 306 339.5 0 0 0 -0.40516 -0.087607 -0.91004 0.022843
-0.0024336 0.11068 0.99168 7.4064e-39 342.67 339.33 0 0 0 -0.36665 -0.07527 -0.92731 0.025028
-0.00088605 0.11081 0.99115 6.7764e-39 309 339.5 0 0 0 -0.33358 -0.058112 -0.94093 0.026269
0.00085333 0.11081 0.99115 6.7764e-39 312 339.5 0 0 0 -0.28199 -0.05241 -0.95798 0.027022
0.00317 0.11072 0.99035 6.8685e-39 314 339.5 0 0 0 -0.19403 -0.044308 -0.97999 0.02703
0.0049119 0.11081 0.99115 6.7764e-39 315.5 339.5 0 0 0 -0.14219 -0.039762 -0.98904 0.025751
0.0060667 0.11072 0.99035 6.8686e-39 316.5 339.5 0 0 0 -0.10241 -0.038448 -0.994 0.024401
0.010701 0.1113 0.99035 6.7303e-39 214 340 0 0 0 0.058144 -0.036039 -0.99766 0.018626
0.013019 0.11072 0.99035 6.7764e-39 323 339.5 0 0 0 0.11694 -0.047379 -0.99201 0.019087
0.015336 0.11072 0.99035 7.1913e-39 325 339.5 0 0 0 0.16702 -0.0611 -0.98406 0.018246
0.017078 0.11074 0.99055 6.8685e-39 327.25 339.5 0 0 0 0.21204 -0.072808 -0.97455 0.017275
0.019391 0.11072 0.99035 6.8455e-39 333 339.5 0 0 0 0.26257 -0.088102 -0.96088 0.016343
0.021146 0.11081 0.99115 6.8685e-39 334.5 339.5 0 0 0 0.30165 -0.10781 -0.9473 0.015109
0.022899 0.11088 0.99174 6.2463e-39 336 339.5 0 0 0 0.32655 -0.12921 -0.93631 0.013526
0.024645 0.1109 0.99194 5.6239e-39 337.5 339.5 0 0 0 0.35584 -0.14273 -0.92358 0.011949
-0.0049469 0.11318 0.99154 6.9377e-39 325 340.5 0 0 0 -0.40178 -0.079031 -0.91232 0.020302
-0.0026267 0.11318 0.99154 6.569e-39 327 340.5 0 0 0 -0.3501 -0.061893 -0.93466 0.02155
-0.00088605 0.11313 0.99115 6.4076e-39 328.5 340.5 0 0 0 -0.31042 -0.05557 -0.94897 0.022623
0.00085333 0.11313 0.99115 5.7622e-39 330.5 340.5 0 0 0 -0.26132 -0.04299 -0.96429 0.022269
0.00317 0.11304 0.99035 5.8544e-39 336 340.5 0 0 0 -0.1815 -0.032324 -0.98286 0.021287
0.00491 0.11308 0.99075 5.9005e-39 337.5 340.5 0 0 0 -0.13641 -0.032821 -0.99011 0.020333
0.0060667 0.11304 0.99035 5.9466e-39 338.5 340.5 0 0 0 -0.095631 -0.024709 -0.99511 0.018805
0.015336 0.11246 0.99035 5.8083e-39 452 340 0 0 0 0.16408 -0.062791 -0.98445 0.015717
0.017267 0.11284 0.99035 6.1156e-39 387.33 340.33 0 0 0 0.19466 -0.075426 -0.97797 0.014738
0.019391 0.11304 0.99035 6.8686e-39 358.5 340.5 0 0 0 0.24193 -0.093326 -0.96579 0.014178
0.021146 0.11313 0.99115 6.9607e-39 362.5 340.5 0 0 0 0.27744 -0.10947 -0.95448 0.013643
0.022895 0.11317 0.99155 6.9146e-39 364 340.5 0 0 0 0.30566 -0.12385 -0.94405 0.012946
0.024635 0.11318 0.99155 7.4218e-39 423.5 340.5 0 0 0 0.3393 -0.13694 -0.93066 0.01149
-0.0049469 0.11491 0.99155 6.4998e-39 446.5 341 0 0 0 -0.39078 -0.073514 -0.91754 0.018865
-0.0024311 0.11519 0.99062 6.1771e-39 425.67 341.33 0 0 0 -0.32715 -0.054519 -0.9434 0.019595
-0.00088569 0.1154 0.99075 5.7161e-39 415.5 341.5 0 0 0 -0.29178 -0.045354 -0.95541 0.019672
0.0010458 0.11519 0.99062 5.7468e-39 428.67 341.33 0 0 0 -0.24411 -0.033459 -0.96917 0.018794
0.0033631 0.11516 0.99035 6.5152e-39 430.67 341.33 0 0 0 -0.16964 -0.026336 -0.98515 0.016841
0.004908 0.11535 0.99035 6.5459e-39 420.5 341.5 0 0 0 -0.13689 -0.027825 -0.9902 0.014984
0.0060667 0.11535 0.99035 6.4076e-39 427.5 341.5 0 0 0 -0.099803 -0.030547 -0.99454 0.012898
0.0095427 0.11593 0.99035 5.7161e-39 390 342 0 0 0 -0.00019202 -0.037694 -0.99929 0.0090356
0.010701 0.11593 0.99035 5.8083e-39 391 342 0 0 0 0.028296 -0.041936 -0.99872 0.0087985
0.013019 0.11593 0.99035 6.3615e-39 393 342 0 0 0 0.085062 -0.053806 -0.99492 0.0090943
0.017653 0.11535 0.99035 6.8685e-39 450.5 341.5 0 0 0 0.18901 -0.08274 -0.97848 0.011917
0.019391 0.11535 0.99035 5.9235e-39 268.5 342 0 0 0 0.22448 -0.091606 -0.97016 0.012546
0.021146 0.11487 0.99115 5.7161e-39 140 342 0 0 0 0.26265 -0.10874 -0.95874 0.012946
0.022895 0.11491 0.99155 5.4856e-39 141.5 342 0 0 0 0.29955 -0.11871 -0.94667 0.012827
0.024625 0.11487 0.99115 5.4395e-39 143 342 0 0 0 0.32931 -0.127 -0.93564 0.011619
-0.0066894 0.11728 0.99194 5.9005e-39 176 343 0 0 0 -0.40578 -0.093145 -0.90921 0.014308
-0.0049437 0.11658 0.99095 7.1452e-39 277.5 342.5 0 0 0 -0.36809 -0.081084 -0.92625 0.016805
-0.0028181 0.11677 0.99088 6.9762e-39 246 342.67 0 0 0 -0.32036 -0.061837 -0.94528 0.017263
-0.00088534 0.11709 0.99035 6.6381e-39 181 343 0 0 0 -0.27447 -0.049391 -0.96033 0.016599
0.00065963 0.11674 0.99062 6.2078e-39 249 342.67 0 0 0 -0.23748 -0.040409 -0.97055 0.015271
0.0037493 0.11709 0.99035 6.1771e-39 185 343 0 0 0 -0.1627 -0.036436 -0.986 0.012048
0.004908 0.11709 0.99035 6.2693e-39 186 343 0 0 0 -0.13468 -0.037571 -0.99018 0.01113
0.0060667 0.11709 0.99035 6.3615e-39 187 343 0 0 0 -0.09914 -0.039217 -0.9943 0.0097543
0.010701 0.11709 0.99035 5.9927e-39 197 343 0 0 0 0.023332 -0.044849 -0.99872 0.0070287
0.013019 0.11709 0.99035 5.6239e-39 199 343 0 0 0 0.077274 -0.051107 -0.9957 0.0077643
0.017653 0.11709 0.99035 6.0849e-39 203 343 0 0 0 0.1785 -0.074996 -0.98108 0.01101
0.019971 0.11709 0.99035 5.9927e-39 213 343 0 0 0 0.22006 -0.084005 -0.97186 0.011922
0.021137 0.11656 0.99075 6.8686e-39 307 342.5 0 0 0 0.24941 -0.097178 -0.96351 0.012252
0.022891 0.11663 0.99135 7.1451e-39 308.5 342.5 0 0 0 0.29033 -0.10927 -0.95067 0.012597
0.025215 0.11665 0.99155 6.9146e-39 310.5 342.5 0 0 0 0.3381 -0.12078 -0.93333 0.011283
0.028126 0.11728 0.99194 5.9005e-39 220 343 0 0 0 0.38765 -0.13241 -0.91225 0.0095141
-0.0066894 0.11902 0.99194 6.4998e-39 341 343.5 0 0 0 -0.3943 -0.098205 -0.91372 0.013793
-0.0049418 0.11885 0.99055 6.4306e-39 342.5 343.5 0 0 0 -0.35061 -0.082094 -0.93292 0.015327
-0.0026246 0.11888 0.99075 6.2463e-39 344.5 343.5 0 0 0 -0.30377 -0.068307 -0.95029 0.01519
-0.00088534 0.11883 0.99035 5.9927e-39 346 343.5 0 0 0 -0.25719 -0.05864 -0.96458 0.014192
0.00085266 0.11883 0.99035 6.3845e-39 347.5 343.5 0 0 0 -0.22386 -0.047316 -0.97347 0.012982
0.0037493 0.11883 0.99035 6.4998e-39 408 343.5 0 0 0 -0.15593 -0.037668 -0.98705 0.010534
0.004908 0.11883 0.99035 6.3154e-39 409 343.5 0 0 0 -0.13185 -0.034885 -0.99066 0.0094161
0.0060667 0.11883 0.99035 6.2693e-39 410 343.5 0 0 0 -0.098153 -0.032404 -0.99464 0.0075439
0.0095427 0.11883 0.99035 5.7161e-39 413 343.5 0 0 0 -0.0081986 -0.038311 -0.99923 0.0060758
0.010701 0.11883 0.99035 5.8083e-39 414 343.5 0 0 0 0.014244 -0.040591 -0.99907 0.0058771
0.013019 0.11883 0.99035 6.3615e-39 416 343.5 0 0 0 0.060563 -0.045996 -0.9971 0.0056808
0.017653 0.11883 0.99035 5.7622e-39 420 343.5 0 0 0 0.16661 -0.066051 -0.98381 0.0096934
0.021129 0.11883 0.99035 6.4076e-39 423 343.5 0 0 0 0.23063 -0.083301 -0.96947 0.01134
0.022877 0.11887 0.99075 6.1771e-39 424.5 343.5 0 0 0 0.27423 -0.092105 -0.95724 0.012273
0.025205 0.11892 0.99115 6.0849e-39 447 343.5 0 0 0 0.32756 -0.10449 -0.93904 0.011555
0.026966 0.1196 0.99194 7.0069e-39 398 344 0 0 0 0.36388 -0.10741 -0.92523 0.010721
0.028506 0.11918 0.99168 7.2834e-39 433.33 343.67 0 0 0 0.38593 -0.11689 -0.91509 0.0099976
-0.0066894 0.12134 0.99194 7.1913e-39 286.5 345 0 0 0 -0.38205 -0.088698 -0.91988 0.01362
-0.0049446 0.12124 0.99115 6.9838e-39 288 345 0 0 0 -0.34166 -0.077088 -0.93666 0.014592
-0.0028181 0.1214 0.99088 7.3756e-39 329.67 345 0 0 0 -0.28903 -0.06224 -0.95529 0.014156
-0.00088534 0.12115 0.99035 6.7303e-39 291.5 345 0 0 0 -0.25214 -0.057313 -0.96599 0.013178
0.00085266 0.12115 0.99035 6.6842e-39 296.25 345 0 0 0 -0.21111 -0.047839 -0.97629 0.011319
0.0037493 0.12115 0.99035 6.8225e-39 302 345 0 0 0 -0.14797 -0.036309 -0.98833 0.0085514
0.004908 0.12115 0.99035 6.5459e-39 303 345 0 0 0 -0.12547 -0.029177 -0.99167 0.0074311
0.0060667 0.12115 0.99035 6.3154e-39 304 345 0 0 0 -0.094768 -0.028901 -0.99508 0.0059869
0.0095427 0.12115 0.99035 6.3615e-39 307 345 0 0 0 -0.015177 -0.029304 -0.99946 0.0045028
0.010701 0.12115 0.99035 6.5459e-39 308 345 0 0 0 0.0043458 -0.031662 -0.99949 0.0043805
0.013019 0.12115 0.99035 6.2232e-39 310 345 0 0 0 0.057247 -0.037575 -0.99765 0.0046102
0.015336 0.12173 0.99035 6.7303e-39 438 345 0 0 0 0.097235 -0.041967 -0.99438 0.0053884
0.017074 0.12115 0.99035 6.3615e-39 313.5 345 0 0 0 0.13606 -0.048529 -0.98951 0.0077898
0.021129 0.12115 0.99035 6.3615e-39 319 345 0 0 0 0.21876 -0.067354 -0.97345 0.010684
0.022877 0.12119 0.99075 5.9697e-39 320.5 345 0 0 0 0.26261 -0.076156 -0.96189 0.011968
0.025195 0.12119 0.99075 5.8774e-39 322.5 345 0 0 0 0.31222 -0.084507 -0.94625 0.011615
0.026966 0.12134 0.99194 5.9466e-39 324.5 345 0 0 0 0.35628 -0.094527 -0.92959 0.011074
0.028695 0.12129 0.99155 5.9697e-39 331.25 345 0 0 0 0.3814 -0.099746 -0.91901 0.010532
-0.0066894 0.12308 0.99194 6.7303e-39 215 346 0 0 0 -0.37207 -0.07768 -0.92495 0.013906
-0.0049446 0.12298 0.99115 6.8225e-39 216.5 346 0 0 0 -0.33191 -0.065178 -0.94106 0.01434
-0.0026246 0.12293 0.99075 7.4218e-39 218.5 346 0 0 0 -0.2766 -0.054551 -0.95943 0.013895
-0.00088534 0.12288 0.99035 7.7444e-39 220 346 0 0 0 -0.24482 -0.046894 -0.96843 0.012678
0.00085266 0.12288 0.99035 7.3757e-39 221.5 346 0 0 0 -0.20428 -0.041724 -0.97802 0.010759
0.0037493 0.12288 0.99035 7.0069e-39 225 346 0 0 0 -0.13809 -0.026697 -0.99006 0.0078789
0.004908 0.12288 0.99035 5.9927e-39 228 346 0 0 0 -0.12344 -0.024965 -0.99204 0.0072456
0.0060667 0.12288 0.99035 5.9005e-39 229 346 0 0 0 -0.094498 -0.022022 -0.99528 0.0057556
0.0095427 0.12288 0.99035 5.9927e-39 232 346 0 0 0 -0.015761 -0.022731 -0.99962 0.0039014
0.010701 0.12288 0.99035 6.3615e-39 233 346 0 0 0 0.0027326 -0.023633 -0.99972 0.0038665
0.013019 0.12288 0.99035 6.2693e-39 235 346 0 0 0 0.048921 -0.03081 -0.99833 0.0040134
0.015336 0.12288 0.99035 5.6239e-39 237 346 0 0 0 0.09156 -0.034902 -0.99519 0.004843
0.017074 0.12288 0.99035 5.9005e-39 238.5 346 0 0 0 0.12791 -0.042181 -0.99089 0.0068696
0.019971 0.12288 0.99035 5.9005e-39 251 346 0 0 0 0.19318 -0.048923 -0.97994 0.0097195
0.021129 0.12288 0.99035 5.6239e-39 252 346 0 0 0 0.21406 -0.053886 -0.97533 0.010434
0.022886 0.12298 0.99115 5.3934e-39 253.5 346 0 0 0 0.25946 -0.060735 -0.96384 0.012035
0.025195 0.12293 0.99075 5.5317e-39 255.5 346 0 0 0 0.30898 -0.069193 -0.94855 0.011832
0.026966 0.12308 0.99194 5.8083e-39 257 346 0 0 0 0.35197 -0.079907 -0.93259 0.011452
0.028695 0.12303 0.99155 5.9466e-39 258.5 346 0 0 0 0.37842 -0.084748 -0.92175 0.010756
-0.0066894 0.12482 0.99194 6.0849e-39 419 346.5 0 0 0 -0.36211 -0.070208 -0.92949 0.01375
-0.0049446 0.12472 0.99115 6.1771e-39 430.5 346.5 0 0 0 -0.32387 -0.059437 -0.94423 0.014265
-0.0026246 0.12467 0.99075 6.4076e-39 442.5 346.5 0 0 0 -0.27526 -0.046951 -0.96022 0.013628
-0.00088534 0.12462 0.99035 6.4998e-39 444 346.5 0 0 0 -0.23656 -0.038623 -0.97085 0.012095
0.00085266 0.12462 0.99035 6.0849e-39 445.5 346.5 0 0 0 -0.19704 -0.032049 -0.97987 0.010399
0.0033631 0.12481 0.99035 6.0234e-39 429 346.67 0 0 0 -0.13604 -0.023454 -0.99043 0.0070633
0.004908 0.12462 0.99035 6.8224e-39 450 346.5 0 0 0 -0.11598 -0.019201 -0.99307 0.0064952
0.0060667 0.12462 0.99035 7.3757e-39 451 346.5 0 0 0 -0.089561 -0.015954 -0.99585 0.0052252
0.0095427 0.12462 0.99035 6.4537e-39 267 347 0 0 0 -0.017903 -0.014465 -0.99974 0.0035821
0.010701 0.12462 0.99035 6.5458e-39 268 347 0 0 0 0.00095379 -0.015361 -0.99988 0.0033464
0.013019 0.12462 0.99035 6.5458e-39 270 347 0 0 0 0.044268 -0.019339 -0.99883 0.0033068
0.015336 0.12462 0.99035 6.9608e-39 272.5 347 0 0 0 0.08548 -0.02486 -0.99603 0.0043195
0.017074 0.12462 0.99035 6.9607e-39 283 347 0 0 0 0.1237 -0.031102 -0.99183 0.0064462
0.021129 0.12462 0.99035 6.9146e-39 286.5 347 0 0 0 0.21042 -0.042687 -0.97668 0.010052
0.022886 0.12472 0.99115 6.9608e-39 288 347 0 0 0 0.25363 -0.048912 -0.96606 0.011634
0.025205 0.12472 0.99115 6.9607e-39 294 347 0 0 0 0.30672 -0.060525 -0.94987 0.01187
0.026966 0.12482 0.99194 6.5919e-39 299.5 347 0 0 0 0.34732 -0.068099 -0.93527 0.01156
0.028695 0.12477 0.99155 6.108e-39 301 347 0 0 0 0.37472 -0.070497 -0.92445 0.010987
-0.0066894 0.12714 0.99194 6.2693e-39 306 348 0 0 0 -0.35271 -0.067061 -0.93333 0.014046
-0.0049446 0.12704 0.99115 6.4767e-39 307.5 348 0 0 0 -0.31283 -0.055887 -0.94816 0.014499
-0.0026246 0.12699 0.99075 6.6151e-39 309.5 348 0 0 0 -0.25709 -0.044153 -0.96538 0.013087
-0.00088534 0.12694 0.99035 6.6381e-39 311 348 0 0 0 -0.22132 -0.03492 -0.97458 0.011601
0.00085266 0.12694 0.99035 6.615e-39 312.5 348 0 0 0 -0.188 -0.025957 -0.98183 0.009796
0.0037493 0.12694 0.99035 5.9927e-39 315 348 0 0 0 -0.12273 -0.017205 -0.99229 0.0063414
0.004908 0.12694 0.99035 6.0388e-39 316 348 0 0 0 -0.10944 -0.011948 -0.99392 0.0059376
0.0060667 0.12694 0.99035 6.1771e-39 317.5 348 0 0 0 -0.083779 -0.010471 -0.99643 0.0047178
0.0089634 0.12694 0.99035 6.2923e-39 320 348 0 0 0 -0.031947 -0.0070154 -0.99946 0.0034784
0.011087 0.12713 0.99035 5.962e-39 363.33 348 0 0 0 0.0032724 -0.0058628 -0.99998 0.002789
0.013019 0.12694 0.99035 5.8544e-39 323.5 348 0 0 0 0.038907 -0.010134 -0.99919 0.0028945
0.015336 0.12694 0.99035 6.2232e-39 325.5 348 0 0 0 0.079111 -0.014879 -0.99675 0.003788
0.017074 0.12694 0.99035 5.8775e-39 327 348 0 0 0 0.11311 -0.020093 -0.99338 0.005568
0.019971 0.12694 0.99035 6.7764e-39 334 348 0 0 0 0.17666 -0.026506 -0.98392 0.0086121
0.021129 0.12694 0.99035 6.7303e-39 335 348 0 0 0 0.19966 -0.033174 -0.9793 0.0095161
0.022881 0.12701 0.99095 6.6381e-39 336.5 348 0 0 0 0.23863 -0.034658 -0.97049 0.011018
0.0252 0.12701 0.99095 7.0299e-39 338.5 348 0 0 0 0.29082 -0.043665 -0.95578 0.011671
0.026966 0.12714 0.99194 6.9607e-39 340 348 0 0 0 0.33988 -0.054461 -0.93889 0.011746
0.028695 0.12709 0.99155 6.7303e-39 342.5 348 0 0 0 0.37112 -0.057725 -0.92679 0.011247
-0.0066894 0.12888 0.99194 7.3757e-39 221 349 0 0 0 -0.34314 -0.064684 -0.93706 0.014704
-0.0047513 0.12917 0.99115 7.1605e-39 303.67 349 0 0 0 -0.29395 -0.052869 -0.95436 0.014412
-0.002625 0.12934 0.99095 7.4218e-39 355.25 349 0 0 0 -0.24764 -0.042288 -0.96793 0.013541
-0.00088534 0.12926 0.99035 7.7905e-39 365.5 349 0 0 0 -0.21134 -0.034025 -0.97682 0.011165
0.00085266 0.12926 0.99035 7.9058e-39 367 349 0 0 0 -0.176 -0.023758 -0.9841 0.0090468
0.0033631 0.12945 0.99035 6.7303e-39 414.67 349 0 0 0 -0.12483 -0.015558 -0.99206 0.006645
0.004908 0.12926 0.99035 5.9927e-39 370.5 349 0 0 0 -0.10223 -0.011975 -0.99469 0.0054538
0.0060667 0.12926 0.99035 5.9005e-39 371.5 349 0 0 0 -0.079601 -0.010699 -0.99677 0.0043504
0.0089634 0.12926 0.99035 6.3615e-39 374 349 0 0 0 -0.031892 -0.0053315 -0.99948 0.0031905
0.010701 0.12926 0.99035 5.2551e-39 188.5 349.5 0 0 0 -0.0029926 -0.0052999 -0.99998 0.0027034
0.013019 0.12926 0.99035 5.1629e-39 190.5 349.5 0 0 0 0.031914 -0.0061779 -0.99947 0.0025103
0.014757 0.12926 0.99035 5.5548e-39 192.75 349.5 0 0 0 0.061427 -0.0086566 -0.99807 0.0030658
0.017074 0.12926 0.99035 5.8544e-39 208 349.5 0 0 0 0.10589 -0.01288 -0.99429 0.0051161
0.019971 0.12926 0.99035 5.6701e-39 211.5 349.5 0 0 0 0.17125 -0.021204 -0.985 0.0082461
0.021129 0.12926 0.99035 5.7161e-39 212.5 349.5 0 0 0 0.19568 -0.02306 -0.9804 0.009239
0.022877 0.12931 0.99075 6.131e-39 214 349.5 0 0 0 0.23227 -0.027446 -0.97226 0.010813
0.025195 0.12931 0.99075 5.7622e-39 216 349.5 0 0 0 0.28358 -0.03564 -0.95829 0.011652
0.026955 0.12941 0.99155 5.5778e-39 217.5 349.5 0 0 0 0.33254 -0.038621 -0.9423 0.011798
0.028498 0.1292 0.99141 5.9312e-39 233.33 349.33 0 0 0 0.35979 -0.041698 -0.9321 0.011489
-0.0066894 0.13063 0.99194 5.5778e-39 420.5 349.5 0 0 0 -0.33706 -0.060436 -0.93954 0.014559
-0.0051409 0.13078 0.99168 5.8698e-39 407.33 349.67 0 0 0 -0.29873 -0.050636 -0.95299 0.014464
-0.0026254 0.1311 0.99115 6.3615e-39 380.5 350 0 0 0 -0.25099 -0.039391 -0.96719 0.01366
-0.00088534 0.13099 0.99035 6.0849e-39 382 350 0 0 0 -0.2033 -0.031787 -0.9786 0.010789
0.00085266 0.13099 0.99035 5.7622e-39 383.5 350 0 0 0 -0.16921 -0.02468 -0.98527 0.0089221
0.00317 0.13099 0.99035 6.0388e-39 385.5 350 0 0 0 -0.12505 -0.016226 -0.99202 0.0066944
0.004908 0.13099 0.99035 6.2693e-39 387 350 0 0 0 -0.097173 -0.011584 -0.9952 0.0049951
0.0060667 0.13099 0.99035 6.6381e-39 388 350 0 0 0 -0.079559 -0.0092461 -0.99679 0.0042873
0.0089634 0.13099 0.99035 7.4679e-39 390.5 350 0 0 0 -0.030294 -0.0046194 -0.99953 0.0030937
0.010701 0.13099 0.99035 7.7444e-39 392 350 0 0 0 -0.006784 -0.0043224 -0.99997 0.0026944
0.013019 0.13099 0.99035 7.8366e-39 394 350 0 0 0 0.029598 -0.0039276 -0.99955 0.0023501
0.014757 0.13099 0.99035 7.514e-39 395.5 350 0 0 0 0.057312 -0.0056594 -0.99834 0.0028244
0.017074 0.13099 0.99035 7.3757e-39 397.5 350 0 0 0 0.10262 -0.0087212 -0.99468 0.0049816
0.019391 0.13099 0.99035 7.6522e-39 399.5 350 0 0 0 0.1495 -0.013928 -0.98866 0.0069077
0.021129 0.13099 0.99035 8.021e-39 401 350 0 0 0 0.19041 -0.019364 -0.98151 0.0090476
0.022886 0.1311 0.99115 7.7905e-39 402.5 350 0 0 0 0.23133 -0.023365 -0.9726 0.011009
0.025195 0.13104 0.99075 7.3757e-39 404.5 350 0 0 0 0.28152 -0.027204 -0.95917 0.011666
0.026966 0.13121 0.99194 7.2835e-39 406 350 0 0 0 0.33202 -0.032308 -0.94272 0.011899
0.028893 0.13078 0.99168 6.8532e-39 330.33 350 0 0 0 0.36966 -0.035239 -0.9285 0.011161
0.030448 0.13004 0.99194 5.5317e-39 177 350 0 0 0 0.39806 -0.045123 -0.91625 0.010222
-0.006684 0.13284 0.99115 6.5919e-39 292 351 0 0 0 -0.32165 -0.055134 -0.94525 0.014423
-0.0049469 0.13289 0.99154 6.4998e-39 297.5 351 0 0 0 -0.28562 -0.045041 -0.95728 0.01416
-0.0026254 0.13284 0.99115 6.3615e-39 303.5 351 0 0 0 -0.23745 -0.034267 -0.97079 0.012712
-0.00088534 0.13273 0.99035 6.5459e-39 305 351 0 0 0 -0.19627 -0.027628 -0.98016 0.0099168
0.00085266 0.13273 0.99035 6.4998e-39 306.5 351 0 0 0 -0.16111 -0.021874 -0.98669 0.00806
0.00317 0.13273 0.99035 6.3154e-39 308.5 351 0 0 0 -0.1174 -0.015695 -0.99296 0.0058835
0.004908 0.13273 0.99035 6.2693e-39 310 351 0 0 0 -0.091274 -0.011803 -0.99576 0.0043648
0.0060667 0.13215 0.99035 6.5459e-39 188 351 0 0 0 -0.077526 -0.008932 -0.99695 0.0039238
0.008384 0.13273 0.99035 6.4537e-39 313 351 0 0 0 -0.037304 -0.0050784 -0.99929 0.002837
0.010701 0.13273 0.99035 6.2693e-39 315.5 351 0 0 0 -0.0028968 -0.0040233 -0.99999 0.0023762
0.013019 0.13215 0.99035 6.6381e-39 195 351 0 0 0 0.030647 -0.0046942 -0.99952 0.0022358
0.014757 0.13273 0.99035 6.2463e-39 319 351 0 0 0 0.057094 -0.0046981 -0.99836 0.0028977
0.017074 0.13273 0.99035 6.4306e-39 324.5 351 0 0 0 0.098409 -0.0061635 -0.99513 0.0049446
0.019391 0.13273 0.99035 6.8225e-39 330 351 0 0 0 0.1458 -0.0093209 -0.98927 0.0067083
0.021129 0.13273 0.99035 6.6381e-39 335.5 351 0 0 0 0.18633 -0.01232 -0.98241 0.0087782
0.022886 0.13284 0.99115 6.4076e-39 338 351 0 0 0 0.2241 -0.016094 -0.97443 0.010603
0.025195 0.13278 0.99075 6.7073e-39 340 351 0 0 0 0.27945 -0.020362 -0.95994 0.011635
0.026966 0.13295 0.99194 6.9147e-39 341.5 351 0 0 0 0.32997 -0.024904 -0.94366 0.011679
0.028706 0.13295 0.99194 6.9377e-39 345.5 351 0 0 0 0.36561 -0.030549 -0.93027 0.011038
-0.0070726 0.13539 0.99141 6.5766e-39 420.33 352 0 0 0 -0.32837 -0.048886 -0.94328 0.013797
-0.0049457 0.13519 0.99135 5.6008e-39 193 352.5 0 0 0 -0.2725 -0.039979 -0.96132 0.01316
-0.0026248 0.13513 0.99095 5.9236e-39 195 352.5 0 0 0 -0.22627 -0.028484 -0.97365 0.011364
-0.00088534 0.13505 0.99035 5.7161e-39 196.5 352.5 0 0 0 -0.1873 -0.020662 -0.98209 0.0088838
0.00085266 0.13505 0.99035 5.4856e-39 198 352.5 0 0 0 -0.15828 -0.020208 -0.98719 0.0074663
0.00317 0.13505 0.99035 5.5548e-39 203.5 352.5 0 0 0 -0.11513 -0.015474 -0.99323 0.0053629
0.004908 0.13447 0.99035 5.8083e-39 250 352 0 0 0 -0.088794 -0.011748 -0.99598 0.0040085
0.0060667 0.13505 0.99035 6.1771e-39 210.5 352.5 0 0 0 -0.068749 -0.010207 -0.99758 0.0032404
0.008384 0.13505 0.99035 5.8544e-39 213 352.5 0 0 0 -0.036618 -0.0070762 -0.9993 0.0025978
0.011087 0.13524 0.99035 5.8698e-39 203 352.67 0 0 0 0.0032084 -0.0055135 -0.99998 0.0020565
0.014757 0.13505 0.99035 5.7391e-39 220.5 352.5 0 0 0 0.055584 -0.0045707 -0.99844 0.002736
0.017074 0.13505 0.99035 5.7161e-39 224.5 352.5 0 0 0 0.094744 -0.0029989 -0.9955 0.0045343
0.019391 0.13505 0.99035 5.7391e-39 254.25 352.5 0 0 0 0.1453 -0.0063321 -0.98937 0.006644
0.021129 0.13505 0.99035 5.8083e-39 283.5 352.5 0 0 0 0.18292 -0.0085624 -0.98309 0.0085094
0.022886 0.13516 0.99115 5.9235e-39 285.25 352.5 0 0 0 0.21847 -0.0116 -0.97578 0.010084
0.025195 0.1351 0.99075 6.131e-39 287.5 352.5 0 0 0 0.2737 -0.013153 -0.96173 0.011648
0.026966 0.13527 0.99194 5.9466e-39 289 352.5 0 0 0 0.32533 -0.019926 -0.94539 0.011712
0.028706 0.13527 0.99194 6.0849e-39 290.5 352.5 0 0 0 0.36174 -0.022823 -0.932 0.010984
-0.010171 0.13701 0.99194 7.0069e-39 399 353 0 0 0 -0.38525 -0.053971 -0.92123 0.012697
-0.0090105 0.13701 0.99194 7.4678e-39 400 353 0 0 0 -0.36551 -0.047657 -0.92959 0.012869
-0.0070691 0.13725 0.99088 6.9147e-39 350 353.33 0 0 0 -0.31588 -0.041434 -0.94789 0.013147
-0.0049446 0.1369 0.99115 7.4218e-39 403.5 353 0 0 0 -0.26786 -0.037696 -0.96272 0.013158
-0.0028165 0.13718 0.99035 7.0683e-39 353.67 353.33 0 0 0 -0.22091 -0.024512 -0.97499 0.010403
-0.00088534 0.13737 0.99035 6.9608e-39 330 353.5 0 0 0 -0.18176 -0.021203 -0.98311 0.0080854
0.00085266 0.13737 0.99035 6.7533e-39 331.75 353.5 0 0 0 -0.15192 -0.017092 -0.98824 0.0064672
0.00317 0.13737 0.99035 6.7072e-39 335.5 353.5 0 0 0 -0.10776 -0.013623 -0.99408 0.0043657
0.0060667 0.13737 0.99035 6.131e-39 346 353.5 0 0 0 -0.063437 -0.0094619 -0.99794 0.0026572
0.008384 0.13737 0.99035 5.7622e-39 348 353.5 0 0 0 -0.034656 -0.0064965 -0.99938 0.0023398
0.01128 0.13737 0.99035 6.2002e-39 350.5 353.5 0 0 0 0.0069801 -0.0033442 -0.99997 0.0020878
0.013019 0.13795 0.99035 6.9147e-39 267 354 0 0 0 0.029351 -0.0025424 -0.99957 0.0021101
0.014757 0.13737 0.99035 5.7852e-39 407 353.5 0 0 0 0.05269 -0.0026485 -0.99861 0.0026226
0.017074 0.13737 0.99035 5.8313e-39 409 353.5 0 0 0 0.097012 -0.0023352 -0.99528 0.0044965
0.01959 0.13721 0.99062 6.3615e-39 421.67 353.33 0 0 0 0.14917 -0.0049653 -0.9888 0.0072122
0.021129 0.13679 0.99035 6.4537e-39 444 353 0 0 0 0.18387 -0.0051326 -0.98294 0.008835
0.022877 0.13743 0.99075 7.099e-39 414 353.5 0 0 0 0.21645 -0.0065997 -0.97627 0.010166
0.024998 0.13721 0.99062 6.5459e-39 432 353.33 0 0 0 0.26559 -0.007036 -0.96406 0.011586
0.026944 0.1369 0.99115 6.0849e-39 458 353 0 0 0 0.31198 -0.010343 -0.95003 0.011543
0.028695 0.13695 0.99155 6.6842e-39 459.5 353 0 0 0 0.35586 -0.014046 -0.93443 0.010818
-0.010171 0.13875 0.99194 7.4679e-39 377.5 354 0 0 0 -0.3782 -0.046688 -0.92455 0.012249
-0.0090105 0.13875 0.99194 5.4856e-39 193.5 354.5 0 0 0 -0.35992 -0.038437 -0.93219 0.012263
-0.0074595 0.13887 0.99141 5.1937e-39 177.67 354.67 0 0 0 -0.32296 -0.035697 -0.94574 0.012535
-0.0049446 0.13864 0.99115 5.5548e-39 197 354.5 0 0 0 -0.26729 -0.031084 -0.96312 0.012326
-0.0024308 0.13876 0.99062 6.1464e-39 182 354.67 0 0 0 -0.20552 -0.021459 -0.97842 0.0093776
-0.00088534 0.13911 0.99035 6.1771e-39 149 355 0 0 0 -0.17838 -0.017565 -0.9838 0.0074112
0.00085266 0.13911 0.99035 5.67e-39 150.5 355 0 0 0 -0.14992 -0.015692 -0.98857 0.0062414
0.00317 0.13911 0.99035 5.9466e-39 158 355 0 0 0 -0.10559 -0.011803 -0.99434 0.0038875
0.0060667 0.13911 0.99035 5.6239e-39 166 355 0 0 0 -0.059733 -0.0078774 -0.99818 0.0023991
0.008384 0.13911 0.99035 5.9927e-39 168 355 0 0 0 -0.030954 -0.0043323 -0.99951 0.002134
0.01128 0.13911 0.99035 6.3154e-39 170.5 355 0 0 0 0.0080683 -0.0023776 -0.99996 0.001944
0.013019 0.13911 0.99035 6.1771e-39 172 355 0 0 0 0.030437 -0.00033816 -0.99954 0.0021365
0.014757 0.13911 0.99035 5.9005e-39 180 355 0 0 0 0.051742 -0.00028025 -0.99866 0.0025993
0.017074 0.13911 0.99035 5.9927e-39 192.5 355 0 0 0 0.096152 2.9597e-06 -0.99537 0.0042434
0.019203 0.13876 0.99062 6.423e-39 262.67 354.67 0 0 0 0.13653 -0.0015027 -0.99063 0.0062834
0.022868 0.13911 0.99035 6.8686e-39 213.5 355 0 0 0 0.21346 -0.0012193 -0.97695 0.010048
0.025392 0.1388 0.99088 7.6522e-39 272 354.67 0 0 0 0.27361 -0.00080221 -0.96184 0.011174
0.026944 0.13864 0.99115 7.7905e-39 301.5 354.5 0 0 0 0.30748 -0.0030798 -0.95155 0.010946
0.028695 0.1387 0.99155 7.514e-39 306.25 354.5 0 0 0 0.35377 -0.0077696 -0.9353 0.010292
-0.010171 0.14107 0.99194 7.514e-39 323 355.5 0 0 0 -0.37343 -0.035831 -0.92697 0.012004
-0.0090105 0.14107 0.99194 7.514e-39 324 355.5 0 0 0 -0.35498 -0.03199 -0.93433 0.012106
-0.0072643 0.14096 0.99115 7.3296e-39 325.5 355.5 0 0 0 -0.31161 -0.02352 -0.94992 0.012056
-0.0049446 0.14096 0.99115 7.3296e-39 327.5 355.5 0 0 0 -0.26244 -0.019626 -0.96475 0.011074
-0.0026233 0.14084 0.99035 6.5689e-39 329.5 355.5 0 0 0 -0.20677 -0.014349 -0.97828 0.0086015
-0.00088534 0.14084 0.99035 5.7161e-39 331 355.5 0 0 0 -0.17794 -0.013622 -0.98395 0.0070424
0.00085266 0.14084 0.99035 5.67e-39 332.5 355.5 0 0 0 -0.14861 -0.0092197 -0.98885 0.0059345
0.00317 0.14084 0.99035 5.9235e-39 334.5 355.5 0 0 0 -0.10038 -0.0056155 -0.99493 0.0033563
0.0060667 0.14084 0.99035 5.67e-39 342.5 355.5 0 0 0 -0.057486 -0.0028964 -0.99834 0.0021949
0.008384 0.14084 0.99035 5.9927e-39 344.5 355.5 0 0 0 -0.030518 -0.00047501 -0.99953 0.0019771
0.01128 0.14084 0.99035 5.9235e-39 348.5 355.5 0 0 0 0.009725 0.0016164 -0.99995 0.0018172
0.013019 0.14026 0.99035 5.9005e-39 438 355 0 0 0 0.030682 0.0013217 -0.99953 0.0020997
0.014563 0.14065 0.99035 5.7776e-39 380.67 355.33 0 0 0 0.053213 0.0033173 -0.99858 0.0027455
0.017074 0.14084 0.99035 5.6469e-39 353.5 355.5 0 0 0 0.093798 0.004581 -0.99558 0.0040528
0.019391 0.14084 0.99035 6.1541e-39 382 355.5 0 0 0 0.13869 0.0037709 -0.99033 0.0060219
0.022868 0.14084 0.99035 6.4076e-39 411.5 355.5 0 0 0 0.21431 0.0085027 -0.97673 0.0096992
0.025195 0.1409 0.99075 6.6842e-39 417 355.5 0 0 0 0.26538 0.0077927 -0.96411 0.010679
0.026944 0.14096 0.99115 7.1913e-39 418.5 355.5 0 0 0 0.30943 0.0067635 -0.9509 0.010766
0.028695 0.14102 0.99155 7.6522e-39 420 355.5 0 0 0 0.35065 0.0043168 -0.9365 0.0099364
-0.012492 0.14397 0.99194 7.2835e-39 389 357 0 0 0 -0.41264 -0.010873 -0.91083 0.011076
-0.010553 0.14351 0.99141 6.6688e-39 415.67 356.67 0 0 0 -0.37205 -0.014899 -0.92809 0.011956
-0.0090069 0.14333 0.99155 6.4537e-39 429.5 356.5 0 0 0 -0.34673 -0.012184 -0.93789 0.011818
-0.0072627 0.14325 0.99095 6.7764e-39 440 356.5 0 0 0 -0.30692 -0.0069151 -0.95171 0.011565
-0.0049435 0.14325 0.99095 7.1221e-39 451 356.5 0 0 0 -0.25366 -0.0046723 -0.96728 0.010339
-0.0026233 0.14316 0.99035 7.2374e-39 453 356.5 0 0 0 -0.20747 -0.0032043 -0.97824 0.0081374
-0.00088534 0.14316 0.99035 7.9288e-39 454.5 356.5 0 0 0 -0.17218 -0.0031082 -0.98506 0.006413
0.00085266 0.14316 0.99035 6.2002e-39 271 357 0 0 0 -0.14069 0.0019649 -0.99005 0.0052318
0.0025907 0.14316 0.99035 6.3615e-39 272.5 357 0 0 0 -0.11045 0.002987 -0.99388 0.0035523
0.0060667 0.14316 0.99035 6.7303e-39 275.5 357 0 0 0 -0.056697 0.0068485 -0.99837 0.0021828
0.008384 0.14316 0.99035 7.2374e-39 277.5 357 0 0 0 -0.02858 0.0076931 -0.99956 0.0019323
0.01128 0.14316 0.99035 6.4998e-39 280 357 0 0 0 0.013511 0.0096717 -0.99986 0.0020076
0.014177 0.14258 0.99035 5.9005e-39 165 357 0 0 0 0.050825 0.011309 -0.99864 0.0028105
0.017074 0.14316 0.99035 5.6469e-39 291.25 357 0 0 0 0.091833 0.015016 -0.99566 0.0040535
0.019391 0.14316 0.99035 5.9236e-39 293.5 357 0 0 0 0.14323 0.014195 -0.98959 0.0062755
0.022868 0.14316 0.99035 6.1771e-39 308.5 357 0 0 0 0.22071 0.0163 -0.9752 0.0098335
0.025195 0.14322 0.99075 5.8544e-39 312.5 357 0 0 0 0.26426 0.019054 -0.96426 0.010505
0.026944 0.14328 0.99115 6.0849e-39 314 357 0 0 0 0.30983 0.01786 -0.95063 0.010246
0.028701 0.14336 0.99174 5.9697e-39 315.5 357 0 0 0 0.34916 0.018172 -0.93689 0.009329
-0.012492 0.14513 0.99194 6.2693e-39 205 358 0 0 0 -0.41187 0.0046286 -0.91123 0.011467
-0.010747 0.14507 0.99155 5.67e-39 206.5 358 0 0 0 -0.37264 0.0079509 -0.92794 0.011894
-0.0090032 0.14502 0.99115 5.6239e-39 208 358 0 0 0 -0.33972 0.0088119 -0.94048 0.011691
-0.0072611 0.14496 0.99075 6.6381e-39 211.5 358 0 0 0 -0.30407 0.0092622 -0.9526 0.01148
-0.0049424 0.14496 0.99075 7.053e-39 213.5 358 0 0 0 -0.25208 0.011298 -0.96764 0.010124
-0.0026233 0.1449 0.99035 7.5601e-39 215.5 358 0 0 0 -0.2082 0.011583 -0.97802 0.0080015
-0.00088534 0.1449 0.99035 7.9288e-39 217 358 0 0 0 -0.17539 0.011272 -0.98443 0.0064777
0.00085266 0.1449 0.99035 7.6522e-39 218.5 358 0 0 0 -0.14102 0.012708 -0.98992 0.005099
0.0025907 0.1449 0.99035 7.4678e-39 221 358 0 0 0 -0.10888 0.013146 -0.99397 0.0034939
0.004908 0.1449 0.99035 7.2835e-39 230 358 0 0 0 -0.07354 0.015961 -0.99716 0.002513
0.0060667 0.1449 0.99035 7.0991e-39 231 358 0 0 0 -0.057073 0.017264 -0.99822 0.0022434
0.008384 0.1449 0.99035 6.8225e-39 233 358 0 0 0 -0.027058 0.017276 -0.99948 0.0020719
0.01128 0.1449 0.99035 6.592e-39 235.5 358 0 0 0 0.014433 0.020579 -0.99968 0.0022318
0.019391 0.1449 0.99035 7.1452e-39 242.5 358 0 0 0 0.145 0.027874 -0.98904 0.0062563
0.022868 0.1449 0.99035 6.9147e-39 245.5 358 0 0 0 0.22139 0.025872 -0.97484 0.0095629
0.025195 0.14496 0.99075 6.3154e-39 248.5 358 0 0 0 0.26566 0.027927 -0.96366 0.010096
0.026944 0.14502 0.99115 6.0849e-39 251 358 0 0 0 0.30641 0.030583 -0.95141 0.0099955
0.028706 0.14513 0.99194 5.9466e-39 252.5 358 0 0 0 0.34666 0.030203 -0.93751 0.0090719
-0.012492 0.14687 0.99194 6.1771e-39 332.5 358.5 0 0 0 -0.40939 0.032831 -0.91177 0.011733
-0.010747 0.14681 0.99154 6.5689e-39 334 358.5 0 0 0 -0.37143 0.032315 -0.9279 0.011977
-0.0090032 0.14675 0.99115 6.4998e-39 335.5 358.5 0 0 0 -0.33777 0.032193 -0.94068 0.011618
-0.0072611 0.1467 0.99075 6.615e-39 339.5 358.5 0 0 0 -0.30105 0.034916 -0.95297 0.011267
-0.0049424 0.1467 0.99075 6.5459e-39 343 358.5 0 0 0 -0.25422 0.033605 -0.96656 0.010113
-0.0026233 0.14664 0.99035 5.8544e-39 345 358.5 0 0 0 -0.20799 0.032408 -0.97759 0.0077415
-0.00088569 0.1467 0.99075 5.8083e-39 346.5 358.5 0 0 0 -0.17526 0.034471 -0.98392 0.0063656
0.00085266 0.14664 0.99035 5.9236e-39 349 358.5 0 0 0 -0.13838 0.027283 -0.99 0.0048599
0.0025907 0.14664 0.99035 5.7162e-39 351.5 358.5 0 0 0 -0.11097 0.030485 -0.99336 0.0036488
0.004908 0.14664 0.99035 5.5779e-39 353.5 358.5 0 0 0 -0.074204 0.029908 -0.99679 0.0026133
0.0060667 0.14664 0.99035 5.9927e-39 354.5 358.5 0 0 0 -0.05492 0.031071 -0.99801 0.0024334
0.008384 0.14664 0.99035 5.9005e-39 356.5 358.5 0 0 0 -0.024182 0.033374 -0.99915 0.0022608
0.01128 0.14664 0.99035 5.9697e-39 384.25 358.5 0 0 0 0.013907 0.033548 -0.99934 0.0024923
0.019391 0.14664 0.99035 7.0069e-39 416.5 358.5 0 0 0 0.14325 0.041831 -0.9888 0.005952
0.022868 0.14664 0.99035 7.8366e-39 419.5 358.5 0 0 0 0.21974 0.041647 -0.97467 0.0090435
0.025195 0.1467 0.99075 7.8827e-39 421.5 358.5 0 0 0 0.26933 0.0446 -0.96201 0.0097544
0.026944 0.14675 0.99115 7.7444e-39 423 358.5 0 0 0 0.30657 0.04633 -0.95072 0.0096107
0.028706 0.14687 0.99194 7.6522e-39 424.5 358.5 0 0 0 0.34559 0.045327 -0.93729 0.0087335
-0.010555 0.14896 0.99168 6.7303e-39 424.67 359.33 0 0 0 -0.3705 0.061658 -0.92679 0.012126
-0.0090032 0.14907 0.99115 6.9147e-39 412.5 359.5 0 0 0 -0.33838 0.066462 -0.93866 0.011894
-0.0072625 0.14904 0.99095 7.3987e-39 414 359.5 0 0 0 -0.30143 0.065329 -0.95125 0.01144
-0.0049424 0.14901 0.99075 7.6061e-39 416 359.5 0 0 0 -0.25424 0.06561 -0.96491 0.0099409
-0.0026237 0.14898 0.99055 7.998e-39 418 359.5 0 0 0 -0.20859 0.061084 -0.97609 0.0080625
-0.00088605 0.14907 0.99115 8.3898e-39 419.5 359.5 0 0 0 -0.17917 0.062711 -0.98182 0.0069274
0.00085266 0.14895 0.99035 8.4589e-39 421 359.5 0 0 0 -0.14493 0.059109 -0.98767 0.0055525
0.0025907 0.14895 0.99035 8.3437e-39 422.5 359.5 0 0 0 -0.11138 0.055548 -0.99222 0.0039494
0.004908 0.14837 0.99035 8.7586e-39 465 359 0 0 0 -0.074189 0.047667 -0.9961 0.002914
0.0060667 0.14895 0.99035 8.1132e-39 425.5 359.5 0 0 0 -0.055422 0.051279 -0.99715 0.0027904
0.008384 0.14895 0.99035 7.7905e-39 448.5 359.5 0 0 0 -0.024781 0.052428 -0.99832 0.0026153
0.011087 0.14876 0.99035 5.1937e-39 224.67 360 0 0 0 0.01201 0.04946 -0.9987 0.0026336
0.017653 0.14895 0.99035 6.3615e-39 271.5 360 0 0 0 0.11522 0.058338 -0.99163 0.0049915
0.019391 0.14895 0.99035 6.9838e-39 273 360 0 0 0 0.14549 0.057827 -0.98767 0.0059362
0.022868 0.14895 0.99035 6.7533e-39 279.25 360 0 0 0 0.22299 0.062805 -0.9728 0.0087159
0.025205 0.14907 0.99115 6.7764e-39 292.5 360 0 0 0 0.27088 0.068497 -0.96017 0.0093535
0.026944 0.14907 0.99115 6.638e-39 301.5 360 0 0 0 0.3091 0.068534 -0.94856 0.0092549
0.028706 0.14919 0.99194 6.3615e-39 303 360 0 0 0 0.34642 0.069752 -0.93548 0.008498
-0.010171 0.15093 0.99194 5.3473e-39 140 361 0 0 0 -0.36128 0.10085 -0.92699 0.011958
-0.0090105 0.15093 0.99194 5.2552e-39 141 361 0 0 0 -0.34099 0.099625 -0.93477 0.01181
-0.0072669 0.15087 0.99155 5.0708e-39 142.5 361 0 0 0 -0.30773 0.097035 -0.94651 0.011494
-0.0051364 0.15116 0.99088 6.3e-39 222.33 361 0 0 0 -0.2637 0.09725 -0.95969 0.01029
-0.0026248 0.15136 0.99095 7.0299e-39 263.5 361 0 0 0 -0.21289 0.097401 -0.97221 0.0084896
-0.00088605 0.15139 0.99115 7.0069e-39 265 361 0 0 0 -0.18347 0.096383 -0.97829 0.0075603
0.00085305 0.15136 0.99095 6.9146e-39 266.5 361 0 0 0 -0.14913 0.096724 -0.98408 0.0063526
0.0025907 0.15127 0.99035 6.7764e-39 268 361 0 0 0 -0.11616 0.088535 -0.98928 0.0049291
0.0060667 0.15127 0.99035 6.5459e-39 292 361 0 0 0 -0.059009 0.083239 -0.99478 0.0036513
0.008384 0.15127 0.99035 5.7622e-39 294 361 0 0 0 -0.025616 0.077107 -0.99669 0.0031884
0.010701 0.15127 0.99035 5.7622e-39 296 361 0 0 0 0.0063737 0.077706 -0.99696 0.0032676
0.019391 0.15127 0.99035 6.7764e-39 303.5 361 0 0 0 0.15195 0.08487 -0.98474 0.0064629
0.021129 0.15185 0.99035 7.6522e-39 401 361 0 0 0 0.19133 0.092158 -0.97719 0.0079261
0.022872 0.1513 0.99055 6.569e-39 306.5 361 0 0 0 0.2257 0.087407 -0.97027 0.008809
0.025205 0.15139 0.99115 6.2002e-39 308.5 361 0 0 0 0.27239 0.091831 -0.9578 0.0091148
0.026944 0.15081 0.99115 5.7161e-39 214 361 0 0 0 0.30917 0.086904 -0.94703 0.0088647
0.028706 0.15093 0.99194 5.5317e-39 215.5 361 0 0 0 0.34704 0.087031 -0.9338 0.0084153
-0.0090105 0.15268 0.99194 6.9607e-39 262 361.5 0 0 0 -0.34018 0.12491 -0.93203 0.011373
-0.0072696 0.15268 0.99194 6.7994e-39 263.5 361.5 0 0 0 -0.30939 0.12539 -0.94263 0.011167
-0.0047525 0.15278 0.99141 6.9147e-39 228 361.67 0 0 0 -0.26186 0.12568 -0.95689 0.010178
-0.0026254 0.15313 0.99115 5.8083e-39 154.5 362 0 0 0 -0.21556 0.1273 -0.96816 0.0086501
-0.00088605 0.15313 0.99115 6.2693e-39 195 362 0 0 0 -0.1847 0.12333 -0.97503 0.0077773
0.00085277 0.15307 0.99075 6.7303e-39 196.5 362 0 0 0 -0.15116 0.12319 -0.9808 0.0068492
0.0025907 0.15301 0.99035 6.3615e-39 198 362 0 0 0 -0.11658 0.11578 -0.98641 0.0055171
0.0060667 0.15301 0.99035 5.5317e-39 201 362 0 0 0 -0.060736 0.10672 -0.99243 0.0044024
0.0089634 0.15301 0.99035 6.0388e-39 203.5 362 0 0 0 -0.017838 0.10143 -0.99468 0.0039115
0.010701 0.15301 0.99035 6.0849e-39 205 362 0 0 0 0.0055427 0.10018 -0.99495 0.0038429
0.017653 0.15301 0.99035 5.9005e-39 211 362 0 0 0 0.12146 0.10697 -0.98682 0.0059485
0.019391 0.15301 0.99035 6.0388e-39 212.5 362 0 0 0 0.15539 0.1055 -0.9822 0.0068149
0.021129 0.15301 0.99035 5.5317e-39 214 362 0 0 0 0.19338 0.10922 -0.97503 0.007906
0.022877 0.15307 0.99075 5.3473e-39 215.5 362 0 0 0 0.22945 0.10808 -0.9673 0.0087289
0.025215 0.15319 0.99155 5.8544e-39 217.5 362 0 0 0 0.27874 0.11307 -0.95369 0.0091846
0.026966 0.15268 0.99194 6.2693e-39 312.5 361.5 0 0 0 0.31642 0.10868 -0.94237 0.0087301
0.028706 0.15209 0.99194 5.8544e-39 407.5 361 0 0 0 0.34491 0.10137 -0.93315 0.0081848
-0.0090105 0.155 0.99194 7.053e-39 285.5 362.5 0 0 0 -0.34316 0.16265 -0.92509 0.010828
-0.0066894 0.155 0.99194 7.3757e-39 287.5 362.5 0 0 0 -0.29749 0.16569 -0.94024 0.010478
-0.0049446 0.15487 0.99115 7.1913e-39 289 362.5 0 0 0 -0.26517 0.1582 -0.95113 0.009993
-0.0026254 0.15487 0.99115 6.7764e-39 291 362.5 0 0 0 -0.21746 0.15528 -0.96364 0.0086153
-0.00088605 0.15487 0.99115 6.7302e-39 292.5 362.5 0 0 0 -0.1878 0.15263 -0.97028 0.0080762
0.00085305 0.15484 0.99095 6.8224e-39 294 362.5 0 0 0 -0.1522 0.15047 -0.97683 0.0073027
0.0025927 0.15487 0.99115 6.6381e-39 295.5 362.5 0 0 0 -0.12462 0.14874 -0.98099 0.006628
0.004908 0.15475 0.99035 6.2232e-39 297.5 362.5 0 0 0 -0.085192 0.13641 -0.98698 0.005712
0.0060667 0.15475 0.99035 6.131e-39 298.5 362.5 0 0 0 -0.065743 0.12974 -0.98937 0.0053321
0.0089634 0.15475 0.99035 6.108e-39 301 362.5 0 0 0 -0.0187 0.12385 -0.99212 0.0046697
0.01128 0.15475 0.99035 6.592e-39 303 362.5 0 0 0 0.01445 0.1215 -0.99249 0.0045395
0.015336 0.15475 0.99035 6.6381e-39 306.5 362.5 0 0 0 0.082529 0.12198 -0.9891 0.0054304
0.017074 0.15475 0.99035 6.8685e-39 308 362.5 0 0 0 0.11273 0.12325 -0.98595 0.0062286
0.019391 0.15475 0.99035 6.7764e-39 310 362.5 0 0 0 0.158 0.12856 -0.97903 0.0068711
0.021129 0.15475 0.99035 6.3615e-39 311.5 362.5 0 0 0 0.19536 0.12992 -0.97209 0.0078281
0.022877 0.15481 0.99075 6.2923e-39 313 362.5 0 0 0 0.23065 0.13356 -0.96383 0.0084012
0.02522 0.15497 0.99174 6.5459e-39 315.5 362.5 0 0 0 0.28074 0.13862 -0.94972 0.0086217
0.026966 0.155 0.99194 6.4537e-39 317 362.5 0 0 0 0.31695 0.14016 -0.93803 0.0081318
-0.0090105 0.15674 0.99194 7.7444e-39 382 363 0 0 0 -0.34375 0.19142 -0.91934 0.010169
-0.0066894 0.15674 0.99194 7.4678e-39 384 363 0 0 0 -0.29988 0.18987 -0.93489 0.010163
-0.0049446 0.15719 0.99115 6.6611e-39 290 363.5 0 0 0 -0.2617 0.19683 -0.94487 0.0095909
-0.0026254 0.15719 0.99115 6.9607e-39 292 363.5 0 0 0 -0.22125 0.19508 -0.95551 0.0090368
-0.00088605 0.15719 0.99115 6.7764e-39 293.5 363.5 0 0 0 -0.19057 0.19137 -0.96284 0.0083784
0.00085294 0.1571 0.99055 6.4998e-39 295 363.5 0 0 0 -0.15752 0.18035 -0.97091 0.0077257
0.0025927 0.15719 0.99115 6.4076e-39 296.5 363.5 0 0 0 -0.13181 0.18684 -0.97351 0.0075437
0.004908 0.15707 0.99035 6.8685e-39 298.5 363.5 0 0 0 -0.092163 0.16984 -0.98115 0.006842
0.0060667 0.15707 0.99035 6.7303e-39 299.5 363.5 0 0 0 -0.072392 0.16626 -0.98342 0.0066497
0.0089634 0.15706 0.99035 6.7303e-39 302 363.5 0 0 0 -0.025302 0.15765 -0.98717 0.006119
0.01128 0.15706 0.99035 6.5689e-39 304 363.5 0 0 0 0.012247 0.15524 -0.9878 0.0058613
0.013019 0.15707 0.99035 6.0849e-39 305.5 363.5 0 0 0 0.043111 0.15628 -0.98677 0.0057357
0.01476 0.1571 0.99055 5.8083e-39 307 363.5 0 0 0 0.074148 0.15879 -0.98452 0.0063651
0.017074 0.15706 0.99035 5.8544e-39 309 363.5 0 0 0 0.11808 0.15885 -0.98022 0.0070753
0.019395 0.1571 0.99055 5.693e-39 311 363.5 0 0 0 0.1647 0.16304 -0.97278 0.0075421
0.021129 0.15707 0.99035 5.3934e-39 312.5 363.5 0 0 0 0.19453 0.16612 -0.96673 0.0077759
0.02289 0.15722 0.99135 5.67e-39 314 363.5 0 0 0 0.23763 0.17177 -0.95605 0.0082544
0.025225 0.15732 0.99194 5.6469e-39 316 363.5 0 0 0 0.2831 0.17558 -0.94288 0.0082547
-0.0049486 0.15906 0.99194 7.6061e-39 382.5 364 0 0 0 -0.26566 0.22897 -0.93648 0.0092751
-0.0026254 0.15893 0.99115 7.2835e-39 384.5 364 0 0 0 -0.22239 0.22204 -0.94934 0.0089977
-0.00088676 0.15906 0.99194 7.3757e-39 386 364 0 0 0 -0.20114 0.2297 -0.95225 0.0088955
0.00065992 0.15923 0.99062 6.9454e-39 314.67 364.33 0 0 0 -0.16536 0.22092 -0.96117 0.00847
0.003171 0.15945 0.99075 6.4537e-39 291 364.5 0 0 0 -0.12522 0.22329 -0.96668 0.0080283
0.004908 0.15938 0.99035 6.4998e-39 292.5 364.5 0 0 0 -0.098901 0.2108 -0.97251 0.0077802
0.0068391 0.15919 0.99035 7.0683e-39 327 364.33 0 0 0 -0.066422 0.20499 -0.97651 0.0076021
0.0087702 0.15919 0.99035 7.1298e-39 328.67 364.33 0 0 0 -0.037332 0.2021 -0.97865 0.0074362
0.011474 0.15919 0.99035 6.8225e-39 331 364.33 0 0 0 0.014783 0.19405 -0.98088 0.0068076
0.013019 0.1588 0.99035 7.9288e-39 398 364 0 0 0 0.042504 0.18052 -0.98265 0.0063946
0.014567 0.15923 0.99062 6.6381e-39 333.67 364.33 0 0 0 0.07285 0.19664 -0.97777 0.007112
0.017074 0.1588 0.99035 5.9466e-39 401.5 364 0 0 0 0.12234 0.18644 -0.97482 0.007489
0.019399 0.15887 0.99075 5.8544e-39 403.5 364 0 0 0 0.16748 0.19071 -0.96725 0.0077229
0.021146 0.15893 0.99115 5.9005e-39 405 364 0 0 0 0.20195 0.19768 -0.95924 0.0079965
0.022895 0.159 0.99155 5.8083e-39 406.5 364 0 0 0 0.23852 0.19876 -0.95058 0.0079595
0.025225 0.15906 0.99194 5.3473e-39 408.5 364 0 0 0 0.28182 0.20092 -0.93819 0.007906
-0.0043683 0.1608 0.99194 7.0991e-39 264.5 365 0 0 0 -0.25619 0.25905 -0.93127 0.0089086
-0.0026276 0.1608 0.99194 7.1913e-39 266.25 365 0 0 0 -0.22401 0.25681 -0.94014 0.0088958
-0.00088676 0.16022 0.99194 5.7161e-39 160 365 0 0 0 -0.19907 0.24688 -0.94838 0.0089521
0.0010466 0.16086 0.99115 7.5908e-39 308.33 365 0 0 0 -0.16016 0.25222 -0.95432 0.0084191
0.0029789 0.16086 0.99115 7.4064e-39 310 365 0 0 0 -0.13406 0.24663 -0.95979 0.0083609
0.004908 0.16112 0.99035 7.6522e-39 381 365 0 0 0 -0.10188 0.24264 -0.96475 0.0081741
0.0064561 0.16082 0.99088 6.9761e-39 320 365 0 0 0 -0.076824 0.23676 -0.96853 0.0081012
0.0091615 0.16082 0.99088 6.9761e-39 322.33 365 0 0 0 -0.029039 0.23035 -0.97267 0.0079265
0.011093 0.16082 0.99088 6.8225e-39 324 365 0 0 0 0.0042744 0.22853 -0.97353 0.0078011
0.013029 0.16067 0.99115 6.5458e-39 294.5 365 0 0 0 0.040391 0.22649 -0.97318 0.0076126
0.014966 0.16091 0.99141 6.9454e-39 327.33 365 0 0 0 0.080485 0.23133 -0.96954 0.0079584
0.017088 0.16067 0.99115 6.7073e-39 298 365 0 0 0 0.12414 0.22281 -0.96693 0.00801
0.019224 0.16056 0.99168 6.3922e-39 268.67 365 0 0 0 0.1687 0.22586 -0.95944 0.0080052
0.020771 0.16095 0.99168 6.9761e-39 332.33 365 0 0 0 0.19541 0.23309 -0.95262 0.0080488
0.023484 0.1608 0.99194 6.4076e-39 303.5 365 0 0 0 0.25257 0.22756 -0.94044 0.0077864
0.00085398 0.16309 0.99174 6.0158e-39 202.75 366 0 0 0 -0.17192 0.28699 -0.94238 0.0083207
0.0031736 0.16306 0.99154 6.4768e-39 205 366 0 0 0 -0.13331 0.28676 -0.94868 0.0084516
0.0049119 0.16299 0.99115 6.5459e-39 206.5 366 0 0 0 -0.10673 0.28279 -0.95323 0.0085773
0.0066513 0.16299 0.99115 6.4306e-39 208 366 0 0 0 -0.077963 0.28129 -0.95645 0.008625
0.0089724 0.16302 0.99135 6.2463e-39 210 366 0 0 0 -0.034046 0.2801 -0.95937 0.0085332
0.011292 0.16302 0.99135 5.9466e-39 212.25 366 0 0 0 0.0086041 0.27775 -0.96062 0.0083296
0.013035 0.16306 0.99155 5.3012e-39 214 366 0 0 0 0.038497 0.27667 -0.96019 0.0082804
0.014583 0.16288 0.99168 5.6547e-39 202.67 366 0 0 0 0.074577 0.27264 -0.95922 0.0084308
0.017095 0.16306 0.99155 5.5548e-39 221.5 366 0 0 0 0.12333 0.27309 -0.95405 0.0082537
0.018842 0.16312 0.99194 5.6239e-39 225.5 366 0 0 0 0.1558 0.27475 -0.94881 0.0079787
0.020583 0.16312 0.99194 6.9607e-39 273.5 366 0 0 0 0.1881 0.2731 -0.94342 0.0075452
0.00085404 0.16486 0.99194 8.8969e-39 431.5 366 0 0 0 -0.1718 0.31614 -0.93303 0.007809
0.0037554 0.16486 0.99194 9.3118e-39 434 366 0 0 0 -0.12618 0.31938 -0.93919 0.0081127
0.0049159 0.16486 0.99194 9.4961e-39 435 366 0 0 0 -0.11073 0.3203 -0.94082 0.0081775
0.0066566 0.16486 0.99194 9.3118e-39 436.5 366 0 0 0 -0.082713 0.31572 -0.94524 0.0083839
0.0089778 0.16486 0.99194 9.1274e-39 438.5 366 0 0 0 -0.035122 0.31477 -0.94852 0.0083421
0.011299 0.16486 0.99194 9.0813e-39 440.5 366 0 0 0 0.0027159 0.30976 -0.95081 0.0083648
0.01304 0.16486 0.99194 9.2196e-39 442 366 0 0 0 0.041252 0.30862 -0.95029 0.0082798
0.0142 0.16486 0.99194 9.6805e-39 443 366 0 0 0 0.067412 0.31014 -0.9483 0.0082924
0.017102 0.16486 0.99194 5.9005e-39 138.5 367 0 0 0 0.12521 0.30177 -0.94512 0.0080068
0.020003 0.16486 0.99194 5.7161e-39 141 367 0 0 0 0.17767 0.29841 -0.93776 0.007321
0.0037554 0.16602 0.99194 5.9927e-39 227 367 0 0 0 -0.12701 0.3348 -0.93369 0.0078898
0.0049159 0.1666 0.99194 6.0849e-39 314 367 0 0 0 -0.11225 0.34573 -0.9316 0.0075953
0.0066566 0.16602 0.99194 6.9147e-39 229.5 367 0 0 0 -0.078671 0.33452 -0.9391 0.0081792
0.0089778 0.1666 0.99194 7.1221e-39 317.5 367 0 0 0 -0.040549 0.34362 -0.93823 0.0078658
0.011299 0.1666 0.99194 6.8224e-39 319.5 367 0 0 0 -0.0010461 0.33964 -0.94055 0.0080336
