# .PCD v.7 - Point Cloud Data file format
VERSION .7
FIELDS x y z rgb u v vx vy vz normal_x normal_y normal_z curvature
SIZE 4 4 4 4 4 4 4 4 4 4 4 4 4
TYPE F F F F F F F F F F F F F
COUNT 1 1 1 1 1 1 1 1 1 1 1 1 1
WIDTH 564
HEIGHT 1
VIEWPOINT 0 0 0 1 0 0 0
POINTS 564
DATA ascii
0.20285 0.16094 1.2276 6.0849e-39 250 365 0 0 0 -0.74301 0.23068 -0.62827 0.004142
0.29103 0.16086 1.227 8.7125e-39 403.5 365 0 0 0 0.61287 0.29071 -0.73476 0.0025229
0.29333 0.16094 1.2276 9.404e-39 405 365 0 0 0 0.61374 0.29473 -0.73243 0.002636
0.20285 0.16238 1.2276 8.3898e-39 407 365 0 0 0 -0.74354 0.23495 -0.62606 0.0042316
0.28874 0.16365 1.2264 6.3615e-39 158 366 0 0 0 0.61873 0.29376 -0.72861 0.0032836
0.29046 0.16309 1.2276 7.6983e-39 315.5 365.5 0 0 0 0.6106 0.29573 -0.73465 0.0025992
0.28874 0.16508 1.2264 5.6239e-39 245 366 0 0 0 0.61651 0.29756 -0.72896 0.0030695
0.285 0.041774 1.2288 5.9927e-39 166 325 0 0 0 -0.063789 -0.88128 -0.46826 0.0066779
0.28644 0.041774 1.2288 5.9005e-39 167 325 0 0 0 -0.062676 -0.88286 -0.46544 0.0069347
0.29075 0.041774 1.2288 6.4537e-39 170 325 0 0 0 -0.015795 -0.89284 -0.4501 0.0088782
0.29219 0.041774 1.2288 6.1771e-39 171 325 0 0 0 -0.00068173 -0.89223 -0.45158 0.0091345
0.27637 0.043211 1.2288 6.4537e-39 387 325 0 0 0 -0.089521 -0.89787 -0.43106 0.0073804
0.27925 0.043211 1.2288 6.9147e-39 389 325 0 0 0 -0.081673 -0.88814 -0.45225 0.0073645
0.29937 0.043211 1.2288 6.6381e-39 403 325 0 0 0 0.077505 -0.87358 -0.48046 0.014504
0.30081 0.043211 1.2288 6.3615e-39 404 325 0 0 0 0.11223 -0.86108 -0.49593 0.01773
0.31375 0.043211 1.2288 6.9147e-39 413 325 0 0 0 0.36427 -0.73265 -0.57491 0.04408
0.31663 0.043211 1.2288 6.7303e-39 416 325 0 0 0 0.42241 -0.70177 -0.57367 0.044843
0.31806 0.043211 1.2288 7.1913e-39 417 325 0 0 0 0.44153 -0.68782 -0.57615 0.045796
0.18724 0.044649 1.2288 4.4254e-39 428 325 0 0 0 -0.34444 -0.72923 -0.59126 0.029178
0.23899 0.044649 1.2288 6.5459e-39 172 326 0 0 0 -0.084791 -0.92085 -0.38059 0.0089041
0.24187 0.044649 1.2288 6.8225e-39 183 326 0 0 0 -0.06025 -0.91661 -0.39522 0.0095102
0.2469 0.044649 1.2288 6.7303e-39 186.5 326 0 0 0 -0.019686 -0.91134 -0.41117 0.0081821
0.24906 0.044649 1.2288 6.4537e-39 188 326 0 0 0 0.00013351 -0.90802 -0.41892 0.006387
0.25337 0.044649 1.2288 6.9147e-39 191 326 0 0 0 0.012271 -0.90735 -0.4202 0.005343
0.26918 0.044649 1.2288 7.7444e-39 213 326 0 0 0 -0.078074 -0.91032 -0.40648 0.0066554
0.27062 0.044649 1.2288 7.6522e-39 214 326 0 0 0 -0.07752 -0.90796 -0.41182 0.0066818
0.27493 0.044649 1.2288 7.2835e-39 217 326 0 0 0 -0.088596 -0.89925 -0.42836 0.0074755
0.30944 0.044649 1.2288 6.3615e-39 241 326 0 0 0 0.30793 -0.76704 -0.56288 0.041413
0.18508 0.046806 1.2288 7.4679e-39 291.5 326.5 0 0 0 -0.40288 -0.6627 -0.63128 0.034894
0.19155 0.046087 1.2288 7.56e-39 382 326 0 0 0 -0.27856 -0.75749 -0.59043 0.030153
0.19299 0.046087 1.2288 7.3757e-39 383 326 0 0 0 -0.25745 -0.77356 -0.57907 0.029032
0.19442 0.047524 1.2288 8.2976e-39 220 327 0 0 0 -0.24432 -0.77699 -0.58016 0.031431
0.1973 0.047524 1.2288 7.2835e-39 222 327 0 0 0 -0.17603 -0.80117 -0.57196 0.028267
0.19874 0.047524 1.2288 7.0991e-39 223 327 0 0 0 -0.14124 -0.81662 -0.55962 0.025887
0.20018 0.047524 1.2288 6.8225e-39 224 327 0 0 0 -0.1066 -0.8343 -0.5409 0.022323
0.20305 0.046087 1.2288 7.0991e-39 390 326 0 0 0 -0.02403 -0.86334 -0.50405 0.014747
0.20521 0.046806 1.2288 6.592e-39 309.5 326.5 0 0 0 0.017063 -0.8711 -0.49081 0.012632
0.20736 0.046087 1.2288 6.2693e-39 393 326 0 0 0 0.051084 -0.88525 -0.46231 0.010232
0.2088 0.046087 1.2288 6.3615e-39 394 326 0 0 0 0.061262 -0.89245 -0.44697 0.0089336
0.21024 0.046087 1.2288 6.4537e-39 395 326 0 0 0 0.077361 -0.89542 -0.43844 0.0086439
0.21311 0.047524 1.2288 7.1913e-39 233 327 0 0 0 0.088904 -0.90812 -0.40917 0.0082336
0.21455 0.047524 1.2288 6.9147e-39 234 327 0 0 0 0.099414 -0.9117 -0.39866 0.007735
0.21887 0.047524 1.2288 6.3615e-39 237 327 0 0 0 0.066071 -0.92428 -0.37595 0.013114
0.2318 0.047524 1.2288 6.8225e-39 246 327 0 0 0 -0.088777 -0.9363 -0.33978 0.0058401
0.25193 0.046087 1.2288 6.8225e-39 425 326 0 0 0 0.0069602 -0.90814 -0.41861 0.0053597
0.25481 0.046087 1.2288 5.163e-39 427 326 0 0 0 0.010471 -0.9095 -0.41557 0.0055859
0.25696 0.046806 1.2288 5.9927e-39 405 326.5 0 0 0 -0.0030827 -0.91196 -0.41028 0.0060766
0.25912 0.047524 1.2288 7.8366e-39 383 327 0 0 0 -0.020466 -0.91417 -0.40482 0.0066248
0.26703 0.046087 1.2288 1.0418e-38 435.5 326 0 0 0 -0.068125 -0.91329 -0.40157 0.0062774
0.31806 0.047524 1.2288 7.0069e-39 424 327 0 0 0 0.58028 -0.5811 -0.57061 0.049788
0.18149 0.048962 1.2288 9.3118e-39 437 327 0 0 0 -0.45117 -0.57072 -0.68609 0.039245
0.18292 0.048962 1.2288 9.0352e-39 438 327 0 0 0 -0.4493 -0.58386 -0.67619 0.039561
0.22749 0.048962 1.2288 6.9147e-39 171 328 0 0 0 -0.061196 -0.94286 -0.32751 0.0063332
0.23037 0.048962 1.2288 6.0849e-39 183 328 0 0 0 -0.088741 -0.94003 -0.32936 0.0055458
0.31806 0.048962 1.2288 7.0991e-39 381 328 0 0 0 0.59882 -0.54863 -0.58345 0.049304
0.18077 0.051119 1.2288 7.1452e-39 311 328.5 0 0 0 -0.48799 -0.47834 -0.7301 0.045521
0.18292 0.0504 1.2288 7.0991e-39 395 328 0 0 0 -0.46616 -0.54136 -0.69973 0.043745
0.1628 0.057588 1.2288 8.2976e-39 432 331 0 0 0 -0.64592 -0.13686 -0.75104 0.10601
0.16423 0.056869 1.2288 7.4679e-39 310 331 0 0 0 -0.65744 -0.17029 -0.73401 0.090131
0.18005 0.061182 1.2288 7.2835e-39 300 333 0 0 0 -0.61722 -0.084907 -0.78219 0.038652
0.18005 0.063339 1.2288 7.7444e-39 234 334 0 0 0 -0.64159 -0.018785 -0.76681 0.033552
0.18005 0.064776 1.2288 6.3615e-39 526 334 0 0 0 -0.64986 0.029655 -0.75948 0.029824
0.32525 0.064776 1.2288 7.8366e-39 390 335 0 0 0 0.59979 0.029685 -0.7996 0.01674
0.32669 0.064776 1.2288 7.9288e-39 391 335 0 0 0 0.59911 0.037506 -0.79979 0.016858
0.18005 0.066933 1.2288 7.0069e-39 296 335.5 0 0 0 -0.66389 0.082283 -0.74329 0.026295
0.32382 0.066933 1.2288 7.4679e-39 291 336 0 0 0 0.61299 0.054719 -0.78819 0.015131
0.32525 0.066933 1.2288 8.0672e-39 292 336 0 0 0 0.59579 0.069023 -0.80017 0.01539
0.18005 0.069089 1.2288 9.0352e-39 436 336 0 0 0 -0.68656 0.11717 -0.71757 0.020692
0.3231 0.069089 1.2288 6.0849e-39 205.5 337 0 0 0 0.60657 0.089569 -0.78997 0.012799
0.32525 0.069089 1.2288 6.8225e-39 207 337 0 0 0 0.59296 0.10877 -0.79785 0.012976
0.32094 0.071965 1.2288 7.9288e-39 238 338 0 0 0 0.61075 0.11047 -0.78408 0.010469
0.32286 0.071006 1.2288 7.3142e-39 380.67 337.33 0 0 0 0.60624 0.112 -0.78736 0.011472
0.32957 0.071246 1.2288 6.2232e-39 351.5 337.5 0 0 0 0.57371 0.15361 -0.80453 0.01534
0.18149 0.073402 1.2288 7.3757e-39 258 338 0 0 0 -0.72365 0.12415 -0.67891 0.0095967
0.31878 0.073402 1.2288 5.8083e-39 510.5 338 0 0 0 0.61214 0.12178 -0.78132 0.0097042
0.32094 0.073402 1.2288 6.6381e-39 512 338 0 0 0 0.60979 0.1226 -0.78302 0.0094965
0.18149 0.07484 1.2288 8.2054e-39 529 338 0 0 0 -0.73225 0.12872 -0.66876 0.008419
0.31878 0.07484 1.2288 7.1913e-39 257.5 339 0 0 0 0.61811 0.12949 -0.77535 0.0089885
0.18149 0.076997 1.2288 7.053e-39 268 339.5 0 0 0 -0.74762 0.12897 -0.65149 0.0062921
0.18149 0.079153 1.2288 8.2054e-39 401 340 0 0 0 -0.75236 0.13219 -0.64535 0.0056434
0.18149 0.080591 1.2288 6.1771e-39 151 341 0 0 0 -0.756 0.13433 -0.64064 0.0051737
0.18149 0.082747 1.2288 7.2835e-39 278.5 341.5 0 0 0 -0.75553 0.1388 -0.64024 0.00477
0.31806 0.082747 1.2288 8.2976e-39 453 341.5 0 0 0 0.62512 0.17429 -0.76082 0.0070531
0.32094 0.082028 1.2288 8.8508e-39 528 341 0 0 0 0.62764 0.17302 -0.75903 0.0076689
0.18292 0.084904 1.2288 8.8508e-39 400 342 0 0 0 -0.75311 0.14337 -0.64209 0.0047391
0.18292 0.08706 1.2288 6.638e-39 262 343 0 0 0 -0.74834 0.14455 -0.64738 0.0045984
0.18436 0.08706 1.2288 6.6842e-39 263 343 0 0 0 -0.7472 0.14768 -0.64799 0.0044343
0.31806 0.08706 1.2288 7.2835e-39 361.5 343 0 0 0 0.62978 0.18956 -0.75329 0.0068872
0.18149 0.089217 1.2288 8.2054e-39 511 343 0 0 0 -0.74642 0.14491 -0.64951 0.0045828
0.18292 0.089217 1.2288 8.2054e-39 512 343 0 0 0 -0.74282 0.14729 -0.65309 0.0042367
0.31806 0.089217 1.2288 6.7303e-39 216 344 0 0 0 0.62993 0.19381 -0.75209 0.0062931
0.18149 0.090654 1.2288 7.7444e-39 240 344 0 0 0 -0.74219 0.14766 -0.65372 0.0044279
0.18292 0.090654 1.2288 7.7444e-39 242 344 0 0 0 -0.74022 0.15163 -0.65505 0.0041738
0.31806 0.090654 1.2288 8.943e-39 452 344 0 0 0 0.62988 0.19706 -0.75128 0.0061736
0.18149 0.092092 1.2288 3.8722e-39 473 344 0 0 0 -0.7385 0.14971 -0.65742 0.0042515
0.18292 0.092811 1.2288 5.3473e-39 344 344.5 0 0 0 -0.73623 0.15463 -0.65883 0.0039604
0.31806 0.092092 1.2288 5.8083e-39 191 345 0 0 0 0.62893 0.20068 -0.75111 0.0056832
0.18436 0.097124 1.2288 8.0212e-39 307.5 346 0 0 0 -0.73399 0.15219 -0.66189 0.0043637
0.31519 0.097843 1.2288 8.2054e-39 516 346 0 0 0 0.6202 0.20557 -0.75702 0.0045771
0.31663 0.096405 1.2288 7.3757e-39 399 346 0 0 0 0.62363 0.20432 -0.75455 0.0042361
0.1858 0.09928 1.2288 6.1771e-39 151 347 0 0 0 -0.7359 0.14575 -0.66121 0.0050025
0.1858 0.10072 1.2288 8.1132e-39 384 347 0 0 0 -0.73665 0.13933 -0.66177 0.0054795
0.1858 0.10287 1.2288 7.7905e-39 369.5 347.5 0 0 0 -0.73618 0.13267 -0.66365 0.0056596
0.1858 0.10503 1.2288 1.0418e-38 459 348 0 0 0 -0.73764 0.1298 -0.6626 0.005945
0.31375 0.10503 1.2288 5.9927e-39 156 349 0 0 0 0.59738 0.22451 -0.76989 0.0051528
0.1858 0.10719 1.2288 6.6381e-39 297.5 349 0 0 0 -0.7398 0.12016 -0.66201 0.0063121
0.18724 0.10791 1.2288 7.2835e-39 410 349 0 0 0 -0.73951 0.11947 -0.66246 0.0062537
0.31303 0.10719 1.2288 8.1593e-39 439.5 349 0 0 0 0.59649 0.22371 -0.77082 0.005209
0.18724 0.10934 1.2288 8.7586e-39 526 349 0 0 0 -0.74128 0.11661 -0.66099 0.0062262
0.30944 0.10934 1.2288 5.8083e-39 222 350 0 0 0 0.58471 0.21958 -0.78096 0.004153
0.31088 0.10934 1.2288 6.0849e-39 223 350 0 0 0 0.58678 0.21986 -0.77933 0.0045506
0.31231 0.10934 1.2288 6.7303e-39 224 350 0 0 0 0.59421 0.22222 -0.773 0.0048984
0.18724 0.11078 1.2288 7.1913e-39 254 350 0 0 0 -0.74155 0.11651 -0.6607 0.0061492
0.18867 0.11078 1.2288 7.2835e-39 255 350 0 0 0 -0.74388 0.1132 -0.65866 0.006192
0.30944 0.11078 1.2288 8.482e-39 446 350 0 0 0 0.59094 0.21898 -0.77643 0.0043835
0.31088 0.11078 1.2288 8.1132e-39 447 350 0 0 0 0.59328 0.22325 -0.77342 0.0047917
0.18724 0.11294 1.2288 7.8366e-39 343 350.5 0 0 0 -0.74193 0.11334 -0.66083 0.0059632
0.18867 0.11294 1.2288 7.6522e-39 344 350.5 0 0 0 -0.74334 0.11489 -0.65898 0.0059727
0.19011 0.11294 1.2288 7.1913e-39 345 350.5 0 0 0 -0.74192 0.11337 -0.66084 0.0058828
0.30944 0.11294 1.2288 6.6841e-39 289 351 0 0 0 0.59445 0.222 -0.77288 0.0047521
0.31088 0.11294 1.2288 6.4537e-39 290 351 0 0 0 0.60057 0.22451 -0.76741 0.004965
0.18724 0.11509 1.2288 8.2054e-39 434 351 0 0 0 -0.74248 0.11775 -0.65944 0.0059625
0.30944 0.11509 1.2288 8.1132e-39 523 351 0 0 0 0.60356 0.22762 -0.76414 0.0052005
0.31088 0.11509 1.2288 8.1132e-39 524 351 0 0 0 0.6034 0.23 -0.76355 0.0053377
0.1858 0.11797 1.2288 6.8225e-39 399 352 0 0 0 -0.73985 0.12857 -0.66037 0.0063256
0.18724 0.11653 1.2288 6.4537e-39 168 352 0 0 0 -0.7404 0.12557 -0.66033 0.0061265
0.30944 0.11653 1.2288 6.3615e-39 253 352 0 0 0 0.60914 0.2293 -0.75919 0.0055082
0.31088 0.11653 1.2288 6.3615e-39 254 352 0 0 0 0.60918 0.23443 -0.75759 0.0055169
0.1858 0.11941 1.2288 7.8366e-39 523 352 0 0 0 -0.73835 0.14202 -0.65929 0.0066744
0.18724 0.11941 1.2288 7.8366e-39 524 352 0 0 0 -0.73939 0.1421 -0.65811 0.0066003
0.19011 0.11941 1.2288 8.1132e-39 526 352 0 0 0 -0.73883 0.14685 -0.6577 0.0066288
0.308 0.11941 1.2288 6.0849e-39 220 353 0 0 0 0.62118 0.22832 -0.74967 0.0063021
0.18724 0.12085 1.2288 6.1771e-39 252 353 0 0 0 -0.7374 0.15095 -0.65838 0.0069834
0.19011 0.12085 1.2288 5.6239e-39 254 353 0 0 0 -0.73673 0.15376 -0.65847 0.0067488
0.18724 0.123 1.2288 7.514e-39 350.5 353.5 0 0 0 -0.73472 0.16496 -0.65801 0.0068846
0.18867 0.123 1.2288 7.6061e-39 351.5 353.5 0 0 0 -0.73528 0.16744 -0.65675 0.0068497
0.19011 0.123 1.2288 7.3757e-39 352.5 353.5 0 0 0 -0.73264 0.17157 -0.65864 0.0066409
0.30656 0.12372 1.2288 6.8225e-39 404 354 0 0 0 0.6486 0.22031 -0.72854 0.0064395
0.18867 0.12516 1.2288 7.56e-39 442 354 0 0 0 -0.73315 0.18291 -0.65501 0.0065509
0.19011 0.12516 1.2288 7.56e-39 443 354 0 0 0 -0.72795 0.18486 -0.66023 0.0063787
0.18867 0.1266 1.2288 5.7161e-39 176 355 0 0 0 -0.73128 0.19621 -0.65324 0.0063266
0.19011 0.1266 1.2288 5.8083e-39 177 355 0 0 0 -0.72691 0.19645 -0.65803 0.0062202
0.30369 0.1266 1.2288 7.4678e-39 258 355 0 0 0 0.66118 0.20481 -0.72173 0.0065703
0.30513 0.1266 1.2288 7.6522e-39 259 355 0 0 0 0.66339 0.21336 -0.71721 0.0061834
0.19107 0.12851 1.2288 8.0517e-39 439 355 0 0 0 -0.72193 0.21281 -0.65843 0.0058426
0.30369 0.12803 1.2288 8.2054e-39 478 355 0 0 0 0.66951 0.19965 -0.71547 0.006479
0.19299 0.13091 1.2288 5.5317e-39 255 356 0 0 0 -0.71833 0.23757 -0.65389 0.0051642
0.19442 0.13091 1.2288 5.3473e-39 256 356 0 0 0 -0.71708 0.23874 -0.65483 0.0054247
0.19442 0.13307 1.2288 7.5601e-39 351.5 356.5 0 0 0 -0.71782 0.2474 -0.65079 0.0050565
0.30225 0.13307 1.2288 7.0991e-39 288 357 0 0 0 0.68362 0.16992 -0.70978 0.0054494
0.19442 0.13522 1.2288 8.021e-39 448 357 0 0 0 -0.72051 0.24825 -0.64749 0.0048044
0.30225 0.13522 1.2288 6.0849e-39 145 358 0 0 0 0.6874 0.15771 -0.70895 0.004595
0.30225 0.13666 1.2288 8.6664e-39 375 358 0 0 0 0.68928 0.15464 -0.7078 0.0044913
0.30225 0.13882 1.2288 7.9288e-39 375 358.5 0 0 0 0.68871 0.15471 -0.70834 0.0044325
0.30225 0.14097 1.2288 8.2054e-39 471 359 0 0 0 0.68833 0.158 -0.70799 0.0043249
0.19586 0.14385 1.2288 6.2693e-39 261 360 0 0 0 -0.73287 0.23286 -0.63928 0.004098
0.30225 0.14313 1.2288 7.5601e-39 336 360 0 0 0 0.68641 0.16206 -0.70892 0.0044069
0.19586 0.14529 1.2288 8.5742e-39 481 360 0 0 0 -0.7362 0.22559 -0.63806 0.0039135
0.1973 0.14529 1.2288 8.2976e-39 482 360 0 0 0 -0.74049 0.22559 -0.63308 0.003799
0.30225 0.14529 1.2288 5.9927e-39 209 361 0 0 0 0.68287 0.17078 -0.7103 0.0047708
0.19586 0.14672 1.2288 6.1771e-39 244 361 0 0 0 -0.73832 0.22076 -0.6373 0.0037228
0.1973 0.14672 1.2288 6.1771e-39 245 361 0 0 0 -0.74051 0.22084 -0.63472 0.0037283
0.19586 0.14888 1.2288 7.6983e-39 340 361.5 0 0 0 -0.73935 0.21146 -0.63926 0.0036243
0.1973 0.14888 1.2288 7.2835e-39 341 361.5 0 0 0 -0.74142 0.21115 -0.63696 0.0034227
0.30081 0.14888 1.2288 6.9146e-39 279.5 362 0 0 0 0.66701 0.20179 -0.71721 0.0047095
0.1973 0.15104 1.2288 8.1132e-39 426 362 0 0 0 -0.73997 0.20736 -0.63988 0.0033536
0.29937 0.15104 1.2288 8.2054e-39 503 362 0 0 0 0.65932 0.22059 -0.71878 0.0044995
0.19874 0.15391 1.2288 8.482e-39 381 363 0 0 0 -0.73896 0.20565 -0.6416 0.0034031
0.29794 0.15391 1.2288 8.482e-39 452 363 0 0 0 0.64596 0.24376 -0.7234 0.0041889
0.29937 0.15247 1.2288 6.3615e-39 250 363 0 0 0 0.65641 0.22832 -0.71903 0.0044465
0.19874 0.15535 1.2288 8.3898e-39 484 363 0 0 0 -0.73755 0.20808 -0.64243 0.0035546
0.29794 0.15535 1.2288 6.4537e-39 195 364 0 0 0 0.64479 0.25791 -0.71953 0.0041941
0.19874 0.15679 1.2288 6.6381e-39 225 364 0 0 0 -0.73627 0.21266 -0.64241 0.0037207
0.2965 0.15679 1.2288 7.56e-39 391 364 0 0 0 0.63727 0.26806 -0.72251 0.0041131
0.20066 0.15918 1.2288 8.6665e-39 488 364 0 0 0 -0.73407 0.21945 -0.64263 0.0038319
0.2965 0.15822 1.2288 8.482e-39 492 364 0 0 0 0.63302 0.28458 -0.71993 0.0039309
0.20089 0.1611 1.2288 6.6381e-39 248.5 365 0 0 0 -0.7345 0.22665 -0.63964 0.0040815
0.29506 0.1611 1.2288 9.2196e-39 406 365 0 0 0 0.62032 0.31214 -0.71956 0.0030962
0.27692 0.041857 1.2313 6.2693e-39 160 325 0 0 0 -0.10731 -0.89426 -0.43449 0.006523
0.27836 0.041857 1.2313 6.5459e-39 161 325 0 0 0 -0.099158 -0.89297 -0.43906 0.006977
0.28124 0.041857 1.2313 6.6381e-39 163 325 0 0 0 -0.089567 -0.88785 -0.45132 0.0071416
0.28298 0.041349 1.2305 6.3308e-39 191.33 324.67 0 0 0 -0.079384 -0.88543 -0.45795 0.0067869
0.28528 0.040376 1.2301 6.1771e-39 247 324 0 0 0 -0.062933 -0.88479 -0.46173 0.0064341
0.28701 0.040416 1.2313 6.7303e-39 248 324 0 0 0 -0.038104 -0.89741 -0.43956 0.0078516
0.28888 0.041815 1.2301 6.3154e-39 168.5 325 0 0 0 -0.032499 -0.89228 -0.45032 0.0079075
0.29133 0.040416 1.2313 6.9147e-39 251 324 0 0 0 -0.012911 -0.9026 -0.43029 0.0084419
0.2932 0.041096 1.2301 6.592e-39 212 324.5 0 0 0 0.0030197 -0.89448 -0.44711 0.0088231
0.29478 0.041116 1.2307 6.592e-39 213 324.5 0 0 0 0.015384 -0.90033 -0.43494 0.0092418
0.29679 0.041815 1.2301 6.3615e-39 174 325 0 0 0 0.034281 -0.88993 -0.45482 0.0097298
0.2991 0.041836 1.2307 6.0388e-39 178 325 0 0 0 0.058601 -0.88821 -0.45569 0.011422
0.18761 0.043297 1.2313 7.6522e-39 206 325 0 0 0 -0.31277 -0.76103 -0.56834 0.023431
0.20346 0.043297 1.2313 7.2835e-39 218 325 0 0 0 0.03037 -0.87504 -0.48309 0.0098965
0.20706 0.043297 1.2313 7.1452e-39 220.5 325 0 0 0 0.05769 -0.87796 -0.47524 0.015331
0.23947 0.043297 1.2313 7.0069e-39 243 325 0 0 0 -0.098861 -0.91451 -0.3923 0.0077607
0.24091 0.043297 1.2313 6.9147e-39 244 325 0 0 0 -0.08538 -0.91561 -0.39289 0.0087782
0.24295 0.043275 1.2307 6.131e-39 245.5 325 0 0 0 -0.065289 -0.91503 -0.39808 0.0094366
0.24499 0.043254 1.2301 6.1771e-39 247 325 0 0 0 -0.035679 -0.91333 -0.40564 0.0089105
0.24667 0.043297 1.2313 6.8225e-39 248 325 0 0 0 -0.026236 -0.91225 -0.40879 0.0084958
0.25387 0.043297 1.2313 6.8225e-39 253 325 0 0 0 0.011812 -0.90898 -0.41668 0.0052796
0.26972 0.043297 1.2313 7.1913e-39 382 325 0 0 0 -0.085194 -0.90876 -0.40852 0.0057877
0.27116 0.043297 1.2313 7.0991e-39 383 325 0 0 0 -0.089312 -0.90363 -0.4189 0.0060815
0.27521 0.043254 1.2301 6.3615e-39 386 325 0 0 0 -0.09973 -0.89784 -0.42887 0.0064672
0.30399 0.043254 1.2301 7.1913e-39 406 325 0 0 0 0.1609 -0.8415 -0.51575 0.024894
0.30717 0.043297 1.2313 6.4537e-39 408 325 0 0 0 0.21828 -0.81999 -0.52912 0.034254
0.31262 0.043254 1.2301 7.4678e-39 412 325 0 0 0 0.3356 -0.761 -0.5552 0.044829
0.18905 0.044738 1.2313 5.4395e-39 429 325 0 0 0 -0.3023 -0.76522 -0.56838 0.024865
0.19193 0.044738 1.2313 8.3898e-39 431 325 0 0 0 -0.24792 -0.78548 -0.56705 0.022839
0.19318 0.044693 1.2301 9.9571e-39 432 325 0 0 0 -0.2244 -0.79275 -0.56674 0.02246
0.19481 0.044738 1.2313 1.1801e-38 433 325 0 0 0 -0.1801 -0.81138 -0.55608 0.019902
0.19697 0.044738 1.2313 1.1709e-38 434.5 325 0 0 0 -0.13305 -0.83187 -0.53878 0.018419
0.19913 0.044738 1.2313 9.7727e-39 436 325 0 0 0 -0.074935 -0.84607 -0.52778 0.017046
0.20057 0.044738 1.2313 7.4678e-39 534 325 0 0 0 -0.030716 -0.85155 -0.52337 0.014898
0.20264 0.044716 1.2307 6.7303e-39 338.5 325.5 0 0 0 0.0061749 -0.8708 -0.49159 0.012124
0.20685 0.044693 1.2301 6.1771e-39 144.5 326 0 0 0 0.057322 -0.88249 -0.46683 0.0091175
0.20922 0.044738 1.2313 6.4537e-39 146 326 0 0 0 0.079814 -0.88264 -0.46322 0.014714
0.21066 0.044738 1.2313 6.1771e-39 147 326 0 0 0 0.093908 -0.88291 -0.46006 0.014789
0.23719 0.044716 1.2307 6.5459e-39 170.5 326 0 0 0 -0.098436 -0.91984 -0.37974 0.007169
0.25074 0.044693 1.2301 6.3615e-39 189 326 0 0 0 0.0093424 -0.90685 -0.42135 0.0054178
0.25243 0.044738 1.2313 6.5459e-39 190 326 0 0 0 0.0087213 -0.9071 -0.42082 0.0055533
0.25506 0.044693 1.2301 7.2835e-39 192 326 0 0 0 0.010876 -0.90894 -0.41678 0.0053518
0.26684 0.044738 1.2313 7.56e-39 211 326 0 0 0 -0.072355 -0.91205 -0.40365 0.0058888
0.26828 0.044738 1.2313 7.7444e-39 212 326 0 0 0 -0.078376 -0.91011 -0.4069 0.0058732
0.27305 0.044693 1.2301 7.4218e-39 215.5 326 0 0 0 -0.089009 -0.90295 -0.42043 0.0069866
0.18131 0.047123 1.2309 7.7751e-39 218.67 326.67 0 0 0 -0.43023 -0.63928 -0.63736 0.035487
0.1832 0.046875 1.2307 8.1132e-39 231 326.5 0 0 0 -0.41397 -0.6523 -0.63493 0.034054
0.18473 0.046179 1.2313 8.5742e-39 259 326 0 0 0 -0.39102 -0.68159 -0.61849 0.03268
0.1903 0.046133 1.2301 7.0991e-39 381 326 0 0 0 -0.30299 -0.74253 -0.59737 0.029245
0.19462 0.046133 1.2301 7.1913e-39 384 326 0 0 0 -0.21087 -0.78997 -0.57574 0.025823
0.19688 0.046156 1.2307 7.053e-39 385.5 326 0 0 0 -0.15441 -0.81361 -0.56053 0.021498
0.19894 0.046133 1.2301 6.8225e-39 387 326 0 0 0 -0.1106 -0.83399 -0.54058 0.021204
0.20119 0.046156 1.2307 6.6842e-39 388.5 326 0 0 0 -0.042401 -0.85463 -0.5175 0.016959
0.2049 0.046179 1.2313 6.6381e-39 391 326 0 0 0 0.031156 -0.87821 -0.47725 0.010062
0.2121 0.046179 1.2313 7.1913e-39 396 326 0 0 0 0.10278 -0.88914 -0.44594 0.014835
0.21692 0.047572 1.2301 6.6381e-39 235.5 327 0 0 0 0.093145 -0.91239 -0.39859 0.012942
0.22074 0.047619 1.2313 6.3615e-39 238 327 0 0 0 0.048699 -0.92226 -0.38349 0.013035
0.2229 0.047619 1.2313 6.3154e-39 239.5 327 0 0 0 0.015571 -0.92839 -0.37129 0.013815
0.23515 0.046179 1.2313 7.3757e-39 412 326 0 0 0 -0.10562 -0.92257 -0.37109 0.0062105
0.25892 0.046179 1.2313 4.241e-39 429.5 326 0 0 0 -0.014255 -0.91348 -0.40663 0.006173
0.26082 0.046133 1.2301 5.6239e-39 431 326 0 0 0 -0.03072 -0.91474 -0.40287 0.0064127
0.26252 0.046179 1.2313 7.4678e-39 432 326 0 0 0 -0.040541 -0.91308 -0.40577 0.0061063
0.26513 0.046133 1.2301 1.1524e-38 434 326 0 0 0 -0.060941 -0.91434 -0.40033 0.0058572
0.18023 0.049011 1.2301 9.3118e-39 436 327 0 0 0 -0.46662 -0.56177 -0.68314 0.041154
0.22484 0.049011 1.2301 6.8225e-39 169 328 0 0 0 -0.023752 -0.93965 -0.34131 0.0080503
0.22628 0.049011 1.2301 7.0069e-39 170 328 0 0 0 -0.046622 -0.94124 -0.33451 0.0070875
0.22916 0.049011 1.2301 6.8225e-39 172 328 0 0 0 -0.082584 -0.93887 -0.33421 0.0061635
0.17681 0.051941 1.2313 7.6522e-39 225.5 329 0 0 0 -0.55577 -0.40033 -0.7286 0.050124
0.17897 0.05122 1.2313 7.7444e-39 309.5 328.5 0 0 0 -0.51601 -0.45911 -0.72316 0.050644
0.18023 0.05045 1.2301 7.1913e-39 393 328 0 0 0 -0.48108 -0.51759 -0.70758 0.045178
0.17672 0.053355 1.2307 6.131e-39 530.5 329 0 0 0 -0.57862 -0.34171 -0.74057 0.051779
0.17879 0.053328 1.2301 6.9147e-39 532 329 0 0 0 -0.54856 -0.37104 -0.74927 0.048885
0.1644 0.054767 1.2301 8.2054e-39 384 330 0 0 0 -0.6499 -0.28922 -0.70284 0.088747
0.17591 0.054767 1.2301 7.2835e-39 390 330 0 0 0 -0.59252 -0.29453 -0.74979 0.051134
0.17735 0.054767 1.2301 7.8366e-39 391 330 0 0 0 -0.58081 -0.31344 -0.75128 0.050579
0.17879 0.054767 1.2301 8.021e-39 392 330 0 0 0 -0.56242 -0.331 -0.75771 0.049126
0.166 0.056983 1.2313 7.1913e-39 311 331 0 0 0 -0.71907 -0.14295 -0.68007 0.082247
0.16744 0.056983 1.2313 7.053e-39 312 331 0 0 0 -0.7094 -0.15935 -0.68656 0.075618
0.17591 0.056925 1.2301 5.5779e-39 318 331 0 0 0 -0.62626 -0.20563 -0.752 0.05032
0.17735 0.056925 1.2301 5.4856e-39 319 331 0 0 0 -0.60846 -0.22619 -0.76067 0.05044
0.17879 0.056925 1.2301 6.0389e-39 320 331 0 0 0 -0.59039 -0.25311 -0.7664 0.048733
0.16296 0.059084 1.2301 6.5459e-39 251 332 0 0 0 -0.71098 -0.037864 -0.70219 0.10166
0.1644 0.059084 1.2301 6.4537e-39 252 332 0 0 0 -0.71076 -0.049544 -0.70169 0.093137
0.17591 0.059084 1.2301 7.2835e-39 260 332 0 0 0 -0.65193 -0.11597 -0.74935 0.047036
0.17735 0.059084 1.2301 6.9147e-39 379 332 0 0 0 -0.63373 -0.13288 -0.76206 0.046044
0.17879 0.059084 1.2301 7.0069e-39 380 332 0 0 0 -0.62287 -0.16575 -0.76456 0.047906
0.16456 0.060584 1.2313 5.8083e-39 159 333 0 0 0 -0.73989 0.0085816 -0.67267 0.086043
0.17549 0.061024 1.2305 7.3142e-39 254.67 333 0 0 0 -0.67284 -0.050505 -0.73806 0.045643
0.17735 0.061244 1.2301 7.7905e-39 298 333 0 0 0 -0.65423 -0.053098 -0.75443 0.042046
0.17879 0.061244 1.2301 7.7905e-39 299 333 0 0 0 -0.63995 -0.071568 -0.76508 0.041477
0.17506 0.062964 1.2309 8.2054e-39 294.33 333.67 0 0 0 -0.68422 0.020228 -0.729 0.042443
0.17735 0.063402 1.2301 8.3898e-39 232 334 0 0 0 -0.66814 0.015276 -0.74388 0.036246
0.17879 0.063402 1.2301 7.9288e-39 233 334 0 0 0 -0.65988 0.0066074 -0.75134 0.033802
0.17464 0.064906 1.2313 6.5459e-39 522 334 0 0 0 -0.6892 0.074594 -0.72072 0.038025
0.17672 0.064874 1.2307 6.4076e-39 523.5 334 0 0 0 -0.68122 0.055275 -0.72999 0.03434
0.17879 0.064841 1.2301 6.3615e-39 525 334 0 0 0 -0.6675 0.041603 -0.74345 0.032705
0.17464 0.066346 1.2313 8.5742e-39 395 335 0 0 0 -0.69414 0.1032 -0.7124 0.034149
0.17672 0.067033 1.2307 6.7764e-39 286 335.5 0 0 0 -0.68347 0.11081 -0.72152 0.029516
0.17879 0.066999 1.2301 6.6381e-39 287.5 335.5 0 0 0 -0.67274 0.094122 -0.73387 0.027796
0.32718 0.067033 1.2307 8.1132e-39 293 336 0 0 0 0.58179 0.10318 -0.80677 0.01614
0.32878 0.067787 1.2313 9.404e-39 425 336 0 0 0 0.53446 0.14204 -0.83317 0.016561
0.17681 0.069227 1.2313 8.9891e-39 433.5 336 0 0 0 -0.69011 0.15796 -0.70625 0.025344
0.17879 0.069158 1.2301 8.7586e-39 435 336 0 0 0 -0.6842 0.13823 -0.71607 0.022877
0.32734 0.069227 1.2313 7.1913e-39 208 337 0 0 0 0.57734 0.1317 -0.80581 0.015248
0.32878 0.069227 1.2313 7.56e-39 209 337 0 0 0 0.55368 0.14933 -0.81923 0.016291
0.17753 0.070668 1.2313 7.1913e-39 229 337 0 0 0 -0.70098 0.1701 -0.6926 0.021534
0.17897 0.070668 1.2313 7.56e-39 230 337 0 0 0 -0.7015 0.15176 -0.69632 0.017789
0.18023 0.070597 1.2301 7.9288e-39 231 337 0 0 0 -0.69825 0.13657 -0.70271 0.015694
0.32558 0.070597 1.2301 5.8083e-39 453 337 0 0 0 0.59204 0.12878 -0.79556 0.012992
0.32734 0.070668 1.2313 5.2552e-39 454 337 0 0 0 0.58654 0.14842 -0.79621 0.014868
0.17897 0.072829 1.2313 7.4218e-39 360.5 337.5 0 0 0 -0.7248 0.154 -0.67153 0.01199
0.18023 0.072756 1.2301 5.67e-39 383 337.5 0 0 0 -0.71746 0.13947 -0.6825 0.011611
0.3227 0.073476 1.2301 6.8225e-39 513 338 0 0 0 0.61225 0.13598 -0.77888 0.010258
0.32502 0.072793 1.2307 6.8917e-39 379 338 0 0 0 0.60209 0.14128 -0.78583 0.012163
0.32989 0.073476 1.2301 8.2054e-39 518 338 0 0 0 0.58734 0.17386 -0.79045 0.015527
0.18023 0.074915 1.2301 8.021e-39 528 338 0 0 0 -0.7338 0.1437 -0.664 0.0086016
0.32126 0.074915 1.2301 6.5459e-39 259 339 0 0 0 0.61553 0.14366 -0.77491 0.009538
0.32302 0.074989 1.2313 6.4537e-39 260 339 0 0 0 0.61125 0.14966 -0.77716 0.010836
0.32989 0.074915 1.2301 7.6522e-39 382 339 0 0 0 0.59566 0.17831 -0.78319 0.015255
0.18041 0.07715 1.2313 6.638e-39 267 339.5 0 0 0 -0.74575 0.14569 -0.65011 0.0073026
0.3191 0.077073 1.2301 8.0211e-39 452.5 339.5 0 0 0 0.61948 0.15149 -0.77026 0.00828
0.32126 0.077073 1.2301 7.8827e-39 454 339.5 0 0 0 0.619 0.1528 -0.77038 0.0090454
0.32302 0.07715 1.2313 7.6983e-39 455 339.5 0 0 0 0.61873 0.1594 -0.76926 0.009698
0.32989 0.077073 1.2301 8.3898e-39 460 339.5 0 0 0 0.6085 0.17624 -0.77374 0.014922
0.18041 0.079311 1.2313 8.3898e-39 400 340 0 0 0 -0.75405 0.13812 -0.64213 0.0058626
0.3191 0.079232 1.2301 8.5281e-39 528.5 340 0 0 0 0.62646 0.16317 -0.76219 0.008209
0.32126 0.079232 1.2301 8.8508e-39 530 340 0 0 0 0.62501 0.16453 -0.76308 0.0082771
0.32302 0.079311 1.2313 9.0352e-39 531 340 0 0 0 0.6216 0.16382 -0.76602 0.0091352
0.32989 0.079232 1.2301 6.2693e-39 138 341 0 0 0 0.61798 0.17916 -0.7655 0.013663
0.18041 0.080751 1.2313 6.0849e-39 149 341 0 0 0 -0.75681 0.13966 -0.63854 0.0052889
0.3191 0.080671 1.2301 8.0671e-39 385.5 341 0 0 0 0.62688 0.16852 -0.76067 0.0077011
0.32126 0.080671 1.2301 8.8508e-39 387 341 0 0 0 0.62528 0.16989 -0.76168 0.0080067
0.32302 0.080751 1.2313 8.6664e-39 388 341 0 0 0 0.62184 0.16749 -0.76502 0.0088186
0.32989 0.080671 1.2301 8.6664e-39 393 341 0 0 0 0.62441 0.17407 -0.76145 0.013496
0.18041 0.082912 1.2313 7.053e-39 277.5 341.5 0 0 0 -0.75805 0.13694 -0.63765 0.0048163
0.31982 0.08283 1.2301 8.2054e-39 454 341.5 0 0 0 0.62738 0.17663 -0.75842 0.0075454
0.32126 0.083549 1.2301 7.6522e-39 382 342 0 0 0 0.62714 0.18 -0.75783 0.0079609
0.32302 0.082912 1.2313 8.2976e-39 456 341.5 0 0 0 0.62742 0.17996 -0.7576 0.0085285
0.18104 0.08503 1.2307 7.6983e-39 398.5 342 0 0 0 -0.7539 0.13901 -0.64211 0.0046148
0.3191 0.084988 1.2301 8.3898e-39 515.5 342 0 0 0 0.62925 0.18603 -0.75461 0.0073617
0.32126 0.084988 1.2301 9.0352e-39 517 342 0 0 0 0.62734 0.18256 -0.75704 0.0076071
0.18104 0.087191 1.2307 7.1913e-39 260.5 343 0 0 0 -0.75142 0.13641 -0.64557 0.0047314
0.31982 0.087147 1.2301 7.7444e-39 362.5 343 0 0 0 0.63119 0.19085 -0.75178 0.0073061
0.32126 0.087147 1.2301 7.7444e-39 363.5 343 0 0 0 0.6326 0.19232 -0.75022 0.0076303
0.18041 0.089395 1.2313 8.021e-39 510 343 0 0 0 -0.74219 0.13224 -0.65702 0.0059364
0.31982 0.089306 1.2301 6.4537e-39 217 344 0 0 0 0.6339 0.19457 -0.74854 0.00668
0.32126 0.089306 1.2301 6.2693e-39 218 344 0 0 0 0.63627 0.1972 -0.74584 0.0074823
0.18023 0.090745 1.2301 8.021e-39 239 344 0 0 0 -0.73672 0.13938 -0.66167 0.0055423
0.31982 0.090745 1.2301 9.5883e-39 453 344 0 0 0 0.63623 0.19869 -0.74547 0.0068593
0.32126 0.090745 1.2301 9.4961e-39 454 344 0 0 0 0.63682 0.20121 -0.74429 0.0067382
0.18071 0.093143 1.2301 5.4088e-39 299 344.67 0 0 0 -0.72976 0.1439 -0.66839 0.0054384
0.3191 0.092903 1.2301 7.2835e-39 311 345 0 0 0 0.63346 0.20424 -0.74633 0.0057484
0.32099 0.093205 1.2309 7.8674e-39 352 345 0 0 0 0.6417 0.20782 -0.73826 0.0062408
0.18095 0.095062 1.2301 9.2196e-39 451.5 345 0 0 0 -0.72789 0.14899 -0.66931 0.0048951
0.18311 0.095062 1.2301 1.0142e-38 453 345 0 0 0 -0.73339 0.15401 -0.66213 0.0040844
0.31838 0.095062 1.2301 6.5459e-39 165 346 0 0 0 0.63135 0.20893 -0.74682 0.0054095
0.32158 0.095157 1.2313 6.0849e-39 167 346 0 0 0 0.64274 0.21753 -0.73455 0.0062093
0.18113 0.096597 1.2313 6.5459e-39 187.5 346 0 0 0 -0.71511 0.14825 -0.68311 0.0063785
0.18311 0.096501 1.2301 6.0849e-39 189 346 0 0 0 -0.73257 0.15316 -0.66324 0.0041411
0.31694 0.09794 1.2301 8.482e-39 517 346 0 0 0 0.63049 0.20624 -0.7483 0.0044136
0.31838 0.096501 1.2301 8.1132e-39 400 346 0 0 0 0.63546 0.20825 -0.74352 0.0050272
0.18185 0.098038 1.2313 8.6664e-39 423 346 0 0 0 -0.71969 0.1494 -0.67803 0.0056463
0.18329 0.098038 1.2313 9.4961e-39 424 346 0 0 0 -0.73056 0.15118 -0.6659 0.0044777
0.18454 0.099379 1.2301 5.9005e-39 150 347 0 0 0 -0.73396 0.14541 -0.66344 0.0050676
0.3155 0.099379 1.2301 7.4678e-39 248 347 0 0 0 0.62529 0.20858 -0.752 0.0047156
0.31726 0.099478 1.2313 7.8366e-39 249 347 0 0 0 0.63674 0.21118 -0.7416 0.0046702
0.3187 0.098038 1.2313 8.5742e-39 518 346 0 0 0 0.64194 0.20791 -0.73803 0.0044476
0.18454 0.10082 1.2301 7.9288e-39 383 347 0 0 0 -0.73518 0.13749 -0.66379 0.0052707
0.3155 0.10082 1.2301 5.7161e-39 478 347 0 0 0 0.62287 0.21317 -0.75272 0.0047472
0.18454 0.10298 1.2301 8.021e-39 368.5 347.5 0 0 0 -0.73741 0.13143 -0.66253 0.0054923
0.3155 0.10298 1.2301 7.1452e-39 320 348 0 0 0 0.62041 0.21738 -0.75355 0.0050062
0.18454 0.10514 1.2301 9.7727e-39 458 348 0 0 0 -0.737 0.12858 -0.66355 0.005804
0.3155 0.10514 1.2301 5.9927e-39 157 349 0 0 0 0.61883 0.22348 -0.75307 0.0054067
0.18454 0.10657 1.2301 5.9005e-39 185 349 0 0 0 -0.73781 0.12542 -0.66325 0.0060186
0.31582 0.10668 1.2313 7.2835e-39 383 349 0 0 0 0.62963 0.22575 -0.74337 0.0051823
0.18515 0.10904 1.2309 7.8981e-39 485.67 349 0 0 0 -0.74008 0.1215 -0.66146 0.0061711
0.31422 0.10879 1.2307 7.7444e-39 361.5 349.5 0 0 0 0.61193 0.23094 -0.75644 0.0054052
0.18598 0.11089 1.2301 7.1913e-39 253 350 0 0 0 -0.74216 0.11397 -0.66046 0.0061001
0.31262 0.11089 1.2301 8.3898e-39 448 350 0 0 0 0.60893 0.22931 -0.75936 0.0052201
0.31438 0.111 1.2313 8.943e-39 449 350 0 0 0 0.61937 0.23537 -0.74898 0.0051605
0.15864 0.11377 1.2301 6.2693e-39 188 351 0 0 0 0.86339 -0.015768 -0.50428 0.050871
0.18598 0.11305 1.2301 7.6522e-39 342 350.5 0 0 0 -0.74254 0.11299 -0.6602 0.0059874
0.31262 0.11305 1.2301 6.4076e-39 291 351 0 0 0 0.61345 0.22886 -0.75585 0.0053238
0.31438 0.11244 1.2313 6.0849e-39 179 351 0 0 0 0.62424 0.2392 -0.74372 0.0050013
0.18598 0.11521 1.2301 7.8366e-39 433 351 0 0 0 -0.74222 0.11806 -0.65968 0.0060377
0.31262 0.11521 1.2301 8.2976e-39 525 351 0 0 0 0.61904 0.2379 -0.74846 0.0054231
0.18536 0.11671 1.2307 6.8686e-39 166.5 352 0 0 0 -0.74365 0.12583 -0.65662 0.006176
0.31294 0.11676 1.2313 6.2693e-39 255 352 0 0 0 0.62717 0.24907 -0.73799 0.0052079
0.18463 0.11887 1.2307 7.3757e-39 460 352 0 0 0 -0.74281 0.13744 -0.65524 0.0062729
0.30975 0.11809 1.2301 7.9288e-39 488 352 0 0 0 0.61744 0.23922 -0.74936 0.0058039
0.31092 0.11913 1.2309 6.5766e-39 310.67 352.67 0 0 0 0.62643 0.25417 -0.73688 0.0057039
0.1588 0.12109 1.2313 6.6381e-39 232 353 0 0 0 0.89525 0.069046 -0.44018 0.047754
0.18536 0.12103 1.2307 6.6842e-39 250.5 353 0 0 0 -0.73998 0.15276 -0.65505 0.0068043
0.30831 0.12097 1.2301 8.2054e-39 452 353 0 0 0 0.63354 0.24396 -0.73424 0.006496
0.18536 0.12319 1.2307 7.3296e-39 349 353.5 0 0 0 -0.74075 0.17031 -0.64984 0.0069904
0.30861 0.12325 1.2313 6.4537e-39 295.5 354 0 0 0 0.64953 0.24145 -0.72098 0.0060302
0.18598 0.12528 1.2301 7.9288e-39 440 354 0 0 0 -0.73732 0.18422 -0.64994 0.0069086
0.18742 0.12528 1.2301 7.7444e-39 441 354 0 0 0 -0.73601 0.18496 -0.65122 0.0066818
0.30687 0.12528 1.2301 5.7161e-39 142 355 0 0 0 0.65843 0.22977 -0.71671 0.006218
0.18598 0.12672 1.2301 5.9005e-39 174 355 0 0 0 -0.73499 0.19686 -0.64888 0.006889
0.18742 0.12672 1.2301 5.7161e-39 175 355 0 0 0 -0.73424 0.19497 -0.65029 0.0066005
0.18684 0.12898 1.231 8.7816e-39 456.5 355 0 0 0 -0.73206 0.21661 -0.64588 0.0063355
0.18886 0.12888 1.2301 8.8047e-39 458 355 0 0 0 -0.72917 0.21609 -0.64932 0.0058512
0.1903 0.1296 1.2301 8.1132e-39 521 355 0 0 0 -0.72804 0.22372 -0.64801 0.0057177
0.30399 0.1296 1.2301 6.8225e-39 215 356 0 0 0 0.67741 0.19591 -0.70904 0.0058969
0.30558 0.12894 1.2307 7.6983e-39 347.5 355.5 0 0 0 0.674 0.21136 -0.70785 0.0059258
0.18761 0.13117 1.2313 7.7444e-39 251 356 0 0 0 -0.72778 0.23564 -0.64405 0.0055471
0.18905 0.13117 1.2313 7.2835e-39 252 356 0 0 0 -0.72822 0.23492 -0.64382 0.0053978
0.19102 0.13104 1.2301 6.3154e-39 253.5 356 0 0 0 -0.72031 0.23683 -0.65197 0.0050399
0.30399 0.13104 1.2301 8.6664e-39 433 356 0 0 0 0.68249 0.1903 -0.70569 0.005792
0.30573 0.13117 1.2313 8.2054e-39 437 356 0 0 0 0.6825 0.19594 -0.70413 0.0055575
0.19112 0.13254 1.2307 8.021e-39 474.5 356 0 0 0 -0.72055 0.24321 -0.64935 0.0047752
0.19318 0.1332 1.2301 7.8366e-39 350.5 356.5 0 0 0 -0.71885 0.24617 -0.65012 0.0046441
0.30429 0.13261 1.2313 6.0849e-39 175 357 0 0 0 0.68754 0.17983 -0.70353 0.0052871
0.19193 0.13477 1.2313 8.0671e-39 335 357 0 0 0 -0.71957 0.25315 -0.64663 0.0044179
0.19337 0.13549 1.2313 8.482e-39 447 357 0 0 0 -0.72007 0.25265 -0.64628 0.0043369
0.30429 0.13477 1.2313 6.8224e-39 274.5 357.5 0 0 0 0.69522 0.16656 -0.69923 0.0047671
0.19193 0.13693 1.2313 6.3615e-39 195 358 0 0 0 -0.72118 0.25158 -0.64545 0.0042561
0.19337 0.13693 1.2313 6.7303e-39 196 358 0 0 0 -0.72185 0.24998 -0.64532 0.0043278
0.19462 0.1368 1.2301 6.2693e-39 197 358 0 0 0 -0.72253 0.24796 -0.64534 0.0044723
0.30429 0.13693 1.2313 7.56e-39 376 358 0 0 0 0.6985 0.15568 -0.69847 0.0041821
0.19193 0.13837 1.2313 7.4678e-39 414 358 0 0 0 -0.72168 0.24782 -0.64635 0.0042109
0.19337 0.13837 1.2313 7.4678e-39 415 358 0 0 0 -0.72289 0.24535 -0.64594 0.0042343
0.19462 0.13895 1.2301 7.2374e-39 287 358.5 0 0 0 -0.72542 0.24584 -0.64291 0.0043392
0.30429 0.13909 1.2313 7.9749e-39 376 358.5 0 0 0 0.69929 0.15446 -0.69795 0.0038442
0.19462 0.14111 1.2301 7.9288e-39 384 359 0 0 0 -0.72777 0.24305 -0.64131 0.0041419
0.30429 0.14125 1.2313 7.8366e-39 472 359 0 0 0 0.69618 0.15858 -0.70013 0.0040187
0.19462 0.14327 1.2301 7.2374e-39 392 359.5 0 0 0 -0.73004 0.23828 -0.64052 0.0041642
0.30399 0.14255 1.2301 5.8083e-39 227 360 0 0 0 0.69245 0.16089 -0.7033 0.004328
0.19481 0.14558 1.2313 8.7586e-39 480 360 0 0 0 -0.73215 0.2233 -0.6435 0.003735
0.30429 0.14486 1.2313 7.7905e-39 328.5 360.5 0 0 0 0.69264 0.16366 -0.70247 0.0046951
0.19481 0.14702 1.2313 5.9927e-39 243 361 0 0 0 -0.73327 0.21763 -0.64417 0.0037012
0.30255 0.14687 1.2301 7.7444e-39 421 361 0 0 0 0.68412 0.17295 -0.70857 0.0051696
0.19481 0.14918 1.2313 8.0672e-39 339 361.5 0 0 0 -0.73385 0.20972 -0.64613 0.0037157
0.3027 0.14911 1.2307 7.4218e-39 280.5 362 0 0 0 0.67987 0.18747 -0.70896 0.005521
0.19481 0.15134 1.2313 8.8508e-39 424 362 0 0 0 -0.73578 0.20152 -0.64654 0.0034574
0.19606 0.15119 1.2301 8.2976e-39 425 362 0 0 0 -0.73683 0.20225 -0.64512 0.0033609
0.30111 0.15119 1.2301 7.7444e-39 504 362 0 0 0 0.66547 0.21812 -0.71384 0.0047897
0.30285 0.15134 1.2313 7.56e-39 505 362 0 0 0 0.67353 0.20771 -0.70937 0.0054317
0.19678 0.15263 1.2301 5.8544e-39 160.5 363 0 0 0 -0.73724 0.20231 -0.64463 0.0032738
0.30111 0.15263 1.2301 6.6381e-39 251 363 0 0 0 0.66131 0.23216 -0.71328 0.0046071
0.19715 0.15465 1.2309 8.7279e-39 414 363 0 0 0 -0.73529 0.20292 -0.64666 0.0034598
0.29982 0.15486 1.2307 7.6061e-39 324.5 363.5 0 0 0 0.65547 0.25561 -0.71065 0.0040296
0.30141 0.15422 1.2313 8.8508e-39 454 363 0 0 0 0.66245 0.24229 -0.70884 0.0046593
0.29823 0.15694 1.2301 7.9288e-39 392 364 0 0 0 0.64795 0.27526 -0.7102 0.0039786
0.19894 0.1591 1.2301 8.9889e-39 469.5 364 0 0 0 -0.73339 0.22041 -0.64309 0.0039293
0.29679 0.15982 1.2301 5.8083e-39 235 365 0 0 0 0.6345 0.30967 -0.70817 0.0037094
0.29853 0.15926 1.2313 6.9607e-39 364.5 364.5 0 0 0 0.64558 0.3035 -0.7008 0.0035829
0.19894 0.16126 1.2301 6.3615e-39 247 365 0 0 0 -0.73102 0.22639 -0.64371 0.0042163
0.20314 0.041941 1.2337 7.2835e-39 397.5 324 0 0 0 0.043398 -0.88196 -0.46933 0.010125
0.20737 0.04192 1.2331 6.7303e-39 400.5 324 0 0 0 0.074002 -0.87836 -0.47223 0.016143
0.24548 0.041899 1.2325 4.7942e-39 427 324 0 0 0 -0.046722 -0.91261 -0.40615 0.0086169
0.25438 0.041941 1.2337 1.2446e-38 433 324 0 0 0 0.013799 -0.9089 -0.41678 0.0047791
0.2717 0.041941 1.2337 5.9005e-39 151 325 0 0 0 -0.099468 -0.90176 -0.42065 0.0055177
0.27576 0.041899 1.2325 5.9005e-39 159 325 0 0 0 -0.1115 -0.89515 -0.4316 0.0060474
0.28095 0.041198 1.2331 6.7764e-39 203 324.5 0 0 0 -0.10002 -0.89146 -0.44193 0.0067007
0.28441 0.040457 1.2325 5.9927e-39 246 324 0 0 0 -0.061055 -0.89566 -0.44053 0.0073636
0.28874 0.040457 1.2325 6.9147e-39 249 324 0 0 0 -0.020256 -0.90552 -0.42383 0.0083677
0.29018 0.040457 1.2325 6.7303e-39 250 324 0 0 0 -0.018161 -0.90565 -0.42365 0.0081593
0.29595 0.040457 1.2325 6.8225e-39 254 324 0 0 0 0.024546 -0.90781 -0.41865 0.0087416
0.29768 0.040497 1.2337 6.9147e-39 255 324 0 0 0 0.036327 -0.90755 -0.41837 0.0089547
0.29883 0.040457 1.2325 7.7444e-39 256 324 0 0 0 0.045871 -0.90238 -0.42849 0.010791
0.30171 0.041899 1.2325 6.4537e-39 183 325 0 0 0 0.094894 -0.88718 -0.45157 0.016704
0.30315 0.041899 1.2325 6.1771e-39 184 325 0 0 0 0.11945 -0.8782 -0.46313 0.019213
0.31501 0.041941 1.2337 7.56e-39 192 325 0 0 0 0.31909 -0.78214 -0.5352 0.045266
0.31613 0.041899 1.2325 7.4678e-39 193 325 0 0 0 0.33561 -0.76855 -0.5447 0.044341
0.19294 0.043362 1.2331 7.56e-39 210.5 325 0 0 0 -0.2 -0.8163 -0.54189 0.018198
0.19501 0.043341 1.2325 7.9288e-39 212 325 0 0 0 -0.15949 -0.83278 -0.53014 0.017364
0.19645 0.043341 1.2325 7.6522e-39 213 325 0 0 0 -0.12574 -0.84217 -0.52434 0.015968
0.19871 0.043362 1.2331 7.4218e-39 214.5 325 0 0 0 -0.045699 -0.86158 -0.50557 0.013739
0.20077 0.043341 1.2325 7.1913e-39 216 325 0 0 0 -0.0081343 -0.86891 -0.4949 0.012019
0.20222 0.043341 1.2325 7.0991e-39 217 325 0 0 0 0.026774 -0.8719 -0.48896 0.010403
0.20531 0.043384 1.2337 7.7444e-39 219 325 0 0 0 0.049454 -0.87527 -0.4811 0.01662
0.20964 0.043384 1.2337 6.4537e-39 222 325 0 0 0 0.087648 -0.87368 -0.47854 0.017834
0.21108 0.043384 1.2337 5.9927e-39 223 325 0 0 0 0.11218 -0.87393 -0.47293 0.017065
0.2385 0.043384 1.2337 6.7303e-39 242 325 0 0 0 -0.10978 -0.91476 -0.38879 0.0063494
0.24908 0.043341 1.2325 7.053e-39 249.5 325 0 0 0 -0.0074652 -0.91154 -0.41115 0.0072106
0.25124 0.043341 1.2325 7.2835e-39 251 325 0 0 0 0.01028 -0.90875 -0.41722 0.0053591
0.25294 0.043384 1.2337 7.2835e-39 252 325 0 0 0 0.0098297 -0.9085 -0.41776 0.0052023
0.25583 0.043384 1.2337 6.5459e-39 254 325 0 0 0 0.010886 -0.90799 -0.41885 0.0047963
0.26737 0.043384 1.2337 6.6381e-39 380 325 0 0 0 -0.079395 -0.90877 -0.40968 0.0055231
0.26882 0.043384 1.2337 6.9147e-39 381 325 0 0 0 -0.086071 -0.90714 -0.41193 0.0054787
0.27287 0.043341 1.2325 6.6381e-39 384 325 0 0 0 -0.10128 -0.90051 -0.42288 0.0058451
0.27432 0.043341 1.2325 6.3615e-39 385 325 0 0 0 -0.10431 -0.89665 -0.43028 0.0060279
0.30604 0.043341 1.2325 6.9147e-39 407 325 0 0 0 0.18092 -0.84137 -0.50928 0.028105
0.30923 0.043384 1.2337 6.3615e-39 409 325 0 0 0 0.22804 -0.81821 -0.52776 0.03631
0.31124 0.043362 1.2331 7.0991e-39 410.5 325 0 0 0 0.2792 -0.79334 -0.54098 0.042848
0.18221 0.044827 1.2337 5.2552e-39 426 325 0 0 0 -0.40468 -0.70476 -0.5827 0.029209
0.18635 0.044783 1.2325 4.4254e-39 427 325 0 0 0 -0.34971 -0.73035 -0.58676 0.027776
0.19087 0.044827 1.2337 6.9147e-39 430 325 0 0 0 -0.26793 -0.78308 -0.56124 0.022132
0.2051 0.044783 1.2325 5.9005e-39 143 326 0 0 0 0.049851 -0.87985 -0.47264 0.0094523
0.25701 0.044783 1.2325 7.3757e-39 193 326 0 0 0 0.0071114 -0.90849 -0.41785 0.0051425
0.25871 0.044827 1.2337 7.3757e-39 194 326 0 0 0 -0.0077796 -0.91034 -0.41379 0.0058142
0.26075 0.044805 1.2331 7.6061e-39 195.5 326 0 0 0 -0.024076 -0.91166 -0.41025 0.0060414
0.26304 0.044827 1.2337 7.3757e-39 203 326 0 0 0 -0.042257 -0.91153 -0.40905 0.0059482
0.26593 0.044827 1.2337 7.7444e-39 205 326 0 0 0 -0.064978 -0.91058 -0.40818 0.0056254
0.18077 0.046271 1.2337 7.2835e-39 256 326 0 0 0 -0.43538 -0.64822 -0.6247 0.035493
0.21375 0.046225 1.2325 7.4678e-39 397 326 0 0 0 0.11553 -0.88849 -0.44412 0.014488
0.21519 0.046225 1.2325 7.1913e-39 398 326 0 0 0 0.11778 -0.89349 -0.43337 0.014422
0.21974 0.046271 1.2337 6.4537e-39 401 326 0 0 0 0.081345 -0.90714 -0.4129 0.015967
0.2284 0.047714 1.2337 7.0069e-39 243 327 0 0 0 -0.068932 -0.92918 -0.36314 0.00825
0.23129 0.047714 1.2337 7.1913e-39 245 327 0 0 0 -0.10303 -0.92504 -0.36563 0.0060731
0.23334 0.046248 1.2331 6.9147e-39 410.5 326 0 0 0 -0.10676 -0.92285 -0.37007 0.0057278
0.26422 0.046225 1.2325 1.0049e-38 433 326 0 0 0 -0.053177 -0.91306 -0.40435 0.0060378
0.17788 0.049158 1.2337 8.5742e-39 434 327 0 0 0 -0.48303 -0.56804 -0.66634 0.048805
0.17915 0.049109 1.2325 9.404e-39 435 327 0 0 0 -0.4723 -0.5768 -0.6665 0.046076
0.17698 0.050551 1.2325 7.1913e-39 390.5 328 0 0 0 -0.52488 -0.47244 -0.70803 0.050831
0.17499 0.053488 1.2337 5.0708e-39 529 329 0 0 0 -0.61242 -0.32023 -0.72277 0.061601
0.16922 0.054931 1.2337 7.7444e-39 385 330 0 0 0 -0.70908 -0.21941 -0.67012 0.075473
0.17066 0.054931 1.2337 7.1913e-39 386 330 0 0 0 -0.70542 -0.22491 -0.67215 0.073348
0.17283 0.054931 1.2337 7.053e-39 387.5 330 0 0 0 -0.67647 -0.23871 -0.69671 0.066417
0.17482 0.054876 1.2325 7.0069e-39 389 330 0 0 0 -0.62849 -0.28231 -0.72478 0.060898
0.16905 0.057039 1.2325 6.8224e-39 313 331 0 0 0 -0.71708 -0.15019 -0.68062 0.071253
0.17121 0.057039 1.2325 6.2693e-39 314.5 331 0 0 0 -0.70002 -0.1551 -0.69708 0.066428
0.17338 0.057039 1.2325 5.7161e-39 316 331 0 0 0 -0.6823 -0.16436 -0.71236 0.060047
0.17482 0.057039 1.2325 5.624e-39 317 331 0 0 0 -0.67022 -0.17028 -0.72236 0.057997
0.16689 0.059202 1.2325 6.4537e-39 253.5 332 0 0 0 -0.74743 -0.074333 -0.66017 0.076951
0.16922 0.059262 1.2337 7.0069e-39 255 332 0 0 0 -0.7403 -0.085109 -0.66687 0.069896
0.17066 0.059262 1.2337 7.6522e-39 256 332 0 0 0 -0.73142 -0.08695 -0.67636 0.064754
0.17275 0.059232 1.2331 7.8827e-39 257.5 332 0 0 0 -0.71117 -0.083387 -0.69806 0.059205
0.17482 0.059202 1.2325 7.6522e-39 259 332 0 0 0 -0.69544 -0.094277 -0.71238 0.05366
0.16705 0.060705 1.2337 5.8544e-39 163 333 0 0 0 -0.75942 -0.013402 -0.65047 0.071867
0.17066 0.060705 1.2337 5.7161e-39 167 333 0 0 0 -0.74372 -0.041269 -0.66722 0.062951
0.17283 0.060705 1.2337 6.1771e-39 168.5 333 0 0 0 -0.73331 -0.036387 -0.67892 0.05772
0.16778 0.062148 1.2337 8.482e-39 417 333 0 0 0 -0.75508 0.030729 -0.65491 0.065791
0.17066 0.062148 1.2337 8.3898e-39 419 333 0 0 0 -0.73586 0.019736 -0.67685 0.056363
0.17283 0.06287 1.2337 7.8366e-39 324.5 333.5 0 0 0 -0.72944 0.029832 -0.6834 0.050162
0.17482 0.067854 1.2325 6.5459e-39 171 336 0 0 0 -0.7 0.14362 -0.69956 0.032021
0.17482 0.069296 1.2325 9.6805e-39 432 336 0 0 0 -0.70065 0.17343 -0.6921 0.028408
0.17482 0.070738 1.2325 7.56e-39 216 337 0 0 0 -0.70423 0.193 -0.68324 0.024649
0.17626 0.070738 1.2325 7.0991e-39 228 337 0 0 0 -0.70529 0.18114 -0.68539 0.022433
0.32911 0.070738 1.2325 4.9786e-39 455 337 0 0 0 0.52608 0.18565 -0.82992 0.015802
0.17499 0.072974 1.2337 8.1593e-39 357.5 337.5 0 0 0 -0.72428 0.20141 -0.65944 0.019259
0.17702 0.07292 1.2328 8.2286e-39 359 337.5 0 0 0 -0.72229 0.18411 -0.66663 0.016443
0.32767 0.07218 1.2325 6.7303e-39 245 338 0 0 0 0.58793 0.16485 -0.79193 0.014981
0.32944 0.072974 1.2337 7.9288e-39 381.5 338 0 0 0 0.56153 0.19257 -0.80474 0.016918
0.17716 0.075139 1.2337 8.2054e-39 525.5 338 0 0 0 -0.74436 0.17631 -0.64408 0.011371
0.17915 0.075064 1.2325 8.1132e-39 527 338 0 0 0 -0.74237 0.1567 -0.65141 0.0085932
0.32478 0.075064 1.2325 8.2976e-39 378 339 0 0 0 0.61202 0.15918 -0.77466 0.012096
0.32623 0.075064 1.2325 7.6522e-39 379 339 0 0 0 0.60827 0.16271 -0.77687 0.012961
0.17788 0.076583 1.2337 7.3757e-39 390 339 0 0 0 -0.75235 0.16084 -0.63883 0.0087495
0.17915 0.077227 1.2325 6.592e-39 266 339.5 0 0 0 -0.74975 0.15184 -0.64407 0.0074133
0.32478 0.077227 1.2325 7.9749e-39 456 339.5 0 0 0 0.61988 0.16435 -0.76729 0.010943
0.32655 0.076583 1.2337 8.021e-39 528 339 0 0 0 0.61404 0.17116 -0.77049 0.013065
0.17788 0.078026 1.2337 6.0849e-39 140 340 0 0 0 -0.75881 0.15451 -0.63272 0.00768
0.17915 0.07939 1.2325 8.021e-39 399 340 0 0 0 -0.75607 0.14527 -0.63817 0.0064211
0.32478 0.07939 1.2325 8.5742e-39 532 340 0 0 0 0.62125 0.16757 -0.76548 0.009978
0.32655 0.078747 1.2337 8.3437e-39 459.5 340 0 0 0 0.621 0.17283 -0.76452 0.012468
0.17915 0.080832 1.2325 5.9005e-39 148 341 0 0 0 -0.75923 0.14042 -0.6355 0.0054767
0.32478 0.080832 1.2325 8.021e-39 389 341 0 0 0 0.6281 0.17665 -0.75782 0.0097647
0.32655 0.080913 1.2337 7.56e-39 390 341 0 0 0 0.63173 0.17936 -0.75415 0.011407
0.17915 0.082995 1.2325 6.7764e-39 276 341.5 0 0 0 -0.75632 0.13674 -0.63975 0.0056494
0.32511 0.083078 1.2337 8.5742e-39 457 341.5 0 0 0 0.63656 0.18745 -0.7481 0.010012
0.17932 0.085243 1.2337 7.56e-39 397 342 0 0 0 -0.75585 0.1273 -0.64225 0.0067708
0.32334 0.085158 1.2325 9.0352e-39 518 342 0 0 0 0.63504 0.1921 -0.74821 0.0086394
0.32334 0.0866 1.2325 7.8366e-39 250 343 0 0 0 0.63855 0.19723 -0.74388 0.0088068
0.17932 0.088851 1.2337 8.1593e-39 444 343 0 0 0 -0.73763 0.11546 -0.66526 0.0084781
0.32334 0.088763 1.2325 6.4998e-39 349 343.5 0 0 0 0.64182 0.19973 -0.74038 0.0082633
0.17915 0.090926 1.2325 7.8366e-39 238 344 0 0 0 -0.73066 0.11971 -0.67217 0.0081154
0.32334 0.090926 1.2325 8.7586e-39 455 344 0 0 0 0.65056 0.20391 -0.73157 0.0079182
0.17923 0.093136 1.2331 5.3473e-39 341 344.5 0 0 0 -0.72009 0.12342 -0.68281 0.0090774
0.3235 0.093136 1.2331 7.3757e-39 313.5 345 0 0 0 0.65399 0.21282 -0.72595 0.0070582
0.17932 0.095347 1.2337 9.0352e-39 450 345 0 0 0 -0.69988 0.13299 -0.70177 0.011228
0.32046 0.095252 1.2325 6.4537e-39 166 346 0 0 0 0.64489 0.21416 -0.73366 0.0057443
0.32046 0.096694 1.2325 8.482e-39 401 346 0 0 0 0.64594 0.21526 -0.73241 0.0054565
0.32222 0.09679 1.2337 7.8366e-39 402 346 0 0 0 0.65502 0.21908 -0.72316 0.0055284
0.18068 0.098907 1.2331 7.4218e-39 284.5 346.5 0 0 0 -0.70715 0.14617 -0.69179 0.0079918
0.18275 0.099578 1.2325 5.9005e-39 148.5 347 0 0 0 -0.71806 0.14447 -0.68083 0.0064843
0.31902 0.099578 1.2325 8.1132e-39 250 347 0 0 0 0.64705 0.21198 -0.73239 0.004526
0.32078 0.098234 1.2337 8.482e-39 519 346 0 0 0 0.6549 0.21356 -0.72491 0.0043354
0.18077 0.10112 1.2337 8.021e-39 380 347 0 0 0 -0.69715 0.14207 -0.70271 0.010786
0.18275 0.10102 1.2325 7.9749e-39 381.5 347 0 0 0 -0.71964 0.13832 -0.68043 0.0070678
0.31757 0.10102 1.2325 5.3473e-39 479 347 0 0 0 0.64541 0.21226 -0.73375 0.0044468
0.31902 0.10102 1.2325 5.3473e-39 480 347 0 0 0 0.64855 0.21423 -0.73041 0.0044937
0.18275 0.10318 1.2325 8.2515e-39 367 347.5 0 0 0 -0.72008 0.13255 -0.68111 0.0072778
0.31757 0.10318 1.2325 7.7444e-39 321 348 0 0 0 0.64361 0.21897 -0.73336 0.0046337
0.31902 0.10318 1.2325 7.9288e-39 322 348 0 0 0 0.64959 0.21845 -0.72822 0.0044404
0.18284 0.1054 1.2331 9.0352e-39 456.5 348 0 0 0 -0.7198 0.13249 -0.68142 0.0077454
0.31757 0.10535 1.2325 5.7161e-39 161 349 0 0 0 0.64376 0.2243 -0.73162 0.0047002
0.31934 0.10545 1.2337 5.8083e-39 162 349 0 0 0 0.65238 0.22575 -0.72349 0.0043058
0.18293 0.10689 1.2337 5.9927e-39 183.5 349 0 0 0 -0.71987 0.1305 -0.68173 0.0083695
0.31789 0.10689 1.2337 7.1913e-39 384 349 0 0 0 0.65062 0.22927 -0.72397 0.0042475
0.18365 0.10834 1.2337 6.8225e-39 407 349 0 0 0 -0.72764 0.12813 -0.67389 0.0078668
0.31629 0.10901 1.2331 7.6522e-39 362.5 349.5 0 0 0 0.64212 0.23392 -0.73004 0.0045835
0.18491 0.11111 1.2325 7.2835e-39 252 350 0 0 0 -0.73991 0.11834 -0.66222 0.0062636
0.31645 0.11122 1.2337 9.3118e-39 450 350 0 0 0 0.64475 0.237 -0.72672 0.0044876
