# .PCD v.7 - Point Cloud Data file format
VERSION .7
FIELDS x y z rgb u v vx vy vz normal_x normal_y normal_z curvature
SIZE 4 4 4 4 4 4 4 4 4 4 4 4 4
TYPE F F F F F F F F F F F F F
COUNT 1 1 1 1 1 1 1 1 1 1 1 1 1
WIDTH 563
HEIGHT 1
VIEWPOINT 0 0 0 1 0 0 0
POINTS 563
DATA ascii
-0.14736 0.098064 1.25 5.8083e-39 385 345 0 0 0 0.31521 0.34029 -0.88591 0.022182
-0.16036 0.10089 1.2487 6.8225e-39 229 346 0 0 0 -0.23307 0.43223 -0.87112 0.047645
-0.1589 0.10089 1.2487 6.8225e-39 230 346 0 0 0 -0.19496 0.42229 -0.88525 0.049565
-0.15744 0.10089 1.2487 6.8225e-39 231 346 0 0 0 -0.093711 0.42101 -0.9022 0.049491
-0.15451 0.10089 1.2487 7.3757e-39 233 346 0 0 0 0.036516 0.39601 -0.91752 0.047545
-0.15305 0.10089 1.2487 7.3757e-39 234 346 0 0 0 0.091263 0.39193 -0.91546 0.044908
-0.15093 0.10094 1.2494 7.053e-39 235.5 346 0 0 0 0.18741 0.38107 -0.90535 0.03854
-0.14882 0.10099 1.25 6.7303e-39 237 346 0 0 0 0.26483 0.35496 -0.89659 0.029527
-0.16052 0.10245 1.25 7.0991e-39 452 346 0 0 0 -0.2715 0.44186 -0.85502 0.047553
-0.15906 0.10245 1.25 7.6522e-39 453 346 0 0 0 -0.21321 0.43808 -0.87328 0.047121
-0.1576 0.10245 1.25 7.6522e-39 454 346 0 0 0 -0.13008 0.4342 -0.89138 0.048608
-0.1551 0.1029 1.2496 7.3449e-39 376.67 346.33 0 0 0 -0.0082235 0.42085 -0.90709 0.05026
-0.15313 0.10313 1.2494 7.1913e-39 338.5 346.5 0 0 0 0.086747 0.40057 -0.91215 0.045651
-0.15101 0.10245 1.25 8.5742e-39 458.5 346 0 0 0 0.17837 0.38193 -0.90682 0.040096
-0.16507 0.043999 1.2512 6.9147e-39 456 323 0 0 0 -0.42073 -0.73418 -0.53289 0.036756
-0.16288 0.043999 1.2512 6.9608e-39 457.5 323 0 0 0 -0.33806 -0.77192 -0.53838 0.034582
-0.15922 0.043999 1.2512 5.4395e-39 166 324 0 0 0 -0.23677 -0.80649 -0.54177 0.029937
-0.14312 0.042535 1.2512 7.2835e-39 235 323 0 0 0 0.12875 -0.80799 -0.57496 0.032294
-0.14092 0.042535 1.2512 7.56e-39 236.5 323 0 0 0 0.14993 -0.78775 -0.59747 0.035665
-0.13872 0.042535 1.2512 7.8366e-39 238 323 0 0 0 0.18404 -0.76167 -0.62128 0.037646
-0.1358 0.043999 1.2512 6.0849e-39 205 324 0 0 0 0.25583 -0.67205 -0.69491 0.045385
-0.13287 0.045463 1.2512 5.9005e-39 436 324 0 0 0 0.31122 -0.60283 -0.73467 0.049966
-0.1314 0.045463 1.2512 5.9005e-39 437 324 0 0 0 0.33674 -0.56705 -0.75171 0.049788
-0.12994 0.045463 1.2512 6.1771e-39 438 324 0 0 0 0.36234 -0.53549 -0.76287 0.049217
-0.12701 0.045463 1.2512 6.3615e-39 440 324 0 0 0 0.39889 -0.49989 -0.76877 0.049677
-0.16947 0.046927 1.2512 9.6805e-39 213 325 0 0 0 -0.60325 -0.57375 -0.55399 0.045022
-0.12482 0.046927 1.2512 8.5281e-39 243.5 325 0 0 0 0.44173 -0.4174 -0.79414 0.048146
-0.17093 0.049855 1.2512 8.2054e-39 240 326 0 0 0 -0.70208 -0.42318 -0.57272 0.044423
-0.12262 0.048391 1.2512 3.6878e-39 204 326 0 0 0 0.48272 -0.32451 -0.81343 0.04501
-0.17093 0.051319 1.2512 3.8722e-39 204 327 0 0 0 -0.73494 -0.35721 -0.57643 0.040845
-0.12409 0.051319 1.2512 8.7586e-39 236 327 0 0 0 0.49902 -0.20614 -0.84172 0.040233
-0.12262 0.052783 1.2512 5.2552e-39 211 328 0 0 0 0.52331 -0.13512 -0.84136 0.035378
-0.12409 0.054978 1.2512 6.131e-39 426.5 328.5 0 0 0 0.52492 -0.067031 -0.84851 0.032126
-0.12262 0.054247 1.2512 6.1771e-39 461 328 0 0 0 0.53236 -0.07962 -0.84276 0.031431
-0.12409 0.057174 1.2512 6.3615e-39 210 330 0 0 0 0.53582 0.0081089 -0.84429 0.024622
-0.12482 0.058638 1.2512 6.4998e-39 456.5 330 0 0 0 0.53212 0.049629 -0.84521 0.019649
-0.12848 0.060834 1.2512 7.1913e-39 191 331.5 0 0 0 0.51325 0.07801 -0.85469 0.017072
-0.12555 0.060834 1.2512 7.2835e-39 193 331.5 0 0 0 0.53538 0.094194 -0.83934 0.015057
-0.17093 0.06303 1.2512 8.482e-39 221 332 0 0 0 -0.76593 0.064766 -0.63965 0.020562
-0.12848 0.06303 1.2512 5.9005e-39 396 332 0 0 0 0.51571 0.1354 -0.846 0.011512
-0.12555 0.06303 1.2512 6.1771e-39 398 332 0 0 0 0.53957 0.14345 -0.82963 0.010123
-0.17093 0.065226 1.2512 5.7622e-39 270.5 333 0 0 0 -0.76206 0.12287 -0.63574 0.019248
-0.12848 0.065226 1.2512 7.053e-39 356.5 333 0 0 0 0.51926 0.19122 -0.83295 0.008417
-0.12555 0.064494 1.2512 7.0991e-39 212 333 0 0 0 0.54246 0.18242 -0.82003 0.0072825
-0.17093 0.067422 1.2512 7.7444e-39 217 334 0 0 0 -0.74242 0.15679 -0.65133 0.021921
-0.12848 0.067422 1.2512 5.4395e-39 389 334 0 0 0 0.52001 0.22212 -0.82477 0.007261
-0.17093 0.068885 1.2512 7.9288e-39 504 334 0 0 0 -0.73073 0.174 -0.66013 0.022344
-0.12994 0.068885 1.2512 7.0069e-39 208 335 0 0 0 0.50825 0.24135 -0.8267 0.007492
-0.12701 0.068885 1.2512 7.2835e-39 210 335 0 0 0 0.53482 0.23686 -0.81108 0.0065206
-0.17093 0.070349 1.2512 6.0849e-39 392 335 0 0 0 -0.7144 0.18127 -0.67585 0.023245
-0.12994 0.070349 1.2512 5.5317e-39 472 335 0 0 0 0.50924 0.25331 -0.8225 0.0074527
-0.16947 0.073277 1.2512 6.2693e-39 478 336 0 0 0 -0.68486 0.18745 -0.70415 0.029775
-0.16947 0.074741 1.2512 7.0991e-39 236 337 0 0 0 -0.68219 0.18652 -0.70698 0.029744
-0.1314 0.074741 1.2512 7.0991e-39 432 337 0 0 0 0.49862 0.28633 -0.81816 0.0071304
-0.13287 0.076937 1.2512 6.8685e-39 335 338 0 0 0 0.48966 0.29607 -0.82011 0.0068305
-0.1314 0.076937 1.2512 6.9146e-39 336 338 0 0 0 0.50228 0.29703 -0.81209 0.0065028
-0.13287 0.079133 1.2512 7.6522e-39 224 339 0 0 0 0.48726 0.30732 -0.81739 0.0063927
-0.168 0.080597 1.2512 7.0069e-39 438 339 0 0 0 -0.64428 0.19131 -0.74048 0.035289
-0.13433 0.080597 1.2512 5.6239e-39 472 339 0 0 0 0.48046 0.30759 -0.82131 0.0063282
-0.168 0.082792 1.2512 6.3615e-39 327.5 340 0 0 0 -0.63973 0.19738 -0.74282 0.035714
-0.1358 0.08206 1.2512 6.9147e-39 234 340 0 0 0 0.47355 0.30853 -0.82496 0.0065745
-0.168 0.084988 1.2512 8.2054e-39 215 341 0 0 0 -0.63303 0.2072 -0.74588 0.036308
-0.13872 0.084988 1.2512 6.9147e-39 236 341 0 0 0 0.46082 0.30184 -0.83458 0.0077077
-0.13726 0.084988 1.2512 6.9147e-39 237 341 0 0 0 0.47117 0.30602 -0.82726 0.0067417
-0.168 0.086452 1.2512 6.5459e-39 436 341 0 0 0 -0.64501 0.22293 -0.73094 0.035303
-0.14116 0.08694 1.2512 7.0684e-39 379.33 341.33 0 0 0 0.44488 0.29056 -0.84715 0.0091505
-0.13726 0.086452 1.2512 6.2693e-39 462 341 0 0 0 0.48018 0.30764 -0.82145 0.0062131
-0.14165 0.08938 1.2512 6.6381e-39 446 342 0 0 0 0.44197 0.29703 -0.84643 0.0093289
-0.16654 0.090844 1.2512 5.8083e-39 199 343 0 0 0 -0.58687 0.26551 -0.76491 0.03908
-0.14312 0.090844 1.2512 8.021e-39 215 343 0 0 0 0.42545 0.29982 -0.85387 0.010294
-0.16654 0.092308 1.2512 5.8083e-39 403 343 0 0 0 -0.59152 0.29214 -0.7515 0.037295
-0.14458 0.09304 1.2512 6.3615e-39 315 343.5 0 0 0 0.39528 0.30972 -0.86477 0.012412
-0.14312 0.092308 1.2512 6.6381e-39 433 343 0 0 0 0.42949 0.30506 -0.84999 0.0097272
-0.14604 0.095235 1.2512 5.9005e-39 403 344 0 0 0 0.35618 0.3249 -0.87612 0.01674
-0.14604 0.096699 1.2512 6.2693e-39 139 345 0 0 0 0.35877 0.32735 -0.87414 0.017264
-0.16361 0.098163 1.2512 6.3615e-39 247 345 0 0 0 -0.41278 0.41625 -0.81015 0.045664
-0.14678 0.098895 1.2512 6.7764e-39 447.5 345 0 0 0 0.33234 0.33733 -0.88077 0.020111
-0.16215 0.10109 1.2512 6.5459e-39 223 346 0 0 0 -0.35282 0.43811 -0.82679 0.045761
-0.14751 0.10109 1.2512 6.9147e-39 238 346 0 0 0 0.3032 0.34737 -0.88736 0.025379
-0.14897 0.10255 1.2512 8.7586e-39 460 346 0 0 0 0.24293 0.36287 -0.89962 0.032817
-0.15629 0.10402 1.2512 7.2835e-39 218 347 0 0 0 -0.078452 0.43635 -0.89635 0.052075
-0.15483 0.10548 1.2512 6.4537e-39 446 347 0 0 0 -0.038065 0.4244 -0.90467 0.050282
-0.15336 0.10548 1.2512 6.6381e-39 447 347 0 0 0 0.032292 0.42094 -0.90651 0.047731
-0.15141 0.10451 1.2512 6.7303e-39 297 347 0 0 0 0.13559 0.39716 -0.90768 0.044654
-0.15808 0.042622 1.2538 5.4395e-39 225 323 0 0 0 -0.18814 -0.86721 -0.46103 0.016944
-0.15498 0.042579 1.2525 5.0708e-39 227 323 0 0 0 -0.086364 -0.86414 -0.49579 0.017114
-0.15286 0.0426 1.2531 5.8544e-39 228.5 323 0 0 0 -0.0342 -0.87493 -0.48304 0.015337
-0.15059 0.042579 1.2525 5.9005e-39 230 323 0 0 0 0.014849 -0.86177 -0.50708 0.0204
-0.14927 0.042622 1.2538 5.9005e-39 231 323 0 0 0 0.032825 -0.874 -0.48482 0.017475
-0.14693 0.042579 1.2525 6.2232e-39 232.5 323 0 0 0 0.070136 -0.84481 -0.53044 0.026399
-0.14473 0.042579 1.2525 6.5459e-39 234 323 0 0 0 0.09609 -0.83507 -0.54168 0.028296
-0.13673 0.0426 1.2531 8.1593e-39 239.5 323 0 0 0 0.19647 -0.77424 -0.60162 0.035791
-0.16907 0.044822 1.2538 7.3757e-39 352 323.5 0 0 0 -0.54538 -0.67131 -0.5019 0.039969
-0.16671 0.044044 1.2525 6.8225e-39 455 323 0 0 0 -0.45677 -0.72754 -0.51191 0.038228
-0.13447 0.044044 1.2525 4.9786e-39 206 324 0 0 0 0.26483 -0.68559 -0.6781 0.046402
-0.133 0.044044 1.2525 5.163e-39 207 324 0 0 0 0.28303 -0.67103 -0.68528 0.046454
-0.13081 0.044044 1.2525 5.1169e-39 208.5 324 0 0 0 0.30651 -0.64212 -0.70266 0.046418
-0.12861 0.045509 1.2525 6.3615e-39 439 324 0 0 0 0.37269 -0.54209 -0.75315 0.049304
-0.12727 0.044089 1.2538 1.1893e-38 211 324 0 0 0 0.3584 -0.60326 -0.71248 0.048357
-0.12494 0.045509 1.2525 6.3615e-39 441.5 324 0 0 0 0.41416 -0.49961 -0.76083 0.049116
-0.12287 0.045556 1.2538 6.2693e-39 443 324 0 0 0 0.43359 -0.47068 -0.76842 0.050783
-0.12275 0.046975 1.2525 7.9288e-39 245 325 0 0 0 0.45916 -0.40323 -0.79157 0.0489
-0.12128 0.046975 1.2525 7.6522e-39 246 325 0 0 0 0.46482 -0.39022 -0.79478 0.04935
-0.11847 0.047022 1.2538 7.9288e-39 248 325 0 0 0 0.46982 -0.35976 -0.80613 0.050119
-0.1711 0.04844 1.2525 6.2693e-39 440 325 0 0 0 -0.68108 -0.49653 -0.53814 0.041965
-0.12275 0.049905 1.2525 6.4537e-39 433 326 0 0 0 0.49467 -0.27298 -0.8251 0.045127
-0.12128 0.049172 1.2525 5.9928e-39 319.5 326 0 0 0 0.49996 -0.28626 -0.81737 0.046198
-0.11896 0.048978 1.2538 5.2552e-39 283 326 0 0 0 0.49469 -0.27457 -0.82456 0.045757
-0.12275 0.051371 1.2525 8.482e-39 237 327 0 0 0 0.51138 -0.21075 -0.83311 0.043773
-0.12128 0.051371 1.2525 8.3898e-39 238 327 0 0 0 0.51799 -0.19112 -0.83376 0.041673
-0.12128 0.052836 1.2525 5.6239e-39 212 328 0 0 0 0.52587 -0.12935 -0.84067 0.036803
-0.17266 0.055062 1.2531 6.3154e-39 302.5 328.5 0 0 0 -0.81232 -0.20835 -0.54472 0.030575
-0.12275 0.055767 1.2525 6.8225e-39 413 329 0 0 0 0.53629 -0.041837 -0.843 0.030805
-0.12128 0.055034 1.2525 5.8544e-39 456 328.5 0 0 0 0.53907 -0.053029 -0.84059 0.031382
-0.17257 0.057232 1.2525 4.9786e-39 498 329 0 0 0 -0.8242 -0.12214 -0.55297 0.024524
-0.12275 0.057232 1.2525 6.5459e-39 211 330 0 0 0 0.53916 0.011483 -0.84213 0.024443
-0.12128 0.057232 1.2525 6.8225e-39 212 330 0 0 0 0.54575 0.020572 -0.8377 0.023076
-0.17257 0.058698 1.2525 4.9786e-39 389 330 0 0 0 -0.82298 -0.074126 -0.56321 0.021786
-0.12275 0.058698 1.2525 6.9147e-39 458 330 0 0 0 0.54401 0.05926 -0.83698 0.01904
-0.12128 0.058698 1.2525 6.9147e-39 459 330 0 0 0 0.54863 0.071736 -0.83298 0.017371
-0.17266 0.060927 1.2531 6.2693e-39 318 331 0 0 0 -0.83068 -0.00043799 -0.55675 0.015652
-0.12421 0.060895 1.2525 7.3296e-39 194 331.5 0 0 0 0.54807 0.10178 -0.83022 0.014859
-0.12287 0.060957 1.2538 7.3296e-39 195 331.5 0 0 0 0.5526 0.10992 -0.82617 0.014223
-0.1214 0.060957 1.2538 7.3296e-39 196 331.5 0 0 0 0.55135 0.1179 -0.8259 0.013171
-0.17274 0.063158 1.2538 8.6664e-39 220 332 0 0 0 -0.83402 0.06689 -0.54767 0.011649
-0.12421 0.063094 1.2525 6.6381e-39 416 332 0 0 0 0.55004 0.15503 -0.82062 0.0093271
-0.12287 0.063158 1.2538 6.4537e-39 417 332 0 0 0 0.55488 0.15932 -0.81653 0.0094117
-0.1214 0.063158 1.2538 6.3615e-39 418 332 0 0 0 0.55296 0.16429 -0.81685 0.0087984
-0.17274 0.064625 1.2538 6.7303e-39 144 333 0 0 0 -0.8301 0.096456 -0.54921 0.011983
-0.12421 0.064559 1.2525 7.6522e-39 213 333 0 0 0 0.55214 0.18988 -0.81184 0.006466
-0.12287 0.064625 1.2538 8.3898e-39 214 333 0 0 0 0.55173 0.19985 -0.80972 0.0058268
-0.1214 0.064625 1.2538 8.2976e-39 215 333 0 0 0 0.55232 0.19829 -0.8097 0.0062067
-0.17266 0.066791 1.2531 7.0069e-39 304.5 333.5 0 0 0 -0.80629 0.13264 -0.57645 0.015122
-0.12501 0.066791 1.2531 6.8455e-39 448.5 333.5 0 0 0 0.55046 0.22269 -0.80462 0.0057825
-0.17257 0.068955 1.2525 7.7444e-39 503 334 0 0 0 -0.79029 0.157 -0.59228 0.01642
-0.12861 0.068955 1.2525 7.3757e-39 209 335 0 0 0 0.52613 0.24646 -0.81391 0.0069843
-0.12501 0.06899 1.2531 7.1913e-39 211.5 335 0 0 0 0.54972 0.2427 -0.79931 0.0053624
-0.17274 0.071225 1.2538 6.6841e-39 300.5 335.5 0 0 0 -0.80115 0.17222 -0.57315 0.015323
-0.1711 0.071886 1.2525 7.2835e-39 211 336 0 0 0 -0.75081 0.17495 -0.63692 0.021286
-0.13007 0.071886 1.2525 6.6381e-39 254 336 0 0 0 0.51519 0.26969 -0.81354 0.0070743
-0.12874 0.071225 1.2538 6.0388e-39 364 335.5 0 0 0 0.53181 0.26825 -0.80325 0.0061122
-0.1272 0.07119 1.2531 6.3154e-39 365 335.5 0 0 0 0.53937 0.26865 -0.79807 0.0056404
-0.1258 0.070492 1.2538 5.8083e-39 475 335 0 0 0 0.54756 0.25864 -0.79579 0.0053541
-0.1711 0.073351 1.2525 6.3615e-39 477 336 0 0 0 -0.74605 0.18501 -0.63967 0.021135
-0.13007 0.073351 1.2525 5.6239e-39 150 337 0 0 0 0.51437 0.28053 -0.81039 0.0067481
-0.12874 0.073426 1.2538 5.5317e-39 151 337 0 0 0 0.53094 0.28221 -0.79904 0.005745
-0.12727 0.073426 1.2538 5.4395e-39 152 337 0 0 0 0.5372 0.28174 -0.79501 0.0052644
-0.17128 0.074893 1.2538 7.2835e-39 235 337 0 0 0 -0.78012 0.18187 -0.59861 0.018573
-0.13007 0.074817 1.2525 6.8225e-39 433 337 0 0 0 0.51488 0.29029 -0.80661 0.0063035
-0.12874 0.074893 1.2538 6.6381e-39 434 337 0 0 0 0.52882 0.29119 -0.79722 0.0052917
-0.16964 0.077015 1.2525 6.2693e-39 268 338 0 0 0 -0.71676 0.19197 -0.67038 0.028229
-0.13007 0.077015 1.2525 6.7303e-39 337 338 0 0 0 0.51633 0.29896 -0.80251 0.0056113
-0.12874 0.077093 1.2538 6.4998e-39 338 338 0 0 0 0.5239 0.2992 -0.7975 0.0050364
-0.16981 0.079293 1.2538 4.9786e-39 154 339 0 0 0 -0.73576 0.19443 -0.64873 0.02672
-0.13087 0.079253 1.2531 7.8366e-39 225.5 339 0 0 0 0.51096 0.30868 -0.80227 0.0051792
-0.16981 0.08076 1.2538 6.6381e-39 435 339 0 0 0 -0.74151 0.19541 -0.64185 0.025401
-0.133 0.080678 1.2525 5.6239e-39 473 339 0 0 0 0.49375 0.31221 -0.81163 0.0056572
-0.13167 0.08076 1.2538 5.6239e-39 474 339 0 0 0 0.50807 0.3136 -0.8022 0.0050762
-0.135 0.083149 1.2529 6.1771e-39 393.33 340 0 0 0 0.48692 0.31397 -0.81507 0.005622
-0.13607 0.085161 1.2538 7.1913e-39 238 341 0 0 0 0.48963 0.31217 -0.81413 0.0052746
-0.13886 0.08654 1.2525 6.8225e-39 456 341 0 0 0 0.4704 0.30307 -0.82878 0.0069805
-0.16826 0.088783 1.2531 6.7764e-39 318 342 0 0 0 -0.68269 0.24049 -0.69 0.03195
-0.1404 0.088783 1.2531 7.0991e-39 338.5 342 0 0 0 0.46677 0.29997 -0.83196 0.0072143
-0.13893 0.088783 1.2531 7.1913e-39 339.5 342 0 0 0 0.47739 0.30254 -0.82496 0.0063001
-0.13747 0.088783 1.2531 7.0529e-39 340.5 342 0 0 0 0.48492 0.30444 -0.81986 0.0056491
-0.16834 0.091028 1.2538 5.9927e-39 198 343 0 0 0 -0.70319 0.26706 -0.65894 0.028586
-0.14114 0.090982 1.2531 7.6061e-39 216.5 343 0 0 0 0.46124 0.30077 -0.83474 0.0069694
-0.13754 0.091028 1.2538 7.1913e-39 219 343 0 0 0 0.48602 0.30147 -0.82031 0.0053049
-0.16671 0.093867 1.2525 5.9927e-39 140 344 0 0 0 -0.61681 0.3171 -0.72041 0.037713
-0.14326 0.093867 1.2525 5.9927e-39 199 344 0 0 0 0.43036 0.30965 -0.84789 0.0091452
-0.14187 0.093181 1.2531 6.3154e-39 317 343.5 0 0 0 0.45199 0.30422 -0.83854 0.0071193
-0.16688 0.095429 1.2538 5.7161e-39 389 344 0 0 0 -0.64129 0.33695 -0.68936 0.035161
-0.14473 0.095332 1.2525 6.1771e-39 404 344 0 0 0 0.39931 0.31847 -0.85973 0.012546
-0.14341 0.095429 1.2538 6.5459e-39 405 344 0 0 0 0.42859 0.31282 -0.84762 0.0090187
-0.16524 0.096797 1.2525 7.9288e-39 508 344 0 0 0 -0.49973 0.39158 -0.77262 0.042077
-0.14473 0.096797 1.2525 5.9927e-39 140 345 0 0 0 0.39697 0.31884 -0.86067 0.013179
-0.14341 0.096896 1.2538 5.7161e-39 141 345 0 0 0 0.42023 0.31276 -0.85182 0.010254
-0.16378 0.099728 1.2525 8.021e-39 460 345 0 0 0 -0.4401 0.42235 -0.79242 0.043024
-0.14619 0.099728 1.2525 7.1913e-39 510 345 0 0 0 0.33988 0.33977 -0.87695 0.021319
-0.14487 0.098363 1.2538 5.8083e-39 387 345 0 0 0 0.38183 0.32396 -0.8656 0.015716
-0.14619 0.10119 1.2525 7.2835e-39 239 346 0 0 0 0.33187 0.3352 -0.88176 0.021729
-0.14487 0.1013 1.2538 7.0991e-39 240 346 0 0 0 0.36862 0.32414 -0.87124 0.018054
-0.16248 0.10276 1.2538 6.7303e-39 451 346 0 0 0 -0.39369 0.44058 -0.80678 0.045949
-0.147 0.10271 1.2531 8.1132e-39 461.5 346 0 0 0 0.30537 0.3431 -0.88828 0.027141
-0.16085 0.10412 1.2525 6.8225e-39 215 347 0 0 0 -0.32058 0.44217 -0.83769 0.048582
-0.159 0.10517 1.2534 6.2693e-39 367.67 347 0 0 0 -0.23032 0.4469 -0.86442 0.050993
-0.15718 0.10486 1.2525 6.592e-39 331 347 0 0 0 -0.12986 0.43724 -0.88992 0.054034
-0.15059 0.10559 1.2525 7.4678e-39 449 347 0 0 0 0.14834 0.39095 -0.90838 0.045914
-0.14912 0.10486 1.2525 7.1452e-39 336.5 347 0 0 0 0.22805 0.37308 -0.89934 0.036358
-0.14707 0.10423 1.2538 6.9147e-39 226.5 347 0 0 0 0.2821 0.3473 -0.89432 0.030298
-0.15294 0.10716 1.2538 6.1771e-39 212.5 348 0 0 0 0.027822 0.41173 -0.91088 0.05376
-0.15074 0.10716 1.2538 6.1771e-39 214 348 0 0 0 0.11787 0.38356 -0.91596 0.047898
-0.14062 0.041197 1.2551 5.9927e-39 414 322 0 0 0 0.10389 -0.84947 -0.5173 0.02105
-0.16117 0.042665 1.2551 8.8508e-39 223 323 0 0 0 -0.25919 -0.85455 -0.45007 0.022263
-0.1597 0.042665 1.2551 6.9147e-39 224 323 0 0 0 -0.21716 -0.86871 -0.44518 0.018802
-0.15677 0.042665 1.2551 4.9786e-39 226 323 0 0 0 -0.13675 -0.88839 -0.43824 0.01184
-0.13474 0.042665 1.2551 8.2054e-39 241 323 0 0 0 0.2071 -0.77645 -0.59518 0.03412
-0.13107 0.042665 1.2551 8.5742e-39 243.5 323 0 0 0 0.26301 -0.72302 -0.6388 0.038456
-0.17145 0.045602 1.2551 7.8366e-39 250 324 0 0 0 -0.62722 -0.61034 -0.48381 0.04328
-0.12887 0.044134 1.2551 6.9147e-39 210 324 0 0 0 0.32505 -0.64725 -0.6895 0.048971
-0.12153 0.045602 1.2551 6.3615e-39 444 324 0 0 0 0.4263 -0.46672 -0.77488 0.054029
-0.17145 0.04707 1.2551 1.0879e-38 212 325 0 0 0 -0.66156 -0.56458 -0.49354 0.045127
-0.12006 0.04707 1.2551 7.6522e-39 247 325 0 0 0 0.45626 -0.39826 -0.79575 0.053591
-0.11712 0.04707 1.2551 8.1132e-39 249 325 0 0 0 0.45992 -0.36233 -0.81067 0.053048
-0.11712 0.048539 1.2551 3.9644e-39 208 326 0 0 0 0.48324 -0.28835 -0.82664 0.051144
-0.12006 0.050007 1.2551 6.5459e-39 435 326 0 0 0 0.48991 -0.27176 -0.82834 0.049269
-0.11859 0.051475 1.2551 8.1132e-39 240 327 0 0 0 0.51543 -0.1812 -0.83755 0.043294
-0.17292 0.052944 1.2551 6.5459e-39 437 327 0 0 0 -0.80292 -0.31152 -0.5082 0.03837
-0.11859 0.052944 1.2551 6.6381e-39 214 328 0 0 0 0.52526 -0.13077 -0.84084 0.041016
-0.17439 0.055146 1.2551 7.514e-39 231 328.5 0 0 0 -0.84771 -0.1953 -0.4932 0.025226
-0.17439 0.057349 1.2551 5.4395e-39 497 329 0 0 0 -0.85831 -0.11168 -0.50084 0.018231
-0.17439 0.058817 1.2551 4.8864e-39 388 330 0 0 0 -0.86429 -0.064175 -0.49888 0.014688
-0.17439 0.060285 1.2551 5.5317e-39 199 331 0 0 0 -0.86349 -0.018015 -0.50405 0.011721
-0.123 0.066893 1.2551 6.4076e-39 268 334 0 0 0 0.55335 0.22786 -0.80117 0.00549
-0.12153 0.066893 1.2551 6.131e-39 269 334 0 0 0 0.54844 0.22709 -0.80476 0.0058085
-0.123 0.069095 1.2551 7.7444e-39 213 335 0 0 0 0.5527 0.2419 -0.7975 0.0056218
-0.12446 0.070564 1.2551 6.0849e-39 494 335 0 0 0 0.54854 0.25801 -0.79532 0.0053308
-0.12593 0.072032 1.2551 5.4395e-39 381 336 0 0 0 0.54426 0.27227 -0.7935 0.0050397
-0.1274 0.074969 1.2551 6.6381e-39 435 337 0 0 0 0.53649 0.28996 -0.79253 0.0046997
-0.17145 0.076437 1.2551 4.7942e-39 580 337 0 0 0 -0.79209 0.18437 -0.58189 0.017721
-0.1274 0.076437 1.2551 7.1913e-39 212 338 0 0 0 0.53062 0.293 -0.79536 0.0048183
-0.12887 0.079374 1.2551 7.3757e-39 227 339 0 0 0 0.52093 0.30638 -0.79672 0.0049469
-0.13034 0.080842 1.2551 5.7161e-39 475 339 0 0 0 0.51656 0.31425 -0.7965 0.0048115
-0.13327 0.082311 1.2551 6.7303e-39 236 340 0 0 0 0.50653 0.31793 -0.80146 0.0047979
-0.13181 0.082311 1.2551 6.9147e-39 237 340 0 0 0 0.50819 0.31484 -0.80163 0.0048534
-0.13474 0.085247 1.2551 7.56e-39 239 341 0 0 0 0.50058 0.31434 -0.80661 0.004735
-0.13621 0.086716 1.2551 6.2693e-39 463 341 0 0 0 0.49652 0.30826 -0.81144 0.0049578
-0.13915 0.091121 1.2551 7.6522e-39 218 343 0 0 0 0.48333 0.29987 -0.82248 0.0056258
-0.14062 0.092589 1.2551 6.4537e-39 435 343 0 0 0 0.473 0.2997 -0.82852 0.0059363
-0.13915 0.092589 1.2551 6.6381e-39 436 343 0 0 0 0.48252 0.29741 -0.82384 0.0055316
-0.13768 0.092589 1.2551 6.8225e-39 437 343 0 0 0 0.48446 0.29461 -0.82371 0.0055441
-0.14208 0.095526 1.2551 6.8225e-39 406 344 0 0 0 0.45029 0.30273 -0.84 0.0071798
-0.14208 0.096994 1.2551 5.6239e-39 142 345 0 0 0 0.44405 0.29957 -0.84444 0.0076595
-0.16558 0.098463 1.2551 6.7303e-39 246 345 0 0 0 -0.56169 0.40267 -0.72274 0.036534
-0.14502 0.099931 1.2551 6.9147e-39 511 345 0 0 0 0.3668 0.32692 -0.87096 0.019607
-0.14355 0.098463 1.2551 5.5317e-39 388 345 0 0 0 0.41613 0.30668 -0.85603 0.01118
-0.16411 0.1014 1.2551 6.6381e-39 222 346 0 0 0 -0.49272 0.42645 -0.75853 0.043028
-0.14355 0.1014 1.2551 6.2693e-39 247 346 0 0 0 0.39325 0.30938 -0.86581 0.014925
-0.14502 0.10287 1.2551 7.9288e-39 463 346 0 0 0 0.35064 0.32097 -0.87979 0.020972
-0.16117 0.1058 1.2551 6.2693e-39 442 347 0 0 0 -0.37671 0.43683 -0.81687 0.049039
-0.14722 0.1058 1.2551 7.7905e-39 451.5 347 0 0 0 0.25803 0.34935 -0.90076 0.033423
-0.15677 0.10727 1.2551 6.4537e-39 210 348 0 0 0 -0.18068 0.42409 -0.88741 0.058539
-0.1553 0.10727 1.2551 6.3615e-39 211 348 0 0 0 -0.10791 0.41957 -0.90128 0.05909
-0.14943 0.10727 1.2551 6.8225e-39 215 348 0 0 0 0.16345 0.37135 -0.91399 0.044973
-0.15677 0.10874 1.2551 7.3757e-39 434 348 0 0 0 -0.18192 0.40642 -0.89539 0.057969
-0.1531 0.10874 1.2551 7.1452e-39 436.5 348 0 0 0 -0.012881 0.3893 -0.92102 0.057277
-0.15089 0.10874 1.2551 6.5459e-39 438 348 0 0 0 0.10584 0.36215 -0.92609 0.050268
-0.14943 0.10874 1.2551 6.3615e-39 439 348 0 0 0 0.15691 0.35458 -0.92177 0.043457
-0.15236 0.11095 1.2551 6.0849e-39 303 349 0 0 0 -0.0045184 0.3706 -0.92878 0.053773
-0.15089 0.11095 1.2551 6.2693e-39 304 349 0 0 0 0.067515 0.35821 -0.9312 0.050493
-0.14943 0.11021 1.2551 6.7303e-39 201 349 0 0 0 0.14121 0.34407 -0.92826 0.04523
-0.15267 0.041281 1.2576 8.021e-39 254 322 0 0 0 -0.040363 -0.92309 -0.38247 0.0035594
-0.14826 0.041281 1.2576 7.8366e-39 257 322 0 0 0 0.013906 -0.91546 -0.40217 0.0055135
-0.14679 0.041281 1.2576 7.7444e-39 258 322 0 0 0 0.025644 -0.9102 -0.41338 0.0070596
-0.14532 0.041281 1.2576 7.6522e-39 259 322 0 0 0 0.034913 -0.90483 -0.42435 0.0079527
-0.14297 0.041239 1.2563 6.7764e-39 336.5 322 0 0 0 0.072544 -0.87367 -0.48108 0.016458
-0.13929 0.041239 1.2563 5.7161e-39 415 322 0 0 0 0.11716 -0.85 -0.51359 0.020162
-0.13715 0.04126 1.2569 6.0388e-39 416.5 322 0 0 0 0.14334 -0.83714 -0.52787 0.02154
-0.13502 0.041281 1.2576 6.4537e-39 418 322 0 0 0 0.16316 -0.82736 -0.53745 0.022402
-0.16739 0.042752 1.2576 1.429e-38 219 323 0 0 0 -0.42836 -0.79135 -0.43621 0.035688
-0.1651 0.042731 1.2569 1.1386e-38 220.5 323 0 0 0 -0.35883 -0.82839 -0.43012 0.030234
-0.16281 0.042709 1.2563 9.6805e-39 222 323 0 0 0 -0.30696 -0.84598 -0.43599 0.02655
-0.13341 0.042709 1.2563 8.2976e-39 242 323 0 0 0 0.21808 -0.76972 -0.59998 0.034652
-0.12913 0.042752 1.2576 8.021e-39 245 323 0 0 0 0.27792 -0.71608 -0.6403 0.040767
-0.12753 0.042709 1.2563 7.7444e-39 246 323 0 0 0 0.30214 -0.69035 -0.65736 0.044025
-0.17098 0.044201 1.2569 6.8225e-39 446.5 323 0 0 0 -0.57349 -0.68419 -0.45054 0.044587
-0.12606 0.044178 1.2563 1.5304e-38 212 324 0 0 0 0.35529 -0.62052 -0.69908 0.050701
-0.12459 0.044178 1.2563 1.4198e-38 213 324 0 0 0 0.3584 -0.60462 -0.71132 0.052658
-0.12325 0.044223 1.2576 1.2631e-38 214 324 0 0 0 0.37619 -0.58939 -0.71491 0.05329
-0.12098 0.044936 1.2569 8.8509e-39 330 324 0 0 0 0.40824 -0.51649 -0.75271 0.056851
-0.11871 0.045648 1.2563 6.6381e-39 446 324 0 0 0 0.42703 -0.44676 -0.78616 0.055864
-0.11736 0.045695 1.2576 6.9147e-39 447 324 0 0 0 0.42434 -0.45312 -0.78398 0.058616
-0.11589 0.045695 1.2576 6.2693e-39 450 324 0 0 0 0.42422 -0.41809 -0.80326 0.058472
-0.11515 0.047166 1.2576 8.1593e-39 250.5 325 0 0 0 0.4417 -0.3495 -0.82629 0.053874
-0.17327 0.048637 1.2576 6.2693e-39 439 325 0 0 0 -0.74383 -0.48572 -0.45913 0.04876
-0.11515 0.048637 1.2576 3.6417e-39 209.5 326 0 0 0 0.46505 -0.27666 -0.84094 0.0528
-0.1731 0.050793 1.2563 6.1771e-39 221 326.5 0 0 0 -0.77791 -0.39509 -0.48863 0.040443
-0.12018 0.051528 1.2563 8.2976e-39 239 327 0 0 0 0.50226 -0.21713 -0.83701 0.048676
-0.11724 0.050793 1.2563 7.1452e-39 339 326.5 0 0 0 0.50853 -0.20505 -0.83627 0.045813
-0.11589 0.050109 1.2576 6.3615e-39 438 326 0 0 0 0.49244 -0.21884 -0.84238 0.048677
-0.17474 0.053051 1.2576 6.4537e-39 436 327 0 0 0 -0.84747 -0.28633 -0.447 0.033346
-0.12018 0.052997 1.2563 6.1771e-39 213 328 0 0 0 0.51833 -0.15101 -0.84175 0.042849
-0.11736 0.053051 1.2576 6.7303e-39 215 328 0 0 0 0.51514 -0.13602 -0.84625 0.043485
-0.12018 0.055202 1.2563 6.0388e-39 283.5 329 0 0 0 0.52969 -0.056443 -0.84631 0.033926
-0.11871 0.055202 1.2563 5.8083e-39 286 329 0 0 0 0.53008 -0.03928 -0.84703 0.031058
-0.11736 0.055258 1.2576 5.9927e-39 287 329 0 0 0 0.52843 -0.052681 -0.84734 0.034056
-0.12018 0.057407 1.2563 7.2835e-39 213 330 0 0 0 0.53879 0.017629 -0.84226 0.027368
-0.11871 0.057407 1.2563 7.8366e-39 214 330 0 0 0 0.53816 0.022522 -0.84254 0.025792
-0.11736 0.057465 1.2576 7.7444e-39 215 330 0 0 0 0.532 0.028957 -0.84625 0.025402
-0.12018 0.058877 1.2563 6.6381e-39 460 330 0 0 0 0.54686 0.061141 -0.83499 0.021058
-0.11871 0.058877 1.2563 6.1771e-39 461 330 0 0 0 0.54017 0.066182 -0.83895 0.020808
-0.11736 0.058937 1.2576 5.9005e-39 462 330 0 0 0 0.53258 0.078292 -0.84275 0.019601
-0.17456 0.061817 1.2563 6.7303e-39 435 331 0 0 0 -0.87461 0.021142 -0.48436 0.0082905
-0.1203 0.061144 1.2576 6.7764e-39 197 331.5 0 0 0 0.54789 0.12626 -0.82697 0.013743
-0.11883 0.061144 1.2576 6.592e-39 198 331.5 0 0 0 0.5412 0.13056 -0.83069 0.01383
-0.17474 0.063351 1.2576 8.6664e-39 219 332 0 0 0 -0.88023 0.052754 -0.47161 0.0054119
-0.12018 0.063286 1.2563 6.1771e-39 419 332 0 0 0 0.54927 0.17237 -0.81768 0.008752
-0.11883 0.063351 1.2576 5.9927e-39 427 332 0 0 0 0.54174 0.17798 -0.82149 0.0087815
-0.17474 0.064822 1.2576 6.8225e-39 506 332 0 0 0 -0.87594 0.071244 -0.47714 0.0056683
-0.1203 0.064822 1.2576 7.9288e-39 216 333 0 0 0 0.54533 0.20463 -0.81286 0.0066373
-0.17474 0.066294 1.2576 5.9927e-39 392 333 0 0 0 -0.8707 0.097452 -0.48207 0.0062667
-0.1203 0.066294 1.2576 5.9005e-39 145 334 0 0 0 0.54295 0.22117 -0.81012 0.0062123
-0.12165 0.069166 1.2563 8.1132e-39 214 335 0 0 0 0.54248 0.24057 -0.80488 0.0062646
-0.12312 0.070636 1.2563 6.2693e-39 495 335 0 0 0 0.54673 0.25789 -0.79661 0.0057196
-0.12177 0.070708 1.2576 6.8225e-39 496 335 0 0 0 0.53724 0.25172 -0.80499 0.0066187
-0.1731 0.073575 1.2563 5.9927e-39 476 336 0 0 0 -0.82912 0.17503 -0.53096 0.010659
-0.12606 0.073575 1.2563 5.2552e-39 153 337 0 0 0 0.5413 0.27767 -0.79366 0.00495
-0.12466 0.072877 1.2569 5.67e-39 268 336.5 0 0 0 0.54057 0.27266 -0.79589 0.0052454
-0.12325 0.072914 1.2576 5.67e-39 269 336.5 0 0 0 0.53754 0.27057 -0.79865 0.005825
-0.12177 0.072179 1.2576 5.6239e-39 384 336 0 0 0 0.53197 0.25905 -0.80616 0.0067619
-0.17327 0.075122 1.2576 7.2835e-39 234 337 0 0 0 -0.84408 0.17497 -0.50686 0.0079337
-0.12606 0.075045 1.2563 6.7303e-39 436 337 0 0 0 0.53759 0.28504 -0.79356 0.0048155
-0.12472 0.075122 1.2576 7.0991e-39 437 337 0 0 0 0.53482 0.28078 -0.79695 0.0054551
-0.17163 0.077985 1.2563 6.2693e-39 394 338 0 0 0 -0.80931 0.18561 -0.55728 0.014208
-0.12686 0.077289 1.2569 6.3615e-39 339.5 338 0 0 0 0.53209 0.29481 -0.7937 0.0049245
-0.1718 0.079536 1.2576 5.0708e-39 153 339 0 0 0 -0.82031 0.18863 -0.53993 0.013122
-0.12686 0.07876 1.2569 6.2693e-39 347.5 338.5 0 0 0 0.52465 0.29442 -0.79879 0.0052609
-0.129 0.080925 1.2563 5.9005e-39 476 339 0 0 0 0.51677 0.30786 -0.79885 0.005088
-0.12766 0.081007 1.2576 6.2693e-39 477 339 0 0 0 0.51501 0.30101 -0.80259 0.0058975
-0.13341 0.083864 1.2563 6.0849e-39 474 340 0 0 0 0.50621 0.31755 -0.80182 0.0047303
-0.13127 0.083171 1.2569 6.7764e-39 360.5 340 0 0 0 0.50888 0.31137 -0.80255 0.0051845
-0.12913 0.082478 1.2576 7.3757e-39 247 340 0 0 0 0.5111 0.30446 -0.80379 0.0057464
-0.13281 0.085421 1.2576 7.2835e-39 243 341 0 0 0 0.50058 0.30781 -0.80912 0.0054374
-0.13488 0.086804 1.2563 6.4537e-39 464 341 0 0 0 0.50087 0.30605 -0.80961 0.0049546
-0.13355 0.086892 1.2576 6.1771e-39 465 341 0 0 0 0.49992 0.30284 -0.8114 0.0054794
-0.13635 0.089009 1.2563 7.1452e-39 341.5 342 0 0 0 0.49508 0.29981 -0.81548 0.005256
-0.13495 0.089055 1.2569 6.9607e-39 342.5 342 0 0 0 0.49723 0.29484 -0.81599 0.0055334
-0.13355 0.089099 1.2576 6.9147e-39 343.5 342 0 0 0 0.49447 0.29126 -0.81894 0.0060989
-0.13649 0.091306 1.2576 7.0991e-39 220 343 0 0 0 0.4907 0.28953 -0.82182 0.0058056
-0.13502 0.091306 1.2576 6.9147e-39 221 343 0 0 0 0.48953 0.2856 -0.82389 0.0062802
-0.13355 0.091306 1.2576 7.0069e-39 222 343 0 0 0 0.48673 0.27873 -0.82789 0.007007
-0.16869 0.092683 1.2563 5.9005e-39 402 343 0 0 0 -0.74961 0.2877 -0.59608 0.021367
-0.13649 0.092778 1.2576 7.0991e-39 438 343 0 0 0 0.48765 0.28411 -0.82552 0.0060946
-0.13502 0.092778 1.2576 6.8225e-39 439 343 0 0 0 0.48322 0.27854 -0.83001 0.0067305
-0.16886 0.094249 1.2576 6.2693e-39 139 344 0 0 0 -0.76886 0.30214 -0.56352 0.017653
-0.14083 0.094937 1.2569 6.4537e-39 304 344 0 0 0 0.46936 0.29053 -0.83384 0.0059863
-0.13936 0.094937 1.2569 6.5459e-39 305 344 0 0 0 0.47836 0.28458 -0.83077 0.0057728
-0.13742 0.094707 1.2572 6.7303e-39 272 344 0 0 0 0.48163 0.28091 -0.83014 0.0063693
-0.16722 0.097093 1.2563 8.3898e-39 504 344 0 0 0 -0.69623 0.34631 -0.62876 0.026899
-0.1409 0.097192 1.2576 5.6239e-39 143 345 0 0 0 0.45902 0.28376 -0.84189 0.006864
-0.13943 0.097192 1.2576 5.7161e-39 144 345 0 0 0 0.46764 0.27303 -0.84069 0.0066849
-0.13796 0.097192 1.2576 5.9005e-39 145 345 0 0 0 0.47055 0.26216 -0.84253 0.0065683
-0.14223 0.098563 1.2563 5.5317e-39 389 345 0 0 0 0.43394 0.29732 -0.85047 0.0095674
-0.1409 0.098663 1.2576 5.9927e-39 393 345 0 0 0 0.44982 0.2757 -0.8495 0.0082534
-0.13796 0.098663 1.2576 5.6239e-39 395 345 0 0 0 0.46221 0.25856 -0.84824 0.0070131
-0.16591 0.10013 1.2576 7.9288e-39 459 345 0 0 0 -0.62438 0.39987 -0.67101 0.032811
-0.14272 0.10052 1.2563 6.2078e-39 424.67 345.33 0 0 0 0.41534 0.29516 -0.86045 0.011719
-0.16444 0.10308 1.2576 7.0991e-39 450 346 0 0 0 -0.53635 0.42155 -0.73118 0.040481
-0.14303 0.10302 1.2569 7.8366e-39 464.5 346 0 0 0 0.38615 0.2942 -0.87426 0.015204
-0.16297 0.10455 1.2576 6.7303e-39 214 347 0 0 0 -0.49838 0.41621 -0.76052 0.046614
-0.14517 0.10518 1.2563 7.6061e-39 341 347 0 0 0 0.32215 0.31738 -0.8919 0.025427
-0.14326 0.10497 1.2567 7.4064e-39 305 347 0 0 0 0.3606 0.28943 -0.88668 0.017374
-0.16003 0.10749 1.2576 7.0069e-39 208 348 0 0 0 -0.35598 0.42193 -0.83382 0.055575
-0.1584 0.10738 1.2563 6.9147e-39 209 348 0 0 0 -0.25123 0.42851 -0.86791 0.057581
-0.14811 0.10738 1.2563 7.0991e-39 216 348 0 0 0 0.19354 0.34978 -0.91662 0.041027
-0.14664 0.10738 1.2563 6.8225e-39 217 348 0 0 0 0.2548 0.32539 -0.9106 0.032868
-0.14532 0.10749 1.2576 6.8225e-39 218 348 0 0 0 0.28223 0.30521 -0.9095 0.02865
-0.14286 0.107 1.2576 7.3757e-39 298 347.67 0 0 0 0.34351 0.27878 -0.89682 0.0178
-0.15856 0.10896 1.2576 6.8225e-39 433 348 0 0 0 -0.29583 0.41098 -0.86231 0.05792
-0.15546 0.10885 1.2563 7.4678e-39 435 348 0 0 0 -0.13669 0.39302 -0.90931 0.060865
-0.14811 0.10885 1.2563 6.0849e-39 440 348 0 0 0 0.18569 0.33747 -0.92284 0.041428
-0.14664 0.10885 1.2563 6.0849e-39 441 348 0 0 0 0.22954 0.32236 -0.91836 0.034449
-0.14532 0.10896 1.2576 6.1771e-39 442 348 0 0 0 0.28088 0.29861 -0.91211 0.027174
-0.15856 0.11043 1.2576 6.4537e-39 195 349 0 0 0 -0.32459 0.38446 -0.86419 0.060124
-0.15693 0.11106 1.2563 6.4537e-39 300 349 0 0 0 -0.22939 0.38092 -0.8957 0.057157
-0.15554 0.11112 1.2569 6.3154e-39 301 349 0 0 0 -0.13717 0.38785 -0.91146 0.054641
-0.15399 0.11106 1.2563 6.1771e-39 302 349 0 0 0 -0.089214 0.37864 -0.92123 0.056291
-0.1487 0.11138 1.2572 6.3922e-39 345 349 0 0 0 0.13751 0.32882 -0.93433 0.043523
-0.14679 0.11117 1.2576 6.7303e-39 314 349 0 0 0 0.19021 0.30874 -0.93194 0.03688
-0.14532 0.11043 1.2576 6.2693e-39 204 349 0 0 0 0.25511 0.29803 -0.91984 0.028302
-0.15709 0.11338 1.2576 5.2552e-39 140 350 0 0 0 -0.25903 0.36101 -0.89587 0.055605
-0.15488 0.11338 1.2576 5.2091e-39 141.5 350 0 0 0 -0.15529 0.35575 -0.92159 0.054246
-0.15252 0.11326 1.2563 5.2552e-39 143 350 0 0 0 -0.035927 0.34392 -0.93831 0.053381
-0.15105 0.11326 1.2563 5.4395e-39 144 350 0 0 0 0.036516 0.33792 -0.94047 0.048925
-0.14892 0.11332 1.2569 5.3473e-39 145.5 350 0 0 0 0.13009 0.31607 -0.93977 0.040172
-0.14679 0.11338 1.2576 5.3473e-39 147 350 0 0 0 0.17733 0.29274 -0.9396 0.035157
-0.15709 0.11485 1.2576 5.9005e-39 372 350 0 0 0 -0.2529 0.33445 -0.90785 0.05238
-0.15488 0.11485 1.2576 5.7622e-39 377.5 350 0 0 0 -0.15626 0.32828 -0.93157 0.052545
-0.15252 0.11473 1.2563 5.2552e-39 383 350 0 0 0 -0.034128 0.33223 -0.94258 0.049836
-0.15105 0.11473 1.2563 5.2552e-39 384 350 0 0 0 0.025351 0.32484 -0.94543 0.047911
-0.14892 0.11479 1.2569 5.5317e-39 386.5 350 0 0 0 0.11572 0.30371 -0.94571 0.039646
-0.14679 0.11485 1.2576 5.4395e-39 389 350 0 0 0 0.17476 0.2772 -0.94478 0.031809
-0.15414 0.11632 1.2576 5.9005e-39 508 350 0 0 0 -0.14711 0.31843 -0.93646 0.050762
-0.15267 0.11632 1.2576 5.9005e-39 509 350 0 0 0 -0.059624 0.30527 -0.9504 0.048944
-0.1512 0.11705 1.2576 6.4076e-39 371 350.5 0 0 0 -0.0087708 0.29346 -0.95593 0.043851
-0.14973 0.11705 1.2576 6.1771e-39 372 350.5 0 0 0 0.064316 0.2816 -0.95737 0.038156
-0.1512 0.11926 1.2576 8.7586e-39 443 351 0 0 0 -0.016204 0.26116 -0.96516 0.038863
-0.14973 0.11926 1.2576 9.1274e-39 444 351 0 0 0 0.054523 0.25473 -0.96548 0.033923
-0.1512 0.12073 1.2576 5.9005e-39 207 352 0 0 0 -0.0054452 0.25045 -0.96811 0.036447
-0.1512 0.12294 1.2576 5.0246e-39 495.5 352 0 0 0 0.0076043 0.2335 -0.97233 0.032179
-0.16019 0.041323 1.2589 7.4678e-39 249 322 0 0 0 -0.2072 -0.89904 -0.38574 0.015992
-0.15872 0.041323 1.2589 7.4678e-39 250 322 0 0 0 -0.16888 -0.90922 -0.38053 0.01277
-0.15725 0.041323 1.2589 7.56e-39 251 322 0 0 0 -0.14644 -0.91612 -0.37321 0.010577
-0.15504 0.041323 1.2589 7.8366e-39 252.5 322 0 0 0 -0.086828 -0.92524 -0.36932 0.0046177
-0.15136 0.041323 1.2589 7.9288e-39 255 322 0 0 0 -0.026076 -0.92891 -0.36938 0.0024962
-0.14988 0.041323 1.2589 7.8366e-39 256 322 0 0 0 -0.0099355 -0.92522 -0.3793 0.0032981
-0.13295 0.041323 1.2589 6.0849e-39 421 322 0 0 0 0.18204 -0.81415 -0.55138 0.024633
-0.13074 0.041323 1.2589 6.0849e-39 424 322 0 0 0 0.21822 -0.78522 -0.57949 0.030645
-0.16903 0.042796 1.2589 1.3553e-38 218 323 0 0 0 -0.47681 -0.76628 -0.43065 0.040528
-0.12632 0.042796 1.2589 7.56e-39 247 323 0 0 0 0.30171 -0.69138 -0.65648 0.046114
-0.12484 0.042796 1.2589 7.6522e-39 248 323 0 0 0 0.31178 -0.67102 -0.6727 0.049537
-0.17345 0.045005 1.2589 7.1913e-39 347 323.5 0 0 0 -0.65717 -0.61048 -0.4421 0.048596
-0.12043 0.044268 1.2589 1.0234e-38 216 324 0 0 0 0.38359 -0.55595 -0.73742 0.057159
-0.11895 0.044268 1.2589 9.0352e-39 217 324 0 0 0 0.3945 -0.52908 -0.7513 0.057404
-0.11748 0.044268 1.2589 8.7586e-39 218 324 0 0 0 0.39173 -0.50482 -0.76923 0.057228
-0.11453 0.045741 1.2589 6.1771e-39 451 324 0 0 0 0.41318 -0.3903 -0.82277 0.057756
-0.11306 0.045741 1.2589 6.1771e-39 452 324 0 0 0 0.40912 -0.36925 -0.83443 0.057106
-0.17345 0.047214 1.2589 8.1132e-39 211 325 0 0 0 -0.71986 -0.53457 -0.44275 0.047753
-0.11306 0.047214 1.2589 8.021e-39 252 325 0 0 0 0.42998 -0.32461 -0.84247 0.057415
-0.11159 0.047214 1.2589 7.6522e-39 253 325 0 0 0 0.42941 -0.26777 -0.8625 0.050547
-0.11306 0.048687 1.2589 4.4254e-39 211 326 0 0 0 0.44707 -0.25127 -0.85848 0.051176
-0.17492 0.051633 1.2589 4.4254e-39 202 327 0 0 0 -0.83016 -0.34246 -0.43995 0.036884
-0.11601 0.051633 1.2589 8.2054e-39 242 327 0 0 0 0.49789 -0.18106 -0.84813 0.049002
-0.11453 0.05016 1.2589 6.2693e-39 439 326 0 0 0 0.46969 -0.21913 -0.85521 0.049066
-0.11306 0.05016 1.2589 5.9927e-39 441 326 0 0 0 0.46371 -0.19808 -0.86356 0.046431
-0.11601 0.053106 1.2589 6.8225e-39 216 328 0 0 0 0.50748 -0.12636 -0.85235 0.043737
-0.11601 0.054578 1.2589 5.6239e-39 158 329 0 0 0 0.51475 -0.066232 -0.85478 0.036654
-0.11601 0.056787 1.2589 7.053e-39 317 329.5 0 0 0 0.51788 0.015974 -0.85531 0.028162
-0.11601 0.058997 1.2589 5.5317e-39 497 330 0 0 0 0.51883 0.080633 -0.85107 0.020364
-0.11748 0.061206 1.2589 6.6381e-39 199 331.5 0 0 0 0.53257 0.1372 -0.83519 0.012756
-0.11748 0.063415 1.2589 5.9927e-39 429 332 0 0 0 0.53143 0.17873 -0.82803 0.0088814
-0.11895 0.064888 1.2589 7.8366e-39 217 333 0 0 0 0.53397 0.20535 -0.82019 0.0072219
-0.17492 0.067834 1.2589 8.2054e-39 215 334 0 0 0 -0.87711 0.1126 -0.46691 0.0045741
-0.12043 0.067834 1.2589 6.0849e-39 395 334 0 0 0 0.53716 0.22986 -0.81155 0.0067481
-0.17492 0.069307 1.2589 7.3757e-39 502 334 0 0 0 -0.87051 0.12925 -0.47487 0.0050828
-0.12043 0.069307 1.2589 8.2976e-39 215 335 0 0 0 0.53142 0.23786 -0.81303 0.0069942
-0.1219 0.073725 1.2589 5.0708e-39 156 337 0 0 0 0.52071 0.26605 -0.81122 0.0069846
-0.12337 0.075198 1.2589 7.0069e-39 438 337 0 0 0 0.52653 0.27422 -0.80472 0.0063909
-0.12484 0.076671 1.2589 7.9288e-39 214 338 0 0 0 0.52496 0.28234 -0.80293 0.0061785
-0.12632 0.079617 1.2589 7.1913e-39 229 339 0 0 0 0.51759 0.29188 -0.8043 0.0060585
-0.12484 0.078881 1.2589 6.4537e-39 349 338.5 0 0 0 0.515 0.28572 -0.80817 0.0064701
-0.17198 0.08109 1.2589 6.7303e-39 434 339 0 0 0 -0.83862 0.18794 -0.51127 0.009329
-0.12779 0.082562 1.2589 7.4678e-39 248 340 0 0 0 0.50628 0.29559 -0.81013 0.0068643
-0.13074 0.084771 1.2589 6.9608e-39 361.5 340.5 0 0 0 0.50074 0.30074 -0.81167 0.0064559
-0.12926 0.084771 1.2589 7.2835e-39 362.5 340.5 0 0 0 0.49905 0.29244 -0.81574 0.0071401
-0.13221 0.086981 1.2589 5.8083e-39 466 341 0 0 0 0.49593 0.29491 -0.81675 0.0064488
-0.13074 0.086981 1.2589 5.8083e-39 467 341 0 0 0 0.49041 0.28592 -0.82325 0.0071747
-0.1705 0.088454 1.2589 6.9147e-39 207 342 0 0 0 -0.82545 0.23418 -0.5136 0.0098215
-0.13221 0.08919 1.2589 7.0069e-39 344.5 342 0 0 0 0.48858 0.28021 -0.8263 0.0071325
-0.13368 0.092872 1.2589 6.5459e-39 440 343 0 0 0 0.47674 0.26685 -0.83756 0.00763
-0.13663 0.095818 1.2589 6.3615e-39 410 344 0 0 0 0.47122 0.2573 -0.84365 0.006847
-0.13515 0.095082 1.2589 6.4998e-39 308 344 0 0 0 0.46857 0.2558 -0.84558 0.0075643
-0.13368 0.095082 1.2589 6.3615e-39 309 344 0 0 0 0.46296 0.24775 -0.85105 0.0078725
-0.13663 0.097291 1.2589 6.1771e-39 146 345 0 0 0 0.46357 0.24809 -0.85062 0.0071009
-0.16756 0.098764 1.2589 7.1913e-39 240 345 0 0 0 -0.73373 0.34388 -0.58599 0.020921
-0.13957 0.098764 1.2589 5.9005e-39 394 345 0 0 0 0.45465 0.26149 -0.85142 0.0075515
-0.14105 0.10097 1.2589 6.1771e-39 382 345.5 0 0 0 0.42764 0.2692 -0.86294 0.010375
-0.13883 0.10097 1.2589 5.8544e-39 416 345.5 0 0 0 0.43663 0.24391 -0.86595 0.0086311
-0.14105 0.10318 1.2589 8.2976e-39 466 346 0 0 0 0.40604 0.25889 -0.87642 0.011536
-0.13883 0.10318 1.2589 8.3898e-39 470.5 346 0 0 0 0.41675 0.23614 -0.87781 0.0092865
-0.14105 0.10466 1.2589 6.8225e-39 232 347 0 0 0 0.38804 0.25405 -0.88593 0.013047
-0.13883 0.10466 1.2589 7.1452e-39 233.5 347 0 0 0 0.40056 0.22952 -0.88706 0.0095708
-0.16167 0.1076 1.2589 6.6381e-39 207 348 0 0 0 -0.4545 0.39937 -0.7962 0.05191
-0.14105 0.10687 1.2589 7.2374e-39 338.5 347.5 0 0 0 0.36428 0.24949 -0.89725 0.013076
-0.13883 0.10613 1.2589 8.0671e-39 457.5 347 0 0 0 0.38053 0.22736 -0.89638 0.010127
-0.16019 0.10907 1.2589 6.8225e-39 432 348 0 0 0 -0.39435 0.39592 -0.8293 0.056733
-0.14325 0.10907 1.2589 6.4076e-39 443.5 348 0 0 0 0.31621 0.27058 -0.90929 0.018542
-0.14325 0.11055 1.2589 6.4537e-39 205.5 349 0 0 0 0.29422 0.26288 -0.91887 0.018676
-0.14105 0.11055 1.2589 6.8225e-39 207 349 0 0 0 0.32755 0.23527 -0.91507 0.012425
-0.15872 0.11276 1.2589 5.9927e-39 271 349.5 0 0 0 -0.35368 0.35124 -0.86691 0.055797
-0.14546 0.11276 1.2589 6.2232e-39 287 349.5 0 0 0 0.21617 0.27495 -0.93684 0.028289
-0.14325 0.11276 1.2589 6.0849e-39 309.5 349.5 0 0 0 0.26299 0.25079 -0.93163 0.01858
-0.15872 0.11496 1.2589 6.0849e-39 256 350 0 0 0 -0.35733 0.31723 -0.87845 0.053614
-0.14546 0.11496 1.2589 5.6239e-39 390 350 0 0 0 0.19029 0.25804 -0.94721 0.026352
-0.14325 0.11496 1.2589 5.8544e-39 391.5 350 0 0 0 0.24202 0.24456 -0.93895 0.017663
-0.15872 0.11644 1.2589 8.482e-39 466 350 0 0 0 -0.35484 0.30348 -0.8843 0.051778
-0.15725 0.11717 1.2589 7.6983e-39 347.5 350.5 0 0 0 -0.26588 0.29594 -0.91745 0.049371
-0.15528 0.11742 1.2589 7.7444e-39 309 350.67 0 0 0 -0.18586 0.28989 -0.93884 0.047769
-0.15283 0.11791 1.2589 7.3757e-39 231 351 0 0 0 -0.098063 0.26871 -0.95822 0.046904
-0.14841 0.11717 1.2589 5.8544e-39 373 350.5 0 0 0 0.095176 0.25711 -0.96169 0.033808
-0.14694 0.11717 1.2589 5.9466e-39 374 350.5 0 0 0 0.13835 0.2507 -0.95813 0.02927
-0.14546 0.11717 1.2589 5.9927e-39 375 350.5 0 0 0 0.18685 0.25405 -0.94897 0.022342
-0.1543 0.11938 1.2589 7.9288e-39 441 351 0 0 0 -0.15469 0.25145 -0.95543 0.045256
-0.15283 0.11938 1.2589 8.2976e-39 442 351 0 0 0 -0.099354 0.24781 -0.9637 0.043661
-0.14841 0.11938 1.2589 9.404e-39 445 351 0 0 0 0.095553 0.2434 -0.96521 0.029914
-0.14694 0.11938 1.2589 9.2196e-39 446 351 0 0 0 0.13076 0.24809 -0.95987 0.026845
-0.14546 0.11938 1.2589 9.1274e-39 447 351 0 0 0 0.176 0.24424 -0.95361 0.019544
-0.15283 0.12086 1.2589 5.9005e-39 206 352 0 0 0 -0.086753 0.22727 -0.96996 0.040126
-0.14988 0.12086 1.2589 6.1771e-39 208 352 0 0 0 0.032449 0.23253 -0.97205 0.03377
-0.14694 0.12086 1.2589 6.5459e-39 214 352 0 0 0 0.13417 0.23244 -0.96331 0.023251
-0.15283 0.12233 1.2589 6.5459e-39 407 352 0 0 0 -0.085407 0.2251 -0.97059 0.03914
-0.14988 0.12307 1.2589 5.0246e-39 496.5 352 0 0 0 0.047993 0.23087 -0.9718 0.029736
-0.14694 0.12233 1.2589 6.7303e-39 425 352 0 0 0 0.13694 0.23032 -0.96343 0.021414
-0.15136 0.12527 1.2589 5.9005e-39 381 353 0 0 0 -0.0022602 0.22165 -0.97512 0.03025
-0.14988 0.12527 1.2589 5.8083e-39 382 353 0 0 0 0.069411 0.22499 -0.97189 0.025254
-0.15283 0.12675 1.2589 8.6664e-39 469 353 0 0 0 -0.045292 0.21205 -0.97621 0.032462
-0.15136 0.12675 1.2589 8.482e-39 470 353 0 0 0 0.0035453 0.21847 -0.97584 0.028991
-0.14988 0.12675 1.2589 5.3473e-39 508 353 0 0 0 0.066044 0.22326 -0.97252 0.02376
-0.15136 0.12822 1.2589 5.8083e-39 249 354 0 0 0 0.013628 0.22137 -0.97509 0.027774
-0.14988 0.12822 1.2589 6.2693e-39 250 354 0 0 0 0.068097 0.22315 -0.9724 0.022819
-0.15314 0.039931 1.2615 6.3615e-39 242 321 0 0 0 -0.04594 -0.93953 -0.33938 0.001539
-0.14429 0.039931 1.2615 7.6522e-39 248 321 0 0 0 0.016352 -0.92776 -0.37281 0.0029353
-0.14281 0.039931 1.2615 7.8366e-39 249 321 0 0 0 0.026418 -0.92461 -0.38001 0.003359
-0.14133 0.039931 1.2615 7.8366e-39 250 321 0 0 0 0.038732 -0.92025 -0.38941 0.0041751
-0.13905 0.039911 1.2608 7.2374e-39 251.5 321 0 0 0 0.067851 -0.90289 -0.42448 0.0068578
-0.13691 0.039931 1.2615 7.4678e-39 253 321 0 0 0 0.085774 -0.89342 -0.44096 0.0082894
-0.13543 0.039931 1.2615 7.7444e-39 254 321 0 0 0 0.10778 -0.87808 -0.46622 0.011171
-0.13321 0.039931 1.2615 7.6983e-39 255.5 321 0 0 0 0.12953 -0.86081 -0.49216 0.013538
-0.131 0.039931 1.2615 7.56e-39 257 321 0 0 0 0.16844 -0.83206 -0.52849 0.020268
-0.16937 0.041407 1.2615 7.9288e-39 243 322 0 0 0 -0.42171 -0.80925 -0.409 0.03863
-0.16716 0.041407 1.2615 7.6522e-39 244.5 322 0 0 0 -0.37031 -0.83884 -0.39903 0.034461
-0.16478 0.041365 1.2602 7.6522e-39 246 322 0 0 0 -0.31704 -0.86329 -0.3927 0.029402
-0.1633 0.041365 1.2602 7.4678e-39 247 322 0 0 0 -0.27916 -0.87881 -0.38699 0.024386
-0.16183 0.041365 1.2602 7.56e-39 248 322 0 0 0 -0.23996 -0.89259 -0.38171 0.021215
-0.12939 0.041365 1.2602 6.1771e-39 425 322 0 0 0 0.22202 -0.78597 -0.57702 0.030766
-0.12725 0.041386 1.2608 6.2232e-39 426.5 322 0 0 0 0.25909 -0.74768 -0.61143 0.037333
-0.1251 0.041407 1.2615 6.0849e-39 428 322 0 0 0 0.2713 -0.7255 -0.63249 0.041615
-0.12362 0.041407 1.2615 5.9005e-39 429 322 0 0 0 0.28489 -0.70608 -0.6483 0.043659
-0.17233 0.042883 1.2615 4.9786e-39 208 323 0 0 0 -0.56314 -0.7051 -0.43094 0.045556
-0.17068 0.042839 1.2602 1.3184e-38 217 323 0 0 0 -0.50455 -0.7461 -0.43447 0.043203
-0.12276 0.042839 1.2602 7.7905e-39 249.5 323 0 0 0 0.34095 -0.64364 -0.68519 0.052075
-0.12055 0.042839 1.2602 7.7444e-39 251 323 0 0 0 0.34752 -0.61143 -0.7109 0.053299
-0.11907 0.042839 1.2602 8.1132e-39 252 323 0 0 0 0.35648 -0.58876 -0.72545 0.054285
-0.11698 0.042883 1.2615 8.1593e-39 253.5 323 0 0 0 0.3488 -0.55238 -0.75711 0.05884
-0.11477 0.042883 1.2615 7.9288e-39 255 323 0 0 0 0.33442 -0.49986 -0.79894 0.059649
-0.11329 0.042883 1.2615 8.1132e-39 256 323 0 0 0 0.33176 -0.47935 -0.8125 0.05967
-0.11182 0.042883 1.2615 8.2054e-39 257 323 0 0 0 0.3265 -0.4564 -0.8277 0.058026
-0.17528 0.045835 1.2615 7.9288e-39 248 324 0 0 0 -0.72402 -0.53658 -0.43345 0.045618
-0.11613 0.044314 1.2602 8.7586e-39 219 324 0 0 0 0.37358 -0.48915 -0.78815 0.060272
-0.11465 0.044314 1.2602 7.2835e-39 220 324 0 0 0 0.36269 -0.47117 -0.80402 0.060472
-0.11318 0.044314 1.2602 5.8083e-39 221 324 0 0 0 0.36576 -0.42903 -0.82592 0.059934
-0.11102 0.045074 1.2608 5.9466e-39 338.25 324 0 0 0 0.36796 -0.37195 -0.85221 0.055694
-0.17528 0.047311 1.2615 5.2552e-39 210 325 0 0 0 -0.75623 -0.49785 -0.42458 0.046858
-0.11034 0.047311 1.2615 7.6522e-39 254 325 0 0 0 0.38978 -0.27108 -0.88011 0.053392
-0.17528 0.048786 1.2615 6.1771e-39 438 325 0 0 0 -0.78193 -0.45403 -0.42712 0.044579
-0.11102 0.048762 1.2608 5.4395e-39 212.5 326 0 0 0 0.41801 -0.24515 -0.87474 0.051099
-0.1751 0.050211 1.2602 8.5742e-39 238 326 0 0 0 -0.80976 -0.40237 -0.42707 0.041447
-0.11465 0.051685 1.2602 8.1132e-39 243 327 0 0 0 0.47665 -0.16509 -0.86345 0.04977
-0.11318 0.051685 1.2602 8.2976e-39 244 327 0 0 0 0.46938 -0.15401 -0.86946 0.046779
-0.11102 0.050974 1.2608 6.9608e-39 348.5 326.5 0 0 0 0.44334 -0.16119 -0.88174 0.045575
-0.10886 0.050262 1.2615 6.6381e-39 453 326 0 0 0 0.40911 -0.14846 -0.90033 0.04243
-0.11465 0.05316 1.2602 7.0991e-39 217 328 0 0 0 0.49235 -0.12379 -0.86155 0.045968
-0.11318 0.05316 1.2602 7.6522e-39 218 328 0 0 0 0.47688 -0.098211 -0.87346 0.04209
-0.11102 0.053187 1.2608 8.7125e-39 219.5 328 0 0 0 0.45364 -0.081881 -0.88741 0.03982
-0.11465 0.054634 1.2602 5.5317e-39 159 329 0 0 0 0.50173 -0.060115 -0.86293 0.037495
-0.11318 0.054634 1.2602 5.8083e-39 160 329 0 0 0 0.48481 -0.036104 -0.87387 0.033478
-0.11102 0.054662 1.2608 5.67e-39 161.5 329 0 0 0 0.46069 -0.021111 -0.88731 0.030711
-0.11465 0.056846 1.2602 7.2374e-39 318 329.5 0 0 0 0.5035 0.011875 -0.86391 0.028647
-0.11318 0.056846 1.2602 7.3757e-39 319 329.5 0 0 0 0.49551 0.02319 -0.86829 0.026608
-0.11125 0.056619 1.2606 7.0683e-39 354 329.33 0 0 0 0.47906 0.017386 -0.87761 0.026273
-0.11465 0.059057 1.2602 5.0708e-39 498 330 0 0 0 0.50241 0.080943 -0.86083 0.020075
-0.11318 0.059057 1.2602 4.9786e-39 499 330 0 0 0 0.49907 0.087106 -0.86217 0.018771
-0.11182 0.059117 1.2615 5.2552e-39 500 330 0 0 0 0.47793 0.086514 -0.87413 0.018576
-0.11613 0.060531 1.2602 7.9288e-39 239 331 0 0 0 0.51763 0.11173 -0.84828 0.016884
-0.11477 0.060593 1.2615 7.7444e-39 242 331 0 0 0 0.5 0.11844 -0.85789 0.01588
-0.11318 0.060531 1.2602 7.4678e-39 243 331 0 0 0 0.49489 0.12472 -0.85996 0.014499
-0.11182 0.060593 1.2615 4.9786e-39 387 331 0 0 0 0.47325 0.12465 -0.87206 0.013629
-0.11613 0.062743 1.2602 5.6701e-39 295.5 332 0 0 0 0.5134 0.16853 -0.84144 0.010301
-0.11477 0.062807 1.2615 5.7162e-39 297 332 0 0 0 0.49526 0.1631 -0.8533 0.010519
-0.11329 0.062807 1.2615 5.6239e-39 298 332 0 0 0 0.48146 0.16064 -0.86162 0.010553
-0.11182 0.062807 1.2615 5.7622e-39 299.5 332 0 0 0 0.47324 0.16143 -0.86602 0.010029
-0.11687 0.064954 1.2602 8.021e-39 218.5 333 0 0 0 0.5137 0.19982 -0.83437 0.0081786
-0.11477 0.065021 1.2615 8.2054e-39 220 333 0 0 0 0.48628 0.19609 -0.85152 0.0086605
-0.11329 0.065021 1.2615 8.2054e-39 221 333 0 0 0 0.47578 0.19135 -0.8585 0.008543
-0.11907 0.067166 1.2602 5.7622e-39 271.5 334 0 0 0 0.52486 0.22219 -0.82167 0.0073914
-0.11695 0.067218 1.2612 5.6008e-39 273 334 0 0 0 0.49891 0.21608 -0.83928 0.0084
-0.11907 0.069378 1.2602 8.021e-39 216 335 0 0 0 0.51609 0.23206 -0.8245 0.0076897
-0.11698 0.069448 1.2615 7.6983e-39 217.5 335 0 0 0 0.49016 0.2195 -0.84354 0.008711
-0.1751 0.070852 1.2602 5.7161e-39 390 335 0 0 0 -0.87483 0.14222 -0.46309 0.0036731
-0.12055 0.070852 1.2602 7.2835e-39 497 335 0 0 0 0.51992 0.24752 -0.81757 0.007555
-0.1192 0.070924 1.2615 7.56e-39 498 335 0 0 0 0.50387 0.23801 -0.83034 0.0081206
-0.11624 0.070924 1.2615 7.56e-39 500 335 0 0 0 0.47764 0.22247 -0.84992 0.0088891
-0.17528 0.0724 1.2615 7.56e-39 209 336 0 0 0 -0.87985 0.1487 -0.4514 0.0028572
