# .PCD v.7 - Point Cloud Data file format
VERSION .7
FIELDS x y z rgb u v vx vy vz normal_x normal_y normal_z curvature
SIZE 4 4 4 4 4 4 4 4 4 4 4 4 4
TYPE F F F F F F F F F F F F F
COUNT 1 1 1 1 1 1 1 1 1 1 1 1 1
WIDTH 549
HEIGHT 1
VIEWPOINT 0 0 0 1 0 0 0
POINTS 549
DATA ascii
0.034259 0.10729 1.0016 6.3154e-39 431 335.5 0 0 0 0.44735 -0.17974 -0.87611 0.0064192
-0.01027 0.10905 1.0016 6.5459e-39 456 336 0 0 0 -0.43392 -0.12665 -0.89201 0.0045
-0.0090982 0.10905 1.0016 6.6381e-39 457 336 0 0 0 -0.42765 -0.12093 -0.89582 0.0042691
-0.0073377 0.10901 1.0012 6.6381e-39 458.5 336 0 0 0 -0.42494 -0.10755 -0.89881 0.0041166
0.03189 0.10896 1.0008 5.6239e-39 212 337 0 0 0 0.42252 -0.18117 -0.88806 0.0049363
0.033061 0.10896 1.0008 5.9005e-39 213 337 0 0 0 0.42957 -0.17925 -0.88506 0.0051459
0.034845 0.10905 1.0016 6.592e-39 214.5 337 0 0 0 0.45602 -0.17129 -0.87333 0.0062766
-0.01027 0.11081 1.0016 6.4998e-39 306 337.5 0 0 0 -0.42765 -0.12172 -0.89571 0.0035714
-0.0090982 0.11081 1.0016 6.8686e-39 307 337.5 0 0 0 -0.42138 -0.11749 -0.89924 0.0035066
-0.0073361 0.11074 1.001 6.7303e-39 308.5 337.5 0 0 0 -0.41699 -0.10419 -0.90292 0.0032873
0.03189 0.11072 1.0008 7.053e-39 408.5 337.5 0 0 0 0.42564 -0.17155 -0.88848 0.0048123
0.033061 0.11013 1.0008 5.9927e-39 438 337 0 0 0 0.4342 -0.17029 -0.88457 0.0051178
0.034832 0.11076 1.0012 7.1221e-39 411.75 337.5 0 0 0 0.45843 -0.16279 -0.87369 0.0060097
0.036603 0.11081 1.0016 7.0991e-39 414 337.5 0 0 0 0.48281 -0.15601 -0.86172 0.0068775
0.038947 0.11139 1.0016 8.8508e-39 386 338 0 0 0 0.50677 -0.14545 -0.84972 0.0069106
-0.010266 0.1131 1.0012 5.7622e-39 345.5 338.5 0 0 0 -0.41825 -0.11258 -0.90133 0.0025893
-0.0090908 0.11306 1.0008 6.0388e-39 346.5 338.5 0 0 0 -0.41141 -0.10939 -0.90486 0.0026427
-0.0073345 0.11306 1.0008 5.9466e-39 349 338.5 0 0 0 -0.40769 -0.10113 -0.9075 0.0025622
0.03189 0.11247 1.0008 5.2552e-39 163 339 0 0 0 0.43167 -0.1616 -0.88744 0.0048025
0.034832 0.1131 1.0012 5.7391e-39 289 339 0 0 0 0.46991 -0.14831 -0.87017 0.0060144
0.036994 0.11334 1.0016 5.3473e-39 332 339 0 0 0 0.49474 -0.14195 -0.85737 0.0065612
0.038947 0.11314 1.0016 5.3934e-39 292.5 339 0 0 0 0.5119 -0.13549 -0.84829 0.0066103
-0.010262 0.11539 1.0008 6.6842e-39 432 339.5 0 0 0 -0.40915 -0.10947 -0.90588 0.0022743
-0.0090908 0.11481 1.0008 6.3615e-39 466 339 0 0 0 -0.40722 -0.10623 -0.90713 0.0023858
-0.0075296 0.1152 1.0008 6.3615e-39 445.33 339.33 0 0 0 -0.40134 -0.10237 -0.91019 0.0023742
0.034824 0.11542 1.001 6.3154e-39 330.5 340 0 0 0 0.4759 -0.14229 -0.86791 0.0058475
0.036974 0.11523 1.0011 6.7303e-39 297 340 0 0 0 0.49661 -0.13542 -0.85734 0.0062982
0.038947 0.1149 1.0016 7.56e-39 227 340 0 0 0 0.51867 -0.12628 -0.8456 0.0063865
-0.010262 0.11715 1.0008 7.0069e-39 210 341 0 0 0 -0.41085 -0.10516 -0.90562 0.0024581
0.035402 0.11715 1.0008 6.1771e-39 256 341 0 0 0 0.49035 -0.12917 -0.8619 0.005611
0.037374 0.11683 1.0013 6.2693e-39 320 340.67 0 0 0 0.51035 -0.12434 -0.85093 0.0059821
0.038947 0.11667 1.0016 6.0849e-39 352.5 340.5 0 0 0 0.52593 -0.11657 -0.8425 0.0059706
-0.013395 0.1192 1.0016 6.1464e-39 306 341.67 0 0 0 -0.43749 -0.097379 -0.89394 0.0034966
-0.010852 0.11896 1.0012 5.5779e-39 338.5 341.5 0 0 0 -0.41353 -0.099543 -0.90503 0.0026533
0.035402 0.11891 1.0008 6.3615e-39 438.5 341.5 0 0 0 0.49717 -0.11757 -0.85965 0.0051372
0.037174 0.11896 1.0012 6.2693e-39 440 341.5 0 0 0 0.51197 -0.11382 -0.85143 0.0054184
0.038947 0.119 1.0016 5.7162e-39 283.5 342 0 0 0 0.53067 -0.10949 -0.84048 0.0054944
-0.014957 0.12194 1.0016 7.0991e-39 393 343 0 0 0 -0.45448 -0.089589 -0.88624 0.0038923
-0.013197 0.12133 1.0014 6.7534e-39 428.5 342.5 0 0 0 -0.43738 -0.093644 -0.89439 0.0033551
-0.011442 0.12135 1.0016 6.5459e-39 430 342.5 0 0 0 -0.42069 -0.095056 -0.90221 0.0028609
0.035402 0.12067 1.0008 7.1913e-39 218 343 0 0 0 0.49975 -0.10803 -0.85941 0.0048979
0.037744 0.12125 1.0008 6.2233e-39 331.5 343 0 0 0 0.51992 -0.10132 -0.84818 0.0050072
0.038947 0.12135 1.0016 6.131e-39 332.5 343 0 0 0 0.5345 -0.098034 -0.83946 0.0050474
-0.014957 0.12311 1.0016 5.5317e-39 203 344 0 0 0 -0.45538 -0.08865 -0.88587 0.0037373
-0.013194 0.12306 1.0012 5.3012e-39 204.5 344 0 0 0 -0.43767 -0.091424 -0.89447 0.0032794
-0.011442 0.12311 1.0016 5.163e-39 206 344 0 0 0 -0.42168 -0.093294 -0.90193 0.0029464
0.037744 0.12301 1.0008 5.9927e-39 255 344 0 0 0 0.52339 -0.091109 -0.84721 0.0046077
0.038947 0.12311 1.0016 6.0849e-39 256 344 0 0 0 0.53651 -0.08908 -0.83918 0.0044941
0.040118 0.12311 1.0016 6.3615e-39 257 344 0 0 0 0.54353 -0.087308 -0.83484 0.0043502
-0.014957 0.12486 1.0016 7.0529e-39 333.5 344.5 0 0 0 -0.4574 -0.085604 -0.88513 0.0035879
-0.013197 0.12484 1.0014 7.0529e-39 335 344.5 0 0 0 -0.4409 -0.089045 -0.89313 0.0033534
-0.011437 0.12482 1.0012 6.4998e-39 336.5 344.5 0 0 0 -0.42129 -0.092664 -0.90218 0.0027738
0.037744 0.12476 1.0008 6.131e-39 437.5 344.5 0 0 0 0.52342 -0.085292 -0.84779 0.004203
0.038947 0.12486 1.0016 6.1771e-39 438.5 344.5 0 0 0 0.53693 -0.081812 -0.83965 0.0039363
-0.014957 0.1272 1.0016 6.0849e-39 422.5 345.5 0 0 0 -0.45985 -0.08246 -0.88416 0.0035785
-0.013188 0.1271 1.0008 6.2923e-39 424 345.5 0 0 0 -0.43932 -0.085292 -0.89427 0.00322
-0.011433 0.12652 1.0008 6.2693e-39 460 345 0 0 0 -0.42339 -0.089393 -0.90153 0.0028388
0.035402 0.1271 1.0008 5.624e-39 321 346 0 0 0 0.50397 -0.073901 -0.86055 0.0036875
0.037744 0.1271 1.0008 5.5318e-39 326 346 0 0 0 0.52422 -0.072402 -0.8485 0.0036969
0.038947 0.1272 1.0016 5.5318e-39 327 346 0 0 0 0.53598 -0.071918 -0.84116 0.0036615
-0.016129 0.12897 1.0016 5.9005e-39 155 347 0 0 0 -0.47201 -0.080557 -0.8779 0.0036743
-0.014957 0.12897 1.0016 5.8083e-39 156 347 0 0 0 -0.46338 -0.080318 -0.88251 0.0035224
-0.013774 0.12886 1.0008 5.7161e-39 157 347 0 0 0 -0.44771 -0.081929 -0.89042 0.0033278
0.035402 0.12886 1.0008 5.7161e-39 253 347 0 0 0 0.50433 -0.064531 -0.8611 0.0034488
0.037744 0.12886 1.0008 5.5317e-39 255 347 0 0 0 0.52448 -0.06631 -0.84884 0.0034972
0.038947 0.12897 1.0016 5.6239e-39 256 347 0 0 0 0.53528 -0.066584 -0.84205 0.0035068
-0.016129 0.13072 1.0016 6.7303e-39 338 347.5 0 0 0 -0.47375 -0.073478 -0.87759 0.0035218
-0.014957 0.13072 1.0016 6.7303e-39 339 347.5 0 0 0 -0.46389 -0.074523 -0.88275 0.0033404
-0.013774 0.13061 1.0008 6.4537e-39 340 347.5 0 0 0 -0.45101 -0.077214 -0.88917 0.003149
0.037744 0.13061 1.0008 6.131e-39 442 347.5 0 0 0 0.52186 -0.05676 -0.85114 0.003221
0.038947 0.13072 1.0016 6.0849e-39 443 347.5 0 0 0 0.53445 -0.058573 -0.84317 0.0033232
-0.014957 0.13307 1.0016 6.2232e-39 435 348.5 0 0 0 -0.46687 -0.067072 -0.88178 0.0032665
-0.013774 0.13296 1.0008 6.0849e-39 436 348.5 0 0 0 -0.45561 -0.068626 -0.88753 0.0030909
0.035402 0.13237 1.0008 6.5459e-39 222 349 0 0 0 0.50275 -0.04492 -0.86326 0.0029325
0.037744 0.13296 1.0008 6.9147e-39 345 349 0 0 0 0.52057 -0.043635 -0.8527 0.0029864
0.038947 0.13307 1.0016 6.8686e-39 352.5 349 0 0 0 0.53306 -0.046721 -0.84479 0.0031091
-0.016129 0.13483 1.0016 6.7303e-39 223 350 0 0 0 -0.47925 -0.057808 -0.87577 0.0031864
-0.014945 0.13472 1.0008 7.0991e-39 230 350 0 0 0 -0.46339 -0.059268 -0.88417 0.0029717
-0.013774 0.13531 1.0008 6.7303e-39 353.5 350 0 0 0 -0.45588 -0.058807 -0.8881 0.0028799
0.037744 0.13531 1.0008 6.131e-39 309.5 350.5 0 0 0 0.51825 -0.030377 -0.85469 0.003003
0.038915 0.13531 1.0008 6.3154e-39 310.5 350.5 0 0 0 0.5263 -0.033744 -0.84963 0.0031037
-0.016129 0.13658 1.0016 6.6842e-39 430.5 350.5 0 0 0 -0.48089 -0.046547 -0.87555 0.0030814
-0.014957 0.13658 1.0016 6.6842e-39 431.5 350.5 0 0 0 -0.47502 -0.048152 -0.87866 0.0030149
-0.013774 0.13706 1.0008 6.8225e-39 402 351 0 0 0 -0.45797 -0.046956 -0.88773 0.0028468
0.037744 0.13706 1.0008 6.9147e-39 461 351 0 0 0 0.51564 -0.023544 -0.85648 0.0030135
0.038915 0.13706 1.0008 6.4537e-39 462 351 0 0 0 0.52268 -0.026287 -0.85213 0.0030964
0.040704 0.13717 1.0016 6.2232e-39 463.5 351 0 0 0 0.53868 -0.032256 -0.84189 0.0035711
-0.016129 0.13893 1.0016 6.7764e-39 358 352 0 0 0 -0.48455 -0.030904 -0.87422 0.0031307
-0.014957 0.13893 1.0016 6.592e-39 359 352 0 0 0 -0.47549 -0.029973 -0.87921 0.002962
-0.013774 0.13882 1.0008 6.4998e-39 362 352 0 0 0 -0.45634 -0.032228 -0.88922 0.0025921
0.037354 0.13901 1.0008 6.6688e-39 283.33 352.67 0 0 0 0.50619 -0.012728 -0.86233 0.0031091
0.038931 0.13887 1.0012 6.7764e-39 312.5 352.5 0 0 0 0.52018 -0.018779 -0.85385 0.0032089
0.040899 0.13873 1.0016 6.6688e-39 342 352.33 0 0 0 0.53659 -0.024442 -0.84349 0.0037719
-0.016129 0.14127 1.0016 6.6381e-39 317 353.5 0 0 0 -0.48535 -0.0060893 -0.8743 0.0034003
-0.014951 0.14121 1.0012 6.4537e-39 318 353.5 0 0 0 -0.47145 -0.010493 -0.88183 0.0029715
-0.013774 0.14116 1.0008 6.4537e-39 327 353.5 0 0 0 -0.46051 -0.013275 -0.88756 0.0028427
0.037354 0.14096 1.0008 6.3922e-39 439.33 353.33 0 0 0 0.50281 -0.0056134 -0.86438 0.0031415
0.038947 0.14127 1.0016 6.4998e-39 429 353.5 0 0 0 0.51669 -0.0089478 -0.85613 0.0034408
0.040704 0.14128 1.0016 6.7995e-39 430.5 353.5 0 0 0 0.53072 -0.011755 -0.84746 0.0040497
-0.016129 0.14303 1.0016 7.2835e-39 459 354 0 0 0 -0.48652 0.0087331 -0.87362 0.0034496
-0.014945 0.14291 1.0008 7.56e-39 460 354 0 0 0 -0.47067 0.006842 -0.88228 0.0029967
-0.013774 0.14291 1.0008 7.1913e-39 461 354 0 0 0 -0.46353 0.007492 -0.88605 0.0028997
0.037744 0.14291 1.0008 5.6239e-39 214 355 0 0 0 0.49894 0.0029342 -0.86663 0.0032754
0.038915 0.14291 1.0008 5.9927e-39 215 355 0 0 0 0.51081 -0.00030477 -0.85969 0.0034762
0.040688 0.14297 1.0012 5.9466e-39 216.5 355 0 0 0 0.52677 -0.0036631 -0.85 0.0041526
-0.016129 0.14479 1.0016 5.8083e-39 266 355.5 0 0 0 -0.48503 0.025441 -0.87413 0.0035608
-0.014945 0.14467 1.0008 5.7162e-39 267 355.5 0 0 0 -0.47222 0.024617 -0.88114 0.0030945
-0.013774 0.14467 1.0008 5.9466e-39 268 355.5 0 0 0 -0.46267 0.025536 -0.88617 0.0028989
0.037744 0.14467 1.0008 7.053e-39 408.5 355.5 0 0 0 0.49463 0.014453 -0.86898 0.0035041
0.038915 0.14467 1.0008 6.9608e-39 409.5 355.5 0 0 0 0.5052 0.0089754 -0.86296 0.003608
0.040696 0.14476 1.0014 7.3296e-39 411 355.5 0 0 0 0.52538 0.0059677 -0.85085 0.0044771
-0.016129 0.14713 1.0016 6.6842e-39 345 356.5 0 0 0 -0.48351 0.047672 -0.87404 0.003755
-0.014945 0.14702 1.0008 6.7764e-39 346 356.5 0 0 0 -0.46946 0.048125 -0.88164 0.0033601
-0.013774 0.14702 1.0008 6.7303e-39 347 356.5 0 0 0 -0.46033 0.047986 -0.88645 0.0029644
0.037744 0.14702 1.0008 6.4998e-39 440.5 356.5 0 0 0 0.48369 0.035768 -0.87451 0.0037728
0.038947 0.14713 1.0016 6.7303e-39 441.5 356.5 0 0 0 0.50437 0.031722 -0.8629 0.0045292
0.040704 0.14713 1.0016 6.8225e-39 443 356.5 0 0 0 0.52289 0.029619 -0.85189 0.0050723
-0.016129 0.14889 1.0016 6.7303e-39 463 357 0 0 0 -0.48207 0.066846 -0.87358 0.0039294
-0.014945 0.14935 1.0008 6.5459e-39 426 357.5 0 0 0 -0.46846 0.07374 -0.8804 0.003818
-0.013384 0.14955 1.0008 6.4537e-39 414.67 357.67 0 0 0 -0.45627 0.078244 -0.88639 0.0035704
-0.011433 0.14994 1.0008 5.8083e-39 391 358 0 0 0 -0.43563 0.083624 -0.89623 0.0034942
0.037744 0.14935 1.0008 6.131e-39 332 358 0 0 0 0.4794 0.061592 -0.87543 0.0043152
0.038915 0.14935 1.0008 6.0388e-39 333.5 358 0 0 0 0.49352 0.058557 -0.86776 0.0048694
0.040704 0.14889 1.0016 5.8544e-39 219.5 358 0 0 0 0.51846 0.047088 -0.85381 0.005372
-0.016129 0.15065 1.0016 5.4857e-39 263.5 358.5 0 0 0 -0.47965 0.08967 -0.87287 0.0045206
-0.014945 0.15111 1.0008 4.8864e-39 141 359 0 0 0 -0.46503 0.095075 -0.88018 0.0042302
-0.013188 0.15111 1.0008 5.1169e-39 142.5 359 0 0 0 -0.45473 0.094728 -0.88558 0.0038603
-0.011433 0.15111 1.0008 5.4395e-39 144 359 0 0 0 -0.43554 0.097671 -0.89485 0.0035545
0.037744 0.15111 1.0008 8.1132e-39 373 359 0 0 0 0.47578 0.081362 -0.87579 0.0048238
0.038915 0.15111 1.0008 7.8366e-39 374 359 0 0 0 0.48701 0.077313 -0.86997 0.005191
0.040704 0.15065 1.0016 6.4767e-39 413 358.5 0 0 0 0.51299 0.06576 -0.85587 0.0056826
-0.016129 0.15299 1.0016 6.4076e-39 343.5 359.5 0 0 0 -0.47821 0.11427 -0.87078 0.0048348
-0.014945 0.15286 1.0008 6.592e-39 344.5 359.5 0 0 0 -0.46336 0.11113 -0.87918 0.0045104
-0.013188 0.15287 1.0008 6.8456e-39 346 359.5 0 0 0 -0.45294 0.11503 -0.88409 0.0042377
-0.011433 0.15228 1.0008 6.6381e-39 435 359 0 0 0 -0.4313 0.11199 -0.89523 0.0040838
0.037354 0.15267 1.0008 7.0376e-39 450.33 359.33 0 0 0 0.46199 0.097414 -0.88152 0.004607
0.038947 0.15299 1.0016 6.4998e-39 438.5 359.5 0 0 0 0.48212 0.092834 -0.87117 0.0053931
0.040509 0.15279 1.0016 6.8532e-39 453 359.33 0 0 0 0.50237 0.086361 -0.86033 0.0059409
-0.016129 0.15534 1.0016 6.7764e-39 413 360.5 0 0 0 -0.47964 0.14353 -0.86564 0.0053062
-0.014945 0.15521 1.0008 6.3154e-39 414 360.5 0 0 0 -0.462 0.14074 -0.87564 0.0050557
-0.013188 0.15521 1.0008 6.1771e-39 415.5 360.5 0 0 0 -0.44713 0.14441 -0.88273 0.0049633
-0.011433 0.15521 1.0008 6.4537e-39 417 360.5 0 0 0 -0.42682 0.14876 -0.89202 0.0046788
0.037744 0.15462 1.0008 5.163e-39 139 361 0 0 0 0.45888 0.11792 -0.88064 0.0052338
0.038915 0.15521 1.0008 5.7162e-39 285 361 0 0 0 0.46842 0.1172 -0.8757 0.0056817
0.040509 0.15514 1.0016 6.4537e-39 284 361 0 0 0 0.49166 0.11083 -0.86371 0.0063564
-0.014957 0.15709 1.0016 7.4678e-39 477 361 0 0 0 -0.46199 0.16755 -0.87091 0.005416
-0.013199 0.15709 1.0016 7.4678e-39 482.5 361 0 0 0 -0.44815 0.17001 -0.87764 0.0051535
-0.010847 0.15696 1.0008 7.6522e-39 484.5 361 0 0 0 -0.41465 0.1778 -0.89244 0.0048451
0.035402 0.15696 1.0008 6.0849e-39 236 362 0 0 0 0.42679 0.14951 -0.89191 0.005266
0.037159 0.15696 1.0008 6.4076e-39 240 362 0 0 0 0.44173 0.14022 -0.88612 0.0051565
0.038915 0.15696 1.0008 6.8225e-39 244 362 0 0 0 0.46137 0.13552 -0.8768 0.0058766
0.040118 0.15709 1.0016 7.0069e-39 245 362 0 0 0 0.47664 0.13414 -0.8688 0.0063316
-0.014957 0.15826 1.0016 6.1771e-39 386 362 0 0 0 -0.45917 0.17927 -0.87007 0.0054359
-0.013199 0.15885 1.0016 6.2693e-39 440.5 362 0 0 0 -0.44017 0.19625 -0.8762 0.0053437
-0.010854 0.15881 1.0014 5.8544e-39 446.5 362 0 0 0 -0.41186 0.20453 -0.888 0.004993
0.035402 0.15872 1.0008 6.6842e-39 341.5 362.5 0 0 0 0.41711 0.16747 -0.89329 0.0054704
0.037159 0.15872 1.0008 6.9377e-39 343 362.5 0 0 0 0.43318 0.1627 -0.8865 0.0055704
0.038947 0.15885 1.0016 6.8224e-39 344.5 362.5 0 0 0 0.45714 0.15443 -0.87589 0.0060998
0.040118 0.15826 1.0016 6.1771e-39 441 362 0 0 0 0.46965 0.14547 -0.87079 0.0063524
-0.013199 0.1612 1.0016 6.5689e-39 443 363 0 0 0 -0.43249 0.22162 -0.87398 0.0053558
-0.010856 0.1612 1.0016 6.4537e-39 447 363 0 0 0 -0.40657 0.23187 -0.88371 0.0053329
0.035402 0.16106 1.0008 6.2232e-39 339 363.5 0 0 0 0.40445 0.19288 -0.89399 0.0057238
0.037159 0.16106 1.0008 6.0849e-39 342.5 363.5 0 0 0 0.42287 0.18251 -0.88762 0.0057697
0.038947 0.1612 1.0016 6.592e-39 344 363.5 0 0 0 0.44385 0.17686 -0.87847 0.006129
-0.012614 0.16295 1.0016 6.7303e-39 381 364 0 0 0 -0.41619 0.24209 -0.87646 0.0054149
-0.010856 0.16295 1.0016 6.3615e-39 382.5 364 0 0 0 -0.40162 0.24669 -0.88196 0.0054602
-0.0090908 0.16341 1.0008 6.6381e-39 439 364 0 0 0 -0.37505 0.25869 -0.89018 0.0052081
0.03189 0.16399 1.0008 6.3615e-39 220 365 0 0 0 0.33586 0.24246 -0.91017 0.0057855
0.034632 0.16325 1.0011 6.4844e-39 367.67 364.33 0 0 0 0.38342 0.21989 -0.89701 0.006193
0.037189 0.16295 1.0016 6.6381e-39 436.5 364 0 0 0 0.42058 0.20355 -0.88412 0.0064258
-0.012614 0.16412 1.0016 7.6522e-39 491 364 0 0 0 -0.41389 0.2531 -0.87444 0.005627
-0.011051 0.16451 1.0016 7.2528e-39 452.67 364.33 0 0 0 -0.39798 0.2616 -0.8793 0.0055658
-0.0090908 0.16516 1.0008 7.3757e-39 375 365 0 0 0 -0.36963 0.27295 -0.88818 0.0051667
-0.0073345 0.16516 1.0008 6.9608e-39 376.5 365 0 0 0 -0.34243 0.28398 -0.8956 0.0052838
0.03189 0.16516 1.0008 6.2693e-39 422 365 0 0 0 0.32753 0.25201 -0.91061 0.005645
0.033061 0.16516 1.0008 6.5459e-39 423 365 0 0 0 0.34341 0.2466 -0.90623 0.0057484
0.035031 0.16486 1.0013 5.9927e-39 361.33 365 0 0 0 0.38515 0.22969 -0.89381 0.0062586
0.037384 0.16451 1.0016 5.9005e-39 300.33 365 0 0 0 0.41402 0.21362 -0.88485 0.0067891
-0.0090982 0.16706 1.0016 6.6842e-39 430.5 365.5 0 0 0 -0.36336 0.29146 -0.88489 0.0057409
-0.0073404 0.16706 1.0016 6.592e-39 432 365.5 0 0 0 -0.33826 0.29881 -0.89235 0.0057045
-0.0051894 0.16716 1.0011 6.7303e-39 413 365.67 0 0 0 -0.30545 0.30924 -0.90059 0.0054537
0.028963 0.1675 1.0008 6.131e-39 408.5 366 0 0 0 0.26998 0.29423 -0.91681 0.0055243
0.031903 0.16699 1.0012 6.5459e-39 315 366 0 0 0 0.32051 0.27105 -0.90764 0.0058269
0.033061 0.16691 1.0008 6.2693e-39 316 366 0 0 0 0.33301 0.26507 -0.9049 0.005833
0.034245 0.16699 1.0012 6.2232e-39 317.5 366 0 0 0 0.35678 0.25792 -0.89788 0.0062875
-0.0048015 0.1692 1.0016 6.8839e-39 420.33 366.33 0 0 0 -0.28243 0.32947 -0.90093 0.005855
-0.002651 0.16925 1.0008 7.076e-39 407.25 366.5 0 0 0 -0.25458 0.34102 -0.90493 0.0055194
-0.00089466 0.16925 1.0008 7.6983e-39 429.5 366.5 0 0 0 -0.22635 0.35453 -0.90723 0.0055591
0.024865 0.16984 1.0008 7.1913e-39 386 367 0 0 0 0.19862 0.3408 -0.91891 0.0058216
0.027206 0.16984 1.0008 6.7303e-39 388 367 0 0 0 0.23163 0.3257 -0.91666 0.0050901
0.028974 0.16932 1.0012 6.9378e-39 300 367 0 0 0 0.26201 0.31337 -0.91277 0.0053838
0.031118 0.16911 1.0011 7.0684e-39 274.67 367 0 0 0 0.29323 0.29664 -0.90886 0.0057127
0.033088 0.16939 1.0016 7.0991e-39 307.5 367 0 0 0 0.32478 0.29028 -0.90014 0.0062796
0.034259 0.16939 1.0016 6.9608e-39 308.5 367 0 0 0 0.34363 0.28433 -0.89503 0.0066029
-0.0044109 0.17115 1.0016 7.2835e-39 465 367 0 0 0 -0.25906 0.34725 -0.90128 0.0060968
-0.0026531 0.17115 1.0016 7.053e-39 467.5 367 0 0 0 -0.24434 0.35986 -0.90045 0.0057342
-0.00089539 0.17115 1.0016 6.6381e-39 470 367 0 0 0 -0.21949 0.36637 -0.90421 0.0056833
0.002618 0.17101 1.0008 7.1913e-39 473 367 0 0 0 -0.16168 0.38481 -0.90872 0.0051177
0.024865 0.17101 1.0008 5.5317e-39 503 367 0 0 0 0.18895 0.35012 -0.91745 0.0054166
0.02662 0.17101 1.0008 6.6381e-39 504.5 367 0 0 0 0.21651 0.34053 -0.91497 0.0050912
0.028986 0.17115 1.0016 7.0991e-39 506.5 367 0 0 0 0.25195 0.32905 -0.91008 0.0054386
0.030744 0.17115 1.0016 7.4678e-39 508 367 0 0 0 0.27614 0.32106 -0.90591 0.0059355
-0.0026531 0.17291 1.0016 6.0388e-39 337 368 0 0 0 -0.23343 0.36265 -0.90222 0.0063879
-0.00089539 0.17291 1.0016 6.1771e-39 338.5 368 0 0 0 -0.20476 0.37625 -0.90361 0.0059756
0.00066651 0.17297 1.0008 6.761e-39 370 368 0 0 0 -0.18418 0.38448 -0.90457 0.0054494
0.0032047 0.17284 1.0012 6.8225e-39 343 368 0 0 0 -0.14926 0.39723 -0.9055 0.0049344
0.0049597 0.17336 1.0008 5.9927e-39 432 368 0 0 0 -0.1213 0.40802 -0.90488 0.0048871
0.0067161 0.17277 1.0008 6.7533e-39 349.5 368 0 0 0 -0.089899 0.41141 -0.907 0.0049213
0.010814 0.17336 1.0008 6.7303e-39 444 368 0 0 0 -0.027379 0.4189 -0.90762 0.0049497
0.015108 0.17297 1.0008 6.4844e-39 388.67 368 0 0 0 0.039958 0.41182 -0.91039 0.0049197
0.01901 0.17336 1.0008 6.5459e-39 451 368 0 0 0 0.090751 0.39909 -0.91241 0.0047849
0.021352 0.17336 1.0008 6.6381e-39 453 368 0 0 0 0.12226 0.38693 -0.91397 0.005234
0.023304 0.17297 1.0008 6.6074e-39 395.67 368 0 0 0 0.15605 0.3726 -0.91478 0.0051762
0.024885 0.17291 1.0016 6.2693e-39 368.5 368 0 0 0 0.18444 0.36455 -0.91273 0.0052168
0.026637 0.17288 1.0014 7.076e-39 391 368 0 0 0 0.20801 0.35773 -0.91036 0.0051694
0.028986 0.17232 1.0016 8.2515e-39 362.5 368 0 0 0 0.24876 0.33893 -0.90733 0.0055537
0.030744 0.17232 1.0016 8.482e-39 364 368 0 0 0 0.26793 0.3308 -0.90487 0.0060687
0.00086207 0.17522 1.0014 6.3845e-39 299 369 0 0 0 -0.1676 0.39478 -0.90336 0.0059197
0.003206 0.17467 1.0016 6.9147e-39 217.5 369 0 0 0 -0.14089 0.41025 -0.90103 0.0052152
0.0049617 0.17518 1.0012 7.1913e-39 302.5 369 0 0 0 -0.11252 0.41721 -0.90182 0.0048958
0.0067202 0.17522 1.0014 6.8917e-39 304.25 369 0 0 0 -0.086995 0.42611 -0.90048 0.0047628
0.0088649 0.17536 1.0011 6.423e-39 334 369 0 0 0 -0.056958 0.43068 -0.90071 0.0046881
0.011402 0.17515 1.001 6.6612e-39 308.5 369 0 0 0 -0.023024 0.43264 -0.90127 0.0048608
0.013156 0.1757 1.0008 6.2693e-39 393 369 0 0 0 0.0039244 0.43211 -0.90181 0.0047859
0.014918 0.17519 1.0012 6.5459e-39 311.5 369 0 0 0 0.030118 0.42356 -0.90537 0.0045839
0.017253 0.17512 1.0008 6.8225e-39 313.5 369 0 0 0 0.062041 0.4144 -0.90798 0.0046871
0.019018 0.17518 1.0012 6.9147e-39 315 369 0 0 0 0.084042 0.40681 -0.90964 0.0046937
0.020775 0.17519 1.0012 6.8225e-39 316.5 369 0 0 0 0.10832 0.40016 -0.91002 0.0050216
0.023123 0.17522 1.0014 6.7764e-39 318.5 369 0 0 0 0.14316 0.3885 -0.91026 0.0052687
0.026057 0.17467 1.0016 6.8225e-39 238 369 0 0 0 0.1944 0.37295 -0.90726 0.0054684
0.0061356 0.17701 1.0016 7.3757e-39 491 369 0 0 0 -0.089666 0.43795 -0.89451 0.0052607
0.0090651 0.17701 1.0016 6.7303e-39 493.5 369 0 0 0 -0.057213 0.44379 -0.8943 0.0048683
0.011409 0.17701 1.0016 6.7303e-39 495.5 369 0 0 0 -0.023816 0.44617 -0.89463 0.0050242
0.013166 0.17701 1.0016 7.0069e-39 497 369 0 0 0 0.0034363 0.44014 -0.89792 0.0047052
0.014338 0.17701 1.0016 7.1913e-39 498 369 0 0 0 0.014973 0.43793 -0.89889 0.0046351
0.017268 0.17701 1.0016 6.9147e-39 500.5 369 0 0 0 0.05705 0.42213 -0.90474 0.0047955
0.020197 0.17701 1.0016 5.2552e-39 503 369 0 0 0 0.094135 0.41378 -0.9055 0.0050752
0.009651 0.17818 1.0016 5.9927e-39 252 370 0 0 0 -0.044443 0.45442 -0.88968 0.0048701
0.013166 0.17818 1.0016 6.3615e-39 255 370 0 0 0 -6.5891e-05 0.45291 -0.89156 0.0048218
0.034287 0.093888 1.0024 7.4678e-39 378 329 0 0 0 0.41792 -0.2745 -0.86602 0.010522
0.033114 0.095061 1.0024 6.0849e-39 421 329 0 0 0 0.40781 -0.25784 -0.87591 0.008073
0.034315 0.095138 1.0032 6.4537e-39 422 329 0 0 0 0.42106 -0.27514 -0.86429 0.010638
-0.012644 0.097565 1.004 6.1771e-39 406 330 0 0 0 -0.47396 -0.26428 -0.83995 0.017687
-0.010681 0.097121 1.0035 5.9005e-39 426 329.67 0 0 0 -0.47192 -0.24426 -0.84713 0.017377
-0.0091055 0.096821 1.0024 5.8544e-39 436.5 329.5 0 0 0 -0.4687 -0.20138 -0.8601 0.015013
0.033114 0.096821 1.0024 5.8544e-39 325 330 0 0 0 0.41317 -0.24749 -0.87638 0.0077072
0.034315 0.096899 1.0032 6.0388e-39 326 330 0 0 0 0.42946 -0.25069 -0.86759 0.010077
-0.012644 0.099327 1.004 6.4076e-39 335.5 331 0 0 0 -0.47325 -0.23826 -0.84809 0.015609
-0.010876 0.099266 1.0034 5.8774e-39 337.5 331 0 0 0 -0.47046 -0.22055 -0.85441 0.015708
-0.0091055 0.099165 1.0024 5.7622e-39 339 331 0 0 0 -0.46529 -0.18244 -0.86615 0.012892
0.033114 0.099165 1.0024 5.9466e-39 307.5 331.5 0 0 0 0.42283 -0.23013 -0.8765 0.0073825
0.034917 0.099286 1.0036 5.9927e-39 309 331.5 0 0 0 0.45034 -0.22892 -0.86301 0.010433
0.036692 0.099914 1.004 6.0849e-39 215 332 0 0 0 0.47416 -0.22405 -0.85146 0.012212
-0.012634 0.10101 1.0032 6.5459e-39 399 332 0 0 0 -0.46688 -0.22096 -0.85627 0.014188
-0.010869 0.10097 1.0028 5.67e-39 400.5 332 0 0 0 -0.46102 -0.1885 -0.86714 0.011766
-0.0091055 0.10092 1.0024 5.9005e-39 402 332 0 0 0 -0.4571 -0.1688 -0.87325 0.010596
0.033114 0.10092 1.0024 6.4537e-39 438 332 0 0 0 0.42427 -0.21254 -0.88024 0.006789
0.034917 0.10105 1.0036 6.5459e-39 439.5 332 0 0 0 0.45073 -0.21538 -0.86629 0.009452
0.036692 0.10109 1.004 5.9927e-39 444 332 0 0 0 0.48107 -0.21455 -0.85002 0.011998
-0.016168 0.10344 1.004 6.0849e-39 433 333 0 0 0 -0.49265 -0.21792 -0.8425 0.014396
-0.014994 0.10344 1.004 6.3615e-39 434 333 0 0 0 -0.48644 -0.21595 -0.84661 0.013724
-0.013226 0.10281 1.0036 6.4306e-39 324.5 333 0 0 0 -0.46855 -0.20529 -0.85925 0.012209
-0.010869 0.10272 1.0028 6.1771e-39 327 333 0 0 0 -0.45961 -0.17879 -0.86994 0.010766
-0.0091055 0.10269 1.0024 5.9927e-39 329 333 0 0 0 -0.44921 -0.15817 -0.87931 0.0087269
0.034888 0.10272 1.0028 6.7303e-39 284 333.5 0 0 0 0.44945 -0.20872 -0.86858 0.0083581
0.037064 0.10299 1.0035 6.0234e-39 249.33 333.67 0 0 0 0.48311 -0.19462 -0.85366 0.010453
0.039042 0.10344 1.004 5.163e-39 178 334 0 0 0 0.50914 -0.1929 -0.83879 0.011751
-0.016168 0.1052 1.004 7.5601e-39 426 334 0 0 0 -0.49437 -0.20055 -0.8458 0.013037
-0.014994 0.1052 1.004 7.3757e-39 427 334 0 0 0 -0.48091 -0.19024 -0.85588 0.011283
-0.013226 0.10516 1.0036 6.9608e-39 428.5 334 0 0 0 -0.46308 -0.18049 -0.86774 0.0097455
-0.010869 0.10507 1.0028 6.6381e-39 353.75 334.25 0 0 0 -0.44497 -0.1576 -0.88157 0.0075241
-0.0091055 0.10503 1.0024 6.9146e-39 278.5 334.5 0 0 0 -0.4442 -0.14265 -0.8845 0.0070805
0.034874 0.10503 1.0024 5.693e-39 334.75 334.5 0 0 0 0.45159 -0.18964 -0.87184 0.0072632
0.03725 0.10511 1.0032 5.4626e-39 341 334.5 0 0 0 0.48976 -0.18491 -0.85202 0.0092868
0.039026 0.10516 1.0036 5.7622e-39 342.5 334.5 0 0 0 0.50903 -0.18419 -0.84081 0.010251
0.040216 0.10579 1.004 6.3615e-39 257 335 0 0 0 0.52622 -0.17556 -0.83203 0.010158
-0.016168 0.10696 1.004 5.7161e-39 415 335 0 0 0 -0.48899 -0.18054 -0.8534 0.011236
-0.014982 0.10688 1.0032 5.3473e-39 416 335 0 0 0 -0.47285 -0.17245 -0.86411 0.0096252
-0.013226 0.10692 1.0036 5.163e-39 417.5 335 0 0 0 -0.45837 -0.16704 -0.87292 0.0085511
-0.01106 0.10718 1.0024 5.5625e-39 355.67 335.33 0 0 0 -0.44283 -0.14567 -0.88469 0.0065419
0.03546 0.10737 1.0024 6.2693e-39 432 335.5 0 0 0 0.46743 -0.17621 -0.86629 0.0072389
0.037034 0.10721 1.0027 6.6074e-39 443.33 335.33 0 0 0 0.48458 -0.17481 -0.8571 0.0080713
0.03901 0.10688 1.0032 6.2693e-39 465 335 0 0 0 0.50761 -0.17318 -0.844 0.0093238
0.040216 0.10696 1.004 5.9927e-39 466 335 0 0 0 0.52965 -0.17236 -0.83052 0.0096189
-0.018518 0.10872 1.004 6.8686e-39 335.5 336 0 0 0 -0.51301 -0.16706 -0.84197 0.01137
-0.016755 0.10873 1.004 6.8455e-39 337 336 0 0 0 -0.494 -0.16506 -0.85365 0.010343
-0.014982 0.10864 1.0032 6.9608e-39 338.5 336 0 0 0 -0.47103 -0.15664 -0.8681 0.0085529
-0.013218 0.10861 1.003 6.8916e-39 340 336 0 0 0 -0.44799 -0.14957 -0.88144 0.0065836
-0.011451 0.10913 1.0024 6.7303e-39 455 336 0 0 0 -0.43512 -0.1362 -0.89001 0.0049467
0.037435 0.1088 1.0029 6.4844e-39 279.33 336.67 0 0 0 0.49331 -0.16422 -0.85421 0.0077567
0.038994 0.10859 1.0028 6.7303e-39 312 336.5 0 0 0 0.50732 -0.15955 -0.84686 0.0081287
0.040608 0.10892 1.004 6.7918e-39 282.33 336.67 0 0 0 0.53214 -0.15545 -0.83226 0.0081268
0.042566 0.10931 1.004 7.1913e-39 222 337 0 0 0 0.56061 -0.14702 -0.81493 0.0079077
-0.018518 0.11166 1.004 5.3473e-39 205 338 0 0 0 -0.50918 -0.14165 -0.84892 0.0092627
-0.016749 0.11103 1.0036 6.7764e-39 300 337.5 0 0 0 -0.48333 -0.14295 -0.86369 0.007902
-0.014982 0.11098 1.0032 6.5459e-39 301.5 337.5 0 0 0 -0.46551 -0.14034 -0.87384 0.0069967
-0.013213 0.11092 1.0026 6.108e-39 303.5 337.5 0 0 0 -0.44543 -0.13356 -0.8853 0.004953
-0.011451 0.1109 1.0024 6.131e-39 305 337.5 0 0 0 -0.43141 -0.13005 -0.89274 0.0040956
0.037805 0.1109 1.0024 7.0991e-39 415 337.5 0 0 0 0.49865 -0.15052 -0.85363 0.007153
0.038978 0.11031 1.0024 5.8083e-39 446 337 0 0 0 0.50957 -0.15028 -0.8472 0.007294
0.040795 0.11105 1.0038 7.5831e-39 417.5 337.5 0 0 0 0.54078 -0.13861 -0.82966 0.0072077
0.042566 0.11107 1.004 7.3296e-39 419 337.5 0 0 0 0.56316 -0.13344 -0.8155 0.0070168
-0.018518 0.11284 1.004 5.0708e-39 429 338 0 0 0 -0.50816 -0.1345 -0.8507 0.0086679
-0.016551 0.11317 1.0035 5.7776e-39 370 338.33 0 0 0 -0.47704 -0.12509 -0.86994 0.0067616
-0.014969 0.11324 1.0024 6.2232e-39 341 338.5 0 0 0 -0.4525 -0.12321 -0.88321 0.0051508
-0.01321 0.11324 1.0024 5.6469e-39 343 338.5 0 0 0 -0.4397 -0.12146 -0.88989 0.0040036
-0.011451 0.11324 1.0024 5.5317e-39 344.5 338.5 0 0 0 -0.42726 -0.11721 -0.8965 0.0031781
0.037805 0.11265 1.0024 5.2552e-39 168 339 0 0 0 0.50282 -0.14236 -0.85259 0.0066867
0.040586 0.11317 1.0035 5.6239e-39 253.33 339 0 0 0 0.53728 -0.1297 -0.83337 0.0064599
0.042566 0.11284 1.004 5.2552e-39 172 339 0 0 0 0.56503 -0.12723 -0.8152 0.0066676
-0.018518 0.1146 1.004 6.0849e-39 352.5 339 0 0 0 -0.50858 -0.1185 -0.85282 0.0077053
-0.016947 0.11476 1.0037 6.2078e-39 389 339 0 0 0 -0.48417 -0.11542 -0.86733 0.0065414
-0.014969 0.115 1.0024 6.1771e-39 461 339 0 0 0 -0.45236 -0.11257 -0.8847 0.0046717
-0.01321 0.115 1.0024 6.592e-39 462.5 339 0 0 0 -0.43796 -0.11369 -0.89178 0.0035717
-0.011451 0.115 1.0024 7.0991e-39 464 339 0 0 0 -0.42349 -0.11135 -0.89903 0.0028135
0.040977 0.11473 1.0035 6.5766e-39 292.33 339.67 0 0 0 0.54851 -0.11894 -0.82764 0.0063928
0.042566 0.1146 1.004 6.3615e-39 325.5 339.5 0 0 0 0.56805 -0.11496 -0.81493 0.006267
-0.018909 0.11714 1.004 5.9312e-39 255.67 340.67 0 0 0 -0.51282 -0.10085 -0.85255 0.007105
-0.016749 0.1169 1.0036 6.592e-39 299 340.5 0 0 0 -0.48034 -0.10205 -0.87112 0.0059049
-0.014969 0.11675 1.0024 7.053e-39 300.5 340.5 0 0 0 -0.45114 -0.10522 -0.88623 0.0043358
-0.01321 0.11676 1.0024 6.8917e-39 302 340.5 0 0 0 -0.43701 -0.10505 -0.8933 0.0033707
-0.011451 0.11675 1.0024 6.7764e-39 303.5 340.5 0 0 0 -0.42121 -0.10426 -0.90095 0.0026935
0.040771 0.11685 1.0032 6.7303e-39 383.5 340.5 0 0 0 0.54542 -0.10765 -0.83122 0.005885
0.043153 0.11694 1.004 6.8224e-39 415.25 340.5 0 0 0 0.57496 -0.10195 -0.81181 0.0057749
-0.018909 0.1191 1.004 5.8083e-39 362 341.33 0 0 0 -0.51169 -0.092614 -0.85416 0.0068328
-0.016749 0.11925 1.0036 6.2002e-39 333.5 341.5 0 0 0 -0.48035 -0.093698 -0.87206 0.0056961
-0.014969 0.1191 1.0024 6.1771e-39 335 341.5 0 0 0 -0.45305 -0.095488 -0.88636 0.004058
-0.012624 0.11852 1.0024 5.3473e-39 428 341 0 0 0 -0.43217 -0.10144 -0.89607 0.003252
-0.011451 0.11852 1.0024 5.163e-39 429 341 0 0 0 -0.42127 -0.10035 -0.90137 0.0026013
0.040754 0.11915 1.0028 5.7392e-39 285 342 0 0 0 0.5512 -0.10382 -0.82789 0.0055098
0.043144 0.11927 1.0038 5.3935e-39 287 342 0 0 0 0.57896 -0.098001 -0.80945 0.0052675
-0.019097 0.12101 1.0036 6.3615e-39 457.5 342 0 0 0 -0.50855 -0.085715 -0.85676 0.0062728
-0.016735 0.12091 1.0028 6.4998e-39 459.5 342 0 0 0 -0.47498 -0.090386 -0.87534 0.0053187
-0.014969 0.12086 1.0024 6.2693e-39 461 342 0 0 0 -0.45565 -0.091517 -0.88544 0.0041041
0.040754 0.12091 1.0028 6.8225e-39 225.5 343 0 0 0 0.55721 -0.097666 -0.82461 0.0051006
0.043136 0.12101 1.0036 7.1913e-39 230.5 343 0 0 0 0.57988 -0.095438 -0.80909 0.0050495
-0.019097 0.12277 1.0036 6.0388e-39 277 343.5 0 0 0 -0.50812 -0.0853 -0.85705 0.0058562
-0.016735 0.12267 1.0028 6.0849e-39 279 343.5 0 0 0 -0.47696 -0.086296 -0.87468 0.004972
0.040955 0.12249 1.0029 5.9005e-39 383 343.33 0 0 0 0.55959 -0.092144 -0.82363 0.0046965
0.043136 0.12277 1.0036 6.0849e-39 353.5 343.5 0 0 0 0.57902 -0.089269 -0.81041 0.0048474
-0.020867 0.12576 1.004 7.0069e-39 237 345 0 0 0 -0.52662 -0.082482 -0.84609 0.0053428
-0.019097 0.12512 1.0036 6.4767e-39 330 344.5 0 0 0 -0.51075 -0.084527 -0.85556 0.0053146
-0.016735 0.12502 1.0028 6.6842e-39 332 344.5 0 0 0 -0.47653 -0.082706 -0.87526 0.0043474
0.040754 0.12502 1.0028 6.3384e-39 440.25 344.5 0 0 0 0.55802 -0.082372 -0.82573 0.0041552
0.042934 0.12491 1.0035 5.7776e-39 453.67 344.33 0 0 0 0.57942 -0.083299 -0.81076 0.0046762
-0.020867 0.12693 1.004 5.9005e-39 452 345 0 0 0 -0.528 -0.079025 -0.84556 0.0050877
-0.019097 0.12688 1.0036 6.2232e-39 453.5 345 0 0 0 -0.50998 -0.079697 -0.85649 0.0048703
-0.016728 0.12731 1.0024 6.5228e-39 421 345.5 0 0 0 -0.47828 -0.081189 -0.87445 0.0040789
0.040553 0.12715 1.0027 5.7776e-39 289.67 346 0 0 0 0.55648 -0.074533 -0.82751 0.0041299
0.042531 0.12683 1.0032 7.1913e-39 214 346 0 0 0 0.57117 -0.076721 -0.81724 0.0042538
-0.020867 0.1287 1.004 7.0529e-39 267 346.5 0 0 0 -0.53016 -0.076231 -0.84446 0.0047666
-0.01909 0.12859 1.0032 7.3065e-39 268.5 346.5 0 0 0 -0.50521 -0.075861 -0.85966 0.004362
-0.017315 0.12907 1.0024 5.6239e-39 154 347 0 0 0 -0.48721 -0.076361 -0.86994 0.003991
0.040955 0.12875 1.0029 6.0542e-39 320 346.67 0 0 0 0.56085 -0.069263 -0.82501 0.0039906
0.042531 0.12859 1.0032 5.9927e-39 352.5 346.5 0 0 0 0.57241 -0.070071 -0.81697 0.0042725
-0.020867 0.13104 1.004 6.5919e-39 334 347.5 0 0 0 -0.52874 -0.068297 -0.84603 0.0043701
-0.019082 0.13088 1.0028 6.6381e-39 335.5 347.5 0 0 0 -0.50819 -0.070802 -0.85833 0.0041198
-0.017315 0.13083 1.0024 6.7303e-39 337 347.5 0 0 0 -0.49039 -0.070951 -0.86861 0.0037329
0.040738 0.13083 1.0024 5.6701e-39 444.5 347.5 0 0 0 0.5542 -0.058959 -0.83029 0.0036353
0.042514 0.13089 1.0028 6.0849e-39 446 347.5 0 0 0 0.56774 -0.060705 -0.82097 0.0041152
-0.020867 0.1334 1.004 6.6842e-39 430 348.5 0 0 0 -0.52834 -0.061689 -0.84679 0.0041412
-0.01909 0.13329 1.0032 6.4076e-39 431.5 348.5 0 0 0 -0.5116 -0.062415 -0.85695 0.003906
-0.016728 0.13318 1.0024 6.1079e-39 433.5 348.5 0 0 0 -0.48664 -0.062681 -0.87135 0.0034028
0.040738 0.13318 1.0024 6.6842e-39 354 349 0 0 0 0.54999 -0.048653 -0.83375 0.0036258
0.043118 0.13329 1.0032 6.5459e-39 356 349 0 0 0 0.57182 -0.054766 -0.81855 0.0043021
-0.02085 0.13504 1.0032 5.9005e-39 219 350 0 0 0 -0.52338 -0.053225 -0.85043 0.00401
-0.019082 0.13499 1.0028 6.2232e-39 220.5 350 0 0 0 -0.50826 -0.056474 -0.85935 0.0038462
-0.017315 0.13494 1.0024 6.4537e-39 222 350 0 0 0 -0.49263 -0.05719 -0.86836 0.0034246
0.040738 0.13494 1.0024 6.7303e-39 400.5 350 0 0 0 0.54715 -0.040674 -0.83605 0.0037424
0.043118 0.13504 1.0032 6.592e-39 402.5 350 0 0 0 0.56916 -0.047368 -0.82086 0.0043716
-0.022042 0.1375 1.004 6.9147e-39 395 351 0 0 0 -0.53683 -0.041363 -0.84268 0.0041676
-0.02085 0.1368 1.0032 6.4998e-39 426.5 350.5 0 0 0 -0.52698 -0.042541 -0.84881 0.0039905
-0.019082 0.13675 1.0028 6.6611e-39 428 350.5 0 0 0 -0.50746 -0.046601 -0.86041 0.003745
-0.017315 0.13669 1.0024 6.7764e-39 429.5 350.5 0 0 0 -0.49527 -0.045421 -0.86755 0.0034011
0.040738 0.13611 1.0024 6.5459e-39 226 351 0 0 0 0.54619 -0.037261 -0.83683 0.0036899
0.043101 0.13675 1.0028 6.6842e-39 348.25 351 0 0 0 0.56317 -0.03833 -0.82545 0.0043759
-0.020859 0.13921 1.0036 6.3615e-39 347 352 0 0 0 -0.52826 -0.025693 -0.84869 0.0041727
-0.019082 0.1391 1.0028 6.7073e-39 348.75 352 0 0 0 -0.51019 -0.025623 -0.85968 0.0038736
-0.017315 0.13904 1.0024 6.8686e-39 357 352 0 0 0 -0.49612 -0.02739 -0.86782 0.003547
0.040151 0.13963 1.0024 6.9147e-39 230 353 0 0 0 0.53178 -0.018484 -0.84668 0.0038087
0.043101 0.1391 1.0028 6.6381e-39 320.25 352.5 0 0 0 0.56038 -0.027521 -0.82778 0.0046772
0.044915 0.13927 1.004 7.1913e-39 326 352.5 0 0 0 0.58134 -0.028253 -0.81317 0.0052126
-0.020867 0.14103 1.004 6.3615e-39 399 353 0 0 0 -0.52722 -0.0096823 -0.84967 0.0043122
-0.018884 0.14123 1.0027 6.6688e-39 343.33 353.33 0 0 0 -0.51094 -0.0088354 -0.85957 0.0039657
-0.017315 0.14138 1.0024 6.9147e-39 316 353.5 0 0 0 -0.49625 -0.0075952 -0.86815 0.0036468
0.043092 0.14141 1.0026 7.03e-39 432.5 353.5 0 0 0 0.55656 -0.014457 -0.83068 0.0049078
0.044915 0.14103 1.004 6.8225e-39 470 353 0 0 0 0.58016 -0.020071 -0.81425 0.0054834
0.04609 0.14103 1.004 6.9147e-39 475 353 0 0 0 0.59032 -0.02011 -0.80692 0.0055201
-0.020867 0.14279 1.004 6.2232e-39 341 354 0 0 0 -0.52744 0.006016 -0.84957 0.0043442
-0.019275 0.14279 1.0027 6.3e-39 380.33 354 0 0 0 -0.51191 0.0051421 -0.85902 0.0041813
-0.017315 0.14314 1.0024 6.8225e-39 458 354 0 0 0 -0.49718 0.0086516 -0.8676 0.0038367
0.043083 0.14314 1.0024 5.8544e-39 218.5 355 0 0 0 0.5538 -0.0064457 -0.83262 0.0050617
0.044897 0.14273 1.0036 5.9927e-39 309 354.5 0 0 0 0.5784 -0.0097444 -0.81569 0.0056894
0.046481 0.14299 1.004 5.6854e-39 280.67 354.67 0 0 0 0.59176 -0.010213 -0.80605 0.0057641
-0.020867 0.14514 1.004 5.5779e-39 262 355.5 0 0 0 -0.52744 0.028485 -0.84911 0.0044416
-0.019082 0.14496 1.0028 5.5548e-39 263.5 355.5 0 0 0 -0.50965 0.029439 -0.85988 0.0042363
-0.017315 0.14491 1.0024 5.624e-39 265 355.5 0 0 0 -0.49664 0.027044 -0.86754 0.0038618
0.043083 0.14491 1.0024 6.9838e-39 413 355.5 0 0 0 0.55247 0.0054206 -0.83351 0.0053597
0.044879 0.14502 1.0032 6.592e-39 414.5 355.5 0 0 0 0.57568 0.0053748 -0.81766 0.0057969
0.046481 0.14494 1.004 6.5766e-39 428.33 355.33 0 0 0 0.59161 0.0043283 -0.80621 0.0058482
-0.023217 0.1469 1.004 6.0849e-39 415 356 0 0 0 -0.5432 0.045714 -0.83836 0.0046401
-0.020859 0.14743 1.0036 6.4076e-39 341 356.5 0 0 0 -0.52416 0.049981 -0.85015 0.0045882
-0.019074 0.14725 1.0024 6.2923e-39 342.5 356.5 0 0 0 -0.50821 0.048227 -0.85988 0.0044059
-0.017315 0.14725 1.0024 6.5459e-39 344 356.5 0 0 0 -0.49743 0.04936 -0.8661 0.0041516
0.043092 0.14728 1.0026 6.2693e-39 445 356.5 0 0 0 0.54933 0.025505 -0.83521 0.0056422
0.044879 0.14737 1.0032 6.0849e-39 446.5 356.5 0 0 0 0.57073 0.024218 -0.82078 0.0059433
0.04609 0.1469 1.004 4.8864e-39 488 356 0 0 0 0.58402 0.018924 -0.81152 0.0059595
-0.022629 0.14867 1.004 6.6611e-39 354 357 0 0 0 -0.5399 0.065515 -0.83917 0.0047103
-0.02085 0.14913 1.0032 7.1913e-39 459 357 0 0 0 -0.52245 0.069135 -0.84986 0.0048752
-0.019074 0.14901 1.0024 7.2374e-39 460.5 357 0 0 0 -0.5079 0.067327 -0.85878 0.0044881
-0.017315 0.14901 1.0024 6.9147e-39 462 357 0 0 0 -0.49676 0.069832 -0.86507 0.0043538
0.043101 0.14907 1.0028 5.9466e-39 221.5 358 0 0 0 0.54982 0.041673 -0.83424 0.0059564
0.044879 0.14913 1.0032 5.9005e-39 223 358 0 0 0 0.56767 0.039757 -0.8223 0.0061029
0.04609 0.14867 1.004 6.3154e-39 318 357.5 0 0 0 0.5833 0.031682 -0.81164 0.0060795
-0.022629 0.15101 1.004 6.7995e-39 437 358 0 0 0 -0.53733 0.089044 -0.83865 0.0046934
-0.02085 0.15089 1.0032 7.4679e-39 438.5 358 0 0 0 -0.5238 0.089268 -0.84715 0.0049058
-0.019074 0.15077 1.0024 7.7675e-39 440 358 0 0 0 -0.50819 0.085984 -0.85694 0.0045662
-0.017315 0.15077 1.0024 8.0674e-39 441.5 358 0 0 0 -0.49494 0.08985 -0.86427 0.004628
0.043101 0.15083 1.0028 6.3384e-39 415 358.5 0 0 0 0.54633 0.05875 -0.83551 0.0061532
0.044879 0.15089 1.0032 6.4537e-39 416.5 358.5 0 0 0 0.56486 0.055131 -0.82334 0.0062666
0.04609 0.15101 1.004 6.4998e-39 417.5 358.5 0 0 0 0.58034 0.052358 -0.81269 0.0061461
-0.022042 0.15337 1.004 6.9608e-39 334.5 359.5 0 0 0 -0.53266 0.11523 -0.83845 0.0048116
-0.020867 0.15337 1.004 6.592e-39 337.5 359.5 0 0 0 -0.52433 0.11615 -0.84356 0.0049094
-0.019086 0.1532 1.003 6.5228e-39 340 359.5 0 0 0 -0.50793 0.1172 -0.85339 0.0049735
-0.017315 0.15312 1.0024 6.3154e-39 342.5 359.5 0 0 0 -0.49248 0.11543 -0.86264 0.0049199
0.041324 0.1537 1.0024 6.0849e-39 401 360 0 0 0 0.51301 0.091372 -0.85351 0.0065332
0.043101 0.15317 1.0028 6.7534e-39 442 359.5 0 0 0 0.54205 0.080107 -0.83652 0.0066088
0.044915 0.15337 1.004 6.8685e-39 443.5 359.5 0 0 0 0.56414 0.076782 -0.8221 0.0063997
0.04609 0.15337 1.004 7.0991e-39 444.5 359.5 0 0 0 0.57378 0.075026 -0.81556 0.0063378
-0.02085 0.155 1.0032 6.2693e-39 447 360 0 0 0 -0.5192 0.13779 -0.84347 0.0050643
-0.019089 0.155 1.0032 6.0388e-39 448.5 360 0 0 0 -0.50895 0.14001 -0.84933 0.0051547
-0.017329 0.155 1.0032 6.2693e-39 450 360 0 0 0 -0.49359 0.14137 -0.85813 0.0052933
0.043101 0.15494 1.0028 6.3154e-39 213.5 361 0 0 0 0.53447 0.097614 -0.83953 0.006836
0.044915 0.15512 1.004 5.7161e-39 215 361 0 0 0 0.56083 0.092003 -0.8228 0.0066531
0.04609 0.15512 1.004 5.7161e-39 216 361 0 0 0 0.57069 0.090495 -0.81617 0.0065272
-0.020859 0.15682 1.0036 7.053e-39 421.5 361 0 0 0 -0.51926 0.15748 -0.83998 0.0051168
-0.019093 0.15679 1.0034 6.9378e-39 423 361 0 0 0 -0.50795 0.16059 -0.84629 0.0052622
-0.016933 0.15691 1.0029 7.3142e-39 441.67 361 0 0 0 -0.48929 0.1633 -0.8567 0.0053191
0.041324 0.15664 1.0024 6.7764e-39 338 361.5 0 0 0 0.50491 0.12051 -0.85472 0.0070314
0.04311 0.15673 1.003 7.076e-39 339.5 361.5 0 0 0 0.53318 0.1134 -0.83837 0.0071892
0.044915 0.1563 1.004 6.7303e-39 433 361 0 0 0 0.55685 0.10616 -0.8238 0.0068678
-0.020867 0.15865 1.004 6.8225e-39 381 362 0 0 0 -0.51713 0.17678 -0.83745 0.005186
-0.018909 0.15904 1.004 6.9147e-39 418 362 0 0 0 -0.50211 0.18581 -0.8446 0.0054027
-0.016742 0.15911 1.0032 7.053e-39 437.5 362 0 0 0 -0.48381 0.19156 -0.85395 0.0055073
-0.014969 0.15956 1.0024 7.3757e-39 492 362 0 0 0 -0.4625 0.20029 -0.8637 0.0056398
0.040933 0.15917 1.0024 7.0683e-39 314.33 362.67 0 0 0 0.48069 0.15024 -0.86392 0.0069346
0.043136 0.15917 1.0036 7.1682e-39 348 362.5 0 0 0 0.5243 0.14075 -0.83982 0.0075364
-0.018518 0.161 1.004 6.1771e-39 384 363 0 0 0 -0.49669 0.20834 -0.84255 0.0055613
-0.016749 0.16093 1.0036 6.1771e-39 385.5 363 0 0 0 -0.48236 0.21052 -0.8503 0.0055925
-0.014969 0.16133 1.0024 6.8225e-39 439.5 363 0 0 0 -0.4578 0.21903 -0.86165 0.0057226
0.040553 0.16117 1.0027 6.884e-39 378.33 363.33 0 0 0 0.47449 0.17273 -0.86315 0.0071955
0.043153 0.161 1.004 6.3615e-39 446.5 363 0 0 0 0.52202 0.15729 -0.83831 0.0077502
-0.018518 0.16276 1.004 7.3296e-39 432.5 363.5 0 0 0 -0.49344 0.22902 -0.83908 0.0056875
-0.016749 0.16269 1.0036 7.4679e-39 434 363.5 0 0 0 -0.48104 0.23073 -0.84579 0.0057139
-0.014969 0.16308 1.0024 7.1913e-39 379 364 0 0 0 -0.45228 0.23857 -0.85938 0.0056769
-0.013797 0.16308 1.0024 7.1913e-39 380 364 0 0 0 -0.43624 0.2417 -0.86676 0.0056912
0.038978 0.16308 1.0024 5.9927e-39 438 364 0 0 0 0.44273 0.19563 -0.87505 0.0065751
0.040955 0.16278 1.0029 6.4537e-39 375.33 364 0 0 0 0.47635 0.18491 -0.85959 0.0076144
0.043153 0.16276 1.004 6.8916e-39 345 364 0 0 0 0.51382 0.17894 -0.83903 0.0081681
-0.016551 0.16482 1.0035 6.884e-39 448 364.33 0 0 0 -0.47198 0.25426 -0.84415 0.0058716
-0.014975 0.16491 1.0028 6.8685e-39 429.5 364.5 0 0 0 -0.44821 0.2577 -0.85598 0.0058388
-0.013406 0.16504 1.0024 7.0376e-39 411 364.67 0 0 0 -0.42777 0.26491 -0.86419 0.0057299
-0.010278 0.16543 1.0024 7.3757e-39 374 365 0 0 0 -0.39269 0.2739 -0.87794 0.0057745
0.036633 0.16543 1.0024 5.9005e-39 426 365 0 0 0 0.40688 0.22939 -0.88421 0.00681
0.038994 0.16491 1.0028 6.2693e-39 333.5 365 0 0 0 0.4382 0.21529 -0.87271 0.007069
0.040779 0.16501 1.0034 5.9005e-39 336 365 0 0 0 0.4704 0.21347 -0.85624 0.00796
0.043349 0.16491 1.004 5.9312e-39 306.67 365 0 0 0 0.50793 0.20365 -0.83698 0.0084026
-0.016168 0.16687 1.004 6.6381e-39 477 365 0 0 0 -0.46515 0.26965 -0.84316 0.0059897
-0.014994 0.16687 1.004 6.9147e-39 488 365 0 0 0 -0.45311 0.27335 -0.84851 0.0061354
-0.013216 0.16725 1.0028 7.2143e-39 405.5 365.5 0 0 0 -0.42049 0.27825 -0.86358 0.0061222
-0.010867 0.16722 1.0026 7.2143e-39 429 365.5 0 0 0 -0.38982 0.28378 -0.87607 0.0061875
0.03546 0.16719 1.0024 5.9466e-39 320 366 0 0 0 0.37999 0.25116 -0.89024 0.0068732
0.037219 0.16719 1.0024 6.0849e-39 322.25 366 0 0 0 0.40256 0.24661 -0.88155 0.0072074
0.03901 0.16732 1.0032 6.4076e-39 324.5 366 0 0 0 0.43402 0.24456 -0.86708 0.0078048
0.040586 0.16717 1.0035 5.962e-39 295.33 366 0 0 0 0.46454 0.23523 -0.85374 0.008379
-0.016168 0.16805 1.004 5.6239e-39 276 366 0 0 0 -0.46336 0.27234 -0.84328 0.0063427
-0.014994 0.16864 1.004 6.131e-39 374.5 366 0 0 0 -0.44948 0.27555 -0.84973 0.0067433
-0.013226 0.16915 1.0036 7.053e-39 473.5 366 0 0 0 -0.42164 0.28948 -0.85932 0.007033
-0.010874 0.16908 1.0032 6.7303e-39 475.5 366 0 0 0 -0.38754 0.29519 -0.87331 0.0072344
-0.0091055 0.16895 1.0024 6.5459e-39 477 366 0 0 0 -0.35955 0.29998 -0.88359 0.0066153
-0.0073464 0.16895 1.0024 7.1913e-39 489.5 366 0 0 0 -0.33191 0.31123 -0.89049 0.0065256
0.03546 0.16895 1.0024 6.7303e-39 216 367 0 0 0 0.3699 0.27216 -0.88832 0.0071493
0.037219 0.16895 1.0024 7.0069e-39 217.5 367 0 0 0 0.39662 0.26386 -0.87924 0.0075746
0.03901 0.16908 1.0032 7.1913e-39 219 367 0 0 0 0.43185 0.26523 -0.86207 0.0082229
0.040803 0.16864 1.004 6.6842e-39 320 366.5 0 0 0 0.46599 0.25181 -0.8482 0.0087845
-0.013032 0.17074 1.0037 6.9762e-39 331.67 367 0 0 0 -0.41342 0.2973 -0.86064 0.0076768
-0.010875 0.17088 1.0034 6.8225e-39 364.5 367 0 0 0 -0.38231 0.30658 -0.87169 0.0076954
-0.0091092 0.17077 1.0028 6.3615e-39 367.5 367 0 0 0 -0.35299 0.31087 -0.88247 0.0072873
-0.007348 0.17074 1.0026 6.3384e-39 369 367 0 0 0 -0.32254 0.32162 -0.89024 0.0071954
-0.0055872 0.1707 1.0024 6.2693e-39 370.5 367 0 0 0 -0.29154 0.33214 -0.89704 0.0068058
0.031942 0.1707 1.0024 6.592e-39 497.5 367 0 0 0 0.30171 0.30929 -0.90184 0.0065769
0.033114 0.17129 1.0024 6.5459e-39 596 367 0 0 0 0.31886 0.31081 -0.89539 0.0068553
0.035088 0.17099 1.0029 7.3142e-39 532.67 367 0 0 0 0.36152 0.29906 -0.8831 0.0076335
0.037249 0.17085 1.0032 7.1682e-39 502 367 0 0 0 0.39733 0.29095 -0.87033 0.0085263
0.039042 0.17098 1.004 5.9927e-39 282.5 367.5 0 0 0 0.43186 0.28997 -0.85406 0.0092264
-0.010883 0.17333 1.004 5.9696e-39 329.5 368 0 0 0 -0.378 0.32519 -0.86682 0.0090875
-0.0091129 0.17319 1.0032 6.2232e-39 331 368 0 0 0 -0.34694 0.32874 -0.87839 0.0084789
-0.0073524 0.17319 1.0032 6.1771e-39 333 368 0 0 0 -0.31318 0.33998 -0.88676 0.0081148
-0.0050008 0.17305 1.0024 6.5689e-39 335 368 0 0 0 -0.26921 0.35026 -0.89713 0.0070014
0.02901 0.17364 1.0024 7.1452e-39 463.5 368 0 0 0 0.24272 0.35568 -0.90254 0.0060208
0.03156 0.17329 1.0027 7.2527e-39 432 368 0 0 0 0.28874 0.34209 -0.89421 0.0067908
0.033128 0.17312 1.0028 6.6842e-39 417.5 368 0 0 0 0.31187 0.33917 -0.88752 0.007408
0.034888 0.17312 1.0028 6.569e-39 419 368 0 0 0 0.3419 0.3333 -0.87865 0.0081655
0.037272 0.1733 1.0038 6.8686e-39 421 368 0 0 0 0.39396 0.32634 -0.85924 0.009938
0.039042 0.17274 1.004 6.7303e-39 371 368 0 0 0 0.42761 0.31251 -0.84822 0.0099158
-0.0091203 0.17509 1.004 5.8083e-39 165 369 0 0 0 -0.34242 0.34596 -0.87353 0.0099893
-0.0073524 0.17495 1.0032 5.5778e-39 166.5 369 0 0 0 -0.30362 0.35505 -0.88417 0.0092239
-0.0050031 0.17488 1.0028 6.4998e-39 210.5 369 0 0 0 -0.25822 0.36389 -0.89493 0.0078184
-0.0026553 0.17481 1.0024 6.6842e-39 212.5 369 0 0 0 -0.22207 0.37308 -0.90083 0.0069942
-0.00089612 0.1754 1.0024 6.4076e-39 297.5 369 0 0 0 -0.19486 0.38695 -0.90128 0.0068029
0.0032086 0.17598 1.0024 6.7764e-39 384.5 369 0 0 0 -0.13396 0.42265 -0.89634 0.0058715
0.024905 0.1754 1.0024 7.053e-39 320 369 0 0 0 0.17739 0.38384 -0.9062 0.005609
0.026859 0.17559 1.0024 7.0991e-39 349.33 369 0 0 0 0.2072 0.37571 -0.90328 0.0060681
0.02901 0.17481 1.0024 5.8544e-39 240.5 369 0 0 0 0.24221 0.36511 -0.89891 0.0065595
0.031381 0.17495 1.0032 5.67e-39 242.5 369 0 0 0 0.28034 0.36537 -0.88764 0.0076793
0.033141 0.17495 1.0032 5.6239e-39 244 369 0 0 0 0.30754 0.35993 -0.88084 0.0083559
0.034917 0.17502 1.0036 5.67e-39 245.5 369 0 0 0 0.34332 0.35524 -0.86945 0.0094635
-0.0073583 0.17627 1.004 6.3154e-39 375.5 369 0 0 0 -0.30068 0.36524 -0.88102 0.010336
-0.0050081 0.17682 1.0038 7.03e-39 424.5 369 0 0 0 -0.25697 0.38529 -0.8863 0.0095906
-0.0026574 0.17671 1.0032 7.3296e-39 426.5 369 0 0 0 -0.21656 0.39348 -0.89346 0.0085538
-0.00089684 0.1773 1.0032 7.4678e-39 475 369 0 0 0 -0.18692 0.41319 -0.89126 0.0083508
0.00086303 0.17716 1.0024 7.5139e-39 476.5 369 0 0 0 -0.16134 0.41709 -0.89443 0.0072544
0.0032086 0.17716 1.0024 7.0991e-39 480.5 369 0 0 0 -0.12595 0.43135 -0.89335 0.0060443
0.0049678 0.17716 1.0024 7.56e-39 490 369 0 0 0 -0.10925 0.43998 -0.89134 0.005792
0.0073133 0.17716 1.0024 7.0991e-39 492 369 0 0 0 -0.07472 0.44622 -0.8918 0.0051173
0.015523 0.17716 1.0024 7.2835e-39 499 369 0 0 0 0.030981 0.43717 -0.89884 0.0047255
0.019041 0.17716 1.0024 6.1771e-39 502 369 0 0 0 0.079056 0.42098 -0.90362 0.0049452
0.021387 0.17716 1.0024 4.5176e-39 504 369 0 0 0 0.11181 0.41427 -0.90326 0.0054922
0.023146 0.17716 1.0024 4.8864e-39 505.5 369 0 0 0 0.1396 0.40683 -0.90278 0.0056798
0.024925 0.1773 1.0032 5.8083e-39 507 369 0 0 0 0.17132 0.40548 -0.89791 0.0063126
0.026675 0.17723 1.0028 6.4076e-39 508.5 369 0 0 0 0.20194 0.39785 -0.89495 0.0067491
0.029033 0.17671 1.0032 6.3154e-39 458.5 369 0 0 0 0.23719 0.38782 -0.89069 0.0076483
0.0314 0.17682 1.0038 5.5087e-39 479.75 369 0 0 0 0.28117 0.38849 -0.87751 0.0090838
0.033168 0.17685 1.004 4.9325e-39 500.5 369 0 0 0 0.30764 0.38555 -0.86989 0.0098537
0.034343 0.17685 1.004 5.1168e-39 501.5 369 0 0 0 0.32035 0.38308 -0.86639 0.010147
-0.0024638 0.17901 1.004 6.423e-39 292.33 370 0 0 0 -0.20645 0.41767 -0.88483 0.0098294
-0.0008972 0.17913 1.0036 6.3615e-39 319 370 0 0 0 -0.17808 0.42436 -0.88781 0.0085296
0.0008635 0.17906 1.0032 6.2923e-39 320.5 370 0 0 0 -0.15272 0.4321 -0.8888 0.007675
0.0032125 0.17913 1.0036 6.4076e-39 322.5 370 0 0 0 -0.11967 0.43895 -0.89051 0.0064846
0.0049738 0.17913 1.0036 6.592e-39 324 370 0 0 0 -0.098623 0.44909 -0.88803 0.00585
0.0067296 0.17899 1.0028 6.6612e-39 325.5 370 0 0 0 -0.078973 0.45531 -0.88683 0.0053798
0.0088793 0.17916 1.0027 6.9454e-39 352.67 370 0 0 0 -0.057285 0.46314 -0.88443 0.0051793
0.010836 0.17899 1.0028 6.7303e-39 329 370 0 0 0 -0.033944 0.46451 -0.88492 0.0053436
0.012398 0.17916 1.0027 6.4537e-39 355.67 370 0 0 0 -0.015879 0.46227 -0.8866 0.0050873
0.014946 0.17903 1.003 6.7533e-39 332.5 370 0 0 0 0.018099 0.45679 -0.88939 0.0051764
0.017289 0.17899 1.0028 7.1221e-39 334.5 370 0 0 0 0.048131 0.43903 -0.89718 0.0050014
0.019049 0.17899 1.0028 7.0991e-39 336 370 0 0 0 0.074318 0.43943 -0.8952 0.0058182
0.020809 0.17899 1.0028 7.0991e-39 337.5 370 0 0 0 0.097481 0.43048 -0.89732 0.0057662
0.02316 0.17903 1.003 7.03e-39 339.5 370 0 0 0 0.13694 0.42413 -0.89519 0.0066269
