# .PCD v.7 - Point Cloud Data file format
VERSION .7
FIELDS x y z rgb u v vx vy vz normal_x normal_y normal_z curvature
SIZE 4 4 4 4 4 4 4 4 4 4 4 4 4
TYPE F F F F F F F F F F F F F
COUNT 1 1 1 1 1 1 1 1 1 1 1 1 1
WIDTH 554
HEIGHT 1
VIEWPOINT 0 0 0 1 0 0 0
POINTS 554
DATA ascii
0.024966 0.17171 1.0049 8.2054e-39 386 368 0 0 0 0.22645 0.39617 -0.88981 0.0078208
0.026932 0.17136 1.0052 6.9761e-39 347.67 368 0 0 0 0.26264 0.38872 -0.88313 0.0081765
0.029104 0.17067 1.0057 6.6381e-39 225.5 368 0 0 0 0.29795 0.38009 -0.87565 0.0080682
0.030869 0.17067 1.0057 6.2693e-39 227 368 0 0 0 0.32744 0.37402 -0.86769 0.0075686
-0.0073703 0.17303 1.0057 7.2835e-39 201.5 369 0 0 0 -0.22518 0.3607 -0.90509 0.012533
-0.0050153 0.17296 1.0053 7.6522e-39 203.5 369 0 0 0 -0.19586 0.37501 -0.9061 0.010749
-0.0008983 0.17289 1.0049 6.8225e-39 208 369 0 0 0 -0.14329 0.40068 -0.90494 0.0088026
0.021439 0.17289 1.0049 6.9147e-39 227 369 0 0 0 0.1679 0.42165 -0.89108 0.0076044
0.023202 0.17289 1.0049 6.4998e-39 228.5 369 0 0 0 0.19196 0.42133 -0.88636 0.0076054
0.024986 0.17303 1.0057 6.7303e-39 230 369 0 0 0 0.22315 0.41666 -0.88125 0.0076977
0.026751 0.17303 1.0057 7.053e-39 231.5 369 0 0 0 0.25487 0.41061 -0.87546 0.0081123
-0.0044288 0.1742 1.0057 7.3757e-39 366 369 0 0 0 -0.17923 0.39673 -0.90027 0.011567
-0.0026628 0.17472 1.0053 7.1913e-39 284 369.5 0 0 0 -0.15131 0.41117 -0.89891 0.0099864
-0.00089867 0.17472 1.0053 7.3757e-39 285.5 369.5 0 0 0 -0.13486 0.42896 -0.8932 0.0091298
0.00027733 0.17524 1.0049 7.6522e-39 203 370 0 0 0 -0.11752 0.43484 -0.89281 0.0087975
0.0034134 0.17489 1.0052 7.1913e-39 261.33 369.67 0 0 0 -0.080666 0.44059 -0.89408 0.008066
0.0049799 0.17524 1.0049 6.7303e-39 207 370 0 0 0 -0.065667 0.44428 -0.89348 0.008096
0.0073312 0.17524 1.0049 7.0069e-39 209 370 0 0 0 -0.032314 0.44776 -0.89357 0.0083808
0.0085068 0.17524 1.0049 7.0069e-39 210 370 0 0 0 -0.019043 0.44875 -0.89346 0.008352
0.010858 0.17524 1.0049 7.2835e-39 212 370 0 0 0 0.015196 0.44934 -0.89323 0.0083204
0.012034 0.17524 1.0049 7.0069e-39 213 370 0 0 0 0.030917 0.44567 -0.89466 0.0079341
0.015173 0.17489 1.0052 7.1605e-39 271.33 369.67 0 0 0 0.076278 0.44642 -0.89157 0.007462
0.017133 0.17489 1.0052 7.3142e-39 273 369.67 0 0 0 0.099439 0.44938 -0.88779 0.0068077
0.019095 0.17472 1.0053 7.8827e-39 302.5 369.5 0 0 0 0.12988 0.44527 -0.88593 0.0070572
0.020855 0.17469 1.0051 7.4909e-39 308 369.5 0 0 0 0.15812 0.44183 -0.88306 0.00723
0.023019 0.17455 1.0054 7.4371e-39 344.33 369.33 0 0 0 0.18935 0.43738 -0.87912 0.0073843
0.00086528 0.17649 1.0053 6.5459e-39 321.5 370 0 0 0 -0.11011 0.45409 -0.88413 0.0085434
0.0026308 0.17656 1.0057 7.0069e-39 360 370 0 0 0 -0.087602 0.46318 -0.88192 0.0080934
0.0049839 0.17656 1.0057 7.1913e-39 362 370 0 0 0 -0.062837 0.46593 -0.88259 0.0078688
0.006551 0.1769 1.0054 7.8059e-39 302 370.33 0 0 0 -0.040596 0.47182 -0.88076 0.0079052
0.0092955 0.1769 1.0054 7.4371e-39 304.33 370.33 0 0 0 -0.0070051 0.47665 -0.87907 0.0079043
0.010858 0.17641 1.0049 7.2835e-39 367 370 0 0 0 0.016999 0.46516 -0.88507 0.0077459
0.012627 0.17649 1.0053 7.053e-39 368.5 370 0 0 0 0.039228 0.47114 -0.88119 0.0074397
0.014397 0.17656 1.0057 7.56e-39 370 370 0 0 0 0.065444 0.47446 -0.87784 0.0068633
0.017926 0.17656 1.0057 7.3757e-39 374 370 0 0 0 0.10762 0.4672 -0.87758 0.0063639
0.019103 0.17656 1.0057 7.0991e-39 375 370 0 0 0 0.13044 0.46555 -0.87536 0.0067491
0.02028 0.17656 1.0057 7.1913e-39 376 370 0 0 0 0.14637 0.46419 -0.87356 0.0068321
-0.013079 0.091205 1.0073 7.222e-39 190.67 326 0 0 0 -0.54727 -0.27914 -0.78904 0.01317
-0.012686 0.093169 1.0073 7.1913e-39 416 326 0 0 0 -0.5331 -0.24195 -0.81072 0.012555
-0.012675 0.094859 1.0065 7.514e-39 296.5 327 0 0 0 -0.51829 -0.21828 -0.82688 0.012027
-0.011498 0.094271 1.0065 7.1913e-39 200 327 0 0 0 -0.51174 -0.22045 -0.83038 0.012792
0.032098 0.095526 1.0073 7.3757e-39 424 327 0 0 0 0.49661 -0.25404 -0.82997 0.009055
-0.013071 0.097437 1.0068 7.1605e-39 337 328 0 0 0 -0.52242 -0.19276 -0.83061 0.011367
0.032098 0.097294 1.0073 7.1452e-39 196 328.5 0 0 0 0.496 -0.24008 -0.83447 0.0089902
-0.01327 0.099022 1.0069 7.7905e-39 213.5 329 0 0 0 -0.52259 -0.1781 -0.83378 0.011336
0.032098 0.099062 1.0073 7.7444e-39 387 329 0 0 0 0.50013 -0.22366 -0.83657 0.0088227
-0.013858 0.10079 1.0069 7.1913e-39 193 330 0 0 0 -0.52904 -0.15448 -0.83442 0.0098549
0.032866 0.10058 1.0068 7.3142e-39 272.33 330 0 0 0 0.5001 -0.20645 -0.841 0.0086589
-0.013853 0.1031 1.0065 7.3296e-39 284 331 0 0 0 -0.52078 -0.13687 -0.84265 0.0092577
0.033249 0.10251 1.0065 7.3757e-39 225 331 0 0 0 0.50707 -0.18908 -0.84091 0.0085686
0.034455 0.10319 1.0073 7.1913e-39 189.5 331.5 0 0 0 0.4977 -0.16773 -0.85097 0.01633
-0.015043 0.10495 1.0073 6.8225e-39 211 332 0 0 0 -0.53848 -0.12408 -0.83345 0.0079111
-0.013853 0.10487 1.0065 7.0069e-39 212 332 0 0 0 -0.51811 -0.12243 -0.84651 0.0084758
0.03503 0.10491 1.0069 8.8508e-39 257.5 332 0 0 0 0.50088 -0.15045 -0.85234 0.018031
0.036812 0.10495 1.0073 8.6664e-39 259 332 0 0 0 0.50556 -0.13261 -0.85254 0.026965
-0.01661 0.10689 1.007 7.4064e-39 210.33 333 0 0 0 -0.54593 -0.11203 -0.83031 0.006774
-0.01503 0.10605 1.0065 5.9927e-39 141 333 0 0 0 -0.52964 -0.11405 -0.84052 0.0073464
-0.013853 0.10605 1.0065 6.0849e-39 142 333 0 0 0 -0.51789 -0.11244 -0.84803 0.0078014
0.035633 0.10672 1.0073 7.1913e-39 312 333 0 0 0 0.51139 -0.13861 -0.84809 0.017212
0.036812 0.10613 1.0073 6.7303e-39 203 333 0 0 0 0.50828 -0.13085 -0.85119 0.022208
-0.018578 0.10908 1.0073 7.4218e-39 284 334 0 0 0 -0.56536 -0.11101 -0.81734 0.0055854
-0.016797 0.10899 1.0065 7.8597e-39 285.75 334 0 0 0 -0.53998 -0.10696 -0.83486 0.0062975
0.035633 0.10908 1.0073 7.514e-39 199 334.5 0 0 0 0.53108 -0.1449 -0.83484 0.0108
0.036812 0.10908 1.0073 7.514e-39 200 334.5 0 0 0 0.5205 -0.12993 -0.84392 0.016992
-0.016605 0.11118 1.0068 7.7137e-39 209 335.33 0 0 0 -0.53408 -0.10183 -0.83928 0.006072
0.035604 0.11135 1.0065 7.7905e-39 318.5 335.5 0 0 0 0.54352 -0.14396 -0.82696 0.0073921
0.036812 0.11085 1.0073 8.021e-39 402 335 0 0 0 0.53869 -0.13371 -0.83182 0.011007
-0.017003 0.11278 1.007 7.7752e-39 322 336 0 0 0 -0.53458 -0.10424 -0.83866 0.0058711
0.035633 0.1132 1.0073 7.56e-39 160 337 0 0 0 0.54869 -0.14256 -0.82378 0.0070857
0.036812 0.11262 1.0073 7.6983e-39 199 336.5 0 0 0 0.55196 -0.14074 -0.8219 0.0069622
-0.016804 0.11492 1.0069 7.4679e-39 188 337.5 0 0 0 -0.52992 -0.10445 -0.84159 0.0058082
0.035604 0.11488 1.0065 7.9749e-39 308.5 337.5 0 0 0 0.54489 -0.14181 -0.82643 0.0070114
0.036812 0.11497 1.0073 7.4218e-39 310 337.5 0 0 0 0.55355 -0.14183 -0.82065 0.0065199
-0.016804 0.11728 1.0069 7.6061e-39 298 338.5 0 0 0 -0.52716 -0.10371 -0.84341 0.0059261
0.035604 0.11664 1.0065 7.4678e-39 138 339 0 0 0 0.54216 -0.13771 -0.82892 0.0070996
0.037386 0.11728 1.0069 8.1363e-39 198.5 339 0 0 0 0.56026 -0.13959 -0.81647 0.0063215
0.039169 0.11792 1.0073 8.482e-39 259 339 0 0 0 0.5739 -0.14252 -0.80643 0.0055331
-0.016804 0.11905 1.0069 7.7444e-39 431.5 339 0 0 0 -0.52243 -0.10235 -0.84652 0.006078
0.037386 0.11905 1.0069 7.0069e-39 211.5 340 0 0 0 0.55832 -0.13458 -0.81864 0.0066703
0.039169 0.1191 1.0073 7.1913e-39 213 340 0 0 0 0.57269 -0.14028 -0.80768 0.0057372
-0.018578 0.12087 1.0073 7.8366e-39 231 340.5 0 0 0 -0.53396 -0.10694 -0.83872 0.0054655
-0.017386 0.12077 1.0065 8.021e-39 232 340.5 0 0 0 -0.52508 -0.10393 -0.84468 0.0059255
0.037386 0.12082 1.0069 7.6061e-39 341.5 340.5 0 0 0 0.55328 -0.13378 -0.82218 0.0070762
-0.018571 0.12317 1.0069 8.021e-39 339 341.5 0 0 0 -0.52893 -0.10655 -0.84195 0.0054486
-0.017386 0.12312 1.0065 8.2515e-39 340 341.5 0 0 0 -0.51621 -0.10465 -0.85004 0.0059218
0.03796 0.12253 1.0065 7.3757e-39 208 342 0 0 0 0.5492 -0.12917 -0.82565 0.0070253
0.039153 0.12317 1.0069 7.5601e-39 316.5 342 0 0 0 0.55649 -0.13256 -0.82021 0.006612
-0.018563 0.12489 1.0065 6.9147e-39 173 343 0 0 0 -0.52393 -0.10499 -0.84527 0.0056136
0.039137 0.12489 1.0065 8.1132e-39 249 343 0 0 0 0.55076 -0.12899 -0.82464 0.0068507
-0.020935 0.12735 1.0073 9.0352e-39 233 344 0 0 0 -0.53985 -0.11162 -0.83433 0.0047381
-0.019749 0.1267 1.0069 8.0671e-39 322 343.5 0 0 0 -0.53196 -0.1081 -0.83984 0.0050776
0.039137 0.12606 1.0065 8.021e-39 165 344 0 0 0 0.54546 -0.1316 -0.82774 0.0070598
0.040348 0.12676 1.0073 7.9749e-39 283.5 344 0 0 0 0.55383 -0.13559 -0.82152 0.0064854
-0.020918 0.12901 1.0065 7.9749e-39 265 345 0 0 0 -0.53109 -0.10948 -0.84021 0.0046295
-0.019741 0.12901 1.0065 7.7905e-39 266 345 0 0 0 -0.52461 -0.10638 -0.84467 0.0047757
0.040315 0.12901 1.0065 7.1913e-39 179 345.5 0 0 0 0.54663 -0.13412 -0.82656 0.0070023
-0.022114 0.13088 1.0073 6.9147e-39 184 346 0 0 0 -0.53937 -0.11092 -0.83473 0.0043823
-0.020918 0.13078 1.0065 6.7303e-39 185 346 0 0 0 -0.52879 -0.10385 -0.84238 0.0045754
0.041526 0.13088 1.0073 7.2835e-39 246 346 0 0 0 0.55506 -0.13221 -0.82124 0.0066963
-0.022114 0.13265 1.0073 7.3757e-39 313 346.5 0 0 0 -0.53556 -0.10347 -0.83814 0.0044162
0.041526 0.13265 1.0073 8.1593e-39 275.5 347 0 0 0 0.55006 -0.12414 -0.82585 0.007345
-0.022501 0.13517 1.007 7.8673e-39 322.33 347.67 0 0 0 -0.53257 -0.084648 -0.84214 0.0047147
0.041509 0.13495 1.0069 6.8686e-39 311 348 0 0 0 0.54837 -0.10572 -0.82952 0.0081479
0.042705 0.1356 1.0073 7.0069e-39 432 348 0 0 0 0.56357 -0.10095 -0.81987 0.0076005
-0.022694 0.1373 1.0069 6.3845e-39 289 349 0 0 0 -0.53379 -0.068607 -0.84283 0.0048294
0.041492 0.13666 1.0065 7.1913e-39 253 349 0 0 0 0.54367 -0.089334 -0.83453 0.0089421
0.042687 0.1373 1.0069 6.7303e-39 211 349.5 0 0 0 0.56151 -0.08243 -0.82336 0.0088012
-0.022703 0.13913 1.0073 7.053e-39 227.5 350 0 0 0 -0.53419 -0.052348 -0.84374 0.0047627
0.043276 0.13907 1.0069 6.0388e-39 403.5 350 0 0 0 0.57484 -0.059801 -0.81608 0.0090584
-0.022703 0.1409 1.0073 7.0299e-39 273.5 351 0 0 0 -0.5317 -0.03415 -0.84624 0.0049266
-0.020918 0.14079 1.0065 7.1913e-39 275 351 0 0 0 -0.51421 -0.034111 -0.85699 0.0053804
0.043883 0.1409 1.0073 7.2374e-39 193.5 351.5 0 0 0 0.58977 -0.035598 -0.80679 0.0087985
-0.022703 0.14326 1.0073 7.2143e-39 178 352.5 0 0 0 -0.53002 -0.0069604 -0.84796 0.0049153
-0.020918 0.14314 1.0065 7.0069e-39 179.5 352.5 0 0 0 -0.51293 -0.0015266 -0.85843 0.0054549
0.043847 0.14314 1.0065 7.1452e-39 314 352.5 0 0 0 0.58517 -0.0035349 -0.8109 0.0099266
-0.022703 0.14502 1.0073 7.7444e-39 386.5 353 0 0 0 -0.52616 0.017655 -0.8502 0.0050808
-0.020918 0.14491 1.0065 7.4678e-39 388 353 0 0 0 -0.51015 0.017938 -0.8599 0.0055157
0.043847 0.14491 1.0065 7.4678e-39 154 354 0 0 0 0.58763 0.021927 -0.80884 0.010114
-0.022698 0.14676 1.0071 7.3065e-39 173 354.5 0 0 0 -0.52362 0.037627 -0.85112 0.0051897
-0.020918 0.14608 1.0065 7.1913e-39 202 354 0 0 0 -0.50966 0.030457 -0.85984 0.0055447
0.043865 0.14673 1.0069 7.2374e-39 292.5 354.5 0 0 0 0.59562 0.042359 -0.80215 0.010186
-0.022684 0.14903 1.0065 7.053e-39 219.5 355.5 0 0 0 -0.51976 0.062442 -0.85203 0.005388
0.043865 0.14909 1.0069 7.2835e-39 354 355.5 0 0 0 0.5951 0.073756 -0.80026 0.010074
0.045062 0.14974 1.0073 6.9147e-39 249 356 0 0 0 0.61064 0.076472 -0.7882 0.008978
-0.022689 0.15141 1.0067 7.3065e-39 301 356.5 0 0 0 -0.51692 0.089505 -0.85134 0.0055948
0.043847 0.15079 1.0065 8.5742e-39 164 357 0 0 0 0.58553 0.095321 -0.80503 0.010343
0.045062 0.15092 1.0073 8.1132e-39 165 357 0 0 0 0.60594 0.09281 -0.79008 0.0091426
-0.022694 0.15321 1.0069 7.4218e-39 461.5 357 0 0 0 -0.51697 0.11437 -0.84833 0.005715
0.043276 0.15262 1.0069 7.5601e-39 291 357.5 0 0 0 0.57464 0.11838 -0.8098 0.010236
-0.022694 0.15498 1.0069 7.1913e-39 218 358.5 0 0 0 -0.5163 0.13569 -0.84559 0.0058561
0.041509 0.15498 1.0069 6.9147e-39 332.5 358.5 0 0 0 0.53414 0.15595 -0.83089 0.0095979
0.042705 0.15445 1.0073 7.0069e-39 410 358 0 0 0 0.56089 0.14261 -0.81551 0.009679
-0.022501 0.15716 1.007 7.4064e-39 350 359.33 0 0 0 -0.51192 0.15789 -0.8444 0.0060287
-0.020918 0.15786 1.0065 6.7303e-39 258 360 0 0 0 -0.4971 0.16526 -0.85181 0.0067372
0.04092 0.15733 1.0069 7.6522e-39 174 360.5 0 0 0 0.51728 0.1877 -0.83498 0.0087709
-0.020918 0.15904 1.0065 7.1913e-39 205 361 0 0 0 -0.49348 0.17916 -0.8511 0.0067544
0.040348 0.15917 1.0073 6.4537e-39 272 361 0 0 0 0.50284 0.2143 -0.83739 0.0076901
-0.020935 0.16034 1.0073 7.4678e-39 154 362 0 0 0 -0.49528 0.19336 -0.84694 0.0065323
-0.019348 0.161 1.0065 7.5908e-39 297.33 362 0 0 0 -0.46972 0.21092 -0.85725 0.0072007
0.039153 0.16087 1.0069 7.0068e-39 195.5 362.5 0 0 0 0.47989 0.23961 -0.84397 0.0072566
-0.018966 0.16305 1.007 6.5459e-39 213 363.33 0 0 0 -0.46139 0.2345 -0.85565 0.0069992
-0.017386 0.16375 1.0065 6.3615e-39 193 364 0 0 0 -0.43866 0.24434 -0.8648 0.0073898
0.037371 0.16375 1.0065 7.1452e-39 250.5 364 0 0 0 0.44691 0.27554 -0.85108 0.0070792
0.039169 0.1627 1.0073 7.6522e-39 379 363 0 0 0 0.47878 0.25909 -0.83883 0.0067427
-0.0174 0.16506 1.0073 7.0069e-39 383 364 0 0 0 -0.4387 0.23465 -0.86746 0.0092032
0.037401 0.16506 1.0073 6.3154e-39 208.5 365 0 0 0 0.44939 0.29105 -0.84459 0.006914
-0.016804 0.16676 1.0069 6.6381e-39 239 365.5 0 0 0 -0.42231 0.24939 -0.87147 0.010479
-0.01503 0.16728 1.0065 6.5459e-39 217 366 0 0 0 -0.38447 0.26272 -0.88496 0.010764
0.035618 0.16676 1.0069 6.7764e-39 339.5 365.5 0 0 0 0.41835 0.31476 -0.852 0.0069245
-0.016221 0.16859 1.0073 7.2835e-39 141 367 0 0 0 -0.40242 0.27063 -0.87454 0.011572
-0.015037 0.16912 1.0069 7.3296e-39 199 367 0 0 0 -0.37837 0.28357 -0.88115 0.0119
-0.01346 0.16924 1.0065 7.3142e-39 219.33 367 0 0 0 -0.35044 0.29267 -0.88969 0.011666
0.033249 0.16905 1.0065 7.2374e-39 293 367 0 0 0 0.37495 0.34672 -0.85977 0.0072067
0.034427 0.16963 1.0065 7.2835e-39 380 367 0 0 0 0.39155 0.34775 -0.85191 0.0068219
-0.012686 0.17095 1.0073 7.3757e-39 188 368 0 0 0 -0.33223 0.31417 -0.88933 0.012805
-0.010909 0.1714 1.0065 6.131e-39 233 368 0 0 0 -0.29528 0.32932 -0.89686 0.012743
0.029128 0.17199 1.0065 7.3757e-39 137.5 369 0 0 0 0.29732 0.39298 -0.87015 0.0077666
0.030894 0.17199 1.0065 7.2835e-39 139 369 0 0 0 0.32413 0.38688 -0.86329 0.0075077
0.032674 0.17088 1.0069 6.1771e-39 228.5 368 0 0 0 0.36064 0.36681 -0.85755 0.0071142
0.034455 0.17095 1.0073 6.4537e-39 230 368 0 0 0 0.389 0.35953 -0.84818 0.0066162
-0.010722 0.17292 1.0073 6.5459e-39 224.67 368.67 0 0 0 -0.28612 0.34817 -0.8927 0.014046
-0.0091426 0.17317 1.0065 7.0069e-39 200 369 0 0 0 -0.25722 0.35652 -0.89818 0.013742
0.02914 0.17324 1.0069 6.6381e-39 233.5 369 0 0 0 0.29438 0.40674 -0.86482 0.0079735
0.030919 0.17331 1.0073 6.1771e-39 235 369 0 0 0 0.32157 0.40111 -0.85773 0.007674
-0.0091501 0.17449 1.0073 7.2835e-39 362 369 0 0 0 -0.24948 0.37857 -0.89132 0.015129
-0.0073793 0.175 1.0069 7.5601e-39 280 369.5 0 0 0 -0.21636 0.39445 -0.89308 0.014398
-0.005219 0.17518 1.0068 7.4064e-39 254 369.67 0 0 0 -0.18322 0.4125 -0.89234 0.013259
0.023829 0.17552 1.0065 6.8225e-39 223 370 0 0 0 0.19725 0.45225 -0.86981 0.0071921
0.025016 0.175 1.0069 7.053e-39 315.5 369.5 0 0 0 0.22166 0.44027 -0.87007 0.0077907
0.026784 0.175 1.0069 7.3065e-39 318.25 369.5 0 0 0 0.25396 0.43727 -0.86273 0.0081804
0.028562 0.17449 1.0073 7.0991e-39 415 369 0 0 0 0.28079 0.42695 -0.85957 0.0081854
-0.0026661 0.1767 1.0065 5.163e-39 281.5 370 0 0 0 -0.14513 0.44489 -0.88375 0.011338
-0.00089977 0.1767 1.0065 5.4395e-39 283 370 0 0 0 -0.1297 0.45791 -0.87949 0.0095828
0.00086655 0.17788 1.0065 7.3296e-39 174.5 371 0 0 0 -0.10102 0.4758 -0.87373 0.0086466
0.0032216 0.17729 1.0065 7.0069e-39 268.5 370.5 0 0 0 -0.077428 0.47371 -0.87727 0.0079355
0.004988 0.17788 1.0065 7.7444e-39 178 371 0 0 0 -0.059124 0.48862 -0.87049 0.0075089
0.0073431 0.17788 1.0065 7.3757e-39 180 371 0 0 0 -0.026504 0.49615 -0.86783 0.0076083
0.0085207 0.17788 1.0065 7.2835e-39 181 371 0 0 0 -0.016432 0.495 -0.86874 0.0077381
0.010876 0.17788 1.0065 6.8225e-39 183 371 0 0 0 0.018977 0.50179 -0.86478 0.0072577
0.012642 0.17788 1.0065 6.8686e-39 184.5 371 0 0 0 0.040079 0.49919 -0.86557 0.0067307
0.015586 0.1767 1.0065 7.9288e-39 371 370 0 0 0 0.079859 0.47529 -0.8762 0.0065738
0.017352 0.17729 1.0065 7.3757e-39 281 370.5 0 0 0 0.1013 0.4799 -0.87146 0.0062945
0.021474 0.1767 1.0065 7.4678e-39 377 370 0 0 0 0.16449 0.46591 -0.86941 0.007093
0.023259 0.17684 1.0073 8.0671e-39 378.5 370 0 0 0 0.19033 0.46979 -0.86202 0.0071468
-0.002079 0.17802 1.0073 7.56e-39 172 371 0 0 0 -0.12618 0.47049 -0.87334 0.011314
-0.0009005 0.17802 1.0073 7.56e-39 173 371 0 0 0 -0.1191 0.47421 -0.87232 0.010084
0.0014565 0.1792 1.0073 7.0991e-39 254 371 0 0 0 -0.090079 0.49491 -0.86426 0.0083447
0.0032243 0.17861 1.0073 7.2835e-39 216 371 0 0 0 -0.074007 0.49234 -0.86725 0.0078521
0.0067573 0.17912 1.0069 7.3757e-39 258.5 371 0 0 0 -0.030284 0.50856 -0.86049 0.0075096
0.0097061 0.1792 1.0073 6.8225e-39 261 371 0 0 0 0.0023124 0.51616 -0.85649 0.0072402
0.010885 0.1792 1.0073 6.7303e-39 262 371 0 0 0 0.019295 0.52029 -0.85377 0.0069356
0.013242 0.1792 1.0073 6.8225e-39 264 371 0 0 0 0.045562 0.51482 -0.85609 0.0064358
0.01442 0.17802 1.0073 7.1913e-39 186 371 0 0 0 0.063804 0.49769 -0.865 0.0062126
0.019134 0.17802 1.0073 7.2835e-39 192 371 0 0 0 0.13051 0.48748 -0.86333 0.0064745
0.020313 0.17802 1.0073 7.56e-39 193 371 0 0 0 0.14677 0.48778 -0.86054 0.0066791
0.0061706 0.18038 1.0073 7.0991e-39 409 371 0 0 0 -0.032996 0.52729 -0.84904 0.0071238
-0.013875 0.089707 1.0081 9.6805e-39 382 325 0 0 0 -0.5634 -0.28964 -0.77375 0.012723
-0.013881 0.092694 1.0085 7.3296e-39 322.5 326 0 0 0 -0.55658 -0.25944 -0.78925 0.011882
-0.013875 0.095604 1.0081 8.1132e-39 393 327 0 0 0 -0.54438 -0.23087 -0.80644 0.012015
0.033331 0.095682 1.009 7.3757e-39 425 327 0 0 0 0.49175 -0.24443 -0.83572 0.014947
-0.013875 0.096784 1.0081 6.8225e-39 187 328 0 0 0 -0.542 -0.21436 -0.81258 0.012475
0.033331 0.096863 1.009 7.6522e-39 228 328 0 0 0 0.49715 -0.2338 -0.83557 0.013692
-0.016261 0.099305 1.0098 7.3757e-39 211 329 0 0 0 -0.57818 -0.19107 -0.79322 0.011065
-0.01508 0.099305 1.0098 7.2835e-39 212 329 0 0 0 -0.5636 -0.19139 -0.80357 0.011401
0.033317 0.098593 1.0085 6.9146e-39 277 329 0 0 0 0.49621 -0.21366 -0.84151 0.012671
0.034525 0.098674 1.0094 6.9608e-39 278 329 0 0 0 0.48754 -0.20509 -0.84867 0.02484
-0.018624 0.10167 1.0098 8.2054e-39 235 330 0 0 0 -0.6064 -0.16982 -0.77681 0.0097254
-0.01665 0.10125 1.0095 7.222e-39 205.33 330 0 0 0 -0.58526 -0.17015 -0.79279 0.010232
-0.015074 0.10103 1.0094 7.0991e-39 191 330 0 0 0 -0.55914 -0.16967 -0.81152 0.010722
0.034497 0.10095 1.0085 7.6983e-39 311.5 330 0 0 0 0.49206 -0.1827 -0.85118 0.022787
0.053398 0.1004 1.009 7.6522e-39 214 330 0 0 0 0.5085 -0.023596 -0.86074 0.17177
0.054534 0.1015 1.0081 6.2693e-39 147 331 0 0 0 0.51465 0.055487 -0.8556 0.18382
-0.018624 0.10285 1.0098 7.4678e-39 170 331 0 0 0 -0.60406 -0.16347 -0.77999 0.0096844
-0.016641 0.10316 1.009 7.3757e-39 245 331 0 0 0 -0.56954 -0.1439 -0.80927 0.0089434
-0.015055 0.10327 1.0081 7.3757e-39 283 331 0 0 0 -0.54538 -0.13756 -0.82682 0.0087049
0.035706 0.1034 1.0094 7.3757e-39 190.5 331.5 0 0 0 0.50319 -0.1486 -0.8513 0.025143
0.036887 0.1034 1.0094 7.4679e-39 191.5 331.5 0 0 0 0.50718 -0.14194 -0.85007 0.030296
-0.018624 0.10462 1.0098 7.5139e-39 299 331.5 0 0 0 -0.59468 -0.13945 -0.79177 0.0075786
-0.017035 0.10473 1.009 7.4371e-39 270 331.67 0 0 0 -0.57181 -0.13468 -0.80925 0.0079034
0.038084 0.10521 1.0098 8.482e-39 260 332 0 0 0 0.52465 -0.12236 -0.84248 0.02935
-0.020987 0.10757 1.0098 7.4678e-39 238 333 0 0 0 -0.60964 -0.12769 -0.78233 0.0051555
-0.019203 0.10692 1.0092 7.6753e-39 337 332.5 0 0 0 -0.5935 -0.12311 -0.79536 0.0058401
-0.017414 0.10622 1.0081 8.2054e-39 436 332 0 0 0 -0.56647 -0.12107 -0.81514 0.0068453
0.036842 0.1074 1.0081 8.1132e-39 423 333 0 0 0 0.51651 -0.12869 -0.84656 0.020923
0.038084 0.10698 1.0098 7.6061e-39 314 333 0 0 0 0.52911 -0.11627 -0.84055 0.024252
-0.020987 0.10935 1.0098 7.1913e-39 282 334 0 0 0 -0.60594 -0.12356 -0.78586 0.0047356
-0.019805 0.10935 1.0098 7.3296e-39 283 334 0 0 0 -0.59208 -0.12083 -0.79677 0.0051586
0.038467 0.10952 1.0095 7.2835e-39 189 334.67 0 0 0 0.53889 -0.12193 -0.8335 0.018247
-0.019199 0.11103 1.0089 7.2374e-39 229.5 335 0 0 0 -0.57813 -0.11286 -0.8081 0.0051031
0.038643 0.11103 1.009 8.0671e-39 403.5 335 0 0 0 0.5395 -0.11307 -0.83436 0.017985
-0.019199 0.1128 1.0089 8.1362e-39 280.5 336 0 0 0 -0.57299 -0.11046 -0.81208 0.0051392
0.038643 0.1128 1.009 7.537e-39 200.5 336.5 0 0 0 0.54795 -0.11574 -0.82846 0.013623
-0.019203 0.11518 1.0092 7.1913e-39 186 337.5 0 0 0 -0.56828 -0.11025 -0.81542 0.0051356
0.038627 0.11512 1.0085 7.8827e-39 311.5 337.5 0 0 0 0.56356 -0.13402 -0.81513 0.0066854
-0.019207 0.11698 1.0094 8.3898e-39 382.5 338 0 0 0 -0.56596 -0.10767 -0.81737 0.0049125
0.039201 0.11683 1.0081 6.9147e-39 141 339 0 0 0 0.5738 -0.139 -0.80711 0.0054086
-0.019203 0.11873 1.0092 7.3987e-39 319.5 339 0 0 0 -0.55826 -0.10886 -0.82249 0.0049041
0.040446 0.1188 1.0098 8.0671e-39 237 339.5 0 0 0 0.58306 -0.14047 -0.8002 0.0048721
-0.019797 0.12111 1.0094 7.6983e-39 230 340.5 0 0 0 -0.55978 -0.11324 -0.82087 0.0049463
0.038808 0.12076 1.0081 7.8059e-39 372.33 340.33 0 0 0 0.56713 -0.1383 -0.81193 0.0060201
0.040446 0.12175 1.0098 8.8508e-39 257 341 0 0 0 0.57939 -0.14298 -0.80241 0.0051126
-0.019789 0.12283 1.009 7.56e-39 423 341 0 0 0 -0.55048 -0.11203 -0.8273 0.0049719
0.040397 0.12337 1.0085 7.4679e-39 317.5 342 0 0 0 0.57167 -0.13979 -0.80849 0.0056328
-0.020978 0.12465 1.0094 7.5601e-39 211.5 342.5 0 0 0 -0.5603 -0.11474 -0.8203 0.0047225
-0.019781 0.12455 1.0085 7.4218e-39 212.5 342.5 0 0 0 -0.54269 -0.11036 -0.83265 0.0049525
0.04038 0.12509 1.0081 8.482e-39 250 343 0 0 0 0.5642 -0.13758 -0.81409 0.0060255
-0.022544 0.12716 1.009 7.8674e-39 290.33 343.67 0 0 0 -0.56177 -0.12053 -0.81847 0.0043632
-0.020952 0.12627 1.0081 6.8225e-39 409 343 0 0 0 -0.54795 -0.11161 -0.82903 0.0047183
0.041628 0.12707 1.0098 7.514e-39 284.5 344 0 0 0 0.57272 -0.14228 -0.80731 0.0052268
0.042809 0.12766 1.0098 7.1913e-39 403 344 0 0 0 0.58055 -0.14264 -0.80164 0.0048221
-0.022731 0.12927 1.0085 8.1362e-39 263.5 345 0 0 0 -0.55412 -0.11792 -0.82404 0.0042146
0.041577 0.12927 1.0085 7.2374e-39 180 345.5 0 0 0 0.56762 -0.13659 -0.81188 0.0057422
0.042756 0.12927 1.0085 7.1452e-39 181 345.5 0 0 0 0.57062 -0.14016 -0.80916 0.0053678
-0.023311 0.13099 1.0081 7.4678e-39 183 346 0 0 0 -0.55024 -0.11287 -0.82734 0.0042959
0.042739 0.13099 1.0081 7.0069e-39 247 346 0 0 0 0.57022 -0.13422 -0.81045 0.0058713
-0.023311 0.13276 1.0081 7.3757e-39 312 346.5 0 0 0 -0.54846 -0.10411 -0.82967 0.004438
0.043365 0.13287 1.0089 7.56e-39 277 347 0 0 0 0.57813 -0.12475 -0.80635 0.0060239
-0.024531 0.13534 1.0098 7.6061e-39 355 347.5 0 0 0 -0.56753 -0.08994 -0.81842 0.0048667
-0.023311 0.13453 1.0081 7.1913e-39 463 347 0 0 0 -0.5479 -0.093065 -0.83135 0.004575
0.043562 0.13503 1.009 6.9147e-39 272.67 348 0 0 0 0.58388 -0.10531 -0.80498 0.0067707
-0.024511 0.137 1.009 6.5459e-39 169 349 0 0 0 -0.55898 -0.075032 -0.82578 0.0049281
0.043919 0.13689 1.0081 7.1913e-39 255 349 0 0 0 0.58356 -0.08551 -0.80755 0.0073313
-0.025712 0.13888 1.0098 6.4998e-39 316 349.5 0 0 0 -0.57377 -0.060487 -0.81678 0.0050541
0.043919 0.13807 1.0081 6.2693e-39 169 350 0 0 0 0.58731 -0.073268 -0.80604 0.0078716
-0.024521 0.14119 1.0094 7.1452e-39 272 351 0 0 0 -0.56043 -0.03299 -0.82754 0.00504
0.045172 0.14125 1.0098 7.514e-39 195.5 351.5 0 0 0 0.61807 -0.016522 -0.78595 0.0078494
-0.024511 0.1429 1.009 8.021e-39 201 352 0 0 0 -0.55582 -0.012347 -0.83121 0.0048403
0.045116 0.14343 1.0085 7.5139e-39 315 352.5 0 0 0 0.61812 0.0082876 -0.78604 0.0084055
-0.024511 0.14467 1.009 7.1452e-39 268.5 353 0 0 0 -0.55322 0.0085015 -0.83299 0.0046907
0.045098 0.14514 1.0081 7.2835e-39 155 354 0 0 0 0.6139 0.027185 -0.78892 0.0088476
0.046354 0.14479 1.0098 7.1913e-39 193.5 353.5 0 0 0 0.63299 0.027632 -0.77366 0.0077515
-0.024511 0.14703 1.009 6.9608e-39 171.5 354.5 0 0 0 -0.54963 0.034283 -0.8347 0.0044705
0.045098 0.14691 1.0081 7.0991e-39 293.5 354.5 0 0 0 0.61808 0.046176 -0.78476 0.0087587
0.046316 0.14703 1.009 7.2835e-39 294.5 354.5 0 0 0 0.62952 0.048767 -0.77546 0.0077873
-0.024511 0.14939 1.009 7.053e-39 218 355.5 0 0 0 -0.54469 0.065175 -0.8361 0.0043943
0.045098 0.14868 1.0081 7.9288e-39 461 355 0 0 0 0.61642 0.064088 -0.78481 0.0085585
0.046297 0.14933 1.0085 7.3757e-39 356 355.5 0 0 0 0.62982 0.070737 -0.77352 0.0078025
-0.024511 0.15116 1.009 7.6522e-39 391 356 0 0 0 -0.54142 0.086139 -0.83633 0.0046679
0.046316 0.15116 1.009 7.4678e-39 166 357 0 0 0 0.62779 0.091872 -0.77294 0.007813
-0.024511 0.15293 1.009 7.0991e-39 334 357 0 0 0 -0.53508 0.10863 -0.83779 0.0049412
0.043919 0.1534 1.0081 6.4537e-39 202 358 0 0 0 0.59258 0.12461 -0.79581 0.0089037
0.045135 0.15293 1.0089 7.514e-39 292.5 357.5 0 0 0 0.61664 0.11136 -0.77933 0.0080419
0.046354 0.15247 1.0098 7.9288e-39 383 357 0 0 0 0.63019 0.10379 -0.76948 0.0073599
-0.024531 0.15483 1.0098 6.8225e-39 250 358 0 0 0 -0.53409 0.13358 -0.83481 0.0051178
0.043347 0.15523 1.0085 6.6842e-39 334 358.5 0 0 0 0.58662 0.14506 -0.79676 0.008664
-0.024531 0.1566 1.0098 7.3757e-39 284.5 359 0 0 0 -0.52934 0.15636 -0.83388 0.0051021
0.043365 0.15648 1.0089 7.2835e-39 227.5 359.5 0 0 0 0.58207 0.16204 -0.79683 0.008365
-0.022937 0.15904 1.009 6.7303e-39 221 360.67 0 0 0 -0.51617 0.17818 -0.83775 0.0055737
0.041594 0.15884 1.0089 8.3437e-39 260 361 0 0 0 0.53857 0.2047 -0.81734 0.0075257
0.042809 0.15838 1.0098 7.6522e-39 154 361 0 0 0 0.56687 0.18624 -0.80248 0.0079651
-0.022159 0.16127 1.0094 7.8366e-39 259.5 362 0 0 0 -0.50788 0.20997 -0.83545 0.0054707
-0.020952 0.16165 1.0081 8.2054e-39 367 362 0 0 0 -0.49393 0.21442 -0.84265 0.006001
0.04038 0.16106 1.0081 6.7764e-39 196.5 362.5 0 0 0 0.49991 0.23931 -0.83236 0.0069776
-0.020969 0.16297 1.009 6.5459e-39 222 363 0 0 0 -0.49403 0.22679 -0.83935 0.0056154
0.040413 0.16297 1.009 7.8366e-39 380 363 0 0 0 0.49793 0.26279 -0.82645 0.0059688
-0.020987 0.16428 1.0098 6.7303e-39 190 364 0 0 0 -0.49477 0.22235 -0.8401 0.0074388
-0.019385 0.16484 1.0084 7.0991e-39 318 364 0 0 0 -0.46737 0.22794 -0.85417 0.0089613
0.039217 0.16467 1.0085 6.7764e-39 231.5 364.5 0 0 0 0.48038 0.28374 -0.8299 0.0061824
0.040446 0.16428 1.0098 7.1913e-39 254 364 0 0 0 0.50061 0.2744 -0.82103 0.0056284
-0.019207 0.16657 1.0094 6.9608e-39 260.5 365 0 0 0 -0.46276 0.23642 -0.85438 0.0095811
-0.017428 0.16769 1.009 6.5459e-39 215 366 0 0 0 -0.43467 0.25664 -0.86325 0.010551
0.036857 0.16703 1.0085 7.053e-39 203.5 366 0 0 0 0.44133 0.31803 -0.8391 0.0063091
0.038446 0.1669 1.009 7.0991e-39 184 366 0 0 0 0.4662 0.31081 -0.82828 0.0058466
-0.016838 0.16946 1.0089 7.4218e-39 197.5 367 0 0 0 -0.41336 0.28137 -0.86601 0.012102
0.035663 0.16932 1.0081 6.9147e-39 295 367 0 0 0 0.41406 0.34554 -0.84212 0.0064062
0.036872 0.16887 1.009 7.0991e-39 210 367 0 0 0 0.43584 0.33397 -0.83577 0.0059776
0.038084 0.16901 1.0098 7.56e-39 211 367 0 0 0 0.45433 0.33113 -0.827 0.0056726
-0.016261 0.17137 1.0098 7.0991e-39 185 368 0 0 0 -0.39983 0.30693 -0.86367 0.013647
-0.015055 0.17109 1.0081 7.3757e-39 186 368 0 0 0 -0.37523 0.30411 -0.87562 0.013311
-0.013875 0.17109 1.0081 7.3757e-39 187 368 0 0 0 -0.35152 0.31387 -0.882 0.01337
0.035692 0.17123 1.009 6.8225e-39 231 368 0 0 0 0.41176 0.35673 -0.83857 0.0062178
0.036902 0.17019 1.0098 7.0991e-39 382 367 0 0 0 0.43177 0.34427 -0.8337 0.0057506
0.038084 0.17019 1.0098 7.0991e-39 383 367 0 0 0 0.44879 0.33521 -0.82838 0.0059296
-0.01508 0.17314 1.0098 6.3154e-39 234 368.5 0 0 0 -0.37203 0.32781 -0.86841 0.015029
-0.013297 0.173 1.009 6.2923e-39 235.5 368.5 0 0 0 -0.33487 0.33697 -0.87995 0.015278
0.032741 0.173 1.009 6.8225e-39 188.5 369 0 0 0 0.35232 0.39459 -0.84863 0.007236
0.034525 0.17307 1.0094 6.9147e-39 190 369 0 0 0 0.38594 0.38099 -0.84018 0.0067553
-0.013308 0.17491 1.0098 6.2233e-39 321 369 0 0 0 -0.32888 0.35995 -0.87308 0.017661
-0.010931 0.17529 1.0085 7.1682e-39 277 369.5 0 0 0 -0.27988 0.37851 -0.88227 0.016793
-0.0091576 0.17581 1.0081 7.0069e-39 195 370 0 0 0 -0.24714 0.40155 -0.88186 0.016478
0.029388 0.17551 1.0087 7.3757e-39 197.33 370 0 0 0 0.29493 0.43487 -0.85083 0.0082363
0.030957 0.17529 1.0085 7.0069e-39 183.5 370 0 0 0 0.31677 0.42323 -0.84884 0.0078182
0.032177 0.17491 1.0098 6.9147e-39 139 370 0 0 0 0.33788 0.41601 -0.84426 0.0078707
-0.010354 0.17728 1.0098 5.163e-39 275 370 0 0 0 -0.26196 0.41192 -0.87275 0.018383
-0.0091726 0.17728 1.0098 5.3473e-39 276 370 0 0 0 -0.24385 0.42618 -0.87115 0.018022
-0.0073916 0.17706 1.0085 5.7161e-39 277.5 370 0 0 0 -0.21501 0.43297 -0.87539 0.016217
-0.0050294 0.17699 1.0081 5.3934e-39 279.5 370 0 0 0 -0.17435 0.44045 -0.88069 0.013442
0.025047 0.17699 1.0081 7.9288e-39 380 370 0 0 0 0.21674 0.46824 -0.85661 0.0073324
0.026828 0.17706 1.0085 7.5139e-39 381.5 370 0 0 0 0.25118 0.46013 -0.85158 0.0081904
0.029223 0.17728 1.0098 7.5139e-39 383.5 370 0 0 0 0.28566 0.45434 -0.84379 0.0082952
0.030995 0.17728 1.0098 7.9288e-39 385 370 0 0 0 0.30873 0.44458 -0.84085 0.0082451
-0.0074004 0.17846 1.0098 7.053e-39 164 371 0 0 0 -0.20907 0.44915 -0.86865 0.016197
-0.0050355 0.17898 1.0094 6.569e-39 208 371 0 0 0 -0.16825 0.47001 -0.86647 0.014474
-0.0028679 0.179 1.0084 7.1913e-39 222.67 371 0 0 0 -0.13685 0.47831 -0.86746 0.012393
-0.00090124 0.17935 1.0081 7.1913e-39 252 371 0 0 0 -0.10848 0.49061 -0.8646 0.010347
0.00027824 0.17935 1.0081 7.0991e-39 253 371 0 0 0 -0.10487 0.49361 -0.86334 0.0093413
0.0038198 0.17949 1.009 7.56e-39 256 371 0 0 0 -0.06603 0.51049 -0.85735 0.0078607
0.0049961 0.17935 1.0081 7.6522e-39 257 371 0 0 0 -0.052437 0.50715 -0.86026 0.0078398
0.0085346 0.17935 1.0081 6.9147e-39 260 371 0 0 0 -0.011645 0.52183 -0.85297 0.0070561
0.012073 0.17935 1.0081 6.9147e-39 263 371 0 0 0 0.027321 0.5214 -0.85287 0.0065531
0.015226 0.17905 1.0087 6.9454e-39 239.33 371 0 0 0 0.070976 0.51499 -0.85425 0.0063421
0.017193 0.17905 1.0087 6.6074e-39 241 371 0 0 0 0.098763 0.51098 -0.8539 0.0058728
0.01915 0.17935 1.0081 5.7161e-39 269 371 0 0 0 0.12766 0.50537 -0.85341 0.0062834
0.021121 0.179 1.0084 6.0849e-39 245 371 0 0 0 0.15812 0.49549 -0.8541 0.0067978
0.023302 0.17894 1.0092 6.0619e-39 234 371 0 0 0 0.19145 0.49142 -0.84962 0.0067914
0.025088 0.17846 1.0098 7.3757e-39 197 371 0 0 0 0.21944 0.48699 -0.84539 0.0071656
0.02686 0.17846 1.0098 7.1452e-39 199.5 371 0 0 0 0.24803 0.47516 -0.84421 0.0082204
-0.0024768 0.18111 1.0093 7.4371e-39 334 371.33 0 0 0 -0.11598 0.49906 -0.85877 0.012588
-0.00090197 0.18126 1.009 7.4679e-39 301.5 371.5 0 0 0 -0.10811 0.50963 -0.85358 0.010581
0.00086874 0.1813 1.0092 7.6753e-39 303 371.5 0 0 0 -0.092218 0.52243 -0.84768 0.0089649
0.0030346 0.18116 1.0095 7.4986e-39 338.67 371.33 0 0 0 -0.071628 0.53069 -0.84453 0.0078639
0.0050043 0.18082 1.0098 7.0991e-39 408 371 0 0 0 -0.046932 0.53475 -0.8437 0.0074928
0.0069639 0.18136 1.0084 6.761e-39 274.33 371.67 0 0 0 -0.02358 0.54166 -0.84027 0.0069533
0.0091318 0.18126 1.009 6.9377e-39 310 371.5 0 0 0 -0.0036103 0.54603 -0.83776 0.0065399
0.010902 0.18126 1.0089 6.8224e-39 311.5 371.5 0 0 0 0.016174 0.54575 -0.83779 0.0062325
0.01287 0.18107 1.009 7.0991e-39 347 371.33 0 0 0 0.037116 0.54282 -0.83903 0.005849
0.014456 0.18082 1.0098 7.6522e-39 416 371 0 0 0 0.058207 0.54282 -0.83783 0.0062407
0.017985 0.18067 1.009 6.5459e-39 138 372 0 0 0 0.10329 0.52461 -0.84505 0.0056747
0.019181 0.18082 1.0098 6.6381e-39 139 372 0 0 0 0.12565 0.52856 -0.83955 0.0061888
0.020346 0.18067 1.009 6.8225e-39 140 372 0 0 0 0.1411 0.51908 -0.843 0.006336
0.0067764 0.18318 1.0098 5.6239e-39 275.5 372 0 0 0 -0.019172 0.56803 -0.82278 0.0064322
-0.022168 0.18437 1.0098 7.56e-39 363 372 0 0 0 -0.43735 0.32343 -0.83912 0.03166
-0.020952 0.18406 1.0081 7.8366e-39 364 372 0 0 0 -0.41097 0.33232 -0.84892 0.030514
-0.019773 0.18406 1.0081 7.9288e-39 365 372 0 0 0 -0.39006 0.35327 -0.85032 0.030063
-0.013898 0.18437 1.0098 8.1132e-39 370 372 0 0 0 -0.26183 0.47764 -0.83863 0.028413
-0.016288 0.091184 1.0114 6.6381e-39 168 326 0 0 0 -0.60523 -0.31742 -0.73002 0.01467
-0.016288 0.095917 1.0114 8.5742e-39 391 327 0 0 0 -0.60223 -0.25496 -0.75652 0.014208
-0.015104 0.095917 1.0114 8.2976e-39 392 327 0 0 0 -0.58847 -0.25878 -0.76599 0.014695
0.034568 0.095839 1.0106 7.1913e-39 426 327 0 0 0 0.47893 -0.24029 -0.84433 0.033321
-0.016872 0.097061 1.011 6.6381e-39 184.5 328 0 0 0 -0.60687 -0.24071 -0.75748 0.013913
-0.015092 0.097021 1.0106 7.0069e-39 186 328 0 0 0 -0.57414 -0.22165 -0.78819 0.011652
0.034568 0.097021 1.0106 7.1913e-39 229 328 0 0 0 0.48462 -0.22396 -0.84557 0.032582
-0.019246 0.098876 1.0114 7.8597e-39 307.5 328.5 0 0 0 -0.63233 -0.21945 -0.74296 0.013413
-0.017067 0.098625 1.0109 7.4371e-39 342.33 328.33 0 0 0 -0.60761 -0.20758 -0.76663 0.011962
-0.015092 0.098204 1.0106 7.2835e-39 410 328 0 0 0 -0.57277 -0.20519 -0.79362 0.011334
-0.021021 0.10183 1.0114 8.2976e-39 233 330 0 0 0 -0.64077 -0.17934 -0.7465 0.010518
-0.019427 0.10096 1.0106 7.7444e-39 367.67 329.33 0 0 0 -0.62241 -0.18274 -0.76106 0.010395
-0.017457 0.10057 1.0106 6.0849e-39 142 330 0 0 0 -0.60072 -0.17866 -0.77924 0.01032
0.035765 0.1012 1.011 7.2374e-39 312.5 330 0 0 0 0.50675 -0.1702 -0.84512 0.029256
0.036947 0.1012 1.011 7.0991e-39 313.5 330 0 0 0 0.50314 -0.14593 -0.8518 0.042308
0.053529 0.10183 1.0114 6.4537e-39 146 331 0 0 0 0.55732 -0.041494 -0.82926 0.14842
-0.021021 0.10302 1.0114 6.7303e-39 168 331 0 0 0 -0.63627 -0.16965 -0.75259 0.009099
-0.019821 0.10293 1.0106 7.1913e-39 169 331 0 0 0 -0.62357 -0.1637 -0.76444 0.0091555
0.038146 0.10302 1.0114 7.4678e-39 229 331 0 0 0 0.52395 -0.11366 -0.84413 0.041201
-0.022204 0.10479 1.0114 7.1913e-39 296 331.5 0 0 0 -0.64288 -0.15894 -0.74929 0.0081861
-0.021012 0.10475 1.011 7.3757e-39 297 331.5 0 0 0 -0.63035 -0.1523 -0.76122 0.007644
-0.019821 0.10471 1.0106 7.4218e-39 298 331.5 0 0 0 -0.61715 -0.14841 -0.77272 0.0076898
0.038722 0.10475 1.011 7.8366e-39 269 332 0 0 0 0.53406 -0.12012 -0.83687 0.032471
-0.022204 0.10716 1.0114 7.8366e-39 334.5 332.5 0 0 0 -0.63434 -0.14325 -0.75966 0.0065767
-0.021004 0.10648 1.0106 7.9288e-39 433 332 0 0 0 -0.61994 -0.13853 -0.77232 0.0061992
0.039329 0.10716 1.0114 7.4679e-39 315 333 0 0 0 0.54547 -0.11708 -0.82991 0.025546
-0.022204 0.10893 1.0114 6.8225e-39 163 334 0 0 0 -0.6272 -0.13138 -0.7677 0.005458
0.039297 0.10885 1.0106 7.3757e-39 240 334 0 0 0 0.54376 -0.11631 -0.83114 0.023144
-0.022204 0.11071 1.0114 7.6061e-39 312.5 334.5 0 0 0 -0.62284 -0.1267 -0.77202 0.0051915
-0.021004 0.11121 1.0106 6.9147e-39 228 335 0 0 0 -0.60483 -0.12318 -0.78677 0.004559
0.040496 0.11067 1.011 7.6983e-39 285.5 335 0 0 0 0.55367 -0.11389 -0.82491 0.019397
-0.021004 0.11298 1.0106 7.6983e-39 279 336 0 0 0 -0.60012 -0.11906 -0.791 0.0045718
0.040496 0.11303 1.011 7.3757e-39 202 336.5 0 0 0 0.5574 -0.10994 -0.82293 0.015163
-0.021021 0.11485 1.0114 8.1132e-39 226 337 0 0 0 -0.59873 -0.11462 -0.7927 0.0045548
0.040496 0.11539 1.011 8.3898e-39 313 337.5 0 0 0 0.56248 -0.11114 -0.81931 0.01248
-0.021021 0.11662 1.0114 7.7905e-39 201.5 338 0 0 0 -0.59576 -0.11718 -0.79457 0.0047916
0.04048 0.11712 1.0106 6.9147e-39 142 339 0 0 0 0.57385 -0.12687 -0.80908 0.0068603
-0.021012 0.11895 1.011 7.4679e-39 318 339 0 0 0 -0.59075 -0.11851 -0.7981 0.0047412
-0.022204 0.12136 1.0114 7.9288e-39 228 340.5 0 0 0 -0.59694 -0.12531 -0.79244 0.0045204
-0.021004 0.12126 1.0106 7.6522e-39 229 340.5 0 0 0 -0.58156 -0.11761 -0.80496 0.0046064
0.04048 0.12067 1.0106 8.021e-39 432 340 0 0 0 0.58359 -0.1418 -0.79957 0.0047681
-0.022204 0.12313 1.0114 7.2835e-39 421 341 0 0 0 -0.58967 -0.12559 -0.79782 0.0044187
-0.021004 0.12303 1.0106 7.3757e-39 422 341 0 0 0 -0.57436 -0.11928 -0.80987 0.0048983
0.041696 0.12313 1.0114 6.8225e-39 211 342 0 0 0 0.58979 -0.14436 -0.79455 0.0044859
-0.022587 0.12504 1.0109 7.6523e-39 196.67 342.67 0 0 0 -0.58238 -0.12629 -0.80305 0.0046388
0.041662 0.12481 1.0106 8.021e-39 338.5 342.5 0 0 0 0.58377 -0.14555 -0.79876 0.0046576
0.042861 0.12486 1.011 7.7444e-39 339.5 342.5 0 0 0 0.59071 -0.14823 -0.79315 0.0043089
-0.024571 0.12727 1.0114 7.8366e-39 318 343.5 0 0 0 -0.59384 -0.13153 -0.79376 0.0046286
-0.023369 0.12658 1.0106 7.7444e-39 407 343 0 0 0 -0.57792 -0.12553 -0.80638 0.0044611
0.042844 0.12658 1.0106 7.1913e-39 168 344 0 0 0 0.58589 -0.14699 -0.79695 0.0045769
0.044063 0.12787 1.0114 7.56e-39 404 344 0 0 0 0.59554 -0.14458 -0.79021 0.004327
-0.024551 0.12895 1.0106 8.1132e-39 146 345 0 0 0 -0.57934 -0.1274 -0.80507 0.0045965
0.044063 0.12905 1.0114 7.2835e-39 223 345 0 0 0 0.59552 -0.14082 -0.7909 0.0046593
-0.025153 0.13077 1.011 7.8136e-39 279.5 345.5 0 0 0 -0.5883 -0.12494 -0.79893 0.0045458
0.044027 0.13072 1.0106 7.053e-39 194.5 346 0 0 0 0.59115 -0.13579 -0.79505 0.0050013
-0.025153 0.13313 1.011 7.2374e-39 310.5 346.5 0 0 0 -0.58634 -0.11202 -0.80228 0.0052143
-0.026938 0.13497 1.0114 8.021e-39 459 347 0 0 0 -0.60215 -0.1004 -0.79205 0.0054095
-0.025754 0.13497 1.0114 7.8366e-39 460 347 0 0 0 -0.59044 -0.096754 -0.80126 0.0052074
-0.026938 0.13674 1.0114 7.2374e-39 207 348.5 0 0 0 -0.59983 -0.083921 -0.79571 0.0054027
-0.025733 0.13663 1.0106 6.9608e-39 208 348.5 0 0 0 -0.58417 -0.081205 -0.80756 0.0052252
0.045246 0.13674 1.0114 7.3296e-39 345 348.5 0 0 0 0.61163 -0.078778 -0.78721 0.0066818
0.046429 0.13674 1.0114 7.6983e-39 346 348.5 0 0 0 0.62274 -0.078372 -0.77849 0.0065622
0.045209 0.13899 1.0106 6.2693e-39 287.5 350 0 0 0 0.61307 -0.050725 -0.7884 0.0073838
0.046429 0.13911 1.0114 6.3615e-39 288.5 350 0 0 0 0.62871 -0.041911 -0.77651 0.0074392
-0.025733 0.14136 1.0106 7.3296e-39 271 351 0 0 0 -0.58101 -0.033337 -0.81321 0.0048242
0.04641 0.14141 1.011 7.2835e-39 199.5 351.5 0 0 0 0.63592 -0.0093149 -0.7717 0.0073729
-0.026938 0.14266 1.0114 7.3296e-39 294 351.5 0 0 0 -0.59366 -0.022182 -0.80441 0.0046999
-0.025733 0.14313 1.0106 7.8366e-39 200 352 0 0 0 -0.57741 -0.011161 -0.81638 0.0044713
0.047002 0.14319 1.011 7.6983e-39 401.5 352 0 0 0 0.64187 0.0096555 -0.76675 0.0071586
-0.026938 0.14502 1.0114 7.1451e-39 266 353 0 0 0 -0.59053 0.0032966 -0.80701 0.0045003
-0.025733 0.14491 1.0106 6.9608e-39 267.5 353 0 0 0 -0.57172 0.0088959 -0.8204 0.0043449
0.047613 0.14502 1.0114 7.0069e-39 194.5 353.5 0 0 0 0.64801 0.031999 -0.76096 0.0069154
-0.026938 0.14739 1.0114 6.9608e-39 169.5 354.5 0 0 0 -0.58206 0.033783 -0.81244 0.0044772
-0.025733 0.14727 1.0106 6.7764e-39 170.5 354.5 0 0 0 -0.565 0.036036 -0.8243 0.0042117
0.047613 0.1468 1.0114 8.021e-39 386 354 0 0 0 0.64923 0.050434 -0.75892 0.006727
-0.026938 0.14917 1.0114 6.4537e-39 256 355 0 0 0 -0.57147 0.053123 -0.8189 0.0047666
-0.025733 0.14905 1.0106 6.7303e-39 257 355 0 0 0 -0.56217 0.05716 -0.82505 0.0041803
-0.026938 0.15035 1.0114 6.9147e-39 176 356 0 0 0 -0.56699 0.067451 -0.82096 0.0048831
-0.025743 0.15088 1.011 7.4679e-39 283.5 356 0 0 0 -0.55793 0.079328 -0.82609 0.0043428
0.047613 0.15094 1.0114 7.3296e-39 209 356.5 0 0 0 0.65057 0.088682 -0.75425 0.0064425
-0.025743 0.15325 1.011 7.0991e-39 333 357 0 0 0 -0.55057 0.10893 -0.82765 0.0048647
0.046391 0.15378 1.0106 7.1913e-39 204 358 0 0 0 0.6312 0.1164 -0.76684 0.0071568
-0.025754 0.15508 1.0114 6.4537e-39 249 358 0 0 0 -0.54482 0.1328 -0.82797 0.0052673
0.045246 0.15508 1.0114 6.9147e-39 412 358 0 0 0 0.62017 0.13709 -0.7724 0.0073675
0.046429 0.15508 1.0114 6.9147e-39 413 358 0 0 0 0.63284 0.13109 -0.7631 0.0068236
-0.025743 0.15679 1.011 7.2835e-39 283.5 359 0 0 0 -0.53757 0.1561 -0.82864 0.0051573
0.044637 0.15679 1.011 7.4679e-39 228.5 359.5 0 0 0 0.60556 0.15874 -0.77981 0.0074693
-0.024959 0.15898 1.0111 6.6688e-39 237 360.33 0 0 0 -0.53355 0.18214 -0.82592 0.0048319
0.042844 0.15969 1.0106 8.2054e-39 368 361 0 0 0 0.56608 0.20593 -0.79821 0.0074096
0.044045 0.15916 1.011 7.6061e-39 262 361 0 0 0 0.58605 0.19264 -0.78704 0.007354
-0.024571 0.161 1.0114 7.4678e-39 151 362 0 0 0 -0.52972 0.20088 -0.82404 0.0047713
-0.023369 0.16087 1.0106 7.8366e-39 152 362 0 0 0 -0.52291 0.2016 -0.82821 0.0050189
0.041662 0.16087 1.0106 6.2693e-39 222 362 0 0 0 0.53734 0.22831 -0.81187 0.0068841
0.042879 0.161 1.0114 6.1771e-39 223 362 0 0 0 0.56531 0.21621 -0.79604 0.0072874
-0.022987 0.16293 1.0111 6.2386e-39 238 362.67 0 0 0 -0.51646 0.22564 -0.82605 0.0050675
0.041679 0.16271 1.011 7.1913e-39 283 363 0 0 0 0.5278 0.25145 -0.81129 0.0059597
-0.022204 0.16455 1.0114 6.7303e-39 189 364 0 0 0 -0.51107 0.2199 -0.83093 0.0075861
-0.021004 0.1656 1.0106 7.8366e-39 380 364 0 0 0 -0.49908 0.22892 -0.83577 0.0085763
0.041088 0.16508 1.011 6.7764e-39 233 364.5 0 0 0 0.50936 0.27965 -0.81385 0.0053445
-0.021004 0.16678 1.0106 7.2835e-39 259 365 0 0 0 -0.4958 0.23751 -0.83532 0.00912
-0.01923 0.16796 1.0106 7.3296e-39 213.5 366 0 0 0 -0.46862 0.25 -0.84729 0.010472
0.039297 0.16796 1.0106 6.2693e-39 268 366 0 0 0 0.47798 0.31525 -0.81985 0.005696
0.04048 0.16678 1.0106 7.56e-39 144 366 0 0 0 0.49425 0.30078 -0.81562 0.0054308
-0.021021 0.1681 1.0114 7.56e-39 212 366 0 0 0 -0.49489 0.24597 -0.83342 0.0098012
-0.019246 0.16928 1.0114 7.6522e-39 137.5 367 0 0 0 -0.46519 0.26633 -0.84419 0.011532
0.039329 0.16928 1.0114 7.6522e-39 212 367 0 0 0 0.47146 0.32603 -0.81941 0.0056653
0.040513 0.16869 1.0114 6.9607e-39 241 366.5 0 0 0 0.48709 0.31644 -0.81401 0.0054481
-0.019246 0.17047 1.0114 7.6983e-39 252.5 367 0 0 0 -0.45945 0.2804 -0.84278 0.012491
-0.017464 0.17099 1.011 7.4218e-39 219 367.5 0 0 0 -0.42847 0.29574 -0.85379 0.013246
0.036932 0.17151 1.0106 6.9147e-39 232 368 0 0 0 0.42786 0.35335 -0.83191 0.006024
0.038722 0.17099 1.011 7.0069e-39 308.5 367.5 0 0 0 0.45301 0.33858 -0.82471 0.0057847
-0.016274 0.17269 1.0106 6.0849e-39 272 368 0 0 0 -0.39863 0.31977 -0.85956 0.014944
0.03575 0.17269 1.0106 7.1913e-39 143 369 0 0 0 0.40241 0.37462 -0.8353 0.006657
-0.016288 0.17461 1.0114 6.2233e-39 237.5 369 0 0 0 -0.39537 0.33802 -0.85406 0.016607
-0.015092 0.17506 1.0106 4.9786e-39 282 369 0 0 0 -0.36946 0.35096 -0.86042 0.017483
0.033385 0.17506 1.0106 7.0069e-39 140 370 0 0 0 0.35496 0.41332 -0.83855 0.0078417
0.035375 0.17476 1.0111 6.761e-39 174 369.67 0 0 0 0.39006 0.39277 -0.83282 0.0072428
-0.016288 0.17638 1.0114 7.56e-39 187 370 0 0 0 -0.38736 0.3609 -0.84835 0.018927
-0.015098 0.17691 1.011 6.2693e-39 229.5 370 0 0 0 -0.36209 0.36958 -0.85575 0.019427
-0.013321 0.17687 1.0108 6.131e-39 231.5 370 0 0 0 -0.32493 0.39161 -0.86085 0.020313
-0.011545 0.17742 1.0106 4.8864e-39 274 370 0 0 0 -0.28333 0.41106 -0.86646 0.019717
0.032615 0.17673 1.0111 7.4986e-39 282.33 370 0 0 0 0.33511 0.4338 -0.83637 0.0083629
0.034596 0.17638 1.0114 7.1913e-39 232 370 0 0 0 0.36659 0.41443 -0.83298 0.0081859
-0.013132 0.17954 1.0114 6.7918e-39 211.67 371 0 0 0 -0.30072 0.43255 -0.84999 0.023902
-0.010956 0.17923 1.0108 6.6842e-39 199.5 371 0 0 0 -0.25989 0.44165 -0.85872 0.020724
-0.0091839 0.17926 1.011 6.4076e-39 201 371 0 0 0 -0.23685 0.45618 -0.85779 0.018649
-0.0074065 0.17979 1.0106 5.7622e-39 244.5 371 0 0 0 -0.20111 0.46905 -0.85997 0.017002
0.025109 0.17979 1.0106 5.163e-39 274 371 0 0 0 0.21508 0.50086 -0.83838 0.0070631
0.026882 0.17979 1.0106 5.3473e-39 275.5 371 0 0 0 0.24493 0.48989 -0.83667 0.0084889
0.029259 0.17926 1.011 6.4767e-39 239.5 371 0 0 0 0.28031 0.47356 -0.83496 0.008566
0.031034 0.17926 1.011 6.3615e-39 241 371 0 0 0 0.30505 0.46269 -0.83238 0.0084541
-0.01333 0.18112 1.0114 7.8366e-39 384.5 371 0 0 0 -0.29376 0.44854 -0.84411 0.025464
-0.010962 0.18112 1.0114 8.2054e-39 386.5 371 0 0 0 -0.24791 0.47048 -0.84687 0.021692
-0.0091876 0.18112 1.0114 7.7444e-39 388 371 0 0 0 -0.22755 0.47594 -0.84953 0.019189
-0.0074065 0.18097 1.0106 7.2374e-39 389.5 371 0 0 0 -0.19397 0.47898 -0.85613 0.017171
-0.0050418 0.18097 1.0106 7.6061e-39 394.5 371 0 0 0 -0.15937 0.49077 -0.85659 0.015031
0.01565 0.18097 1.0106 6.6381e-39 446 371 0 0 0 0.070847 0.54903 -0.83279 0.0060765
0.016832 0.18097 1.0106 7.0991e-39 449 371 0 0 0 0.086635 0.54407 -0.83455 0.0060335
0.021562 0.18097 1.0106 6.9147e-39 141 372 0 0 0 0.15886 0.52244 -0.83775 0.0064707
0.023344 0.18104 1.011 6.8225e-39 142.5 372 0 0 0 0.1865 0.51488 -0.83673 0.0070554
0.025129 0.18112 1.0114 7.0069e-39 144 372 0 0 0 0.21415 0.5092 -0.83358 0.0072438
0.026905 0.18112 1.0114 7.3757e-39 145.5 372 0 0 0 0.24072 0.50286 -0.83017 0.0088268
-0.022204 0.18348 1.0114 6.5459e-39 251 372 0 0 0 -0.46407 0.35309 -0.81238 0.03017
-0.021021 0.18348 1.0114 6.4537e-39 252 372 0 0 0 -0.44801 0.35186 -0.82188 0.030134
-0.019821 0.18333 1.0106 6.8225e-39 253 372 0 0 0 -0.40468 0.36494 -0.83848 0.029412
-0.015104 0.18348 1.0114 8.021e-39 257 372 0 0 0 -0.31187 0.44518 -0.83937 0.029697
-0.013327 0.18285 1.0112 7.3526e-39 222 372 0 0 0 -0.27713 0.47649 -0.83436 0.026555
-0.010962 0.1823 1.0114 7.56e-39 187.5 372 0 0 0 -0.24242 0.47865 -0.84387 0.021624
-0.0085959 0.1823 1.0114 7.4218e-39 191 372 0 0 0 -0.20669 0.48665 -0.84879 0.019301
-0.0068209 0.1823 1.0114 7.1913e-39 194 372 0 0 0 -0.17397 0.50358 -0.84625 0.016719
-0.0050436 0.18223 1.011 7.0991e-39 195.5 372 0 0 0 -0.15406 0.50623 -0.84853 0.015182
-0.0026778 0.18282 1.011 6.8685e-39 232.5 372 0 0 0 -0.11109 0.52417 -0.84433 0.013531
-0.00090419 0.18348 1.0114 5.6239e-39 269 372 0 0 0 -0.097654 0.54536 -0.83249 0.010887
0.00087082 0.18348 1.0114 5.6239e-39 270.5 372 0 0 0 -0.082355 0.55163 -0.83001 0.0084973
0.0034337 0.18304 1.0111 6.1464e-39 249.67 372 0 0 0 -0.055846 0.56165 -0.82548 0.0074971
0.0050105 0.18282 1.011 6.3154e-39 239.5 372 0 0 0 -0.03918 0.56796 -0.82212 0.0070789
0.0091507 0.1834 1.011 5.6239e-39 277.5 372 0 0 0 0.00073726 0.5773 -0.81653 0.0059439
0.010929 0.18348 1.0114 5.3473e-39 279 372 0 0 0 0.015026 0.58034 -0.81424 0.0058067
0.012504 0.18304 1.0111 5.501e-39 257.33 372 0 0 0 0.031504 0.57141 -0.82006 0.0055874
0.015065 0.18223 1.011 6.131e-39 213.5 372 0 0 0 0.064374 0.56062 -0.82557 0.0060213
0.016846 0.1823 1.0114 6.5459e-39 215 372 0 0 0 0.082768 0.55954 -0.82466 0.0060557
0.018414 0.18259 1.0109 6.2386e-39 239.33 372 0 0 0 0.1105 0.55097 -0.82717 0.0060843
0.020987 0.1823 1.0114 7.3296e-39 218.5 372 0 0 0 0.14741 0.53745 -0.83031 0.006434
-0.018639 0.18452 1.0106 7.8366e-39 366 372 0 0 0 -0.37792 0.38766 -0.84077 0.031813
-0.015092 0.18511 1.0106 7.0529e-39 408 372 0 0 0 -0.29518 0.47035 -0.83165 0.031897
0.0069828 0.18501 1.0111 7.7137e-39 306.33 372.33 0 0 0 -0.015366 0.59029 -0.80704 0.0060637
0.0085625 0.18467 1.0114 7.2835e-39 389 372 0 0 0 -0.0021465 0.59309 -0.80514 0.0056911
0.0073792 0.19058 1.0114 7.1913e-39 238 373 0 0 0 -0.0064999 0.62908 -0.77731 0.0062554
-0.016914 0.089 1.0135 6.3615e-39 191.5 325 0 0 0 -0.62562 -0.41137 -0.66285 0.022066
-0.0187 0.090815 1.0139 7.4218e-39 208 325.5 0 0 0 -0.64521 -0.38769 -0.65833 0.021067
-0.0171 0.090519 1.0128 8.3284e-39 308 325.33 0 0 0 -0.62909 -0.3698 -0.68374 0.020028
-0.015123 0.090704 1.0127 8.2515e-39 275 325.5 0 0 0 -0.60319 -0.32932 -0.72644 0.014792
0.037054 0.091409 1.0139 7.2835e-39 197 326 0 0 0 0.49171 -0.35773 -0.79388 0.062345
0.03824 0.091409 1.0139 7.4678e-39 198 326 0 0 0 0.48226 -0.36315 -0.79721 0.084508
-0.019096 0.093386 1.0139 7.7444e-39 349 326 0 0 0 -0.65509 -0.34066 -0.6744 0.020379
-0.016901 0.093073 1.0127 7.8597e-39 320 326 0 0 0 -0.61766 -0.3013 -0.72644 0.015186
-0.015123 0.093074 1.0127 7.3757e-39 321.5 326 0 0 0 -0.5992 -0.29845 -0.74289 0.014586
0.052475 0.093781 1.0139 7.1913e-39 174 327 0 0 0 0.63559 -0.44509 -0.63081 0.24657
-0.019294 0.094967 1.0139 6.4537e-39 194.5 327 0 0 0 -0.6578 -0.30817 -0.68727 0.019006
-0.017095 0.095233 1.0126 7.4986e-39 261 327 0 0 0 -0.623 -0.27198 -0.73342 0.015133
-0.015117 0.094812 1.0123 7.4678e-39 198 327 0 0 0 -0.59819 -0.27188 -0.75382 0.014483
0.035868 0.094967 1.0139 7.1913e-39 223 327 0 0 0 0.50959 -0.26944 -0.81714 0.039692
0.037054 0.094967 1.0139 7.0991e-39 224 327 0 0 0 0.49563 -0.26569 -0.8269 0.066616
0.05241 0.095443 1.0127 6.8225e-39 200 327.5 0 0 0 0.62302 -0.29272 -0.72537 0.22463
-0.022259 0.09734 1.0139 6.8225e-39 180 328 0 0 0 -0.6876 -0.2719 -0.67326 0.018555
-0.021064 0.096707 1.0135 7.9288e-39 284 327.5 0 0 0 -0.6698 -0.2753 -0.68962 0.017256
-0.01927 0.096628 1.0127 7.6522e-39 285.5 327.5 0 0 0 -0.64707 -0.24944 -0.72047 0.014352
0.035853 0.096707 1.0135 7.053e-39 328.5 327.5 0 0 0 0.51268 -0.23056 -0.82704 0.035279
0.037023 0.096667 1.0131 7.2374e-39 329.5 327.5 0 0 0 0.50455 -0.22142 -0.8345 0.058691
